-2.649394886212077527e-01,-2.649394886212077527e-01,-2.649394886212077527e-01,-2.649394886212077527e-01,-2.649394886212077527e-01,-2.649394886212077527e-01,-2.649394886212077527e-01,-2.649394886212077527e-01,-2.649394886212077527e-01,-2.649394886212077527e-01,-2.649394886212077527e-01,-2.649394886212077527e-01,-2.649394886212077527e-01,-2.649394886212077527e-01,-2.649394886212077527e-01,-2.649394886212077527e-01,-2.649394886212077527e-01,-2.649394886212077527e-01,-2.649394886212077527e-01,-2.649394886212077527e-01,-2.649394886212077527e-01,-2.649394886212077527e-01,-2.649394886212077527e-01,-2.649394886212077527e-01,-2.649394886212077527e-01,-2.649394886212077527e-01,-2.649394886212077527e-01,-2.649394886212077527e-01,-2.649394886212077527e-01,-2.649394886212077527e-01,-2.649394886212077527e-01,-2.649394886212077527e-01,-2.649394886212077527e-01,-2.649394886212077527e-01,-2.649394886212077527e-01,-2.649394886212077527e-01,-2.649394886212077527e-01,-2.649394886212077527e-01,-2.649394886212077527e-01,-2.649394886212077527e-01,-2.649394886212077527e-01,-2.649394886212077527e-01,-2.649394886212077527e-01,-2.649394886212077527e-01,-2.649394886212077527e-01,-2.649394886212077527e-01,-2.649394886212077527e-01
-2.649394886212077527e-01,-2.649394886212077527e-01,-2.649394886212077527e-01,-2.649394886212077527e-01,-2.649394886212077527e-01,-2.649394886212077527e-01,-2.649394886212077527e-01,-2.649394886212077527e-01,-2.649394886212077527e-01,-2.649394886212077527e-01,-2.649394886212077527e-01,-2.649394886212077527e-01,-2.649394886212077527e-01,-2.649394886212077527e-01,-2.649394886212077527e-01,-2.649394886212077527e-01,-2.649394886212077527e-01,-2.649394886212077527e-01,-2.649394886212077527e-01,-2.649394886212077527e-01,-2.649394886212077527e-01,-2.649394886212077527e-01,-2.649394886212077527e-01,-2.649394886212077527e-01,-2.649394886212077527e-01,-2.649394886212077527e-01,-2.649394886212077527e-01,-2.649394886212077527e-01,-2.649394886212077527e-01,-2.649394886212077527e-01,-2.649394886212077527e-01,-2.649394886212077527e-01,-2.649394886212077527e-01,-2.649394886212077527e-01,-2.649394886212077527e-01,-2.649394886212077527e-01,-2.649394886212077527e-01,-2.649394886212077527e-01,-2.649394886212077527e-01,-2.649394886212077527e-01,-2.649394886212077527e-01,-2.649394886212077527e-01,-2.649394886212077527e-01,-2.649394886212077527e-01,-2.649394886212077527e-01,-2.649394886212077527e-01,-2.649394886212077527e-01
-2.649394886212077527e-01,-2.649394886212077527e-01,-2.649394886212077527e-01,-2.649394886212077527e-01,-2.649394886212077527e-01,-2.649394886212077527e-01,-2.649394886212077527e-01,-2.649394886212077527e-01,-2.649394886212077527e-01,-2.649394886212077527e-01,-2.649394886212077527e-01,-2.649394886212077527e-01,-2.649394886212077527e-01,-2.649394886212077527e-01,-2.649394886212077527e-01,-2.649394886212077527e-01,-2.649394886212077527e-01,-2.649394886212077527e-01,-2.649394886212077527e-01,-2.649394886212077527e-01,-2.649394886212077527e-01,-2.649394886212077527e-01,-2.649394886212077527e-01,-2.649394886212077527e-01,-2.649394886212077527e-01,-2.649394886212077527e-01,-2.649394886212077527e-01,-2.649394886212077527e-01,-2.649394886212077527e-01,-2.649394886212077527e-01,-2.649394886212077527e-01,-2.649394886212077527e-01,-2.649394886212077527e-01,-2.649394886212077527e-01,-2.649394886212077527e-01,-2.649394886212077527e-01,-2.649394886212077527e-01,-2.649394886212077527e-01,-2.649394886212077527e-01,-2.649394886212077527e-01,-2.649394886212077527e-01,-2.649394886212077527e-01,-2.649394886212077527e-01,-2.649394886212077527e-01,-2.649394886212077527e-01,-2.649394886212077527e-01,-2.649394886212077527e-01
-2.649394886212077527e-01,-2.649394886212077527e-01,-2.649394886212077527e-01,-2.649394886212077527e-01,-2.649394886212077527e-01,-2.649394886212077527e-01,-2.649394886212077527e-01,-2.649394886212077527e-01,-2.649394886212077527e-01,-2.649394886212077527e-01,-2.649394886212077527e-01,-2.649394886212077527e-01,-2.649394886212077527e-01,-2.649394886212077527e-01,-2.649394886212077527e-01,-2.649394886212077527e-01,-2.649394886212077527e-01,-2.649394886212077527e-01,-2.649394886212077527e-01,-2.649394886212077527e-01,-2.649394886212077527e-01,-2.649394886212077527e-01,-2.649394886212077527e-01,-2.649394886212077527e-01,-2.649394886212077527e-01,-2.649394886212077527e-01,-2.649394886212077527e-01,-2.649394886212077527e-01,-2.649394886212077527e-01,-2.649394886212077527e-01,-2.649394886212077527e-01,-2.649394886212077527e-01,-2.649394886212077527e-01,-2.649394886212077527e-01,-2.649394886212077527e-01,-2.649394886212077527e-01,-2.649394886212077527e-01,-2.649394886212077527e-01,-2.649394886212077527e-01,-2.649394886212077527e-01,-2.649394886212077527e-01,-2.649394886212077527e-01,-2.649394886212077527e-01,-2.649394886212077527e-01,-2.649394886212077527e-01,-2.649394886212077527e-01,-2.649394886212077527e-01
-2.649394886212077527e-01,-2.649394886212077527e-01,-2.649394886212077527e-01,-2.649394886212077527e-01,-2.649394886212077527e-01,-2.649394886212077527e-01,-2.649394886212077527e-01,-2.649394886212077527e-01,-2.649394886212077527e-01,-2.649394886212077527e-01,-2.649394886212077527e-01,-2.649394886212077527e-01,-2.649394886212077527e-01,-2.649394886212077527e-01,-2.649394886212077527e-01,-2.649394886212077527e-01,-2.649394886212077527e-01,-2.649394886212077527e-01,-2.649394886212077527e-01,-2.649394886212077527e-01,-2.649394886212077527e-01,-2.649394886212077527e-01,-2.649394886212077527e-01,-2.649394886212077527e-01,-2.649394886212077527e-01,-2.649394886212077527e-01,-2.649394886212077527e-01,-2.649394886212077527e-01,-2.649394886212077527e-01,-2.649394886212077527e-01,-2.649394886212077527e-01,-2.649394886212077527e-01,-2.649394886212077527e-01,-2.649394886212077527e-01,-2.649394886212077527e-01,-2.649394886212077527e-01,-2.649394886212077527e-01,-2.649394886212077527e-01,-2.649394886212077527e-01,-2.649394886212077527e-01,-2.649394886212077527e-01,-2.625739574728040981e-01,-2.598141711329998715e-01,-2.612433462018270425e-01,-2.649394886212077527e-01,-2.649394886212077527e-01,-2.649394886212077527e-01
-2.649394886212077527e-01,-2.649394886212077527e-01,-2.649394886212077527e-01,-2.649394886212077527e-01,-2.649394886212077527e-01,-2.649394886212077527e-01,-2.649394886212077527e-01,-2.649394886212077527e-01,-2.649394886212077527e-01,-2.649394886212077527e-01,-2.649394886212077527e-01,-2.649394886212077527e-01,-2.649394886212077527e-01,-2.649394886212077527e-01,-2.649394886212077527e-01,-2.649394886212077527e-01,-2.649394886212077527e-01,-2.649394886212077527e-01,-2.649394886212077527e-01,-2.649394886212077527e-01,-2.649394886212077527e-01,-2.649394886212077527e-01,-2.649394886212077527e-01,-2.649394886212077527e-01,-2.649394886212077527e-01,-2.649394886212077527e-01,-2.649394886212077527e-01,-2.649394886212077527e-01,-2.649394886212077527e-01,-2.649394886212077527e-01,-2.649394886212077527e-01,-2.649394886212077527e-01,-2.649394886212077527e-01,-2.649394886212077527e-01,-2.649394886212077527e-01,-2.649394886212077527e-01,-2.633624678556053533e-01,-2.606026815158010712e-01,-2.582371503673974167e-01,-2.554773640275931901e-01,-2.527175776877889635e-01,-2.503520465393853089e-01,-2.475922601995810546e-01,-2.511159159727239798e-01,-2.649394886212077527e-01,-2.649394886212077527e-01,-2.649394886212077527e-01
-2.649394886212077527e-01,-2.649394886212077527e-01,-2.649394886212077527e-01,-2.649394886212077527e-01,-2.649394886212077527e-01,-2.649394886212077527e-01,-2.649394886212077527e-01,-2.649394886212077527e-01,-2.649394886212077527e-01,-2.649394886212077527e-01,-2.649394886212077527e-01,-2.649394886212077527e-01,-2.649394886212077527e-01,-2.649394886212077527e-01,-2.649394886212077527e-01,-2.649394886212077527e-01,-2.649394886212077527e-01,-2.649394886212077527e-01,-2.649394886212077527e-01,-2.649394886212077527e-01,-2.649394886212077527e-01,-2.649394886212077527e-01,-2.649394886212077527e-01,-2.649394886212077527e-01,-2.649394886212077527e-01,-2.649394886212077527e-01,-2.649394886212077527e-01,-2.649394886212077527e-01,-2.649394886212077527e-01,-2.649394886212077527e-01,-2.649394886212077527e-01,-2.641509782384065530e-01,-2.617854470900028985e-01,-2.590256607501986719e-01,-2.562658744103943897e-01,-2.535060880705901631e-01,-2.511405569221865086e-01,-2.483807705823822820e-01,-2.456209842425780276e-01,-2.432554530941743731e-01,-2.404956667543701465e-01,-2.377358804145658921e-01,-2.353703492661622376e-01,-2.366516786382142357e-01,-2.649394886212077527e-01,-2.649394886212077527e-01,-2.649394886212077527e-01
-2.649394886212077527e-01,-2.649394886212077527e-01,-2.649394886212077527e-01,-2.649394886212077527e-01,-2.649394886212077527e-01,-2.649394886212077527e-01,-2.649394886212077527e-01,-2.649394886212077527e-01,-2.649394886212077527e-01,-2.649394886212077527e-01,-2.649394886212077527e-01,-2.649394886212077527e-01,-2.649394886212077527e-01,-2.649394886212077527e-01,-2.649394886212077527e-01,-2.649394886212077527e-01,-2.649394886212077527e-01,-2.649394886212077527e-01,-2.649394886212077527e-01,-2.649394886212077527e-01,-2.649394886212077527e-01,-2.649394886212077527e-01,-2.649394886212077527e-01,-2.649394886212077527e-01,-2.649394886212077527e-01,-2.649394886212077527e-01,-2.649394886212077527e-01,-2.625739574728040981e-01,-2.598141711329998715e-01,-2.570543847931956449e-01,-2.546888536447919904e-01,-2.519290673049877083e-01,-2.491692809651834817e-01,-2.468037498167798549e-01,-2.440439634769756005e-01,-2.412841771371713462e-01,-2.385243907973670918e-01,-2.361588596489634650e-01,-2.333990733091592107e-01,-2.306392869693549841e-01,-2.282737558209513296e-01,-2.255139694811471029e-01,-2.227541831413428486e-01,-2.203886519929392218e-01,-2.590256607501986719e-01,-2.649394886212077527e-01,-2.649394886212077527e-01
-2.649394886212077527e-01,-2.649394886212077527e-01,-2.649394886212077527e-01,-2.649394886212077527e-01,-2.649394886212077527e-01,-2.649394886212077527e-01,-2.649394886212077527e-01,-2.649394886212077527e-01,-2.649394886212077527e-01,-2.649394886212077527e-01,-2.649394886212077527e-01,-2.649394886212077527e-01,-2.649394886212077527e-01,-2.649394886212077527e-01,-2.649394886212077527e-01,-2.649394886212077527e-01,-2.649394886212077527e-01,-2.649394886212077527e-01,-2.649394886212077527e-01,-2.649394886212077527e-01,-2.649394886212077527e-01,-2.649394886212077527e-01,-2.633624678556053533e-01,-2.606026815158010712e-01,-2.582371503673974167e-01,-2.554773640275931901e-01,-2.527175776877889635e-01,-2.503520465393853089e-01,-2.475922601995810546e-01,-2.448324738597768002e-01,-2.420726875199725736e-01,-2.397071563715689191e-01,-2.369473700317646925e-01,-2.341875836919604381e-01,-2.318220525435568113e-01,-2.290622662037525570e-01,-2.263024798639483026e-01,-2.235426935241440483e-01,-2.211771623757404215e-01,-2.184173760359361671e-01,-2.156575896961319128e-01,-2.132920585477282582e-01,-2.105322722079240316e-01,-2.077724858681197773e-01,-2.463355717769916131e-01,-2.649394886212077527e-01,-2.649394886212077527e-01
-2.649394886212077527e-01,-2.649394886212077527e-01,-2.649394886212077527e-01,-2.649394886212077527e-01,-2.649394886212077527e-01,-2.649394886212077527e-01,-2.649394886212077527e-01,-2.649394886212077527e-01,-2.649394886212077527e-01,-2.649394886212077527e-01,-2.649394886212077527e-01,-2.649394886212077527e-01,-2.649394886212077527e-01,-2.649394886212077527e-01,-2.649394886212077527e-01,-2.649394886212077527e-01,-2.649394886212077527e-01,-2.641509782384065530e-01,-2.617854470900028985e-01,-2.590256607501986719e-01,-2.562658744103943897e-01,-2.535060880705901631e-01,-2.511405569221865086e-01,-2.483807705823822820e-01,-2.456209842425780276e-01,-2.432554530941744009e-01,-2.404956667543701465e-01,-2.377358804145658921e-01,-2.353703492661622654e-01,-2.326105629263580110e-01,-2.298507765865537844e-01,-2.270909902467495023e-01,-2.247254590983458755e-01,-2.219656727585416212e-01,-2.192058864187373945e-01,-2.168403552703337400e-01,-2.140805689305294857e-01,-2.113207825907252313e-01,-2.085609962509210047e-01,-2.061954651025173502e-01,-2.034356787627131236e-01,-2.006758924229088692e-01,-1.983103612745052147e-01,-1.955505749347009603e-01,-2.266104917322300238e-01,-2.649394886212077527e-01,-2.649394886212077527e-01
-2.649394886212077527e-01,-2.649394886212077527e-01,-2.649394886212077527e-01,-2.649394886212077527e-01,-2.649394886212077527e-01,-2.649394886212077527e-01,-2.649394886212077527e-01,-2.649394886212077527e-01,-2.649394886212077527e-01,-2.649394886212077527e-01,-2.649394886212077527e-01,-2.649394886212077527e-01,-2.649394886212077527e-01,-2.625739574728040981e-01,-2.598141711329998715e-01,-2.570543847931956449e-01,-2.546888536447919904e-01,-2.519290673049877083e-01,-2.491692809651834817e-01,-2.468037498167798549e-01,-2.440439634769756005e-01,-2.412841771371713462e-01,-2.385243907973670918e-01,-2.361588596489634650e-01,-2.333990733091592107e-01,-2.306392869693549841e-01,-2.282737558209513296e-01,-2.255139694811471029e-01,-2.227541831413428486e-01,-2.203886519929391941e-01,-2.176288656531349675e-01,-2.148690793133307131e-01,-2.121092929735264587e-01,-2.097437618251228320e-01,-2.069839754853185498e-01,-2.042241891455143232e-01,-2.018586579971106687e-01,-1.990988716573064421e-01,-1.963390853175022155e-01,-1.939735541690985610e-01,-1.912137678292943344e-01,-1.884539814894900522e-01,-1.856941951496858256e-01,-1.833286640012821711e-01,-2.016615304014103827e-01,-2.649394886212077527e-01,-2.649394886212077527e-01
-2.649394886212077527e-01,-2.649394886212077527e-01,-2.649394886212077527e-01,-2.649394886212077527e-01,-2.649394886212077527e-01,-2.649394886212077527e-01,-2.649394886212077527e-01,-2.649394886212077527e-01,-2.633624678556053533e-01,-2.606026815158010712e-01,-2.582371503673974167e-01,-2.554773640275931901e-01,-2.527175776877889635e-01,-2.503520465393853089e-01,-2.475922601995810546e-01,-2.448324738597768002e-01,-2.420726875199725736e-01,-2.397071563715689191e-01,-2.369473700317646925e-01,-2.341875836919604381e-01,-2.318220525435567836e-01,-2.290622662037525292e-01,-2.263024798639483026e-01,-2.235426935241440483e-01,-2.211771623757404215e-01,-2.184173760359361671e-01,-2.156575896961319128e-01,-2.132920585477282860e-01,-2.105322722079240316e-01,-2.077724858681197773e-01,-2.054069547197161505e-01,-2.026471683799118961e-01,-1.998873820401076418e-01,-1.971275957003034152e-01,-1.947620645518997606e-01,-1.920022782120955340e-01,-1.892424918722912797e-01,-1.868769607238876529e-01,-1.841171743840833985e-01,-1.813573880442791442e-01,-1.785976017044749176e-01,-1.762320705560712630e-01,-1.734722842162670087e-01,-1.707124978764627543e-01,-1.743839993463809079e-01,-2.649394886212077527e-01,-2.649394886212077527e-01
-2.649394886212077527e-01,-2.649394886212077527e-01,-2.649394886212077527e-01,-2.641509782384065530e-01,-2.617854470900028985e-01,-2.590256607501986719e-01,-2.562658744103943897e-01,-2.535060880705901631e-01,-2.511405569221865086e-01,-2.483807705823822820e-01,-2.456209842425780276e-01,-2.432554530941744009e-01,-2.404956667543701465e-01,-2.377358804145658921e-01,-2.353703492661622376e-01,-2.326105629263580110e-01,-2.298507765865537567e-01,-2.270909902467495023e-01,-2.247254590983458755e-01,-2.219656727585416212e-01,-2.192058864187373945e-01,-2.168403552703337400e-01,-2.140805689305294857e-01,-2.113207825907252313e-01,-2.085609962509210047e-01,-2.061954651025173502e-01,-2.034356787627131236e-01,-2.006758924229088692e-01,-1.983103612745052424e-01,-1.955505749347009881e-01,-1.927907885948967337e-01,-1.904252574464930792e-01,-1.876654711066888526e-01,-1.849056847668845982e-01,-1.821458984270803438e-01,-1.797803672786767171e-01,-1.770205809388724627e-01,-1.742607945990682361e-01,-1.718952634506645816e-01,-1.691354771108603272e-01,-1.663756907710560728e-01,-1.636159044312518462e-01,-1.612503732828481917e-01,-1.584905869430439651e-01,-1.557308006032397107e-01,-2.440193225275130717e-01,-2.649394886212077527e-01
-2.598141711329998715e-01,-2.570543847931956449e-01,-2.546888536447919904e-01,-2.519290673049877083e-01,-2.491692809651834817e-01,-2.468037498167798549e-01,-2.440439634769756005e-01,-2.412841771371713462e-01,-2.385243907973670918e-01,-2.361588596489634650e-01,-2.333990733091592107e-01,-2.306392869693549841e-01,-2.282737558209513296e-01,-2.255139694811471029e-01,-2.227541831413428486e-01,-2.203886519929392218e-01,-2.176288656531349397e-01,-2.148690793133307131e-01,-2.121092929735264587e-01,-2.097437618251228320e-01,-2.069839754853185776e-01,-2.042241891455143232e-01,-2.018586579971106687e-01,-1.990988716573064421e-01,-1.963390853175021877e-01,-1.939735541690985610e-01,-1.912137678292943344e-01,-1.884539814894900522e-01,-1.856941951496858256e-01,-1.833286640012821711e-01,-1.805688776614779445e-01,-1.778090913216736624e-01,-2.031516383041714335e-01,-2.003918519643671792e-01,-1.976320656245629248e-01,-1.948722792847586704e-01,-1.925067481363550437e-01,-1.620388836656493914e-01,-1.592790973258451648e-01,-1.569135661774415103e-01,-1.541537798376372836e-01,-1.513939934978330293e-01,-1.490284623494294025e-01,-1.462686760096251204e-01,-1.435088896698208938e-01,-2.144871445966613499e-01,-2.649394886212077527e-01
-2.475922601995810546e-01,-2.448324738597768002e-01,-2.420726875199725736e-01,-2.397071563715689191e-01,-2.369473700317646925e-01,-2.341875836919604381e-01,-2.318220525435567836e-01,-2.290622662037525570e-01,-2.263024798639483026e-01,-2.239369487155446481e-01,-2.211771623757404215e-01,-2.184173760359361671e-01,-2.156575896961319128e-01,-2.132920585477282860e-01,-2.105322722079240316e-01,-2.077724858681197773e-01,-2.054069547197161505e-01,-2.026471683799118961e-01,-1.998873820401076418e-01,-1.971275957003034152e-01,-1.947620645518997606e-01,-1.920022782120955340e-01,-1.892424918722912797e-01,-1.868769607238876529e-01,-1.841171743840833708e-01,-1.813573880442791442e-01,-1.789918568958754896e-01,-1.762320705560712630e-01,-1.734722842162670087e-01,-1.707124978764627543e-01,-1.683469667280590998e-01,-1.655871803882548732e-01,-1.905354721793520167e-01,-1.881699410309483622e-01,-1.854101546911441356e-01,-1.826503683513398812e-01,-1.798905820115356269e-01,-1.498169727322306022e-01,-1.470571863924263478e-01,-1.442974000526220935e-01,-1.419318689042184667e-01,-1.391720825644142123e-01,-1.364122962246099580e-01,-1.340467650762063312e-01,-1.312869787364020768e-01,-1.839446877378456136e-01,-2.649394886212077527e-01
-2.353703492661622654e-01,-2.326105629263580110e-01,-2.298507765865537567e-01,-2.270909902467495023e-01,-2.247254590983458755e-01,-2.219656727585416212e-01,-2.192058864187373945e-01,-2.168403552703337400e-01,-2.140805689305294857e-01,-2.113207825907252313e-01,-2.085609962509210047e-01,-2.061954651025173502e-01,-2.034356787627131236e-01,-2.006758924229088414e-01,-1.983103612745052424e-01,-1.955505749347009881e-01,-1.927907885948967337e-01,-1.904252574464930792e-01,-1.876654711066888526e-01,-1.849056847668846260e-01,-1.821458984270803438e-01,-1.797803672786766893e-01,-1.770205809388724627e-01,-1.742607945990682361e-01,-1.718952634506645816e-01,-1.691354771108603272e-01,-1.663756907710560728e-01,-1.640101596226524461e-01,-1.612503732828481917e-01,-1.584905869430439651e-01,-1.557308006032396830e-01,-1.533652694548360562e-01,-1.783135612459331998e-01,-1.755537749061289454e-01,-1.731882437577253187e-01,-1.704284574179210643e-01,-1.676686710781168377e-01,-1.372008066074111854e-01,-1.348352754590075309e-01,-1.320754891192033043e-01,-1.293157027793990499e-01,-1.269501716309953954e-01,-1.241903852911911410e-01,-1.214305989513869144e-01,-1.190650678029832876e-01,-1.441741953053094216e-01,-2.649394886212077527e-01
-2.227541831413428486e-01,-2.203886519929391941e-01,-2.176288656531349397e-01,-2.148690793133307131e-01,-2.121092929735264587e-01,-2.097437618251228320e-01,-2.069839754853185776e-01,-2.042241891455143232e-01,-2.018586579971106687e-01,-1.990988716573064421e-01,-1.963390853175022155e-01,-1.939735541690985610e-01,-1.912137678292942788e-01,-1.884539814894900522e-01,-1.856941951496858256e-01,-1.833286640012821711e-01,-1.805688776614779445e-01,-1.778090913216736624e-01,-1.754435601732700356e-01,-1.726837738334657812e-01,-1.699239874936615546e-01,-1.671642011538573003e-01,-1.647986700054536735e-01,-1.620388836656493914e-01,-1.592790973258451648e-01,-1.569135661774415103e-01,-1.541537798376372836e-01,-1.513939934978330293e-01,-1.490284623494294025e-01,-1.462686760096251481e-01,-1.435088896698208938e-01,-1.407491033300166672e-01,-1.660916503125143828e-01,-1.633318639727101562e-01,-1.605720776329058741e-01,-1.582065464845022751e-01,-1.554467601446979930e-01,-1.249788956739923684e-01,-1.222191093341881418e-01,-1.198535781857845151e-01,-1.170937918459802607e-01,-1.143340055061760341e-01,-1.119684743577723796e-01,-1.092086880179681252e-01,-1.064489016781638708e-01,-1.040833705297602163e-01,-2.598264916077311359e-01
-2.105322722079240316e-01,-2.077724858681197773e-01,-2.054069547197161505e-01,-2.026471683799118961e-01,-1.998873820401076418e-01,-1.971275957003034152e-01,-1.947620645518997606e-01,-1.920022782120955340e-01,-1.892424918722912797e-01,-1.868769607238876529e-01,-1.841171743840833985e-01,-1.813573880442791442e-01,-1.789918568958754896e-01,-1.762320705560712630e-01,-1.734722842162670087e-01,-1.707124978764627543e-01,-1.683469667280591275e-01,-1.655871803882548732e-01,-1.628273940484506188e-01,-1.604618629000469920e-01,-1.577020765602427377e-01,-1.549422902204384833e-01,-1.521825038806342567e-01,-1.498169727322306022e-01,-1.470571863924263478e-01,-1.442974000526220935e-01,-1.419318689042184667e-01,-1.391720825644142123e-01,-1.364122962246099857e-01,-1.340467650762063312e-01,-1.312869787364020768e-01,-1.285271923965978502e-01,-1.534754841876949660e-01,-1.511099530392913115e-01,-1.483501666994870849e-01,-1.455903803596828583e-01,-1.432248492112792038e-01,-1.127569847405736070e-01,-1.099971984007693526e-01,-1.072374120609650983e-01,-1.048718809125614437e-01,-1.021120945727572171e-01,-9.935230823295293501e-02,-9.698677708454930824e-02,-9.422699074474505387e-02,-9.146720440494085502e-02,-2.209800347800401077e-01
-1.983103612745052424e-01,-1.955505749347009881e-01,-1.927907885948967337e-01,-1.904252574464930792e-01,-1.876654711066888526e-01,-1.849056847668845982e-01,-1.821458984270803438e-01,-1.797803672786767171e-01,-1.770205809388724627e-01,-1.742607945990682361e-01,-1.718952634506645816e-01,-1.691354771108603550e-01,-1.663756907710560728e-01,-1.640101596226524461e-01,-1.612503732828481917e-01,-1.584905869430439651e-01,-1.557308006032397107e-01,-1.533652694548360562e-01,-1.506054831150318296e-01,-1.478456967752275752e-01,-1.454801656268239207e-01,-1.427203792870196941e-01,-1.399605929472154120e-01,-1.372008066074111854e-01,-1.348352754590075586e-01,-1.320754891192033043e-01,-1.293157027793990499e-01,-1.269501716309954231e-01,-1.241903852911911688e-01,-1.214305989513869422e-01,-1.190650678029832876e-01,-1.163052814631790333e-01,-1.135454951233748067e-01,-1.107857087835705523e-01,-1.084201776351669255e-01,-1.056603912953626712e-01,-1.029006049555583890e-01,-1.005350738071547623e-01,-9.777528746735053566e-02,-9.501550112754628130e-02,-9.225571478774202694e-02,-8.989018363933840017e-02,-8.713039729953414581e-02,-8.437061095972989144e-02,-8.200507981132626467e-02,-7.924529347152201031e-02,-1.766016847980093063e-01
-1.856941951496858256e-01,-1.833286640012821711e-01,-1.805688776614779445e-01,-1.778090913216736624e-01,-1.754435601732700356e-01,-1.726837738334657812e-01,-1.699239874936615546e-01,-1.671642011538573003e-01,-1.647986700054536735e-01,-1.620388836656494191e-01,-1.592790973258451648e-01,-1.569135661774415103e-01,-1.541537798376372836e-01,-1.513939934978330293e-01,-1.490284623494293748e-01,-1.462686760096251481e-01,-1.435088896698208938e-01,-1.407491033300166117e-01,-1.383835721816130127e-01,-1.356237858418087583e-01,-1.328639995020045039e-01,-1.304984683536008772e-01,-1.277386820137966228e-01,-1.249788956739923684e-01,-1.222191093341881418e-01,-1.198535781857845151e-01,-1.170937918459802607e-01,-1.143340055061760063e-01,-1.119684743577723796e-01,-1.092086880179681252e-01,-1.064489016781638708e-01,-1.040833705297602441e-01,-1.013235841899559897e-01,-9.856379785015173534e-02,-9.580401151034750873e-02,-9.343848036194385420e-02,-9.067869402213959984e-02,-8.791890768233537323e-02,-8.555337653393171871e-02,-8.279359019412746434e-02,-8.003380385432320998e-02,-7.727401751451898337e-02,-7.490848636611530109e-02,-7.214870002631107448e-02,-6.938891368650684788e-02,-6.702338253810319335e-02,-1.269748125804579519e-01
-1.734722842162670087e-01,-1.707124978764627543e-01,-1.683469667280590998e-01,-1.655871803882548732e-01,-1.628273940484506188e-01,-1.604618629000469920e-01,-1.577020765602427377e-01,-1.549422902204384833e-01,-1.521825038806342290e-01,-1.498169727322306022e-01,-1.470571863924263756e-01,-1.442974000526220935e-01,-1.419318689042184667e-01,-1.391720825644142401e-01,-1.364122962246099580e-01,-1.340467650762063312e-01,-1.312869787364020768e-01,-1.285271923965978225e-01,-1.257674060567935959e-01,-1.234018749083899691e-01,-1.206420885685857147e-01,-1.178823022287814881e-01,-1.155167710803778613e-01,-1.127569847405736070e-01,-1.099971984007693249e-01,-1.072374120609650705e-01,-1.048718809125614715e-01,-1.021120945727572171e-01,-9.935230823295293501e-02,-9.698677708454928048e-02,-9.422699074474505387e-02,-9.146720440494082727e-02,-8.910167325653714498e-02,-8.634188691673294613e-02,-8.358210057692866402e-02,-8.082231423712440965e-02,-7.845678308872078288e-02,-7.569699674891652852e-02,-7.293721040911227416e-02,-7.057167926070864739e-02,-6.781189292090439302e-02,-6.505210658110016642e-02,-6.229232024129593981e-02,-5.992678909289228528e-02,-5.716700275308803092e-02,-5.440721641328377656e-02,-7.865391068442109668e-02
-1.612503732828481917e-01,-1.584905869430439651e-01,-1.557308006032397107e-01,-1.533652694548360840e-01,-1.506054831150318019e-01,-1.478456967752275752e-01,-1.454801656268239207e-01,-1.427203792870196664e-01,-1.399605929472154120e-01,-1.372008066074111854e-01,-1.348352754590075309e-01,-1.320754891192033043e-01,-1.293157027793990499e-01,-1.269501716309954231e-01,-1.241903852911911410e-01,-1.214305989513869144e-01,-1.190650678029832876e-01,-1.163052814631790333e-01,-1.135454951233748067e-01,-1.107857087835705523e-01,-1.084201776351668978e-01,-1.056603912953626712e-01,-1.029006049555583890e-01,-1.005350738071547623e-01,-9.777528746735050791e-02,-9.501550112754628130e-02,-9.225571478774202694e-02,-8.989018363933840017e-02,-8.713039729953414581e-02,-8.437061095972991920e-02,-8.200507981132626467e-02,-7.924529347152198255e-02,-7.648550713171772819e-02,-7.411997598331410142e-02,-7.136018964350987481e-02,-6.860040330370562045e-02,-6.584061696390139384e-02,-6.347508581549776707e-02,-6.071529947569348495e-02,-5.795551313588925835e-02,-5.558998198748563158e-02,-5.283019564768137721e-02,-5.007040930787712285e-02,-4.731062296807284073e-02,-4.494509181966924172e-02,-4.218530547986501511e-02,-3.942551914006076075e-02
-1.490284623494294025e-01,-1.462686760096251204e-01,-1.435088896698208938e-01,-1.407491033300166672e-01,-1.383835721816130127e-01,-1.356237858418087583e-01,-1.328639995020045039e-01,-1.304984683536008772e-01,-1.277386820137966228e-01,-1.249788956739923962e-01,-1.222191093341881141e-01,-1.198535781857845151e-01,-1.170937918459802607e-01,-1.143340055061760341e-01,-1.119684743577723518e-01,-1.092086880179681252e-01,-1.064489016781638708e-01,-1.040833705297602441e-01,-1.013235841899559619e-01,-9.856379785015173534e-02,-9.580401151034748097e-02,-9.343848036194385420e-02,-9.067869402213959984e-02,-8.791890768233534548e-02,-8.555337653393174646e-02,-8.279359019412746434e-02,-8.003380385432323774e-02,-7.727401751451895562e-02,-7.490848636611532885e-02,-7.214870002631107448e-02,-6.938891368650684788e-02,-6.702338253810319335e-02,-6.426359619829896674e-02,-6.150380985849471238e-02,-5.913827871009105785e-02,-5.637849237028683125e-02,-5.361870603048254913e-02,-5.085891969067832252e-02,-4.849338854227469575e-02,-4.573360220247044139e-02,-4.297381586266621478e-02,-4.060828471426256026e-02,-3.784849837445830589e-02,-3.508871203465405153e-02,-3.232892569484979717e-02,-2.996339454644617040e-02,-2.720360820664188828e-02
-1.364122962246099857e-01,-1.340467650762063312e-01,-1.312869787364021046e-01,-1.285271923965978502e-01,-1.257674060567935959e-01,-1.234018749083899413e-01,-1.206420885685857147e-01,-1.178823022287814604e-01,-1.155167710803778613e-01,-1.127569847405736070e-01,-1.099971984007693249e-01,-1.072374120609650705e-01,-1.048718809125614437e-01,-1.021120945727572171e-01,-9.935230823295293501e-02,-9.698677708454928048e-02,-9.422699074474505387e-02,-9.146720440494082727e-02,-8.910167325653720050e-02,-8.634188691673294613e-02,-8.358210057692866402e-02,-8.082231423712443741e-02,-7.845678308872078288e-02,-7.569699674891652852e-02,-7.293721040911227416e-02,-7.057167926070864739e-02,-6.781189292090442078e-02,-6.505210658110016642e-02,-6.229232024129593981e-02,-5.992678909289228528e-02,-5.716700275308803092e-02,-5.440721641328380431e-02,-5.204168526488014979e-02,-4.928189892507589542e-02,-4.652211258527166882e-02,-4.415658143686804205e-02,-4.139679509706375993e-02,-3.863700875725947781e-02,-3.587722241745527896e-02,-3.351169126905162443e-02,-3.075190492924737007e-02,-2.799211858944311571e-02,-2.562658744103946118e-02,-2.286680110123523457e-02,-2.010701476143100797e-02,-1.734722842162675360e-02,-1.498169727322312683e-02
-1.241903852911911688e-01,-1.214305989513869422e-01,-1.190650678029832876e-01,-1.163052814631790610e-01,-1.135454951233748067e-01,-1.107857087835705523e-01,-1.084201776351668978e-01,-1.056603912953626712e-01,-1.029006049555584168e-01,-1.005350738071547345e-01,-9.777528746735050791e-02,-9.501550112754628130e-02,-9.225571478774202694e-02,-8.989018363933840017e-02,-8.713039729953414581e-02,-8.437061095972991920e-02,-8.200507981132626467e-02,-7.924529347152201031e-02,-7.648550713171775595e-02,-7.411997598331410142e-02,-7.136018964350987481e-02,-6.860040330370562045e-02,-6.584061696390139384e-02,-6.347508581549773932e-02,-6.071529947569348495e-02,-5.795551313588923059e-02,-5.558998198748563158e-02,-5.283019564768137721e-02,-5.007040930787712285e-02,-4.731062296807286849e-02,-4.494509181966921396e-02,-4.218530547986498735e-02,-3.942551914006073299e-02,-3.705998799165710622e-02,-3.430020165185282410e-02,-3.154041531204859750e-02,-2.917488416364494297e-02,-2.641509782384066085e-02,-2.365531148403643424e-02,-2.089552514423220764e-02,-1.852999399582855311e-02,-1.577020765602432650e-02,-1.301042131622009990e-02,-1.064489016781644537e-02,-7.885103828012218763e-03,-5.125317488207936645e-03,-2.759786339804282118e-03
-1.119684743577723796e-01,-1.092086880179681252e-01,-1.064489016781638708e-01,-1.040833705297602441e-01,-1.013235841899559619e-01,-9.856379785015176309e-02,-9.580401151034750873e-02,-9.343848036194388196e-02,-9.067869402213962760e-02,-8.791890768233537323e-02,-8.555337653393169095e-02,-8.279359019412743659e-02,-8.003380385432323774e-02,-7.766827270591955545e-02,-7.490848636611530109e-02,-7.214870002631104673e-02,-6.938891368650682012e-02,-6.702338253810319335e-02,-6.426359619829893899e-02,-6.150380985849471238e-02,-5.913827871009105785e-02,-5.637849237028683125e-02,-5.361870603048257689e-02,-5.085891969067835028e-02,-4.849338854227469575e-02,-4.573360220247046914e-02,-4.297381586266618703e-02,-4.060828471426256026e-02,-3.784849837445830589e-02,-3.508871203465405153e-02,-3.272318088625036925e-02,-2.996339454644617040e-02,-2.720360820664191603e-02,-2.444382186683763392e-02,-2.207829071843403490e-02,-1.931850437862975278e-02,-1.655871803882549842e-02,-1.419318689042192716e-02,-1.143340055061770055e-02,-8.673614210813362924e-03,-5.913827871009191828e-03,-3.548296722605537301e-03,-7.885103828012551830e-04,-5.551115123125782702e-17,-5.551115123125782702e-17,-5.551115123125782702e-17,-5.551115123125782702e-17
-1.200507057814848011e-01,-9.698677708454928048e-02,-9.422699074474505387e-02,-9.146720440494082727e-02,-8.910167325653717274e-02,-8.634188691673291838e-02,-8.358210057692869177e-02,-8.082231423712443741e-02,-7.845678308872075513e-02,-7.569699674891652852e-02,-7.293721040911227416e-02,-7.057167926070864739e-02,-6.781189292090444853e-02,-6.505210658110016642e-02,-6.229232024129593981e-02,-5.992678909289228528e-02,-5.716700275308803092e-02,-5.440721641328377656e-02,-5.204168526488017754e-02,-4.928189892507589542e-02,-4.652211258527166882e-02,-4.415658143686801429e-02,-4.139679509706378768e-02,-3.863700875725950556e-02,-3.587722241745527896e-02,-3.351169126905162443e-02,-3.075190492924737007e-02,-2.799211858944311571e-02,-2.562658744103946118e-02,-2.286680110123520682e-02,-2.010701476143098021e-02,-1.734722842162678136e-02,-1.498169727322309908e-02,-1.222191093341884471e-02,-9.462124593614618107e-03,-7.096593445210963580e-03,-4.336807105406736973e-03,-1.577020765602510366e-03,-5.551115123125782702e-17,-5.551115123125782702e-17,-5.551115123125782702e-17,-1.110223024625156540e-16,-5.551115123125782702e-17,-1.110223024625156540e-16,-5.551115123125782702e-17,-5.551115123125782702e-17,-5.551115123125782702e-17
-1.426957383375571653e-01,-8.437061095972989144e-02,-8.200507981132626467e-02,-7.924529347152203806e-02,-7.648550713171772819e-02,-7.411997598331410142e-02,-7.136018964350987481e-02,-6.860040330370564821e-02,-6.584061696390136609e-02,-6.347508581549773932e-02,-6.071529947569348495e-02,-5.795551313588925835e-02,-5.558998198748563158e-02,-5.283019564768134946e-02,-5.007040930787709510e-02,-4.731062296807286849e-02,-4.494509181966921396e-02,-4.218530547986498735e-02,-3.942551914006073299e-02,-3.705998799165710622e-02,-3.430020165185282410e-02,-3.154041531204859750e-02,-2.917488416364497072e-02,-2.641509782384068861e-02,-2.365531148403643424e-02,-2.089552514423220764e-02,-1.852999399582855311e-02,-1.577020765602432650e-02,-1.301042131622009990e-02,-1.064489016781644537e-02,-7.885103828012218763e-03,-5.125317488207992156e-03,-2.759786339804337629e-03,-5.551115123125782702e-17,-5.551115123125782702e-17,-5.551115123125782702e-17,-5.551115123125782702e-17,-5.551115123125782702e-17,-5.551115123125782702e-17,-5.551115123125782702e-17,-5.551115123125782702e-17,-5.551115123125782702e-17,-5.551115123125782702e-17,-5.551115123125782702e-17,-5.551115123125782702e-17,-5.551115123125782702e-17,-5.551115123125782702e-17
-1.758624563141331643e-01,-7.214870002631107448e-02,-6.938891368650682012e-02,-6.702338253810319335e-02,-6.426359619829893899e-02,-6.150380985849468463e-02,-5.913827871009105785e-02,-5.637849237028680349e-02,-5.361870603048257689e-02,-5.085891969067832252e-02,-4.849338854227469575e-02,-4.573360220247041363e-02,-4.297381586266621478e-02,-4.060828471426256026e-02,-3.784849837445830589e-02,-3.508871203465405153e-02,-3.272318088625042476e-02,-2.996339454644617040e-02,-2.720360820664188828e-02,-2.444382186683766167e-02,-2.207829071843403490e-02,-1.931850437862978054e-02,-1.655871803882555393e-02,-1.419318689042187165e-02,-1.143340055061764504e-02,-8.673614210813418435e-03,-5.913827871009191828e-03,-3.548296722605481790e-03,-7.885103828012551830e-04,-5.551115123125782702e-17,-5.551115123125782702e-17,-5.551115123125782702e-17,-5.551115123125782702e-17,-5.551115123125782702e-17,-5.551115123125782702e-17,-5.551115123125782702e-17,-5.551115123125782702e-17,-5.551115123125782702e-17,-5.551115123125782702e-17,-5.551115123125782702e-17,-5.551115123125782702e-17,-5.551115123125782702e-17,-5.551115123125782702e-17,-5.551115123125782702e-17,-1.110223024625156540e-16,-5.551115123125782702e-17,-5.551115123125782702e-17
-2.143762603240799425e-01,-5.992678909289228528e-02,-5.716700275308805868e-02,-5.440721641328380431e-02,-5.204168526488017754e-02,-4.928189892507589542e-02,-4.652211258527164106e-02,-4.415658143686801429e-02,-4.139679509706378768e-02,-3.863700875725953332e-02,-3.587722241745527896e-02,-3.351169126905162443e-02,-3.075190492924737007e-02,-2.799211858944308795e-02,-2.562658744103946118e-02,-2.286680110123520682e-02,-2.010701476143095245e-02,-1.774148361302735344e-02,-1.498169727322312683e-02,-1.222191093341884471e-02,-9.462124593614618107e-03,-7.096593445210963580e-03,-4.336807105406736973e-03,-1.577020765602510366e-03,-5.551115123125782702e-17,-5.551115123125782702e-17,-5.551115123125782702e-17,-5.551115123125782702e-17,-5.551115123125782702e-17,-5.551115123125782702e-17,-5.551115123125782702e-17,-1.110223024625156540e-16,-5.551115123125782702e-17,-5.551115123125782702e-17,-5.551115123125782702e-17,-5.551115123125782702e-17,0.000000000000000000e+00,-5.551115123125782702e-17,-5.551115123125782702e-17,-5.551115123125782702e-17,-5.551115123125782702e-17,-5.551115123125782702e-17,-1.110223024625156540e-16,-5.551115123125782702e-17,-5.551115123125782702e-17,-5.551115123125782702e-17,-5.551115123125782702e-17
-2.582248298926661523e-01,-4.731062296807286849e-02,-4.494509181966921396e-02,-4.218530547986495960e-02,-3.942551914006070524e-02,-3.705998799165710622e-02,-3.430020165185282410e-02,-3.154041531204856974e-02,-2.917488416364494297e-02,-2.641509782384068861e-02,-2.365531148403643424e-02,-2.089552514423217988e-02,-1.852999399582858087e-02,-1.577020765602435426e-02,-1.301042131622004439e-02,-1.064489016781644537e-02,-7.885103828012218763e-03,-5.125317488207936645e-03,-2.759786339804282118e-03,-5.551115123125782702e-17,-5.551115123125782702e-17,-5.551115123125782702e-17,-5.551115123125782702e-17,-5.551115123125782702e-17,-5.551115123125782702e-17,-5.551115123125782702e-17,-5.551115123125782702e-17,-5.551115123125782702e-17,-5.551115123125782702e-17,-5.551115123125782702e-17,-5.551115123125782702e-17,-5.551115123125782702e-17,-5.551115123125782702e-17,-5.551115123125782702e-17,-5.551115123125782702e-17,-5.551115123125782702e-17,-5.551115123125782702e-17,-5.551115123125782702e-17,-5.551115123125782702e-17,-5.551115123125782702e-17,-5.551115123125782702e-17,-5.551115123125782702e-17,-5.551115123125782702e-17,-5.551115123125782702e-17,-5.551115123125782702e-17,-5.551115123125782702e-17,-5.551115123125782702e-17
-2.649394886212077527e-01,-7.818573264463288264e-02,-3.272318088625042476e-02,-2.996339454644614264e-02,-2.720360820664191603e-02,-2.444382186683763392e-02,-2.207829071843400714e-02,-1.931850437862975278e-02,-1.655871803882555393e-02,-1.419318689042192716e-02,-1.143340055061770055e-02,-8.673614210813418435e-03,-5.913827871009191828e-03,-3.548296722605537301e-03,-7.885103828012551830e-04,-5.551115123125782702e-17,-5.551115123125782702e-17,-5.551115123125782702e-17,-5.551115123125782702e-17,-5.551115123125782702e-17,0.000000000000000000e+00,-5.551115123125782702e-17,-5.551115123125782702e-17,0.000000000000000000e+00,-5.551115123125782702e-17,-5.551115123125782702e-17,-5.551115123125782702e-17,-5.551115123125782702e-17,-5.551115123125782702e-17,-5.551115123125782702e-17,-5.551115123125782702e-17,-5.551115123125782702e-17,-5.551115123125782702e-17,-5.551115123125782702e-17,-5.551115123125782702e-17,-5.551115123125782702e-17,0.000000000000000000e+00,-5.551115123125782702e-17,-5.551115123125782702e-17,-5.551115123125782702e-17,-5.551115123125782702e-17,-5.551115123125782702e-17,-5.551115123125782702e-17,-5.551115123125782702e-17,-5.551115123125782702e-17,-5.551115123125782702e-17,-5.551115123125782702e-17
-2.649394886212077527e-01,-1.212088304062240718e-01,-2.010701476143098021e-02,-1.774148361302735344e-02,-1.498169727322312683e-02,-1.222191093341884471e-02,-9.462124593614618107e-03,-7.096593445210963580e-03,-4.336807105406736973e-03,-1.577020765602454855e-03,-5.551115123125782702e-17,-5.551115123125782702e-17,-5.551115123125782702e-17,-5.551115123125782702e-17,-5.551115123125782702e-17,-5.551115123125782702e-17,-5.551115123125782702e-17,-5.551115123125782702e-17,-5.551115123125782702e-17,-5.551115123125782702e-17,-5.551115123125782702e-17,-1.110223024625156540e-16,-5.551115123125782702e-17,-5.551115123125782702e-17,-5.551115123125782702e-17,-5.551115123125782702e-17,-1.110223024625156540e-16,-5.551115123125782702e-17,-5.551115123125782702e-17,-5.551115123125782702e-17,-5.551115123125782702e-17,-5.551115123125782702e-17,-5.551115123125782702e-17,-5.551115123125782702e-17,-5.551115123125782702e-17,-1.110223024625156540e-16,-5.551115123125782702e-17,-5.551115123125782702e-17,-5.551115123125782702e-17,-5.551115123125782702e-17,-5.551115123125782702e-17,-5.551115123125782702e-17,-5.551115123125782702e-17,-5.551115123125782702e-17,-5.551115123125782702e-17,0.000000000000000000e+00,-5.551115123125782702e-17
-2.649394886212077527e-01,-1.616323079995175271e-01,-7.885103828012218763e-03,-5.125317488207936645e-03,-2.759786339804337629e-03,-5.551115123125782702e-17,-5.551115123125782702e-17,-5.551115123125782702e-17,-5.551115123125782702e-17,-5.551115123125782702e-17,-5.551115123125782702e-17,-5.551115123125782702e-17,-5.551115123125782702e-17,-5.551115123125782702e-17,-5.551115123125782702e-17,-5.551115123125782702e-17,-5.551115123125782702e-17,0.000000000000000000e+00,-5.551115123125782702e-17,-5.551115123125782702e-17,-5.551115123125782702e-17,-1.110223024625156540e-16,-1.110223024625156540e-16,-5.551115123125782702e-17,-5.551115123125782702e-17,-5.551115123125782702e-17,-2.737958663141757953e-01,-2.737958663141757953e-01,-2.737958663141757953e-01,-2.737958663141757953e-01,-2.737958663141758509e-01,-5.551115123125782702e-17,-5.551115123125782702e-17,-5.551115123125782702e-17,-5.551115123125782702e-17,-5.551115123125782702e-17,-5.551115123125782702e-17,-5.551115123125782702e-17,-1.110223024625156540e-16,-5.551115123125782702e-17,-5.551115123125782702e-17,-5.551115123125782702e-17,-5.551115123125782702e-17,-5.551115123125782702e-17,-7.096593445210963580e-03,-1.419318689042192716e-02,-2.247254590983466249e-02
-2.649394886212077527e-01,-2.152633345047313129e-01,-5.551115123125782702e-17,-5.551115123125782702e-17,-1.110223024625156540e-16,-5.551115123125782702e-17,-5.551115123125782702e-17,-5.551115123125782702e-17,-5.551115123125782702e-17,-5.551115123125782702e-17,-5.551115123125782702e-17,-5.551115123125782702e-17,-5.551115123125782702e-17,-5.551115123125782702e-17,-5.551115123125782702e-17,-5.551115123125782702e-17,-5.551115123125782702e-17,-5.551115123125782702e-17,-5.551115123125782702e-17,-5.551115123125782702e-17,-5.551115123125782702e-17,-5.551115123125782702e-17,-5.551115123125782702e-17,-5.551115123125782702e-17,-5.551115123125782702e-17,-5.551115123125782702e-17,-2.737958663141757953e-01,-2.737958663141757953e-01,-2.737958663141757953e-01,-2.737958663141757953e-01,-2.737958663141757953e-01,-5.551115123125782702e-17,-5.551115123125782702e-17,-5.551115123125782702e-17,-1.110223024625156540e-16,-5.551115123125782702e-17,-5.551115123125782702e-17,-5.551115123125782702e-17,-5.551115123125782702e-17,-3.548296722605481790e-03,-1.182765574201827263e-02,-2.010701476143100797e-02,-2.838637378084374330e-02,-3.548296722605467912e-02,-4.376232624546738670e-02,-5.204168526488014979e-02,-5.913827871009105785e-02
-4.988679486124115714e-01,-4.988679486124115714e-01,-2.504871780300293449e-01,-2.339284599912038742e-01,-5.551115123125782702e-17,-5.551115123125782702e-17,-5.551115123125782702e-17,-5.551115123125782702e-17,-5.551115123125782702e-17,-5.551115123125782702e-17,-5.551115123125782702e-17,-5.551115123125782702e-17,-5.551115123125782702e-17,-5.551115123125782702e-17,-1.110223024625156540e-16,-5.551115123125782702e-17,-5.551115123125782702e-17,-5.551115123125782702e-17,-5.551115123125782702e-17,-1.110223024625156540e-16,-5.551115123125782702e-17,-5.551115123125782702e-17,-5.551115123125782702e-17,-5.551115123125782702e-17,0.000000000000000000e+00,-1.110223024625156540e-16,-2.737958663141757953e-01,-2.737958663141757953e-01,-2.737958663141757953e-01,-2.737958663141757953e-01,-2.737958663141757953e-01,-5.551115123125782702e-17,-5.551115123125782702e-17,-5.551115123125782702e-17,-1.182765574201882774e-03,-9.462124593614618107e-03,-1.774148361302735344e-02,-2.483807705823828926e-02,-3.311743607765102460e-02,-4.139679509706378768e-02,-4.849338854227469575e-02,-5.677274756168743108e-02,-6.505210658110016642e-02,-7.333146560051287399e-02,-8.042805904572380982e-02,-8.870741806513654515e-02,-9.698677708454930824e-02
-4.988679486124115714e-01,-4.988679486124115714e-01,-3.001633321465058124e-01,-2.339284599912038742e-01,-5.551115123125782702e-17,-5.551115123125782702e-17,-5.551115123125782702e-17,-5.551115123125782702e-17,-5.551115123125782702e-17,-5.551115123125782702e-17,-5.551115123125782702e-17,-5.551115123125782702e-17,-5.551115123125782702e-17,-5.551115123125782702e-17,-5.551115123125782702e-17,-5.551115123125782702e-17,-5.551115123125782702e-17,-5.551115123125782702e-17,-5.551115123125782702e-17,-5.551115123125782702e-17,-5.551115123125782702e-17,-5.551115123125782702e-17,-5.551115123125782702e-17,-5.551115123125782702e-17,-5.551115123125782702e-17,-5.551115123125782702e-17,-2.737958663141757953e-01,-2.737958663141757953e-01,-2.737958663141757953e-01,-2.737958663141757953e-01,-2.808924597593867034e-01,-1.419318689042192716e-02,-2.247254590983463474e-02,-3.075190492924739782e-02,-3.784849837445830589e-02,-4.612785739387104122e-02,-5.440721641328377656e-02,-6.268657543269651189e-02,-6.978316887790739220e-02,-7.806252789732018305e-02,-8.634188691673289062e-02,-9.343848036194382645e-02,-1.017178393813565618e-01,-1.099971984007693249e-01,-1.182765574201820602e-01,-1.253731508653929683e-01,-1.336525098848057314e-01
-4.988679486124115714e-01,-4.988679486124115714e-01,-3.581188452823950152e-01,-2.339284599912038742e-01,-5.551115123125782702e-17,-5.551115123125782702e-17,-5.551115123125782702e-17,-5.551115123125782702e-17,-5.551115123125782702e-17,-1.110223024625156540e-16,-5.551115123125782702e-17,-5.551115123125782702e-17,-5.551115123125782702e-17,-5.551115123125782702e-17,-5.551115123125782702e-17,-5.551115123125782702e-17,-5.551115123125782702e-17,-5.551115123125782702e-17,-5.551115123125782702e-17,-5.551115123125782702e-17,-5.551115123125782702e-17,-5.551115123125782702e-17,0.000000000000000000e+00,-5.551115123125782702e-17,-5.551115123125782702e-17,-3.548296722605481790e-03,-2.856235220561940125e-01,-2.939028810756067478e-01,-3.021822400950194831e-01,-3.092788335402303912e-01,-3.175581925596431265e-01,-5.204168526488014979e-02,-5.913827871009105785e-02,-6.741763772950379319e-02,-7.569699674891652852e-02,-8.397635576832926385e-02,-9.107294921354019968e-02,-9.935230823295293501e-02,-1.076316672523656703e-01,-1.147282606975766062e-01,-1.230076197169893415e-01,-1.312869787364020768e-01,-1.383835721816130127e-01,-1.466629312010257480e-01,-1.549422902204384833e-01,-1.632216492398512186e-01,-1.703182426850621267e-01
-4.988679486124115714e-01,-4.988679486124115714e-01,-4.160743584182841626e-01,-2.339284599912038742e-01,-5.551115123125782702e-17,-5.551115123125782702e-17,-5.551115123125782702e-17,-5.551115123125782702e-17,-5.551115123125782702e-17,-5.551115123125782702e-17,-5.551115123125782702e-17,-5.551115123125782702e-17,-5.551115123125782702e-17,-1.110223024625156540e-16,-5.551115123125782702e-17,-5.551115123125782702e-17,-5.551115123125782702e-17,-5.551115123125782702e-17,-5.551115123125782702e-17,-5.551115123125782702e-17,-1.182765574201882774e-03,-9.462124593614618107e-03,-1.774148361302735344e-02,-2.483807705823828926e-02,-3.311743607765102460e-02,-4.139679509706378768e-02,-4.849338854227466800e-02,-5.677274756168743108e-02,-6.505210658110016642e-02,-7.333146560051290175e-02,-8.042805904572380982e-02,-8.870741806513654515e-02,-9.698677708454928048e-02,-1.040833705297602163e-01,-1.123627295491729516e-01,-1.206420885685857147e-01,-1.289214475879984501e-01,-1.360180410332093581e-01,-1.442974000526220935e-01,-1.525767590720348288e-01,-1.596733525172457924e-01,-1.679527115366585277e-01,-1.762320705560712630e-01,-1.833286640012821711e-01,-1.916080230206949064e-01,-1.998873820401076418e-01,-2.081667410595203771e-01
-2.649394886212077527e-01,-2.649394886212077527e-01,-2.318220525435567836e-01,0.000000000000000000e+00,-5.551115123125782702e-17,-5.551115123125782702e-17,-5.551115123125782702e-17,-5.551115123125782702e-17,0.000000000000000000e+00,-1.110223024625156540e-16,-5.551115123125782702e-17,-5.551115123125782702e-17,-5.551115123125782702e-17,-1.110223024625156540e-16,-5.551115123125782702e-17,-5.551115123125782702e-17,-7.096593445210963580e-03,-1.419318689042187165e-02,-2.247254590983466249e-02,-3.075190492924737007e-02,-3.784849837445830589e-02,-4.612785739387104122e-02,-5.440721641328377656e-02,-6.268657543269651189e-02,-6.978316887790741996e-02,-7.806252789732015529e-02,-8.634188691673289062e-02,-9.343848036194385420e-02,-1.017178393813565895e-01,-1.099971984007693249e-01,-1.182765574201820602e-01,-1.253731508653929683e-01,-1.336525098848057314e-01,-1.419318689042184667e-01,-1.490284623494294025e-01,-1.573078213688421378e-01,-1.655871803882548732e-01,-1.726837738334657812e-01,-1.809631328528785166e-01,-1.892424918722912519e-01,-1.975218508917040150e-01,-2.046184443369149231e-01,-2.128978033563276862e-01,-2.211771623757404215e-01,-2.282737558209513296e-01,-2.365531148403640649e-01,-2.448324738597768002e-01
-2.649394886212077527e-01,-2.649394886212077527e-01,-2.649394886212077527e-01,-3.311743607765102460e-02,-1.110223024625156540e-16,-5.551115123125782702e-17,-5.551115123125782702e-17,-5.551115123125782702e-17,-5.551115123125782702e-17,-5.551115123125782702e-17,-5.551115123125782702e-17,-3.548296722605537301e-03,-1.182765574201821712e-02,-2.010701476143100797e-02,-2.838637378084374330e-02,-3.548296722605462361e-02,-4.376232624546738670e-02,-5.204168526488014979e-02,-5.913827871009103010e-02,-6.741763772950379319e-02,-7.569699674891652852e-02,-8.279359019412746434e-02,-9.107294921354019968e-02,-9.935230823295293501e-02,-1.076316672523656703e-01,-1.147282606975766062e-01,-1.230076197169893415e-01,-1.312869787364021046e-01,-1.383835721816130127e-01,-1.466629312010257480e-01,-1.549422902204384833e-01,-1.632216492398512186e-01,-1.703182426850621545e-01,-1.785976017044748898e-01,-1.868769607238876529e-01,-1.939735541690985610e-01,-2.022529131885112963e-01,-2.105322722079240316e-01,-2.176288656531349397e-01,-2.259082246725476750e-01,-2.341875836919604381e-01,-2.424669427113731734e-01,-2.495635361565840815e-01,-2.578428951759968446e-01,-2.649394886212077527e-01,-2.649394886212077527e-01,-2.649394886212077527e-01
-2.649394886212077527e-01,-2.649394886212077527e-01,-2.649394886212077527e-01,-8.279359019412746434e-02,-5.551115123125782702e-17,-1.110223024625156540e-16,-1.182765574201882774e-03,-9.462124593614618107e-03,-1.774148361302735344e-02,-2.483807705823828926e-02,-3.311743607765102460e-02,-4.139679509706375993e-02,-4.849338854227469575e-02,-5.677274756168743108e-02,-6.505210658110016642e-02,-7.333146560051287399e-02,-8.042805904572380982e-02,-8.870741806513654515e-02,-9.698677708454928048e-02,-1.040833705297602163e-01,-1.123627295491729516e-01,-1.206420885685857147e-01,-1.289214475879984501e-01,-1.360180410332093581e-01,-1.442974000526221212e-01,-1.525767590720348288e-01,-1.596733525172457646e-01,-1.679527115366584999e-01,-1.762320705560712353e-01,-1.833286640012821711e-01,-1.916080230206949064e-01,-1.998873820401076418e-01,-2.081667410595203771e-01,-2.152633345047313129e-01,-2.235426935241440483e-01,-2.318220525435567836e-01,-2.389186459887677194e-01,-2.471980050081804547e-01,-2.554773640275931901e-01,-2.625739574728040981e-01,-2.649394886212077527e-01,-2.649394886212077527e-01,-2.649394886212077527e-01,-2.649394886212077527e-01,-2.649394886212077527e-01,-2.649394886212077527e-01,-2.649394886212077527e-01
-2.649394886212077527e-01,-2.649394886212077527e-01,-2.649394886212077527e-01,-1.474021596849018900e-01,-2.247254590983463474e-02,-3.075190492924734231e-02,-3.784849837445830589e-02,-4.612785739387104122e-02,-5.440721641328377656e-02,-6.268657543269651189e-02,-6.978316887790741996e-02,-7.806252789732018305e-02,-8.634188691673289062e-02,-9.343848036194385420e-02,-1.017178393813565895e-01,-1.099971984007693249e-01,-1.182765574201820602e-01,-1.253731508653929683e-01,-1.336525098848057036e-01,-1.419318689042184944e-01,-1.490284623494293748e-01,-1.573078213688421378e-01,-1.655871803882548732e-01,-1.726837738334657812e-01,-1.809631328528785166e-01,-1.892424918722912519e-01,-1.975218508917040150e-01,-2.046184443369149231e-01,-2.128978033563276584e-01,-2.211771623757404215e-01,-2.282737558209513296e-01,-2.365531148403640649e-01,-2.448324738597768002e-01,-2.531118328791895356e-01,-2.602084263244004991e-01,-2.649394886212077527e-01,-2.649394886212077527e-01,-2.649394886212077527e-01,-2.649394886212077527e-01,-2.649394886212077527e-01,-2.649394886212077527e-01,-2.649394886212077527e-01,-2.649394886212077527e-01,-2.649394886212077527e-01,-2.649394886212077527e-01,-2.649394886212077527e-01,-2.649394886212077527e-01
-2.649394886212077527e-01,-2.649394886212077527e-01,-2.649394886212077527e-01,-2.117150377821258589e-01,-5.913827871009105785e-02,-6.741763772950376543e-02,-7.569699674891652852e-02,-8.279359019412746434e-02,-9.107294921354019968e-02,-9.935230823295293501e-02,-1.076316672523656703e-01,-1.147282606975766062e-01,-1.230076197169893415e-01,-1.312869787364020768e-01,-1.383835721816130127e-01,-1.466629312010257480e-01,-1.549422902204384833e-01,-1.632216492398512186e-01,-1.703182426850621267e-01,-1.785976017044748898e-01,-1.868769607238876251e-01,-1.939735541690985610e-01,-2.022529131885112963e-01,-2.105322722079240316e-01,-2.176288656531349397e-01,-2.259082246725477028e-01,-2.341875836919604381e-01,-2.424669427113731734e-01,-2.495635361565840815e-01,-2.578428951759968446e-01,-2.649394886212077527e-01,-2.649394886212077527e-01,-2.649394886212077527e-01,-2.649394886212077527e-01,-2.649394886212077527e-01,-2.649394886212077527e-01,-2.649394886212077527e-01,-2.649394886212077527e-01,-2.649394886212077527e-01,-2.649394886212077527e-01,-2.649394886212077527e-01,-2.649394886212077527e-01,-2.649394886212077527e-01,-2.649394886212077527e-01,-2.649394886212077527e-01,-2.649394886212077527e-01,-2.649394886212077527e-01
-2.649394886212077527e-01,-2.649394886212077527e-01,-2.649394886212077527e-01,-2.594322364163305084e-01,-9.698677708454928048e-02,-1.040833705297602163e-01,-1.123627295491729794e-01,-1.206420885685857147e-01,-1.277386820137966228e-01,-1.360180410332093581e-01,-1.442974000526221212e-01,-1.525767590720348288e-01,-1.596733525172457646e-01,-1.679527115366585277e-01,-1.762320705560712630e-01,-1.833286640012821711e-01,-1.916080230206949064e-01,-1.998873820401076418e-01,-2.081667410595203771e-01,-2.152633345047312852e-01,-2.235426935241440483e-01,-2.318220525435567836e-01,-2.389186459887677194e-01,-2.471980050081804547e-01,-2.554773640275931901e-01,-2.625739574728040981e-01,-2.649394886212077527e-01,-2.649394886212077527e-01,-2.649394886212077527e-01,-2.649394886212077527e-01,-2.649394886212077527e-01,-2.649394886212077527e-01,-2.649394886212077527e-01,-2.649394886212077527e-01,-2.649394886212077527e-01,-2.649394886212077527e-01,-2.649394886212077527e-01,-2.649394886212077527e-01,-2.649394886212077527e-01,-2.649394886212077527e-01,-2.649394886212077527e-01,-2.649394886212077527e-01,-2.649394886212077527e-01,-2.649394886212077527e-01,-2.649394886212077527e-01,-2.649394886212077527e-01,-2.649394886212077527e-01
-2.649394886212077527e-01,-2.649394886212077527e-01,-2.649394886212077527e-01,-2.649394886212077527e-01,-1.582688183978810947e-01,-1.419318689042184667e-01,-1.490284623494294025e-01,-1.573078213688421378e-01,-1.655871803882548732e-01,-1.726837738334657812e-01,-1.809631328528785166e-01,-1.892424918722912519e-01,-1.975218508917039872e-01,-2.046184443369149231e-01,-2.128978033563276862e-01,-2.211771623757404215e-01,-2.282737558209513296e-01,-2.365531148403640649e-01,-2.448324738597768002e-01,-2.531118328791895356e-01,-2.602084263244004991e-01,-2.649394886212077527e-01,-2.649394886212077527e-01,-2.649394886212077527e-01,-2.649394886212077527e-01,-2.649394886212077527e-01,-2.649394886212077527e-01,-2.649394886212077527e-01,-2.649394886212077527e-01,-2.649394886212077527e-01,-2.649394886212077527e-01,-2.649394886212077527e-01,-2.649394886212077527e-01,-2.649394886212077527e-01,-2.649394886212077527e-01,-2.649394886212077527e-01,-2.649394886212077527e-01,-2.649394886212077527e-01,-2.649394886212077527e-01,-2.649394886212077527e-01,-2.649394886212077527e-01,-2.649394886212077527e-01,-2.649394886212077527e-01,-2.649394886212077527e-01,-2.649394886212077527e-01,-2.649394886212077527e-01,-2.649394886212077527e-01
-2.649394886212077527e-01,-2.649394886212077527e-01,-2.649394886212077527e-01,-2.649394886212077527e-01,-2.087581238466212907e-01,-1.785976017044748898e-01,-1.868769607238876251e-01,-1.939735541690985610e-01,-2.022529131885112963e-01,-2.105322722079240316e-01,-2.176288656531349397e-01,-2.259082246725476750e-01,-2.341875836919604381e-01,-2.424669427113731734e-01,-2.495635361565840815e-01,-2.578428951759968446e-01,-2.649394886212077527e-01,-2.649394886212077527e-01,-2.649394886212077527e-01,-2.649394886212077527e-01,-2.649394886212077527e-01,-2.649394886212077527e-01,-2.649394886212077527e-01,-2.649394886212077527e-01,-2.649394886212077527e-01,-2.649394886212077527e-01,-2.649394886212077527e-01,-2.649394886212077527e-01,-2.649394886212077527e-01,-2.649394886212077527e-01,-2.649394886212077527e-01,-2.649394886212077527e-01,-2.649394886212077527e-01,-2.649394886212077527e-01,-2.649394886212077527e-01,-2.649394886212077527e-01,-2.649394886212077527e-01,-2.649394886212077527e-01,-2.649394886212077527e-01,-2.649394886212077527e-01,-2.649394886212077527e-01,-2.649394886212077527e-01,-2.649394886212077527e-01,-2.649394886212077527e-01,-2.649394886212077527e-01,-2.649394886212077527e-01,-2.649394886212077527e-01
