-1.444147400676904780e-01,-1.444147400676904780e-01,-1.444147400676904780e-01,-1.444147400676904780e-01,-1.444147400676904780e-01,-1.444147400676904780e-01,-1.444147400676904780e-01,-1.444147400676904780e-01,-1.444147400676904780e-01,-3.159072438980731201e-02,-2.775557561562891351e-17,-2.775557561562891351e-17,-1.002880139359008105e-03,-8.524481184551208068e-03,-1.604608222974340803e-02,-2.356768327493562187e-02,-3.108928432012784959e-02,-3.861088536532004956e-02,-4.663392648019173969e-02,-5.415552752538393966e-02,-6.167712857057615350e-02,-6.919872961576835346e-02,-7.672033066096056730e-02,-8.424193170615279502e-02,-9.226497282102448516e-02,-9.978657386621669900e-02,-1.073081749114088990e-01,-1.148297759566011128e-01,-1.223513770017933266e-01,-1.298729780469855266e-01,-1.373945790921777543e-01,-1.444147400676904780e-01,-1.444147400676904780e-01,-1.444147400676904780e-01,-1.444147400676904780e-01,-1.444147400676904780e-01,-1.444147400676904780e-01,-1.444147400676904780e-01,-1.444147400676904780e-01,-1.444147400676904780e-01,-1.444147400676904780e-01,-1.444147400676904780e-01,-1.444147400676904780e-01,-1.444147400676904780e-01,-1.444147400676904780e-01,-1.444147400676904780e-01,-1.444147400676904780e-01
-1.444147400676904780e-01,-1.444147400676904780e-01,-1.444147400676904780e-01,-1.444147400676904780e-01,-1.444147400676904780e-01,-1.444147400676904780e-01,-1.444147400676904780e-01,-1.444147400676904780e-01,-9.025921254230656610e-02,-2.775557561562891351e-17,-2.775557561562891351e-17,-2.775557561562891351e-17,-2.775557561562891351e-17,-2.775557561562891351e-17,-2.005760278717960698e-03,-9.527361323910160662e-03,-1.704896236910236063e-02,-2.457056341429458834e-02,-3.209216445948680219e-02,-4.011520557435849232e-02,-4.763680661955070617e-02,-5.515840766474289225e-02,-6.268000870993510609e-02,-7.020160975512731993e-02,-7.772321080031953378e-02,-8.524481184551174762e-02,-9.326785296038345163e-02,-1.007894540055756516e-01,-1.083110550507678654e-01,-1.158326560959600793e-01,-1.233542571411522931e-01,-1.308758581863445070e-01,-1.383974592315367069e-01,-1.444147400676904780e-01,-1.444147400676904780e-01,-1.444147400676904780e-01,-1.444147400676904780e-01,-1.444147400676904780e-01,-1.444147400676904780e-01,-1.444147400676904780e-01,-1.444147400676904780e-01,-1.444147400676904780e-01,-1.444147400676904780e-01,-1.444147400676904780e-01,-1.444147400676904780e-01,-1.444147400676904780e-01,-1.444147400676904780e-01
-1.444147400676904780e-01,-1.444147400676904780e-01,-1.444147400676904780e-01,-1.444147400676904780e-01,-1.444147400676904780e-01,-1.444147400676904780e-01,-1.444147400676904780e-01,-1.444147400676904780e-01,-2.256480313557665540e-02,-2.775557561562891351e-17,-2.775557561562891351e-17,-2.775557561562891351e-17,-2.775557561562891351e-17,-2.775557561562891351e-17,-2.775557561562891351e-17,-2.775557561562891351e-17,-3.008640418076913292e-03,-1.053024146326911326e-02,-1.805184250846131322e-02,-2.557344355365355482e-02,-3.359648466852524495e-02,-4.111808571371745880e-02,-4.863968675890967264e-02,-5.616128780410187260e-02,-6.368288884929407256e-02,-7.120448989448630028e-02,-7.872609093967850025e-02,-8.674913205455019038e-02,-9.427073309974240423e-02,-1.017923341449346181e-01,-1.093139351901268319e-01,-1.168355362353190319e-01,-1.243571372805112457e-01,-1.318787383257034596e-01,-1.399017794405751636e-01,-1.444147400676904780e-01,-1.444147400676904780e-01,-1.444147400676904780e-01,-1.444147400676904780e-01,-1.444147400676904780e-01,-1.444147400676904780e-01,-1.444147400676904780e-01,-1.444147400676904780e-01,-1.444147400676904780e-01,-1.444147400676904780e-01,-1.444147400676904780e-01,-1.444147400676904780e-01
-1.444147400676904780e-01,-1.444147400676904780e-01,-1.444147400676904780e-01,-1.444147400676904780e-01,-1.444147400676904780e-01,-1.444147400676904780e-01,-1.444147400676904780e-01,-8.123329128807590949e-02,-2.775557561562891351e-17,-2.775557561562891351e-17,-2.775557561562891351e-17,-2.775557561562891351e-17,-5.551115123125782702e-17,-2.775557561562891351e-17,-2.775557561562891351e-17,-2.775557561562891351e-17,-2.775557561562891351e-17,-2.775557561562891351e-17,-4.011520557435865886e-03,-1.153312160262806585e-02,-1.905472264782029357e-02,-2.657632369301250741e-02,-3.459936480788419755e-02,-4.212096585307641139e-02,-4.964256689826861135e-02,-5.716416794346082519e-02,-6.468576898865301128e-02,-7.220737003384523900e-02,-8.023041114871694302e-02,-8.775201219390915686e-02,-9.527361323910137070e-02,-1.027952142842935845e-01,-1.103168153294857845e-01,-1.178384163746779983e-01,-1.253600174198702122e-01,-1.333830585347419162e-01,-1.409046595799341162e-01,-1.444147400676904780e-01,-1.444147400676904780e-01,-1.444147400676904780e-01,-1.444147400676904780e-01,-1.444147400676904780e-01,-1.444147400676904780e-01,-1.444147400676904780e-01,-1.444147400676904780e-01,-1.444147400676904780e-01,-1.444147400676904780e-01
-1.444147400676904780e-01,-1.444147400676904780e-01,-1.444147400676904780e-01,-1.444147400676904780e-01,-1.444147400676904780e-01,-1.444147400676904780e-01,-1.399017794405751636e-01,-1.353888188134602655e-02,-2.775557561562891351e-17,-2.775557561562891351e-17,-2.775557561562891351e-17,-2.775557561562891351e-17,-2.775557561562891351e-17,-2.775557561562891351e-17,-2.775557561562891351e-17,-2.775557561562891351e-17,-2.775557561562891351e-17,-2.775557561562891351e-17,-2.775557561562891351e-17,-2.775557561562891351e-17,-5.014400696794846235e-03,-1.253600174198704620e-02,-2.005760278717924616e-02,-2.808064390205095018e-02,-3.560224494724316402e-02,-4.312384599243537786e-02,-5.064544703762757782e-02,-5.816704808281979167e-02,-6.568864912801199163e-02,-7.321025017320420547e-02,-8.123329128807590949e-02,-8.875489233326812333e-02,-9.627649337846033717e-02,-1.037980944236525371e-01,-1.113196954688447510e-01,-1.188412965140369648e-01,-1.263628975592291648e-01,-1.343859386741008688e-01,-1.419075397192930688e-01,-1.444147400676904780e-01,-1.444147400676904780e-01,-1.444147400676904780e-01,-1.444147400676904780e-01,-1.444147400676904780e-01,-1.444147400676904780e-01,-1.444147400676904780e-01,-1.444147400676904780e-01
-1.444147400676904780e-01,-1.444147400676904780e-01,-1.444147400676904780e-01,-1.444147400676904780e-01,-1.444147400676904780e-01,-1.444147400676904780e-01,-7.220737003384525288e-02,-2.775557561562891351e-17,-2.775557561562891351e-17,-2.775557561562891351e-17,-2.775557561562891351e-17,-2.775557561562891351e-17,-2.775557561562891351e-17,-5.551115123125782702e-17,-2.775557561562891351e-17,-2.775557561562891351e-17,-2.775557561562891351e-17,-2.775557561562891351e-17,-2.775557561562891351e-17,-2.775557561562891351e-17,-2.775557561562891351e-17,-2.775557561562891351e-17,-6.017280836153798829e-03,-1.353888188134599879e-02,-2.156192299621770281e-02,-2.908352404140991665e-02,-3.660512508660213049e-02,-4.412672613179433045e-02,-5.164832717698654430e-02,-5.916992822217874426e-02,-6.669152926737095810e-02,-7.471457038224264824e-02,-8.223617142743486208e-02,-8.975777247262707592e-02,-9.727937351781928976e-02,-1.048009745630115036e-01,-1.123225756082037174e-01,-1.198441766533959174e-01,-1.278672177682676214e-01,-1.353888188134598214e-01,-1.429104198586520491e-01,-1.444147400676904780e-01,-1.444147400676904780e-01,-1.444147400676904780e-01,-1.444147400676904780e-01,-1.444147400676904780e-01,-1.444147400676904780e-01
-1.444147400676904780e-01,-1.444147400676904780e-01,-1.444147400676904780e-01,-1.444147400676904780e-01,-1.444147400676904780e-01,-1.308758581863445070e-01,-4.512960627115342183e-03,-5.551115123125782702e-17,-2.775557561562891351e-17,-2.775557561562891351e-17,-2.775557561562891351e-17,-2.775557561562891351e-17,-2.775557561562891351e-17,-2.775557561562891351e-17,-2.775557561562891351e-17,-2.775557561562891351e-17,-2.775557561562891351e-17,-5.551115123125782702e-17,-2.775557561562891351e-17,-2.775557561562891351e-17,-2.775557561562891351e-17,-2.775557561562891351e-17,-2.775557561562891351e-17,-2.775557561562891351e-17,-7.020160975512751422e-03,-1.504320209038445544e-02,-2.256480313557665540e-02,-3.008640418076888312e-02,-3.760800522596108308e-02,-4.512960627115329693e-02,-5.265120731634551077e-02,-6.017280836153771073e-02,-6.819584947640940087e-02,-7.571745052160161471e-02,-8.323905156679381467e-02,-9.076065261198604239e-02,-9.828225365717825623e-02,-1.058038547023704701e-01,-1.133254557475626700e-01,-1.213484968624343602e-01,-1.288700979076265740e-01,-1.363916989528187740e-01,-1.439132999980110017e-01,-1.444147400676904780e-01,-1.444147400676904780e-01,-1.444147400676904780e-01,-1.444147400676904780e-01
-1.444147400676904780e-01,-1.444147400676904780e-01,-1.444147400676904780e-01,-1.444147400676904780e-01,-1.444147400676904780e-01,-6.318144877961459627e-02,-2.775557561562891351e-17,-2.775557561562891351e-17,-2.775557561562891351e-17,-2.775557561562891351e-17,-2.775557561562891351e-17,-5.551115123125782702e-17,-2.775557561562891351e-17,-2.775557561562891351e-17,-2.775557561562891351e-17,-2.775557561562891351e-17,-2.775557561562891351e-17,-2.775557561562891351e-17,-2.775557561562891351e-17,-2.775557561562891351e-17,-2.775557561562891351e-17,-2.775557561562891351e-17,-2.775557561562891351e-17,-2.775557561562891351e-17,-2.775557561562891351e-17,-5.014400696794762968e-04,-8.023041114871704016e-03,-1.604608222974340803e-02,-2.356768327493560800e-02,-3.108928432012783571e-02,-3.861088536532006343e-02,-4.613248641051226340e-02,-5.365408745570446336e-02,-6.117568850089666332e-02,-6.919872961576835346e-02,-7.672033066096056730e-02,-8.424193170615279502e-02,-9.176353275134499499e-02,-9.928513379653720883e-02,-1.068067348417294227e-01,-1.148297759566011128e-01,-1.223513770017933266e-01,-1.298729780469855266e-01,-1.373945790921777543e-01,-1.444147400676904780e-01,-1.444147400676904780e-01,-1.444147400676904780e-01
-1.444147400676904780e-01,-1.444147400676904780e-01,-1.444147400676904780e-01,-1.444147400676904780e-01,-1.218499369321138504e-01,-2.775557561562891351e-17,-2.775557561562891351e-17,-2.775557561562891351e-17,-2.775557561562891351e-17,-2.775557561562891351e-17,-2.775557561562891351e-17,-2.775557561562891351e-17,-2.775557561562891351e-17,-2.775557561562891351e-17,-2.775557561562891351e-17,-2.775557561562891351e-17,-2.775557561562891351e-17,-2.775557561562891351e-17,-2.775557561562891351e-17,-2.775557561562891351e-17,-2.775557561562891351e-17,-2.775557561562891351e-17,-2.775557561562891351e-17,-5.551115123125782702e-17,-2.775557561562891351e-17,-2.775557561562891351e-17,-2.775557561562891351e-17,-1.504320209038456646e-03,-9.527361323910160662e-03,-1.704896236910238838e-02,-2.457056341429458834e-02,-3.209216445948680219e-02,-3.961376550467900215e-02,-4.713536654987122987e-02,-5.465696759506342983e-02,-6.268000870993511997e-02,-7.020160975512731993e-02,-7.772321080031953378e-02,-8.524481184551174762e-02,-9.276641289070396146e-02,-1.002880139358961753e-01,-1.078096149810883891e-01,-1.158326560959600793e-01,-1.233542571411522792e-01,-1.308758581863445070e-01,-1.383974592315367069e-01,-1.444147400676904780e-01
-1.444147400676904780e-01,-1.444147400676904780e-01,-1.444147400676904780e-01,-1.444147400676904780e-01,-5.415552752538393966e-02,-2.775557561562891351e-17,-2.775557561562891351e-17,-2.775557561562891351e-17,-2.775557561562891351e-17,-2.775557561562891351e-17,-2.775557561562891351e-17,-2.775557561562891351e-17,-2.775557561562891351e-17,-2.775557561562891351e-17,-2.775557561562891351e-17,-2.775557561562891351e-17,-2.775557561562891351e-17,-2.775557561562891351e-17,-2.775557561562891351e-17,-2.775557561562891351e-17,-2.775557561562891351e-17,-2.775557561562891351e-17,-2.775557561562891351e-17,-2.775557561562891351e-17,-2.775557561562891351e-17,-2.775557561562891351e-17,-2.775557561562891351e-17,-5.551115123125782702e-17,-2.775557561562891351e-17,-3.008640418076913292e-03,-1.053024146326911326e-02,-1.805184250846134097e-02,-2.557344355365354094e-02,-3.309504459884576866e-02,-4.061664564403796862e-02,-4.813824668923018246e-02,-5.616128780410185872e-02,-6.368288884929407256e-02,-7.120448989448628641e-02,-7.872609093967850025e-02,-8.624769198487071409e-02,-9.376929303006292793e-02,-1.012908940752551279e-01,-1.093139351901268319e-01,-1.168355362353190319e-01,-1.243571372805112457e-01,-1.318787383257034596e-01
-1.444147400676904780e-01,-1.444147400676904780e-01,-1.444147400676904780e-01,-1.128240156778831937e-01,-2.775557561562891351e-17,-2.775557561562891351e-17,-2.775557561562891351e-17,-2.775557561562891351e-17,-2.775557561562891351e-17,-2.775557561562891351e-17,-2.775557561562891351e-17,-2.775557561562891351e-17,-2.775557561562891351e-17,-2.775557561562891351e-17,-2.775557561562891351e-17,-2.775557561562891351e-17,-2.775557561562891351e-17,-2.775557561562891351e-17,-2.775557561562891351e-17,-2.775557561562891351e-17,-2.775557561562891351e-17,-2.775557561562891351e-17,-2.775557561562891351e-17,-2.775557561562891351e-17,-2.775557561562891351e-17,-5.551115123125782702e-17,-2.775557561562891351e-17,-2.775557561562891351e-17,-2.775557561562891351e-17,-2.775557561562891351e-17,-2.775557561562891351e-17,-4.011520557435865886e-03,-1.153312160262806585e-02,-1.905472264782029357e-02,-2.657632369301252129e-02,-3.409792473820472125e-02,-4.161952578339692121e-02,-4.964256689826861135e-02,-5.716416794346082519e-02,-6.468576898865302516e-02,-7.220737003384523900e-02,-7.972897107903745284e-02,-8.725057212422968056e-02,-9.477217316942188052e-02,-1.027952142842935845e-01,-1.103168153294857845e-01,-1.178384163746779983e-01
-1.444147400676904780e-01,-1.444147400676904780e-01,-1.444147400676904780e-01,-4.512960627115329693e-02,-2.775557561562891351e-17,0.000000000000000000e+00,-2.775557561562891351e-17,-2.775557561562891351e-17,-2.775557561562891351e-17,-2.775557561562891351e-17,-2.775557561562891351e-17,-2.775557561562891351e-17,-2.775557561562891351e-17,-2.775557561562891351e-17,-2.775557561562891351e-17,-2.775557561562891351e-17,-2.775557561562891351e-17,-2.775557561562891351e-17,-5.551115123125782702e-17,-2.775557561562891351e-17,-2.775557561562891351e-17,-2.775557561562891351e-17,-2.775557561562891351e-17,-2.775557561562891351e-17,-2.775557561562891351e-17,-2.775557561562891351e-17,-2.775557561562891351e-17,-2.775557561562891351e-17,-2.775557561562891351e-17,-5.551115123125782702e-17,-2.775557561562891351e-17,-2.775557561562891351e-17,-2.775557561562891351e-17,-5.014400696794846235e-03,-1.253600174198704620e-02,-2.005760278717924616e-02,-2.757920383237147388e-02,-3.510080487756367384e-02,-4.262240592275590156e-02,-5.064544703762757782e-02,-5.816704808281977779e-02,-6.568864912801199163e-02,-7.321025017320420547e-02,-8.073185121839643319e-02,-8.825345226358863315e-02,-9.577505330878084699e-02,-1.037980944236525371e-01
-1.444147400676904780e-01,-1.444147400676904780e-01,-1.037980944236525371e-01,-2.775557561562891351e-17,-2.775557561562891351e-17,-2.775557561562891351e-17,-2.775557561562891351e-17,-2.775557561562891351e-17,-2.775557561562891351e-17,0.000000000000000000e+00,-2.775557561562891351e-17,-2.775557561562891351e-17,-2.775557561562891351e-17,-2.775557561562891351e-17,-2.775557561562891351e-17,-2.775557561562891351e-17,-2.775557561562891351e-17,-2.775557561562891351e-17,-2.775557561562891351e-17,-2.775557561562891351e-17,-2.775557561562891351e-17,-2.775557561562891351e-17,-5.551115123125782702e-17,-2.775557561562891351e-17,-2.775557561562891351e-17,-2.775557561562891351e-17,-2.775557561562891351e-17,-2.775557561562891351e-17,-2.775557561562891351e-17,-2.775557561562891351e-17,-2.775557561562891351e-17,-2.775557561562891351e-17,-2.775557561562891351e-17,-2.775557561562891351e-17,-2.775557561562891351e-17,-6.017280836153771073e-03,-1.353888188134599879e-02,-2.106048292653822651e-02,-2.858208397173044035e-02,-3.610368501692264032e-02,-4.412672613179434433e-02,-5.164832717698653042e-02,-5.916992822217874426e-02,-6.669152926737094422e-02,-7.421313031256315806e-02,-8.173473135775538578e-02,-8.925633240294759962e-02
-1.444147400676904780e-01,-1.444147400676904780e-01,-3.159072438980731201e-02,-2.775557561562891351e-17,-2.775557561562891351e-17,-2.775557561562891351e-17,-2.775557561562891351e-17,-2.775557561562891351e-17,-2.775557561562891351e-17,-2.775557561562891351e-17,-2.775557561562891351e-17,-2.775557561562891351e-17,-2.775557561562891351e-17,0.000000000000000000e+00,-2.775557561562891351e-17,-2.775557561562891351e-17,-2.775557561562891351e-17,-2.775557561562891351e-17,-2.775557561562891351e-17,-2.775557561562891351e-17,-2.775557561562891351e-17,-2.775557561562891351e-17,-2.775557561562891351e-17,-2.775557561562891351e-17,-2.775557561562891351e-17,-2.775557561562891351e-17,-5.551115123125782702e-17,-2.775557561562891351e-17,-2.775557561562891351e-17,-2.775557561562891351e-17,-2.775557561562891351e-17,-2.775557561562891351e-17,-2.775557561562891351e-17,-2.775557561562891351e-17,0.000000000000000000e+00,-2.775557561562891351e-17,-2.775557561562891351e-17,-7.020160975512751422e-03,-1.454176202070497914e-02,-2.206336306589717910e-02,-2.958496411108940682e-02,-3.760800522596108308e-02,-4.512960627115329693e-02,-5.265120731634549689e-02,-6.017280836153771073e-02,-6.769440940672992457e-02,-7.521601045192212454e-02
-1.444147400676904780e-01,-9.025921254230656610e-02,-2.775557561562891351e-17,-2.775557561562891351e-17,-2.775557561562891351e-17,-2.775557561562891351e-17,-2.775557561562891351e-17,-2.775557561562891351e-17,-2.775557561562891351e-17,-2.775557561562891351e-17,-2.775557561562891351e-17,-2.775557561562891351e-17,-2.775557561562891351e-17,-2.775557561562891351e-17,-2.775557561562891351e-17,-2.775557561562891351e-17,-2.775557561562891351e-17,-2.775557561562891351e-17,-2.775557561562891351e-17,-2.775557561562891351e-17,-2.775557561562891351e-17,-2.775557561562891351e-17,-2.775557561562891351e-17,-2.775557561562891351e-17,-2.775557561562891351e-17,-2.775557561562891351e-17,-2.775557561562891351e-17,-2.775557561562891351e-17,-2.775557561562891351e-17,-2.775557561562891351e-17,-2.775557561562891351e-17,-2.775557561562891351e-17,-2.775557561562891351e-17,-2.775557561562891351e-17,-2.775557561562891351e-17,-2.775557561562891351e-17,-2.775557561562891351e-17,-2.775557561562891351e-17,-5.014400696794762968e-04,-8.023041114871731772e-03,-1.554464216006393174e-02,-2.306624320525614558e-02,-3.058784425044835942e-02,-3.861088536532004956e-02,-4.613248641051226340e-02,-5.365408745570446336e-02,-6.117568850089666332e-02
-1.444147400676904780e-01,-2.607970516246456427e-02,0.000000000000000000e+00,-2.775557561562891351e-17,0.000000000000000000e+00,-2.775557561562891351e-17,-2.775557561562891351e-17,-2.775557561562891351e-17,-2.775557561562891351e-17,-2.775557561562891351e-17,-2.775557561562891351e-17,-2.775557561562891351e-17,-2.775557561562891351e-17,-2.775557561562891351e-17,-2.775557561562891351e-17,-2.775557561562891351e-17,-2.775557561562891351e-17,-2.775557561562891351e-17,-2.775557561562891351e-17,-2.775557561562891351e-17,-2.775557561562891351e-17,-2.775557561562891351e-17,-2.775557561562891351e-17,-2.775557561562891351e-17,-2.775557561562891351e-17,-2.775557561562891351e-17,-2.775557561562891351e-17,-2.775557561562891351e-17,-2.775557561562891351e-17,-2.775557561562891351e-17,-2.775557561562891351e-17,-2.775557561562891351e-17,-2.775557561562891351e-17,-2.775557561562891351e-17,-2.775557561562891351e-17,-2.775557561562891351e-17,-2.775557561562891351e-17,-2.775557561562891351e-17,-2.775557561562891351e-17,-2.775557561562891351e-17,-1.504320209038456646e-03,-9.025921254230684365e-03,-1.654752229942288433e-02,-2.406912334461511205e-02,-3.209216445948680219e-02,-3.961376550467901603e-02,-4.713536654987121599e-02
-8.958660783345764878e-02,-1.388603269881641400e-02,-8.678770436760296914e-03,-3.471508174704124317e-03,-2.775557561562891351e-17,-2.775557561562891351e-17,-2.775557561562891351e-17,-2.775557561562891351e-17,0.000000000000000000e+00,-2.775557561562891351e-17,-2.775557561562891351e-17,-2.775557561562891351e-17,-2.775557561562891351e-17,-2.775557561562891351e-17,-2.775557561562891351e-17,-2.775557561562891351e-17,-2.775557561562891351e-17,-2.775557561562891351e-17,-2.775557561562891351e-17,-2.775557561562891351e-17,-2.775557561562891351e-17,-2.775557561562891351e-17,-2.775557561562891351e-17,-2.775557561562891351e-17,-2.775557561562891351e-17,-2.775557561562891351e-17,-2.775557561562891351e-17,-2.775557561562891351e-17,-2.775557561562891351e-17,-2.775557561562891351e-17,-2.775557561562891351e-17,-2.775557561562891351e-17,-2.775557561562891351e-17,-2.775557561562891351e-17,-2.775557561562891351e-17,-2.775557561562891351e-17,-2.775557561562891351e-17,-2.775557561562891351e-17,0.000000000000000000e+00,-2.775557561562891351e-17,-2.775557561562891351e-17,-2.775557561562891351e-17,-2.507200348397436995e-03,-1.002880139358966471e-02,-1.755040243878186468e-02,-2.557344355365355482e-02,-3.309504459884576866e-02
-3.965113243294839107e-02,-2.360625558798790102e-02,-1.839899332593175618e-02,-1.319173106387561134e-02,-7.984468801819466499e-03,-2.430055722292906450e-03,-2.775557561562891351e-17,-2.775557561562891351e-17,-2.775557561562891351e-17,-2.775557561562891351e-17,-2.775557561562891351e-17,-2.775557561562891351e-17,-2.775557561562891351e-17,-2.775557561562891351e-17,-2.775557561562891351e-17,-2.775557561562891351e-17,-2.775557561562891351e-17,-2.775557561562891351e-17,-2.775557561562891351e-17,-2.775557561562891351e-17,-2.775557561562891351e-17,-2.775557561562891351e-17,-2.775557561562891351e-17,-2.775557561562891351e-17,-2.775557561562891351e-17,-5.551115123125782702e-17,-2.775557561562891351e-17,-2.775557561562891351e-17,-2.775557561562891351e-17,-2.775557561562891351e-17,-2.775557561562891351e-17,-2.775557561562891351e-17,-2.775557561562891351e-17,0.000000000000000000e+00,-2.775557561562891351e-17,-2.775557561562891351e-17,-2.775557561562891351e-17,-2.775557561562891351e-17,-2.775557561562891351e-17,-2.775557561562891351e-17,-2.775557561562891351e-17,-2.775557561562891351e-17,0.000000000000000000e+00,-2.775557561562891351e-17,-3.510080487756389589e-03,-1.103168153294858955e-02,-1.905472264782032132e-02
-3.853374073921550513e-02,-3.332647847715936029e-02,-2.811921621510321545e-02,-2.291195395304707061e-02,-1.770469169099092577e-02,-1.249742942893478093e-02,-7.290167166878636085e-03,-1.735754087352076036e-03,-2.775557561562891351e-17,-2.775557561562891351e-17,-2.775557561562891351e-17,-2.775557561562891351e-17,-2.775557561562891351e-17,-2.775557561562891351e-17,-2.775557561562891351e-17,-2.775557561562891351e-17,-2.775557561562891351e-17,-2.775557561562891351e-17,-2.775557561562891351e-17,-2.775557561562891351e-17,-2.775557561562891351e-17,0.000000000000000000e+00,-2.775557561562891351e-17,-2.775557561562891351e-17,-2.775557561562891351e-17,-2.775557561562891351e-17,-2.775557561562891351e-17,-2.775557561562891351e-17,-2.775557561562891351e-17,-2.775557561562891351e-17,-2.775557561562891351e-17,-2.775557561562891351e-17,-2.775557561562891351e-17,-2.775557561562891351e-17,-2.775557561562891351e-17,-5.551115123125782702e-17,-2.775557561562891351e-17,0.000000000000000000e+00,-2.775557561562891351e-17,-2.775557561562891351e-17,-2.775557561562891351e-17,-2.775557561562891351e-17,-2.775557561562891351e-17,-2.775557561562891351e-17,-2.775557561562891351e-17,-2.775557561562891351e-17,-4.512960627115342183e-03
-4.860111444585739349e-02,-4.304670136633083344e-02,-3.783943910427468860e-02,-3.263217684221852988e-02,-2.742491458016238504e-02,-2.221765231810625407e-02,-1.701039005605012311e-02,-1.180312779399395051e-02,-6.248714714467418219e-03,-1.041452452411245622e-03,-2.775557561562891351e-17,-2.775557561562891351e-17,-2.775557561562891351e-17,-2.775557561562891351e-17,-2.775557561562891351e-17,-2.775557561562891351e-17,-2.775557561562891351e-17,-2.775557561562891351e-17,-2.775557561562891351e-17,-2.775557561562891351e-17,-2.775557561562891351e-17,-2.775557561562891351e-17,-2.775557561562891351e-17,-2.775557561562891351e-17,-2.775557561562891351e-17,0.000000000000000000e+00,-2.775557561562891351e-17,-2.775557561562891351e-17,-2.775557561562891351e-17,-2.775557561562891351e-17,-2.775557561562891351e-17,-2.775557561562891351e-17,-2.775557561562891351e-17,-2.775557561562891351e-17,-2.775557561562891351e-17,-2.775557561562891351e-17,-2.775557561562891351e-17,-2.775557561562891351e-17,-2.775557561562891351e-17,-2.775557561562891351e-17,-2.775557561562891351e-17,0.000000000000000000e+00,-2.775557561562891351e-17,-2.775557561562891351e-17,-2.775557561562891351e-17,-2.775557561562891351e-17,-2.775557561562891351e-17
-5.832133733502886663e-02,-5.311407507297272179e-02,-4.755966199344616174e-02,-4.235239973139001690e-02,-3.714513746933387206e-02,-3.193787520727771334e-02,-2.673061294522156850e-02,-2.152335068316543754e-02,-1.631608842110929269e-02,-1.076167534158273265e-02,-5.554413079526587804e-03,-3.471508174704152072e-04,-2.775557561562891351e-17,-2.775557561562891351e-17,-2.775557561562891351e-17,-2.775557561562891351e-17,-2.775557561562891351e-17,-2.775557561562891351e-17,-2.775557561562891351e-17,-2.775557561562891351e-17,-2.775557561562891351e-17,-2.775557561562891351e-17,-2.775557561562891351e-17,-2.775557561562891351e-17,-2.775557561562891351e-17,-2.775557561562891351e-17,-2.775557561562891351e-17,-2.775557561562891351e-17,-2.775557561562891351e-17,0.000000000000000000e+00,-2.775557561562891351e-17,-2.775557561562891351e-17,-2.775557561562891351e-17,-2.775557561562891351e-17,-2.775557561562891351e-17,-2.775557561562891351e-17,-2.775557561562891351e-17,0.000000000000000000e+00,-2.775557561562891351e-17,-2.775557561562891351e-17,-2.775557561562891351e-17,-2.775557561562891351e-17,-2.775557561562891351e-17,-2.775557561562891351e-17,-2.775557561562891351e-17,-2.775557561562891351e-17,-2.775557561562891351e-17
-6.804156022420033978e-02,-6.283429796214419494e-02,-5.762703570008805010e-02,-5.241977343803190525e-02,-4.686536035850533133e-02,-4.165809809644918649e-02,-3.645083583439304165e-02,-3.124357357233689680e-02,-2.603631131028076584e-02,-2.082904904822462100e-02,-1.527463596869807483e-02,-1.006737370664192999e-02,-4.860111444585785145e-03,0.000000000000000000e+00,-2.775557561562891351e-17,-2.775557561562891351e-17,-2.775557561562891351e-17,-2.775557561562891351e-17,-2.775557561562891351e-17,-2.775557561562891351e-17,-2.775557561562891351e-17,-2.775557561562891351e-17,-2.775557561562891351e-17,-2.775557561562891351e-17,-2.775557561562891351e-17,-2.775557561562891351e-17,-2.775557561562891351e-17,-2.775557561562891351e-17,-2.848864895114272544e-01,-2.848864895114272544e-01,-4.281326282414080753e-01,-4.281326282414080753e-01,-4.281326282414080753e-01,-1.432461387299808486e-01,-2.775557561562891351e-17,-2.775557561562891351e-17,-2.775557561562891351e-17,-2.775557561562891351e-17,-2.775557561562891351e-17,-2.775557561562891351e-17,-2.775557561562891351e-17,0.000000000000000000e+00,-2.775557561562891351e-17,-2.775557561562891351e-17,-2.775557561562891351e-17,-5.551115123125782702e-17,-2.775557561562891351e-17
-7.776178311337181293e-02,-7.255452085131566808e-02,-6.734725858925952324e-02,-6.213999632720337840e-02,-5.693273406514721968e-02,-5.137832098562065963e-02,-4.617105872356451479e-02,-4.096379646150838383e-02,-3.575653419945222511e-02,-3.054927193739608027e-02,-2.534200967533993543e-02,-2.013474741328379058e-02,-1.458033433375724441e-02,-9.373072071701099572e-03,-4.165809809644954731e-03,-2.775557561562891351e-17,-2.775557561562891351e-17,0.000000000000000000e+00,-2.775557561562891351e-17,-2.775557561562891351e-17,0.000000000000000000e+00,-2.775557561562891351e-17,-2.775557561562891351e-17,-2.775557561562891351e-17,-2.775557561562891351e-17,-2.775557561562891351e-17,-2.775557561562891351e-17,-2.775557561562891351e-17,-2.848864895114272544e-01,-2.848864895114272544e-01,-4.281326282414080753e-01,-4.281326282414080753e-01,-4.281326282414080753e-01,-1.432461387299808486e-01,-5.551115123125782702e-17,-2.775557561562891351e-17,0.000000000000000000e+00,-2.775557561562891351e-17,-2.775557561562891351e-17,-2.775557561562891351e-17,-2.775557561562891351e-17,-2.775557561562891351e-17,-2.775557561562891351e-17,-2.775557561562891351e-17,-2.775557561562891351e-17,0.000000000000000000e+00,-2.775557561562891351e-17
-8.748200600254327219e-02,-8.227474374048712735e-02,-7.706748147843099639e-02,-7.186021921637485155e-02,-6.665295695431870671e-02,-6.144569469226254799e-02,-5.589128161273598794e-02,-5.068401935067984310e-02,-4.547675708862371213e-02,-4.026949482656755341e-02,-3.506223256451140857e-02,-2.985497030245526373e-02,-2.464770804039911889e-02,-1.909329496087258660e-02,-1.388603269881641400e-02,-8.678770436760269158e-03,-3.471508174704152072e-03,-2.775557561562891351e-17,-2.775557561562891351e-17,-2.775557561562891351e-17,-2.775557561562891351e-17,-2.775557561562891351e-17,-2.775557561562891351e-17,-2.775557561562891351e-17,0.000000000000000000e+00,-2.775557561562891351e-17,-2.775557561562891351e-17,-2.775557561562891351e-17,-2.848864895114272544e-01,-2.848864895114272544e-01,-4.281326282414080753e-01,-4.281326282414080753e-01,-4.281326282414080753e-01,-1.432461387299808486e-01,-2.775557561562891351e-17,-2.775557561562891351e-17,-2.775557561562891351e-17,-2.775557561562891351e-17,-5.551115123125782702e-17,-2.775557561562891351e-17,-2.775557561562891351e-17,-2.775557561562891351e-17,-2.775557561562891351e-17,-2.775557561562891351e-17,-2.775557561562891351e-17,-2.775557561562891351e-17,-2.775557561562891351e-17
-9.754937970918516055e-02,-9.199496662965861438e-02,-8.678770436760245566e-02,-8.158044210554631082e-02,-7.637317984349017985e-02,-7.116591758143403501e-02,-6.595865531937787629e-02,-6.040424223985133012e-02,-5.519697997779517140e-02,-4.998971771573902656e-02,-4.478245545368288172e-02,-3.957519319162673688e-02,-3.436793092957059204e-02,-2.916066866751443332e-02,-2.360625558798790102e-02,-1.839899332593175618e-02,-1.319173106387561134e-02,-7.984468801819466499e-03,-2.777206539763293902e-03,-2.775557561562891351e-17,-5.551115123125782702e-17,-5.551115123125782702e-17,-2.775557561562891351e-17,-2.775557561562891351e-17,-2.775557561562891351e-17,-2.775557561562891351e-17,-2.775557561562891351e-17,-2.775557561562891351e-17,-2.848864895114272544e-01,-2.848864895114272544e-01,-4.281326282414080753e-01,-4.281326282414080753e-01,-4.281326282414080753e-01,-1.432461387299808486e-01,-2.775557561562891351e-17,-2.775557561562891351e-17,-2.775557561562891351e-17,-2.775557561562891351e-17,-2.775557561562891351e-17,-2.775557561562891351e-17,-2.775557561562891351e-17,-2.775557561562891351e-17,-2.775557561562891351e-17,-2.775557561562891351e-17,-2.775557561562891351e-17,-2.775557561562891351e-17,-2.775557561562891351e-17
-1.072696025983566337e-01,-1.020623403363004889e-01,-9.650792725677392880e-02,-9.130066499471778396e-02,-8.609340273266163912e-02,-8.088614047060549428e-02,-7.567887820854934944e-02,-7.047161594649321847e-02,-6.526435368443707363e-02,-5.970994060491051358e-02,-5.450267834285435486e-02,-4.929541608079819615e-02,-4.408815381874206518e-02,-3.888089155668592034e-02,-3.367362929462977550e-02,-2.846636703257363066e-02,-2.291195395304707061e-02,-1.770469169099095352e-02,-1.249742942893478093e-02,-7.290167166878636085e-03,-2.082904904822491243e-03,-2.775557561562891351e-17,-2.775557561562891351e-17,-2.775557561562891351e-17,-2.775557561562891351e-17,-5.551115123125782702e-17,-2.775557561562891351e-17,-2.775557561562891351e-17,-2.848864895114272544e-01,-2.848864895114273099e-01,-2.848864895114272544e-01,-2.848864895114272544e-01,-2.848864895114272544e-01,-2.775557561562891351e-17,-2.775557561562891351e-17,-2.775557561562891351e-17,-2.775557561562891351e-17,-2.775557561562891351e-17,-2.775557561562891351e-17,-2.775557561562891351e-17,0.000000000000000000e+00,-2.775557561562891351e-17,-2.775557561562891351e-17,-2.775557561562891351e-17,-5.551115123125782702e-17,-2.775557561562891351e-17,-2.775557561562891351e-17
-1.169898254875281207e-01,-1.117825632254719759e-01,-1.065753009634158172e-01,-1.010208878838892571e-01,-9.581362562183311227e-02,-9.060636335977696743e-02,-8.539910109772082258e-02,-8.019183883566467774e-02,-7.498457657360853290e-02,-6.977731431155238806e-02,-6.422290123202582801e-02,-5.901563896996968317e-02,-5.380837670791353833e-02,-4.860111444585737961e-02,-4.339385218380123477e-02,-3.818658992174508993e-02,-3.297932765968895896e-02,-2.742491458016239891e-02,-2.221765231810625407e-02,-1.701039005605009535e-02,-1.180312779399397827e-02,-6.595865531937833426e-03,-1.388603269881660829e-03,-2.775557561562891351e-17,-2.775557561562891351e-17,-2.775557561562891351e-17,-2.775557561562891351e-17,-2.775557561562891351e-17,-2.775557561562891351e-17,-5.551115123125782702e-17,-2.775557561562891351e-17,-2.775557561562891351e-17,-2.775557561562891351e-17,-5.551115123125782702e-17,-2.775557561562891351e-17,-2.775557561562891351e-17,-2.775557561562891351e-17,-2.775557561562891351e-17,-2.775557561562891351e-17,-2.775557561562891351e-17,-2.775557561562891351e-17,-2.775557561562891351e-17,-2.775557561562891351e-17,-2.775557561562891351e-17,-5.551115123125782702e-17,-2.775557561562891351e-17,-5.551115123125782702e-17
-1.267100483766995800e-01,-1.215027861146434351e-01,-1.162955238525872903e-01,-1.110882615905311455e-01,-1.058809993284750006e-01,-1.003265862489484406e-01,-9.511932398689229573e-02,-8.991206172483615089e-02,-8.470479946278000605e-02,-7.949753720072386121e-02,-7.429027493866771636e-02,-6.908301267661157152e-02,-6.352859959708501147e-02,-5.832133733502886663e-02,-5.311407507297270791e-02,-4.790681281091656307e-02,-4.269955054886040435e-02,-3.749228828680428727e-02,-3.193787520727772722e-02,-2.673061294522158238e-02,-2.152335068316542366e-02,-1.631608842110929269e-02,-1.110882615905314785e-02,-5.901563896996975256e-03,-6.943016349408581700e-04,-2.775557561562891351e-17,-2.775557561562891351e-17,-2.775557561562891351e-17,-2.775557561562891351e-17,-2.775557561562891351e-17,-2.775557561562891351e-17,-2.775557561562891351e-17,-2.775557561562891351e-17,-2.775557561562891351e-17,-2.775557561562891351e-17,-2.775557561562891351e-17,-2.775557561562891351e-17,-5.551115123125782702e-17,-2.775557561562891351e-17,-2.775557561562891351e-17,-2.775557561562891351e-17,-2.775557561562891351e-17,-2.775557561562891351e-17,-2.775557561562891351e-17,-2.775557561562891351e-17,-2.775557561562891351e-17,-2.775557561562891351e-17
-1.364302712658710670e-01,-1.312230090038148944e-01,-1.260157467417587496e-01,-1.208084844797026186e-01,-1.156012222176464738e-01,-1.103939599555903150e-01,-1.048395468760637689e-01,-9.963228461400761016e-02,-9.442502235195147919e-02,-8.921776008989533435e-02,-8.401049782783918951e-02,-7.880323556578304467e-02,-7.359597330372689983e-02,-6.804156022420035366e-02,-6.283429796214420882e-02,-5.762703570008805010e-02,-5.241977343803190525e-02,-4.721251117597574654e-02,-4.200524891391958782e-02,-3.679798665186347073e-02,-3.124357357233689680e-02,-2.603631131028075196e-02,-2.082904904822463488e-02,-1.562178678616846228e-02,-1.041452452411231744e-02,-5.207262262056172597e-03,-2.775557561562891351e-17,-2.775557561562891351e-17,-2.775557561562891351e-17,-2.775557561562891351e-17,-2.775557561562891351e-17,-2.775557561562891351e-17,-2.775557561562891351e-17,-2.775557561562891351e-17,-2.775557561562891351e-17,-2.775557561562891351e-17,-2.775557561562891351e-17,-2.775557561562891351e-17,-2.775557561562891351e-17,-2.775557561562891351e-17,-2.775557561562891351e-17,-2.775557561562891351e-17,-2.775557561562891351e-17,-2.775557561562891351e-17,-2.775557561562891351e-17,-2.775557561562891351e-17,-2.775557561562891351e-17
-1.444147400676904780e-01,-1.409432318929863814e-01,-1.357359696309302366e-01,-1.305287073688740918e-01,-1.253214451068179469e-01,-1.201141828447618021e-01,-1.149069205827056572e-01,-1.093525075031790972e-01,-1.041452452411229523e-01,-9.893798297906680750e-02,-9.373072071701066266e-02,-8.852345845495451782e-02,-8.331619619289837297e-02,-7.810893393084222813e-02,-7.255452085131566808e-02,-6.734725858925952324e-02,-6.213999632720337840e-02,-5.693273406514721968e-02,-5.172547180309108872e-02,-4.651820954103493000e-02,-4.131094727897877128e-02,-3.575653419945223899e-02,-3.054927193739609415e-02,-2.534200967533994930e-02,-2.013474741328380446e-02,-1.492748515122765962e-02,-9.720222889171514780e-03,-4.512960627115369938e-03,-2.775557561562891351e-17,-2.775557561562891351e-17,-2.775557561562891351e-17,-2.775557561562891351e-17,-2.775557561562891351e-17,-2.775557561562891351e-17,-2.775557561562891351e-17,-2.775557561562891351e-17,-2.775557561562891351e-17,-2.775557561562891351e-17,-2.775557561562891351e-17,-2.775557561562891351e-17,-2.775557561562891351e-17,-2.775557561562891351e-17,-2.775557561562891351e-17,-2.775557561562891351e-17,-2.775557561562891351e-17,-2.775557561562891351e-17,-1.353888188134599879e-02
-1.444147400676904780e-01,-1.444147400676904780e-01,-1.444147400676904780e-01,-1.402489302580455510e-01,-1.350416679959894062e-01,-1.298344057339332613e-01,-1.246271434718771165e-01,-1.194198812098209717e-01,-1.142126189477648268e-01,-1.086582058682382668e-01,-1.034509436061821358e-01,-9.824368134412597708e-02,-9.303641908206983224e-02,-8.782915682001368740e-02,-8.262189455795754256e-02,-7.706748147843099639e-02,-7.186021921637485155e-02,-6.665295695431870671e-02,-6.144569469226254799e-02,-5.623843243020641702e-02,-5.103117016815025830e-02,-4.582390790609411346e-02,-4.026949482656755341e-02,-3.506223256451140857e-02,-2.985497030245526373e-02,-2.464770804039911889e-02,-1.944044577834297405e-02,-1.423318351628682921e-02,-9.025921254230684365e-03,-3.471508174704124317e-03,-2.775557561562891351e-17,-2.775557561562891351e-17,-2.775557561562891351e-17,-2.775557561562891351e-17,-2.775557561562891351e-17,-2.775557561562891351e-17,-2.775557561562891351e-17,-2.775557561562891351e-17,-2.775557561562891351e-17,-2.775557561562891351e-17,-2.775557561562891351e-17,-2.775557561562891351e-17,-2.775557561562891351e-17,0.000000000000000000e+00,-2.775557561562891351e-17,-5.551115123125782702e-17,-8.123329128807590949e-02
-1.444147400676904780e-01,-1.444147400676904780e-01,-1.444147400676904780e-01,-1.444147400676904780e-01,-1.444147400676904780e-01,-1.395546286231047484e-01,-1.343473663610486035e-01,-1.291401040989924587e-01,-1.239328418369363138e-01,-1.187255795748801551e-01,-1.131711664953536089e-01,-1.079639042332974641e-01,-1.027566419712413054e-01,-9.754937970918516055e-02,-9.234211744712902958e-02,-8.713485518507287086e-02,-8.192759292301672602e-02,-7.637317984349017985e-02,-7.116591758143403501e-02,-6.595865531937789017e-02,-6.075139305732174533e-02,-5.554413079526558661e-02,-5.033686853320944177e-02,-4.512960627115328305e-02,-3.957519319162673688e-02,-3.436793092957057816e-02,-2.916066866751444719e-02,-2.395340640545828848e-02,-1.874614414340214363e-02,-1.353888188134602655e-02,-7.984468801819466499e-03,-2.777206539763293902e-03,-2.775557561562891351e-17,-2.775557561562891351e-17,-2.775557561562891351e-17,-2.775557561562891351e-17,-2.775557561562891351e-17,-2.775557561562891351e-17,-2.775557561562891351e-17,-2.775557561562891351e-17,-2.775557561562891351e-17,-2.775557561562891351e-17,-2.775557561562891351e-17,-2.775557561562891351e-17,-2.775557561562891351e-17,-2.256480313557665540e-02,-1.444147400676904780e-01
-1.444147400676904780e-01,-1.444147400676904780e-01,-1.444147400676904780e-01,-1.444147400676904780e-01,-1.444147400676904780e-01,-1.444147400676904780e-01,-1.440675892502200628e-01,-1.388603269881639179e-01,-1.336530647261077731e-01,-1.284458024640516283e-01,-1.232385402019954834e-01,-1.176841271224689234e-01,-1.124768648604127785e-01,-1.072696025983566337e-01,-1.020623403363004889e-01,-9.685507807424434401e-02,-9.164781581218819917e-02,-8.644055355013205433e-02,-8.088614047060549428e-02,-7.567887820854936332e-02,-7.047161594649321847e-02,-6.526435368443705975e-02,-6.005709142238091491e-02,-5.484982916032477007e-02,-4.964256689826862523e-02,-4.408815381874203743e-02,-3.888089155668592034e-02,-3.367362929462977550e-02,-2.846636703257363066e-02,-2.325910477051748582e-02,-1.805184250846134097e-02,-1.284458024640519613e-02,-7.290167166878636085e-03,-2.082904904822491243e-03,-2.775557561562891351e-17,-2.775557561562891351e-17,-2.775557561562891351e-17,-2.775557561562891351e-17,-2.775557561562891351e-17,-2.775557561562891351e-17,-5.551115123125782702e-17,-2.775557561562891351e-17,-2.775557561562891351e-17,-1.915117639714591924e-01,-1.915117639714591924e-01,-2.817709765137657030e-01,-3.359265040391496426e-01
-1.444147400676904780e-01,-1.444147400676904780e-01,-1.444147400676904780e-01,-1.444147400676904780e-01,-1.444147400676904780e-01,-1.444147400676904780e-01,-1.444147400676904780e-01,-1.444147400676904780e-01,-1.433732876152792601e-01,-1.381660253532231153e-01,-1.329587630911669704e-01,-1.277515008291107979e-01,-1.221970877495842517e-01,-1.169898254875281207e-01,-1.117825632254719620e-01,-1.065753009634158172e-01,-1.013680387013596723e-01,-9.616077643930352747e-02,-9.095351417724738263e-02,-8.539910109772082258e-02,-8.019183883566467774e-02,-7.498457657360853290e-02,-6.977731431155238806e-02,-6.457005204949624322e-02,-5.936278978744009838e-02,-5.415552752538393966e-02,-4.860111444585737961e-02,-4.339385218380123477e-02,-3.818658992174508993e-02,-3.297932765968894508e-02,-2.777206539763280024e-02,-2.256480313557666928e-02,-1.735754087352051056e-02,-1.180312779399397827e-02,-6.595865531937805670e-03,-1.388603269881660829e-03,-2.775557561562891351e-17,-2.775557561562891351e-17,-2.775557561562891351e-17,-2.775557561562891351e-17,-2.775557561562891351e-17,-2.775557561562891351e-17,-2.775557561562891351e-17,-1.915117639714591924e-01,-2.231024883612664766e-01,-3.359265040391496426e-01,-3.359265040391496426e-01
-1.444147400676904780e-01,-1.444147400676904780e-01,-1.444147400676904780e-01,-1.444147400676904780e-01,-1.444147400676904780e-01,-1.444147400676904780e-01,-1.444147400676904780e-01,-1.444147400676904780e-01,-1.444147400676904780e-01,-1.444147400676904780e-01,-1.426789859803384297e-01,-1.374717237182822849e-01,-1.322644614562261400e-01,-1.270571991941699952e-01,-1.215027861146434351e-01,-1.162955238525872903e-01,-1.110882615905311455e-01,-1.058809993284750006e-01,-1.006737370664188558e-01,-9.546647480436271094e-02,-9.025921254230656610e-02,-8.470479946278000605e-02,-7.949753720072386121e-02,-7.429027493866771636e-02,-6.908301267661157152e-02,-6.387575041455542668e-02,-5.866848815249928184e-02,-5.311407507297272179e-02,-4.790681281091656307e-02,-4.269955054886041823e-02,-3.749228828680427339e-02,-3.228502602474812855e-02,-2.707776376269198371e-02,-2.187050150063585274e-02,-1.631608842110929269e-02,-1.110882615905314785e-02,-5.901563896996975256e-03,-6.943016349408581700e-04,-2.775557561562891351e-17,-2.775557561562891351e-17,-2.775557561562891351e-17,-2.775557561562891351e-17,0.000000000000000000e+00,-1.915117639714591924e-01,-2.953098583951117018e-01,-3.359265040391496426e-01,-3.359265040391496426e-01
-1.444147400676904780e-01,-1.444147400676904780e-01,-1.444147400676904780e-01,-1.444147400676904780e-01,-1.444147400676904780e-01,-1.444147400676904780e-01,-1.444147400676904780e-01,-1.444147400676904780e-01,-1.444147400676904780e-01,-1.444147400676904780e-01,-1.444147400676904780e-01,-1.444147400676904780e-01,-1.419846843453975993e-01,-1.367774220833414545e-01,-1.315701598212853096e-01,-1.260157467417587496e-01,-1.208084844797026186e-01,-1.156012222176464738e-01,-1.103939599555903289e-01,-1.051866976935341841e-01,-9.997943543147802536e-02,-9.477217316942188052e-02,-8.921776008989532047e-02,-8.401049782783918951e-02,-7.880323556578304467e-02,-7.359597330372689983e-02,-6.838871104167075499e-02,-6.318144877961461015e-02,-5.797418651755845143e-02,-5.241977343803189138e-02,-4.721251117597574654e-02,-4.200524891391958782e-02,-3.679798665186345685e-02,-1.468927942750875570e-01,-1.416855320130314122e-01,-1.364782697509752951e-01,-1.562178678616846228e-02,-1.041452452411231744e-02,-5.207262262056200353e-03,-2.775557561562891351e-17,-2.775557561562891351e-17,-2.775557561562891351e-17,-2.775557561562891351e-17,-2.366413702426124477e-01,-3.359265040391496426e-01,-3.359265040391496426e-01,-3.359265040391496426e-01
-1.444147400676904780e-01,-1.444147400676904780e-01,-1.444147400676904780e-01,-1.444147400676904780e-01,-1.444147400676904780e-01,-1.444147400676904780e-01,-1.444147400676904780e-01,-1.444147400676904780e-01,-1.444147400676904780e-01,-1.444147400676904780e-01,-1.444147400676904780e-01,-1.444147400676904780e-01,-1.444147400676904780e-01,-1.444147400676904780e-01,-2.743776607863974704e-01,-2.691703985243413255e-01,-2.636159854448147932e-01,-1.253214451068179469e-01,-1.201141828447618021e-01,-1.149069205827056572e-01,-1.096996583206495124e-01,-1.044923960585933675e-01,-9.928513379653722271e-02,-9.373072071701066266e-02,-8.852345845495450394e-02,-8.331619619289837297e-02,-7.810893393084222813e-02,-7.290167166878608329e-02,-6.769440940672993845e-02,-6.248714714467377973e-02,-5.693273406514723356e-02,-5.172547180309108872e-02,-4.651820954103493000e-02,-1.566130171642590163e-01,-1.514057549022028992e-01,-1.461984926401467544e-01,-2.568916049281035063e-02,-2.013474741328379058e-02,-1.492748515122765962e-02,-9.720222889171514780e-03,-4.512960627115342183e-03,-2.775557561562891351e-17,-2.775557561562891351e-17,-1.128240156778831937e-01,-1.444147400676904780e-01,-1.444147400676904780e-01,-1.444147400676904780e-01
-1.444147400676904780e-01,-1.444147400676904780e-01,-1.444147400676904780e-01,-1.444147400676904780e-01,-1.444147400676904780e-01,-1.444147400676904780e-01,-1.444147400676904780e-01,-1.444147400676904780e-01,-1.444147400676904780e-01,-1.444147400676904780e-01,-1.444147400676904780e-01,-1.444147400676904780e-01,-1.444147400676904780e-01,-1.444147400676904780e-01,-2.775020181436311795e-01,-2.775020181436311795e-01,-2.736833591514566399e-01,-1.353888188134598214e-01,-1.298344057339332613e-01,-1.246271434718771165e-01,-1.194198812098209717e-01,-1.142126189477648268e-01,-1.090053566857086820e-01,-1.037980944236525371e-01,-9.824368134412597708e-02,-9.303641908206983224e-02,-8.782915682001368740e-02,-8.262189455795755644e-02,-7.741463229590141160e-02,-7.220737003384526675e-02,-6.700010777178912191e-02,-6.144569469226256186e-02,-5.623843243020640315e-02,-1.663332400534305311e-01,-1.611259777913743862e-01,-1.559187155293182414e-01,-3.540938338198180990e-02,-3.020212111992567894e-02,-2.464770804039911889e-02,-1.944044577834297405e-02,-1.423318351628682921e-02,-9.025921254230684365e-03,-5.654218939549301992e-02,-1.444147400676904780e-01,-1.444147400676904780e-01,-1.444147400676904780e-01,-1.444147400676904780e-01
-1.444147400676904780e-01,-1.444147400676904780e-01,-1.444147400676904780e-01,-1.444147400676904780e-01,-1.444147400676904780e-01,-1.444147400676904780e-01,-1.444147400676904780e-01,-1.444147400676904780e-01,-1.444147400676904780e-01,-1.444147400676904780e-01,-1.444147400676904780e-01,-1.444147400676904780e-01,-1.444147400676904780e-01,-1.444147400676904780e-01,-2.775020181436311795e-01,-2.775020181436311795e-01,-2.775020181436311795e-01,-1.444147400676904780e-01,-1.399017794405751636e-01,-1.343473663610486035e-01,-1.291401040989924587e-01,-1.239328418369363000e-01,-1.187255795748801551e-01,-1.135183173128240103e-01,-1.083110550507678793e-01,-1.031037927887117206e-01,-9.754937970918517443e-02,-9.234211744712901571e-02,-8.713485518507287086e-02,-8.192759292301672602e-02,-7.672033066096058118e-02,-7.151306839890443634e-02,-6.630580613684831925e-02,-6.075139305732174533e-02,-5.554413079526558661e-02,-5.033686853320944177e-02,-4.512960627115328305e-02,-3.992234400909713821e-02,-3.471508174704099337e-02,-2.916066866751444719e-02,-2.395340640545830235e-02,-1.874614414340217139e-02,-1.239653872260741557e-01,-1.444147400676904780e-01,-1.444147400676904780e-01,-1.444147400676904780e-01,-1.444147400676904780e-01
-1.444147400676904780e-01,-1.444147400676904780e-01,-1.444147400676904780e-01,-1.444147400676904780e-01,-1.444147400676904780e-01,-1.444147400676904780e-01,-1.444147400676904780e-01,-1.444147400676904780e-01,-1.444147400676904780e-01,-1.444147400676904780e-01,-1.444147400676904780e-01,-1.444147400676904780e-01,-1.444147400676904780e-01,-1.444147400676904780e-01,-1.444147400676904780e-01,-1.444147400676904780e-01,-1.444147400676904780e-01,-1.444147400676904780e-01,-1.444147400676904780e-01,-1.444147400676904780e-01,-1.388603269881639179e-01,-1.336530647261077731e-01,-1.284458024640516283e-01,-1.232385402019954834e-01,-1.180312779399393386e-01,-1.128240156778831937e-01,-1.076167534158270489e-01,-1.020623403363004889e-01,-9.685507807424434401e-02,-9.164781581218819917e-02,-8.644055355013205433e-02,-8.123329128807590949e-02,-7.602602902601976465e-02,-7.081876676396361980e-02,-6.526435368443705975e-02,-6.005709142238091491e-02,-5.484982916032477007e-02,-4.964256689826861135e-02,-4.443530463621246651e-02,-3.922804237415632167e-02,-3.402078011210017683e-02,-7.919378023543724443e-02,-1.444147400676904780e-01,-1.444147400676904780e-01,-1.444147400676904780e-01,-1.444147400676904780e-01,-1.444147400676904780e-01
-1.444147400676904780e-01,-1.444147400676904780e-01,-1.444147400676904780e-01,-1.444147400676904780e-01,-1.444147400676904780e-01,-1.444147400676904780e-01,-1.444147400676904780e-01,-1.444147400676904780e-01,-1.444147400676904780e-01,-1.444147400676904780e-01,-1.444147400676904780e-01,-1.444147400676904780e-01,-1.444147400676904780e-01,-1.444147400676904780e-01,-1.444147400676904780e-01,-1.444147400676904780e-01,-1.444147400676904780e-01,-1.444147400676904780e-01,-1.444147400676904780e-01,-1.444147400676904780e-01,-1.444147400676904780e-01,-1.433732876152792601e-01,-1.381660253532231153e-01,-1.329587630911669427e-01,-1.277515008291107979e-01,-1.225442385670546669e-01,-1.173369763049985220e-01,-1.121297140429423772e-01,-1.065753009634158172e-01,-1.013680387013596723e-01,-9.616077643930352747e-02,-9.095351417724738263e-02,-8.574625191519122391e-02,-8.053898965313509295e-02,-7.533172739107894811e-02,-6.977731431155238806e-02,-6.457005204949625710e-02,-5.936278978744008450e-02,-5.415552752538395354e-02,-4.894826526332779482e-02,-4.688705728459724442e-02,-1.344883963806459415e-01,-1.444147400676904780e-01,-1.444147400676904780e-01,-1.444147400676904780e-01,-1.444147400676904780e-01,-1.444147400676904780e-01
-1.444147400676904780e-01,-1.444147400676904780e-01,-1.444147400676904780e-01,-1.444147400676904780e-01,-1.444147400676904780e-01,-1.444147400676904780e-01,-1.444147400676904780e-01,-1.444147400676904780e-01,-1.444147400676904780e-01,-1.444147400676904780e-01,-1.444147400676904780e-01,-1.444147400676904780e-01,-1.444147400676904780e-01,-1.444147400676904780e-01,-1.444147400676904780e-01,-1.444147400676904780e-01,-1.444147400676904780e-01,-1.444147400676904780e-01,-1.444147400676904780e-01,-1.444147400676904780e-01,-1.444147400676904780e-01,-1.444147400676904780e-01,-1.444147400676904780e-01,-1.426789859803384297e-01,-1.374717237182822849e-01,-1.322644614562261400e-01,-1.270571991941699952e-01,-1.218499369321138504e-01,-1.166426746700577055e-01,-1.114354124080015607e-01,-1.058809993284750006e-01,-1.006737370664188558e-01,-9.546647480436271094e-02,-9.025921254230656610e-02,-8.505195028025042125e-02,-7.984468801819427641e-02,-7.429027493866771636e-02,-6.908301267661158540e-02,-6.387575041455542668e-02,-5.866848815249928184e-02,-9.893798297906680750e-02,-1.444147400676904780e-01,-1.444147400676904780e-01,-1.444147400676904780e-01,-1.444147400676904780e-01,-1.444147400676904780e-01,-1.444147400676904780e-01
-1.444147400676904780e-01,-1.444147400676904780e-01,-1.444147400676904780e-01,-1.444147400676904780e-01,-1.444147400676904780e-01,-1.444147400676904780e-01,-1.444147400676904780e-01,-1.444147400676904780e-01,-1.444147400676904780e-01,-1.444147400676904780e-01,-1.444147400676904780e-01,-1.444147400676904780e-01,-1.444147400676904780e-01,-1.444147400676904780e-01,-1.444147400676904780e-01,-1.444147400676904780e-01,-1.444147400676904780e-01,-1.444147400676904780e-01,-1.444147400676904780e-01,-1.444147400676904780e-01,-1.444147400676904780e-01,-1.444147400676904780e-01,-1.444147400676904780e-01,-1.444147400676904780e-01,-1.444147400676904780e-01,-1.419846843453975993e-01,-1.367774220833414545e-01,-1.315701598212853096e-01,-1.263628975592291648e-01,-1.211556352971730199e-01,-1.159483730351168751e-01,-1.103939599555903289e-01,-1.051866976935341841e-01,-9.997943543147802536e-02,-9.477217316942188052e-02,-8.956491090736573568e-02,-8.435764864530959084e-02,-7.915038638325344600e-02,-7.359597330372689983e-02,-7.551615126286009838e-02,-1.418761997149381171e-01,-1.444147400676904780e-01,-1.444147400676904780e-01,-1.444147400676904780e-01,-1.444147400676904780e-01,-1.444147400676904780e-01,-1.444147400676904780e-01
-1.444147400676904780e-01,-1.444147400676904780e-01,-1.444147400676904780e-01,-1.444147400676904780e-01,-1.444147400676904780e-01,-1.444147400676904780e-01,-1.444147400676904780e-01,-1.444147400676904780e-01,-1.444147400676904780e-01,-1.444147400676904780e-01,-1.444147400676904780e-01,-1.444147400676904780e-01,-1.444147400676904780e-01,-1.444147400676904780e-01,-1.444147400676904780e-01,-1.444147400676904780e-01,-1.444147400676904780e-01,-1.444147400676904780e-01,-1.444147400676904780e-01,-1.444147400676904780e-01,-1.444147400676904780e-01,-1.444147400676904780e-01,-1.444147400676904780e-01,-1.444147400676904780e-01,-1.444147400676904780e-01,-1.444147400676904780e-01,-1.444147400676904780e-01,-1.412903827104567966e-01,-1.360831204484006518e-01,-1.308758581863445070e-01,-1.256685959242883621e-01,-1.204613336622322034e-01,-1.149069205827056572e-01,-1.096996583206495124e-01,-1.044923960585933675e-01,-9.928513379653722271e-02,-9.407787153448106399e-02,-8.887060927242491915e-02,-8.366334701036877430e-02,-1.154059498828193669e-01,-1.444147400676904780e-01,-1.444147400676904780e-01,-1.444147400676904780e-01,-1.444147400676904780e-01,-1.444147400676904780e-01,-1.444147400676904780e-01,-1.444147400676904780e-01
-1.444147400676904780e-01,-1.444147400676904780e-01,-1.444147400676904780e-01,-1.444147400676904780e-01,-1.444147400676904780e-01,-1.444147400676904780e-01,-1.444147400676904780e-01,-1.444147400676904780e-01,-1.444147400676904780e-01,-1.444147400676904780e-01,-1.444147400676904780e-01,-1.444147400676904780e-01,-1.444147400676904780e-01,-1.444147400676904780e-01,-1.444147400676904780e-01,-1.444147400676904780e-01,-1.444147400676904780e-01,-1.444147400676904780e-01,-1.444147400676904780e-01,-1.444147400676904780e-01,-1.444147400676904780e-01,-1.444147400676904780e-01,-1.444147400676904780e-01,-1.444147400676904780e-01,-1.444147400676904780e-01,-1.444147400676904780e-01,-1.444147400676904780e-01,-1.444147400676904780e-01,-1.444147400676904780e-01,-1.405960810755159662e-01,-1.353888188134598214e-01,-1.301815565514036765e-01,-1.249742942893475317e-01,-1.194198812098209717e-01,-1.142126189477648268e-01,-1.090053566857086820e-01,-1.037980944236525371e-01,-9.859083216159639229e-02,-1.013571902383137158e-01,-1.444147400676904780e-01,-1.444147400676904780e-01,-1.444147400676904780e-01,-1.444147400676904780e-01,-1.444147400676904780e-01,-1.444147400676904780e-01,-1.444147400676904780e-01,-1.444147400676904780e-01
-1.444147400676904780e-01,-1.444147400676904780e-01,-1.444147400676904780e-01,-1.444147400676904780e-01,-1.444147400676904780e-01,-1.444147400676904780e-01,-1.444147400676904780e-01,-1.444147400676904780e-01,-1.444147400676904780e-01,-1.444147400676904780e-01,-1.444147400676904780e-01,-1.444147400676904780e-01,-1.444147400676904780e-01,-1.444147400676904780e-01,-1.444147400676904780e-01,-1.444147400676904780e-01,-1.444147400676904780e-01,-1.444147400676904780e-01,-1.444147400676904780e-01,-1.444147400676904780e-01,-1.444147400676904780e-01,-1.444147400676904780e-01,-1.444147400676904780e-01,-1.444147400676904780e-01,-1.444147400676904780e-01,-1.444147400676904780e-01,-1.444147400676904780e-01,-1.444147400676904780e-01,-1.444147400676904780e-01,-1.444147400676904780e-01,-1.444147400676904780e-01,-1.399017794405751636e-01,-1.346945171785189910e-01,-1.294872549164628461e-01,-1.242799926544067152e-01,-1.187255795748801551e-01,-1.135183173128240103e-01,-1.083110550507678654e-01,-1.289231348380734388e-01,-1.444147400676904780e-01,-1.444147400676904780e-01,-1.444147400676904780e-01,-1.444147400676904780e-01,-1.444147400676904780e-01,-1.444147400676904780e-01,-1.444147400676904780e-01,-1.444147400676904780e-01
-1.444147400676904780e-01,-1.444147400676904780e-01,-1.444147400676904780e-01,-1.444147400676904780e-01,-1.444147400676904780e-01,-1.444147400676904780e-01,-1.444147400676904780e-01,-1.444147400676904780e-01,-1.444147400676904780e-01,-1.444147400676904780e-01,-1.444147400676904780e-01,-1.444147400676904780e-01,-1.444147400676904780e-01,-1.444147400676904780e-01,-1.444147400676904780e-01,-1.444147400676904780e-01,-1.444147400676904780e-01,-1.444147400676904780e-01,-1.444147400676904780e-01,-1.444147400676904780e-01,-1.444147400676904780e-01,-1.444147400676904780e-01,-1.444147400676904780e-01,-1.444147400676904780e-01,-1.444147400676904780e-01,-1.444147400676904780e-01,-1.444147400676904780e-01,-1.444147400676904780e-01,-1.444147400676904780e-01,-1.444147400676904780e-01,-1.444147400676904780e-01,-1.444147400676904780e-01,-1.444147400676904780e-01,-1.392074778056343332e-01,-1.340002155435781883e-01,-1.287929532815220435e-01,-1.232385402019954834e-01,-1.238026602803849047e-01,-1.444147400676904780e-01,-1.444147400676904780e-01,-1.444147400676904780e-01,-1.444147400676904780e-01,-1.444147400676904780e-01,-1.444147400676904780e-01,-1.444147400676904780e-01,-1.444147400676904780e-01,-1.444147400676904780e-01
