1.206333486235976020e-02,1.206333486235976020e-02,1.206333486235976020e-02,1.206333486235976020e-02,1.206333486235976020e-02,1.206333486235976020e-02,1.206333486235976020e-02,1.206333486235976020e-02,1.206333486235976020e-02,1.206333486235976020e-02,1.206333486235976020e-02,1.206333486235976020e-02,1.206333486235976020e-02,1.206333486235976020e-02,1.206333486235976020e-02,1.206333486235976020e-02,1.206333486235976020e-02,1.206333486235976020e-02,1.206333486235976020e-02,1.202633076768994461e-02,1.161928572632197829e-02,1.124924477962382582e-02,1.084219973825585777e-02,1.043515469688789145e-02,1.002810965551992339e-02,9.621064614151955338e-03,9.214019572783989018e-03,8.806974531416020963e-03,8.399929490048054642e-03,7.992884448680086587e-03,7.585839407312119399e-03,7.178794365944152212e-03,6.771749324576185024e-03,6.364704283208216969e-03,5.957659241840249781e-03,5.550614200472282593e-03,5.143569159104315405e-03,4.773528212406163811e-03,4.366483171038194888e-03,3.959438129670228568e-03,1.073350021016327566e-02,1.206333486235976020e-02,1.206333486235976020e-02,1.206333486235976020e-02,1.206333486235976020e-02,1.206333486235976020e-02,1.206333486235976020e-02
1.206333486235976020e-02,1.206333486235976020e-02,1.206333486235976020e-02,1.206333486235976020e-02,1.206333486235976020e-02,1.206333486235976020e-02,1.206333486235976020e-02,1.206333486235976020e-02,1.206333486235976020e-02,1.206333486235976020e-02,1.206333486235976020e-02,1.206333486235976020e-02,1.206333486235976020e-02,1.206333486235976020e-02,1.206333486235976020e-02,1.206333486235976020e-02,1.206333486235976020e-02,1.173029801033142333e-02,1.132325296896345528e-02,1.091620792759548896e-02,1.050916288622752090e-02,1.010211784485955458e-02,9.732076898161402118e-03,9.325031856793434062e-03,8.917986815425466007e-03,8.510941774057499687e-03,8.103896732689533366e-03,7.696851691321564444e-03,7.289806649953598124e-03,6.882761608585630068e-03,6.475716567217662881e-03,6.068671525849694826e-03,5.661626484481728505e-03,5.254581443113760450e-03,4.847536401745794130e-03,4.440491360377826074e-03,4.033446319009858019e-03,3.626401277641891699e-03,3.256360330943739237e-03,2.849315289575772916e-03,7.252802555283782530e-03,1.206333486235976020e-02,1.206333486235976020e-02,1.206333486235976020e-02,1.206333486235976020e-02,1.206333486235976020e-02,1.206333486235976020e-02
1.206333486235976020e-02,1.206333486235976020e-02,1.206333486235976020e-02,1.206333486235976020e-02,1.206333486235976020e-02,1.206333486235976020e-02,1.206333486235976020e-02,1.206333486235976020e-02,1.206333486235976020e-02,1.206333486235976020e-02,1.206333486235976020e-02,1.206333486235976020e-02,1.206333486235976020e-02,1.206333486235976020e-02,1.184131029434086838e-02,1.143426525297290205e-02,1.102722021160493400e-02,1.062017517023696594e-02,1.021313012886899962e-02,9.806085087501031569e-03,9.399040046133065249e-03,8.991995004765097194e-03,8.584949963397130873e-03,8.214909016698978411e-03,7.807863975331010356e-03,7.400818933963043168e-03,6.993773892595075981e-03,6.586728851227107925e-03,6.179683809859141605e-03,5.772638768491173550e-03,5.365593727123207229e-03,4.958548685755239174e-03,4.551503644387271987e-03,4.144458603019304799e-03,3.737413561651336744e-03,3.330368520283370423e-03,2.923323478915400633e-03,2.516278437547434313e-03,2.109233396179467993e-03,1.739192449481315531e-03,3.008895447839349951e-03,1.206333486235976020e-02,1.206333486235976020e-02,1.206333486235976020e-02,1.206333486235976020e-02,1.206333486235976020e-02,1.206333486235976020e-02
1.206333486235976020e-02,1.206333486235976020e-02,1.206333486235976020e-02,1.206333486235976020e-02,1.206333486235976020e-02,1.206333486235976020e-02,1.206333486235976020e-02,1.206333486235976020e-02,1.206333486235976020e-02,1.206333486235976020e-02,1.206333486235976020e-02,1.195232257835031515e-02,1.154527753698234710e-02,1.113823249561438078e-02,1.073118745424641272e-02,1.032414241287844467e-02,9.917097371510478349e-03,9.510052330142510293e-03,9.103007288774542238e-03,8.695962247406575918e-03,8.288917206038607863e-03,7.881872164670641542e-03,7.474827123302673487e-03,7.067782081934705432e-03,6.697741135236553837e-03,6.290696093868586650e-03,5.883651052500618595e-03,5.476606011132652274e-03,5.069560969764684219e-03,4.662515928396717031e-03,4.255470887028749843e-03,3.848425845660781788e-03,3.441380804292815468e-03,3.034335762924849147e-03,2.627290721556881092e-03,2.220245680188913037e-03,1.813200638820946717e-03,1.406155597452978662e-03,9.991105560850106065e-04,5.920655147170442861e-04,2.220245680188918241e-04,9.001246028432552393e-03,1.206333486235976020e-02,1.206333486235976020e-02,1.206333486235976020e-02,1.206333486235976020e-02,1.206333486235976020e-02
1.206333486235976020e-02,1.206333486235976020e-02,1.206333486235976020e-02,1.206333486235976020e-02,1.206333486235976020e-02,1.206333486235976020e-02,1.206333486235976020e-02,1.206333486235976020e-02,1.202633076768994461e-02,1.161928572632197829e-02,1.124924477962382582e-02,1.084219973825585777e-02,1.043515469688788971e-02,1.002810965551992339e-02,9.621064614151955338e-03,9.214019572783989018e-03,8.806974531416020963e-03,8.399929490048054642e-03,7.992884448680086587e-03,7.585839407312119399e-03,7.178794365944152212e-03,6.771749324576184156e-03,6.364704283208216969e-03,5.957659241840249781e-03,5.550614200472281726e-03,5.180573253774130998e-03,4.773528212406162943e-03,4.366483171038195756e-03,3.959438129670228568e-03,3.552393088302260513e-03,3.145348046934292457e-03,2.738303005566326137e-03,2.331257964198358082e-03,1.924212922830391762e-03,1.517167881462425441e-03,1.110122840094455651e-03,7.030777987264893308e-04,2.960327573585230104e-04,-1.110122840094467794e-04,-5.180573253774130998e-04,-9.251023667453794203e-04,4.131738445476556068e-03,1.206333486235976020e-02,1.206333486235976020e-02,1.206333486235976020e-02,1.206333486235976020e-02,1.206333486235976020e-02
1.206333486235976020e-02,1.206333486235976020e-02,1.206333486235976020e-02,1.206333486235976020e-02,1.206333486235976020e-02,1.206333486235976020e-02,1.173029801033142333e-02,1.132325296896345528e-02,1.091620792759548896e-02,1.050916288622752090e-02,1.010211784485955458e-02,9.732076898161402118e-03,9.325031856793434062e-03,8.917986815425466007e-03,8.510941774057499687e-03,8.103896732689533366e-03,7.696851691321565311e-03,7.289806649953597256e-03,6.882761608585630068e-03,6.475716567217662881e-03,6.068671525849696560e-03,5.661626484481728505e-03,5.254581443113761317e-03,4.847536401745794130e-03,4.440491360377826074e-03,4.033446319009858019e-03,3.663405372311705557e-03,3.256360330943739237e-03,2.849315289575772916e-03,2.442270248207803127e-03,2.035225206839836806e-03,1.628180165471870486e-03,1.221135124103902431e-03,8.140900827359361103e-04,4.070450413679680551e-04,-1.734723475976807094e-18,-4.070450413679663204e-04,-8.140900827359326408e-04,-1.221135124103900696e-03,-1.628180165471870486e-03,-2.035225206839836806e-03,-1.535669928797330636e-03,1.206333486235976020e-02,1.206333486235976020e-02,1.206333486235976020e-02,1.206333486235976020e-02,1.206333486235976020e-02
1.206333486235976020e-02,1.206333486235976020e-02,1.206333486235976020e-02,1.184131029434086838e-02,1.143426525297290205e-02,1.102722021160493400e-02,1.062017517023696594e-02,1.021313012886899962e-02,9.806085087501031569e-03,9.399040046133065249e-03,8.991995004765097194e-03,8.584949963397130873e-03,8.214909016698978411e-03,7.807863975331010356e-03,7.400818933963043168e-03,6.993773892595075981e-03,6.586728851227108793e-03,6.179683809859141605e-03,5.772638768491173550e-03,5.365593727123206362e-03,4.958548685755239174e-03,4.551503644387271119e-03,4.144458603019303064e-03,3.737413561651336744e-03,3.330368520283370423e-03,2.923323478915402368e-03,2.516278437547436048e-03,2.109233396179466258e-03,1.739192449481315531e-03,1.332147408113347475e-03,9.251023667453811550e-04,5.180573253774130998e-04,1.110122840094467794e-04,-2.960327573585212757e-04,-7.030777987264893308e-04,-1.110122840094457386e-03,-1.517167881462423706e-03,-1.924212922830390027e-03,-2.331257964198358082e-03,-2.738303005566324402e-03,-3.145348046934294192e-03,-3.552393088302260513e-03,6.555506646349452265e-03,1.206333486235976020e-02,1.206333486235976020e-02,1.206333486235976020e-02,1.206333486235976020e-02
1.195232257835031515e-02,1.154527753698234710e-02,1.113823249561437904e-02,1.073118745424641272e-02,1.032414241287844467e-02,9.917097371510478349e-03,9.510052330142510293e-03,9.103007288774542238e-03,8.695962247406575918e-03,8.288917206038607863e-03,7.881872164670641542e-03,7.474827123302673487e-03,7.067782081934706299e-03,6.697741135236553837e-03,6.290696093868586650e-03,5.883651052500618595e-03,5.476606011132652274e-03,5.069560969764684219e-03,4.662515928396717899e-03,4.255470887028749843e-03,3.848425845660781788e-03,3.441380804292815468e-03,3.034335762924849147e-03,2.627290721556879358e-03,2.220245680188913037e-03,1.813200638820946717e-03,1.406155597452978662e-03,9.991105560850106065e-04,5.920655147170442861e-04,2.220245680188918241e-04,-1.850204733490762310e-04,-5.920655147170425514e-04,-9.991105560850123413e-04,-1.406155597452976927e-03,-1.813200638820943247e-03,-2.220245680188911302e-03,-2.627290721556879358e-03,-3.034335762924845678e-03,-3.441380804292813733e-03,-3.848425845660781788e-03,-4.255470887028748109e-03,-4.662515928396717899e-03,2.844689777742048786e-04,1.206333486235976020e-02,1.206333486235976020e-02,1.206333486235976020e-02,1.206333486235976020e-02
1.084219973825585777e-02,1.043515469688788971e-02,1.002810965551992339e-02,9.621064614151957073e-03,9.214019572783989018e-03,8.806974531416020963e-03,8.399929490048054642e-03,7.992884448680086587e-03,7.585839407312119399e-03,7.178794365944152212e-03,6.771749324576184156e-03,6.364704283208216969e-03,5.957659241840249781e-03,5.550614200472282593e-03,5.180573253774130131e-03,4.773528212406162076e-03,4.366483171038196623e-03,3.959438129670228568e-03,3.552393088302262247e-03,3.145348046934294192e-03,2.738303005566326137e-03,2.331257964198359817e-03,1.924212922830391762e-03,1.517167881462423706e-03,1.110122840094455651e-03,7.030777987264893308e-04,2.960327573585212757e-04,-1.110122840094450447e-04,-5.180573253774130998e-04,-9.251023667453794203e-04,-1.295143313443531882e-03,-1.702188354811499937e-03,-2.109233396179466258e-03,-2.516278437547432578e-03,-2.923323478915400633e-03,-3.330368520283368688e-03,-3.737413561651333274e-03,-4.144458603019303064e-03,-4.551503644387272854e-03,-4.958548685755239174e-03,-5.365593727123205495e-03,-5.772638768491168346e-03,-6.179683809859138136e-03,1.089770588026058029e-02,1.206333486235976020e-02,1.206333486235976020e-02,1.206333486235976020e-02
9.732076898161402118e-03,9.325031856793434062e-03,8.917986815425466007e-03,8.510941774057499687e-03,8.103896732689531632e-03,7.696851691321564444e-03,7.289806649953597256e-03,6.882761608585630068e-03,6.475716567217662881e-03,6.068671525849695693e-03,5.661626484481728505e-03,5.254581443113760450e-03,4.847536401745793262e-03,4.440491360377826074e-03,4.033446319009858019e-03,3.626401277641891699e-03,3.256360330943739237e-03,2.849315289575772916e-03,2.442270248207804861e-03,2.035225206839836806e-03,1.628180165471870486e-03,1.221135124103904165e-03,8.140900827359343755e-04,4.070450413679680551e-04,0.000000000000000000e+00,-4.070450413679663204e-04,-8.140900827359343755e-04,-1.221135124103900696e-03,-1.628180165471868751e-03,-2.035225206839836806e-03,-2.442270248207803127e-03,-2.812311194905955589e-03,-3.219356236273923644e-03,-3.626401277641891699e-03,-4.033446319009858019e-03,-4.440491360377824340e-03,-4.847536401745790660e-03,-5.254581443113756981e-03,-5.661626484481726770e-03,-6.068671525849693091e-03,-6.475716567217662881e-03,-6.882761608585629201e-03,-7.289806649953595521e-03,4.035759074926722687e-03,1.206333486235976020e-02,1.206333486235976020e-02,1.206333486235976020e-02
8.584949963397130873e-03,8.214909016698978411e-03,7.807863975331010356e-03,7.400818933963043168e-03,6.993773892595075981e-03,6.586728851227108793e-03,6.179683809859140738e-03,5.772638768491173550e-03,5.365593727123207229e-03,4.958548685755239174e-03,4.551503644387271987e-03,4.144458603019304799e-03,3.737413561651335009e-03,3.330368520283370423e-03,2.923323478915402368e-03,2.516278437547434313e-03,2.109233396179467993e-03,1.739192449481315531e-03,1.332147408113347475e-03,9.251023667453811550e-04,5.180573253774130998e-04,1.110122840094467794e-04,-2.960327573585212757e-04,-7.030777987264875961e-04,-1.110122840094455651e-03,-1.517167881462423706e-03,-1.924212922830390027e-03,-2.331257964198359817e-03,-2.738303005566324402e-03,-3.145348046934292457e-03,-3.552393088302260513e-03,-3.959438129670226833e-03,-4.329479076368379295e-03,-4.736524117736345615e-03,-5.143569159104311936e-03,-5.550614200472281726e-03,-5.957659241840248046e-03,-6.364704283208217836e-03,-6.771749324576184156e-03,-7.178794365944150477e-03,-7.585839407312116797e-03,-7.992884448680083118e-03,-8.399929490048052907e-03,-3.589397182972074371e-03,1.206333486235976020e-02,1.206333486235976020e-02,1.206333486235976020e-02
7.474827123302673487e-03,7.067782081934707167e-03,6.697741135236553837e-03,6.290696093868586650e-03,5.883651052500620329e-03,5.476606011132652274e-03,5.069560969764684219e-03,4.662515928396717899e-03,4.255470887028749843e-03,3.848425845660781788e-03,3.441380804292815468e-03,3.034335762924849147e-03,2.627290721556879358e-03,2.220245680188913037e-03,1.813200638820946717e-03,1.406155597452978662e-03,9.991105560850106065e-04,5.920655147170442861e-04,2.220245680188918241e-04,-1.850204733490744963e-04,-5.920655147170442861e-04,-9.991105560850106065e-04,-1.406155597452978662e-03,-1.813200638820946717e-03,-2.220245680188911302e-03,-2.627290721556879358e-03,-3.034335762924847413e-03,-3.441380804292813733e-03,-3.848425845660781788e-03,-4.255470887028748109e-03,-4.662515928396717899e-03,-5.069560969764680750e-03,-5.476606011132647070e-03,-5.846646957830799532e-03,-6.253691999198769322e-03,-6.660737040566739112e-03,-7.067782081934705432e-03,-7.474827123302671752e-03,-7.881872164670638073e-03,-8.288917206038604393e-03,-8.695962247406574183e-03,-9.103007288774543973e-03,-9.510052330142510293e-03,-9.917097371510476614e-03,8.565291538103791610e-03,1.206333486235976020e-02,1.206333486235976020e-02
6.364704283208217836e-03,5.957659241840249781e-03,5.550614200472282593e-03,5.180573253774130998e-03,4.773528212406163811e-03,4.366483171038196623e-03,3.959438129670228568e-03,3.552393088302260513e-03,3.145348046934294192e-03,2.738303005566326137e-03,2.331257964198358082e-03,1.924212922830391762e-03,1.517167881462423706e-03,1.110122840094455651e-03,7.030777987264893308e-04,2.960327573585230104e-04,-1.110122840094467794e-04,-5.180573253774130998e-04,-9.251023667453811550e-04,-1.295143313443531882e-03,-1.702188354811499937e-03,-2.109233396179466258e-03,-2.516278437547436048e-03,-2.923323478915400633e-03,-3.330368520283366954e-03,-3.737413561651336744e-03,-4.144458603019303064e-03,-4.551503644387269384e-03,-4.958548685755235705e-03,-5.365593727123205495e-03,-5.772638768491168346e-03,-6.179683809859138136e-03,-6.586728851227107925e-03,-6.993773892595074246e-03,-7.400818933963044036e-03,-7.770859880661189559e-03,-8.177904922029162818e-03,-8.584949963397129138e-03,-8.991995004765095459e-03,-9.399040046133065249e-03,-9.806085087501031569e-03,-1.021313012886899442e-02,-1.062017517023696421e-02,-1.102722021160493053e-02,3.145348046934299396e-04,1.206333486235976020e-02,1.206333486235976020e-02
5.254581443113760450e-03,4.847536401745793262e-03,4.440491360377826074e-03,4.033446319009858019e-03,3.663405372311705557e-03,3.256360330943739237e-03,2.849315289575772916e-03,2.442270248207803127e-03,2.035225206839836806e-03,1.628180165471870486e-03,1.221135124103902431e-03,8.140900827359343755e-04,4.070450413679680551e-04,0.000000000000000000e+00,-4.070450413679680551e-04,-8.140900827359343755e-04,-1.221135124103902431e-03,-1.628180165471868751e-03,-2.035225206839836806e-03,-2.442270248207803127e-03,-2.812311194905955589e-03,-3.219356236273923644e-03,-3.626401277641891699e-03,-4.033446319009858019e-03,-4.440491360377824340e-03,-4.847536401745790660e-03,-5.254581443113756981e-03,-5.661626484481726770e-03,-6.068671525849693091e-03,-6.475716567217662881e-03,-6.882761608585629201e-03,-7.289806649953595521e-03,-7.696851691321561842e-03,-8.103896732689531632e-03,-8.510941774057497952e-03,-8.917986815425467742e-03,-9.288027762123616735e-03,-9.695072803491586524e-03,-1.010211784485954938e-02,-1.050916288622751917e-02,-1.091620792759548549e-02,-1.132325296896345181e-02,-1.173029801033141813e-02,-1.213734305169939139e-02,-8.699431381281869449e-03,1.206333486235976020e-02,1.206333486235976020e-02
4.144458603019304799e-03,3.737413561651335009e-03,3.330368520283368688e-03,2.923323478915402368e-03,2.516278437547434313e-03,2.146237490849281851e-03,1.739192449481315531e-03,1.332147408113347475e-03,9.251023667453811550e-04,5.180573253774130998e-04,1.110122840094450447e-04,-2.960327573585230104e-04,-7.030777987264893308e-04,-1.110122840094455651e-03,-1.517167881462423706e-03,-7.525267661727735868e-02,-7.565972165864531807e-02,-7.606676670001329132e-02,-3.145348046934294192e-03,-3.552393088302260513e-03,-3.959438129670226833e-03,-4.329479076368379295e-03,-4.736524117736345615e-03,-5.143569159104315405e-03,-5.550614200472278256e-03,-5.957659241840248046e-03,-6.364704283208214367e-03,-6.771749324576184156e-03,-7.178794365944150477e-03,-7.585839407312120267e-03,-7.992884448680086587e-03,-8.399929490048052907e-03,-8.806974531416019228e-03,-9.214019572783985548e-03,-9.621064614151951869e-03,-1.002810965551992166e-02,-1.043515469688788798e-02,-1.080519564358604044e-02,-1.121224068495401023e-02,-1.161928572632197655e-02,-1.202633076768994287e-02,-1.243337580905790919e-02,-1.284042085042587551e-02,-1.324746589179384530e-02,-1.365451093316181509e-02,5.532112153137374796e-03,1.206333486235976020e-02
3.034335762924847413e-03,2.627290721556881092e-03,2.220245680188913037e-03,1.813200638820946717e-03,1.406155597452978662e-03,9.991105560850123413e-04,5.920655147170442861e-04,2.220245680188918241e-04,-1.850204733490744963e-04,-5.920655147170425514e-04,-9.991105560850088718e-04,-1.406155597452978662e-03,-1.813200638820944982e-03,-2.220245680188914772e-03,-2.627290721556879358e-03,-7.636279945737181607e-02,-7.676984449873977545e-02,-7.717688954010774871e-02,-4.255470887028748109e-03,-4.662515928396717899e-03,-5.069560969764680750e-03,-5.476606011132650539e-03,-5.883651052500616860e-03,-6.253691999198769322e-03,-6.660737040566739112e-03,-7.067782081934705432e-03,-7.474827123302671752e-03,-7.881872164670638073e-03,-8.288917206038604393e-03,-8.695962247406570714e-03,-9.103007288774543973e-03,-9.510052330142506824e-03,-9.917097371510476614e-03,-1.032414241287844293e-02,-1.073118745424640925e-02,-1.113823249561437904e-02,-1.154527753698234883e-02,-1.195232257835031515e-02,-1.232236352504846415e-02,-1.272940856641643394e-02,-1.313645360778440026e-02,-1.354349864915236658e-02,-1.395054369052033290e-02,-1.435758873188829922e-02,-1.476463377325626554e-02,-4.107454508349485736e-03,1.206333486235976020e-02
1.924212922830391762e-03,1.517167881462423706e-03,1.110122840094457386e-03,7.030777987264893308e-04,2.960327573585230104e-04,-1.110122840094450447e-04,-5.180573253774113651e-04,-9.251023667453794203e-04,-1.295143313443531882e-03,-1.702188354811499937e-03,-2.109233396179467993e-03,-2.516278437547434313e-03,-2.923323478915402368e-03,-3.330368520283368688e-03,-3.737413561651336744e-03,-7.747292229746627346e-02,-7.787996733883424672e-02,-7.828701238020220610e-02,-5.365593727123205495e-03,-5.772638768491171815e-03,-6.179683809859138136e-03,-6.586728851227107925e-03,-6.993773892595074246e-03,-7.363814839293226708e-03,-7.770859880661193028e-03,-8.177904922029159349e-03,-8.584949963397129138e-03,-8.991995004765098928e-03,-9.399040046133065249e-03,-9.806085087501031569e-03,-1.021313012886899789e-02,-1.062017517023696421e-02,-1.102722021160493400e-02,-1.143426525297290032e-02,-1.184131029434086664e-02,-1.224835533570883296e-02,-1.265540037707679928e-02,-1.306244541844476907e-02,-1.346949045981273539e-02,-1.383953140651089132e-02,-1.424657644787885417e-02,-1.465362148924682049e-02,-1.506066653061479028e-02,-1.546771157198275660e-02,-1.587475661335072813e-02,-1.451023062240129093e-02,1.206333486235976020e-02
8.140900827359343755e-04,4.070450413679680551e-04,0.000000000000000000e+00,-4.070450413679680551e-04,-8.140900827359343755e-04,-1.221135124103900696e-03,-1.628180165471868751e-03,-2.035225206839836806e-03,-2.442270248207804861e-03,-2.812311194905955589e-03,-3.219356236273921909e-03,-3.626401277641888229e-03,-4.033446319009858019e-03,-4.440491360377824340e-03,-4.847536401745794130e-03,-5.254581443113756981e-03,-5.661626484481723301e-03,-6.068671525849693091e-03,-6.475716567217659411e-03,-6.882761608585629201e-03,-7.289806649953595521e-03,-7.696851691321561842e-03,-8.103896732689528162e-03,-8.510941774057494483e-03,-8.880982720755650414e-03,-9.288027762123616735e-03,-9.695072803491583055e-03,-1.010211784485955284e-02,-1.050916288622751917e-02,-1.091620792759548549e-02,-1.132325296896345181e-02,-1.173029801033141813e-02,-1.213734305169938792e-02,-1.254438809306735771e-02,-1.295143313443532750e-02,-1.335847817580329035e-02,-1.376552321717125667e-02,-1.417256825853922646e-02,-1.457961329990719278e-02,-1.498665834127515910e-02,-1.535669928797331503e-02,-1.576374432934127962e-02,-1.617078937070924594e-02,-1.657783441207721919e-02,-1.698487945344518552e-02,-1.739192449481314490e-02,1.798167725361335054e-03
-2.960327573585212757e-04,-7.030777987264893308e-04,-1.110122840094455651e-03,-1.517167881462423706e-03,-1.924212922830391762e-03,-2.331257964198356347e-03,-2.738303005566326137e-03,-3.145348046934294192e-03,-3.552393088302260513e-03,-3.959438129670226833e-03,-4.329479076368379295e-03,-4.736524117736345615e-03,-5.143569159104315405e-03,-5.550614200472281726e-03,-5.957659241840248046e-03,-6.364704283208214367e-03,-6.771749324576184156e-03,-7.178794365944150477e-03,-7.585839407312116797e-03,-7.992884448680086587e-03,-8.399929490048052907e-03,-8.806974531416019228e-03,-9.214019572783989018e-03,-9.621064614151955338e-03,-1.002810965551992166e-02,-1.043515469688788798e-02,-1.080519564358604044e-02,-1.121224068495401023e-02,-1.161928572632197655e-02,-1.202633076768994287e-02,-1.243337580905790919e-02,-1.284042085042587898e-02,-1.324746589179384530e-02,-1.365451093316181162e-02,-1.406155597452978141e-02,-1.446860101589774773e-02,-1.487564605726571405e-02,-1.528269109863368384e-02,-1.568973614000164496e-02,-1.609678118136961822e-02,-1.650382622273758454e-02,-1.691087126410555086e-02,-1.728091221080369638e-02,-1.768795725217166964e-02,-1.809500229353964290e-02,-1.850204733490760228e-02,-9.230208864202031280e-03
-1.406155597452976927e-03,-1.813200638820944982e-03,-2.220245680188914772e-03,-2.627290721556879358e-03,-3.034335762924847413e-03,-3.441380804292813733e-03,-3.848425845660781788e-03,-4.255470887028748109e-03,-4.662515928396714429e-03,-5.069560969764680750e-03,-5.476606011132650539e-03,-5.846646957830799532e-03,-6.253691999198772791e-03,-6.660737040566739112e-03,-7.067782081934705432e-03,-7.474827123302671752e-03,-7.881872164670638073e-03,-8.288917206038607863e-03,-8.695962247406574183e-03,-9.103007288774543973e-03,-9.510052330142506824e-03,-9.917097371510476614e-03,-1.032414241287844293e-02,-1.073118745424640925e-02,-1.113823249561437558e-02,-1.154527753698234883e-02,-1.195232257835031515e-02,-1.232236352504846415e-02,-1.272940856641643394e-02,-1.313645360778439679e-02,-1.354349864915236658e-02,-1.395054369052033637e-02,-1.435758873188829922e-02,-1.476463377325626901e-02,-1.517167881462423533e-02,-1.557872385599220165e-02,-1.598576889736016970e-02,-1.639281393872813603e-02,-1.679985898009610928e-02,-1.720690402146406867e-02,-1.761394906283204193e-02,-1.802099410420000825e-02,-1.842803914556797457e-02,-1.879808009226612703e-02,-1.920512513363409335e-02,-1.961217017500205967e-02,-2.001921521637002599e-02
-2.516278437547434313e-03,-2.923323478915400633e-03,-3.330368520283370423e-03,-3.737413561651336744e-03,-4.144458603019303064e-03,-4.551503644387269384e-03,-4.958548685755239174e-03,-5.365593727123205495e-03,-5.772638768491171815e-03,-6.179683809859138136e-03,-6.586728851227107925e-03,-6.993773892595070776e-03,-7.363814839293226708e-03,-7.770859880661193028e-03,-8.177904922029159349e-03,-8.584949963397125669e-03,-8.991995004765095459e-03,-9.399040046133061779e-03,-9.806085087501028100e-03,-1.021313012886899442e-02,-1.062017517023696421e-02,-1.102722021160493400e-02,-1.143426525297290032e-02,-1.184131029434086664e-02,-1.224835533570883643e-02,-1.265540037707680275e-02,-1.306244541844476560e-02,-1.346949045981273886e-02,-1.383953140651088785e-02,-1.424657644787885764e-02,-1.465362148924682396e-02,-1.506066653061479028e-02,-1.546771157198276007e-02,-1.587475661335072813e-02,-1.628180165471869445e-02,-1.668884669608666077e-02,-1.709589173745462709e-02,-1.750293677882259341e-02,-1.790998182019055973e-02,-1.831702686155853299e-02,-1.872407190292649931e-02,-1.913111694429446563e-02,-1.953816198566243195e-02,-1.994520702703040521e-02,-2.031524797372855073e-02,-2.072229301509651705e-02,-2.112933805646448338e-02
-3.626401277641891699e-03,-4.033446319009858019e-03,-4.440491360377824340e-03,-4.847536401745794130e-03,-5.254581443113756981e-03,-5.661626484481726770e-03,-6.068671525849696560e-03,-6.475716567217659411e-03,-6.882761608585629201e-03,-7.289806649953595521e-03,-7.696851691321561842e-03,-8.103896732689531632e-03,-8.510941774057494483e-03,-8.917986815425467742e-03,-9.288027762123616735e-03,-9.695072803491583055e-03,-1.010211784485955284e-02,-1.050916288622751917e-02,-1.091620792759548549e-02,-1.132325296896345528e-02,-1.173029801033142160e-02,-1.213734305169939139e-02,-1.254438809306735771e-02,-1.295143313443532403e-02,-1.335847817580329035e-02,-1.376552321717125667e-02,-1.417256825853922299e-02,-1.457961329990719278e-02,-1.498665834127516257e-02,-1.535669928797331156e-02,-1.576374432934127962e-02,-1.617078937070924594e-02,-1.657783441207721226e-02,-1.698487945344517858e-02,-1.739192449481315184e-02,-1.779896953618111816e-02,-1.820601457754908448e-02,-1.861305961891705080e-02,-1.902010466028501712e-02,-1.942714970165298344e-02,-1.983419474302095670e-02,-2.024123978438892302e-02,-2.064828482575688240e-02,-2.105532986712485566e-02,-2.146237490849282198e-02,-2.183241585519097444e-02,-2.223946089655894076e-02
-4.736524117736345615e-03,-5.143569159104315405e-03,-5.550614200472281726e-03,-5.957659241840248046e-03,-6.364704283208214367e-03,-6.771749324576184156e-03,-7.178794365944150477e-03,-7.585839407312116797e-03,-7.992884448680083118e-03,-8.399929490048052907e-03,-8.806974531416019228e-03,-9.214019572783989018e-03,-9.621064614151951869e-03,-1.002810965551992166e-02,-1.043515469688788798e-02,-1.080519564358604391e-02,-1.121224068495401023e-02,-1.161928572632197655e-02,-1.202633076768994287e-02,-1.243337580905790919e-02,-1.284042085042587551e-02,-1.324746589179384530e-02,-1.365451093316181162e-02,-1.406155597452978141e-02,-1.446860101589774773e-02,-1.487564605726571405e-02,-1.528269109863368037e-02,-1.568973614000164496e-02,-1.609678118136961822e-02,-1.650382622273757760e-02,-1.687386716943573700e-02,-1.728091221080370332e-02,-1.768795725217166964e-02,-1.809500229353963596e-02,-1.850204733490760228e-02,-1.890909237627557554e-02,-1.931613741764354186e-02,-1.972318245901150818e-02,-2.013022750037947450e-02,-2.053727254174744082e-02,-2.094431758311540714e-02,-2.135136262448338040e-02,-2.175840766585133979e-02,-2.216545270721931304e-02,-2.257249774858727936e-02,-2.297954278995524569e-02,-2.334958373665339121e-02
-5.846646957830803001e-03,-6.253691999198769322e-03,-6.660737040566739112e-03,-7.067782081934705432e-03,-7.474827123302671752e-03,-7.881872164670638073e-03,-8.288917206038604393e-03,-8.695962247406574183e-03,-9.103007288774543973e-03,-9.510052330142510293e-03,-9.917097371510476614e-03,-1.032414241287844293e-02,-1.073118745424641272e-02,-1.113823249561437558e-02,-1.154527753698234883e-02,-1.195232257835031515e-02,-1.232236352504846415e-02,-1.272940856641643394e-02,-1.313645360778439679e-02,-1.354349864915236658e-02,-1.395054369052033637e-02,-1.435758873188830269e-02,-1.476463377325627248e-02,-1.517167881462423533e-02,-1.557872385599220512e-02,-1.598576889736016970e-02,-1.639281393872813603e-02,-1.679985898009610928e-02,-1.720690402146407560e-02,-1.761394906283204193e-02,-1.802099410420000825e-02,-1.842803914556797457e-02,-1.879808009226612703e-02,-1.920512513363409335e-02,-1.961217017500205967e-02,-2.001921521637002599e-02,-2.042626025773799925e-02,-2.083330529910596557e-02,-2.124035034047393189e-02,-2.164739538184189821e-02,-2.205444042320986453e-02,-2.246148546457783085e-02,-2.286853050594579717e-02,-2.327557554731376349e-02,-2.368262058868172981e-02,-2.408966563004970307e-02,-2.449671067141766939e-02
-6.993773892595077715e-03,-7.363814839293223238e-03,-7.770859880661193028e-03,-8.177904922029159349e-03,-8.584949963397129138e-03,-8.991995004765095459e-03,-9.399040046133065249e-03,-9.806085087501031569e-03,-1.021313012886899789e-02,-1.062017517023696768e-02,-1.102722021160493400e-02,-1.143426525297290032e-02,-1.184131029434086664e-02,-1.224835533570883296e-02,-1.265540037707679928e-02,-1.306244541844476907e-02,-1.346949045981273886e-02,-1.383953140651089132e-02,-1.424657644787885764e-02,-1.465362148924682396e-02,-1.506066653061479028e-02,-1.546771157198275660e-02,-2.524846919037300186e-01,-2.528917369450980335e-01,-2.532987819864659929e-01,-2.537058270278339522e-01,-2.541128720692019116e-01,-1.790998182019055973e-02,-1.831702686155852605e-02,-1.872407190292649237e-02,-1.913111694429446563e-02,-1.953816198566243195e-02,-1.994520702703039827e-02,-2.031524797372855073e-02,-2.072229301509651705e-02,-2.112933805646447644e-02,-2.153638309783244970e-02,-2.194342813920041602e-02,-2.235047318056838928e-02,-2.275751822193634866e-02,-2.316456326330432192e-02,-2.357160830467228130e-02,-2.397865334604025456e-02,-2.438569838740822782e-02,-2.479274342877619414e-02,-2.519978847014416046e-02,-2.560683351151212678e-02
-8.103896732689531632e-03,-8.510941774057494483e-03,-8.880982720755650414e-03,-9.288027762123620204e-03,-9.695072803491586524e-03,-1.010211784485955284e-02,-1.050916288622751917e-02,-1.091620792759548896e-02,-1.132325296896345528e-02,-1.173029801033142160e-02,-1.213734305169938792e-02,-1.254438809306735424e-02,-1.295143313443532403e-02,-1.335847817580329035e-02,-1.376552321717125667e-02,-1.417256825853922646e-02,-1.457961329990718931e-02,-1.498665834127515910e-02,-1.535669928797331156e-02,-1.576374432934127962e-02,-1.617078937070924594e-02,-1.657783441207721919e-02,-2.535948147438245037e-01,-2.540018597851924631e-01,-2.544089048265604225e-01,-2.548159498679283819e-01,-2.552229949092963412e-01,-1.902010466028501712e-02,-1.942714970165299038e-02,-1.983419474302095670e-02,-2.024123978438892302e-02,-2.064828482575688934e-02,-2.105532986712485566e-02,-2.146237490849282198e-02,-2.183241585519096750e-02,-2.223946089655894076e-02,-2.264650593792690708e-02,-2.305355097929487340e-02,-2.346059602066283972e-02,-2.386764106203081298e-02,-2.427468610339877930e-02,-2.468173114476674562e-02,-2.508877618613471194e-02,-2.549582122750268520e-02,-2.590286626887064458e-02,-2.630991131023861784e-02,-2.671695635160658416e-02
-9.214019572783985548e-03,-9.621064614151955338e-03,-1.002810965551991819e-02,-1.043515469688789145e-02,-1.080519564358604044e-02,-1.121224068495401023e-02,-1.161928572632197655e-02,-1.202633076768994287e-02,-1.243337580905790919e-02,-1.284042085042587898e-02,-1.324746589179384530e-02,-1.365451093316181162e-02,-1.406155597452978141e-02,-1.446860101589774773e-02,-1.487564605726571405e-02,-1.528269109863368037e-02,-1.568973614000164496e-02,-1.609678118136961822e-02,-1.650382622273758454e-02,-1.691087126410555086e-02,-1.728091221080370332e-02,-1.768795725217166964e-02,-2.547049375839189334e-01,-2.551119826252868927e-01,-2.555190276666549076e-01,-2.559260727080228670e-01,-2.563331177493908264e-01,-2.013022750037947450e-02,-2.053727254174744082e-02,-2.094431758311540714e-02,-2.135136262448338040e-02,-2.175840766585133979e-02,-2.216545270721931304e-02,-2.257249774858727243e-02,-2.297954278995523875e-02,-2.334958373665339121e-02,-2.375662877802136447e-02,-2.416367381938933079e-02,-2.457071886075730405e-02,-2.497776390212527037e-02,-2.538480894349323669e-02,-2.579185398486120301e-02,-2.619889902622916933e-02,-2.660594406759712871e-02,-2.701298910896510197e-02,-2.742003415033306829e-02,-2.782707919170103461e-02
-1.032414241287844293e-02,-1.073118745424640925e-02,-1.113823249561437558e-02,-1.154527753698234536e-02,-1.195232257835031515e-02,-1.232236352504846415e-02,-1.272940856641643047e-02,-1.313645360778440026e-02,-1.354349864915236658e-02,-1.395054369052033290e-02,-1.435758873188830269e-02,-1.476463377325626901e-02,-1.517167881462423533e-02,-1.557872385599220165e-02,-1.598576889736017664e-02,-1.639281393872813603e-02,-1.679985898009610928e-02,-1.720690402146406867e-02,-1.761394906283204193e-02,-1.802099410420000825e-02,-1.842803914556797457e-02,-1.879808009226612703e-02,-2.558150604240134185e-01,-2.562221054653813779e-01,-2.566291505067493373e-01,-2.570361955481172966e-01,-2.574432405894852560e-01,-2.124035034047393189e-02,-2.164739538184189821e-02,-2.205444042320986453e-02,-2.246148546457783085e-02,-2.286853050594579717e-02,-2.327557554731377043e-02,-2.368262058868172981e-02,-2.408966563004970307e-02,-2.449671067141766939e-02,-2.486675161811582879e-02,-2.527379665948378817e-02,-2.568084170085176143e-02,-5.522783393354217807e-02,-5.563487897491013745e-02,-5.604192401627811071e-02,-2.730902186632362671e-02,-2.771606690769159304e-02,-2.812311194905955936e-02,-2.853015699042752568e-02,-2.893720203179549200e-02
-4.091265216931443474e-03,-1.184131029434086664e-02,-1.224835533570883296e-02,-1.265540037707679928e-02,-1.306244541844476907e-02,-1.346949045981273539e-02,-1.383953140651088785e-02,-1.424657644787885764e-02,-1.465362148924682396e-02,-1.506066653061479028e-02,-1.546771157198275660e-02,-1.587475661335072119e-02,-1.628180165471869445e-02,-1.668884669608666077e-02,-1.709589173745462709e-02,-1.750293677882259341e-02,-2.447196841945062651e-01,-2.451267292358742245e-01,-2.455337742772421838e-01,-2.459408193186101432e-01,-2.463478643599781026e-01,-1.994520702703039827e-02,-2.569251832641078481e-01,-2.573322283054758075e-01,-2.577392733468438224e-01,-2.581463183882117818e-01,-2.585533634295797412e-01,-2.235047318056838234e-02,-2.275751822193634866e-02,-2.316456326330432192e-02,-2.357160830467228130e-02,-2.397865334604025456e-02,-2.438569838740822782e-02,-2.479274342877619414e-02,-2.519978847014416046e-02,-2.560683351151212678e-02,-2.601387855288010004e-02,-2.638391949957824556e-02,-2.679096454094621188e-02,-5.633795677363663545e-02,-5.674500181500459484e-02,-5.715204685637256810e-02,-2.841914470641807716e-02,-2.882618974778605042e-02,-2.923323478915402368e-02,-2.964027983052198306e-02,-3.004732487188994938e-02
3.604430096431689504e-03,-1.295143313443532056e-02,-1.335847817580329035e-02,-1.376552321717126014e-02,-1.417256825853922646e-02,-1.457961329990719278e-02,-1.498665834127516257e-02,-1.535669928797331156e-02,-1.576374432934127962e-02,-1.617078937070924594e-02,-1.657783441207721226e-02,-1.698487945344517858e-02,-1.739192449481315184e-02,-1.779896953618111816e-02,-1.820601457754908448e-02,-1.861305961891705080e-02,-2.458298070346006947e-01,-2.462368520759686541e-01,-2.466438971173366135e-01,-2.470509421587045729e-01,-2.474579872000725878e-01,-2.105532986712485566e-02,-2.146237490849282198e-02,-2.183241585519097444e-02,-2.223946089655894076e-02,-2.264650593792690708e-02,-2.305355097929487340e-02,-2.346059602066283972e-02,-2.386764106203081298e-02,-2.427468610339877930e-02,-2.468173114476674562e-02,-2.508877618613471194e-02,-2.549582122750268520e-02,-2.590286626887065152e-02,-2.630991131023861784e-02,-2.671695635160657722e-02,-2.712400139297455048e-02,-2.753104643434251680e-02,-2.793809147571048312e-02,-5.744807961373109284e-02,-5.785512465509905222e-02,-5.826216969646703936e-02,-2.952926754651254149e-02,-2.993631258788050781e-02,-3.034335762924847413e-02,-3.075040267061644045e-02,-3.115744771198440677e-02
1.206333486235976020e-02,-1.242875029722418333e-02,-1.446860101589774773e-02,-1.487564605726571405e-02,-1.528269109863368037e-02,-1.568973614000164496e-02,-1.609678118136961822e-02,-1.650382622273758454e-02,-1.687386716943573700e-02,-1.728091221080370332e-02,-1.768795725217166964e-02,-1.809500229353964290e-02,-1.850204733490760922e-02,-1.890909237627557554e-02,-1.931613741764354186e-02,-1.972318245901150818e-02,-2.469399298746951799e-01,-2.473469749160631392e-01,-2.477540199574310986e-01,-2.481610649987990580e-01,-2.485681100401670174e-01,-2.216545270721930611e-02,-2.257249774858727936e-02,-2.297954278995524569e-02,-2.334958373665339121e-02,-2.375662877802135753e-02,-2.416367381938933079e-02,-2.457071886075730405e-02,-2.497776390212527731e-02,-2.538480894349323669e-02,-2.579185398486120301e-02,-2.619889902622916933e-02,-2.660594406759713565e-02,-2.701298910896510197e-02,-2.742003415033306829e-02,-2.782707919170103461e-02,-2.823412423306900787e-02,-2.864116927443696725e-02,-2.904821431580494051e-02,-2.945525935717290683e-02,-2.982530030387106623e-02,-3.023234534523902561e-02,-3.063939038660699193e-02,-3.104643542797496519e-02,-3.145348046934293151e-02,-3.186052551071089783e-02,-3.226757055207886415e-02
1.206333486235976020e-02,-4.107454508349485736e-03,-1.557872385599220165e-02,-1.598576889736016970e-02,-1.639281393872813603e-02,-1.679985898009610928e-02,-1.720690402146406867e-02,-1.761394906283203499e-02,-1.802099410420000825e-02,-1.839103505089815377e-02,-1.879808009226612703e-02,-1.920512513363409335e-02,-1.961217017500206661e-02,-2.001921521637002599e-02,-2.042626025773799925e-02,-2.083330529910595863e-02,-2.480500527147896095e-01,-2.484570977561575689e-01,-2.488641427975255283e-01,-2.492711878388934876e-01,-2.496782328802615025e-01,-2.327557554731376349e-02,-2.368262058868172981e-02,-2.408966563004970307e-02,-2.449671067141766939e-02,-2.486675161811582879e-02,-2.527379665948379511e-02,-2.568084170085175449e-02,-2.608788674221972081e-02,-2.649493178358769407e-02,-2.690197682495565346e-02,-2.730902186632362671e-02,-2.771606690769158610e-02,-2.812311194905955936e-02,-2.853015699042752568e-02,-2.893720203179549200e-02,-2.934424707316346526e-02,-2.975129211453143158e-02,-3.015833715589940484e-02,-3.056538219726736422e-02,-3.097242723863533054e-02,-3.134246818533348300e-02,-3.174951322670144932e-02,-3.215655826806942258e-02,-3.256360330943738196e-02,-3.297064835080535522e-02,-3.337769339217332154e-02
1.206333486235976020e-02,4.977050733090146971e-03,-1.668884669608665383e-02,-1.709589173745462709e-02,-1.750293677882259341e-02,-1.790998182019055973e-02,-1.831702686155852605e-02,-1.872407190292649931e-02,-1.913111694429446563e-02,-1.953816198566243195e-02,-1.994520702703039827e-02,-2.031524797372855073e-02,-2.072229301509651705e-02,-2.112933805646448338e-02,-2.153638309783244970e-02,-2.194342813920042295e-02,-2.491601755548840391e-01,-2.495672205962520540e-01,-2.499742656376200134e-01,-2.503813106789879450e-01,-2.507883557203559044e-01,-2.438569838740822782e-02,-2.479274342877619414e-02,-2.519978847014416046e-02,-2.560683351151212678e-02,-2.601387855288009310e-02,-2.638391949957824556e-02,-2.679096454094621188e-02,-2.719800958231417820e-02,-2.760505462368214452e-02,-2.801209966505011084e-02,-2.841914470641807716e-02,-2.882618974778604348e-02,-2.923323478915401674e-02,-2.964027983052198306e-02,-3.004732487188995632e-02,-3.045436991325792264e-02,-3.086141495462588202e-02,-3.126845999599385528e-02,-3.167550503736181466e-02,-3.208255007872978792e-02,-3.248959512009774731e-02,-3.285963606679590671e-02,-3.326668110816387303e-02,-3.367372614953184629e-02,-3.408077119089981261e-02,-3.448781623226777893e-02
1.206333486235976020e-02,1.206333486235976020e-02,-1.313298447390910152e-02,-1.820601457754908448e-02,-1.861305961891705080e-02,-1.902010466028502406e-02,-1.942714970165299038e-02,-1.983419474302094976e-02,-2.024123978438892302e-02,-2.064828482575688934e-02,-2.105532986712485566e-02,-2.146237490849282198e-02,-2.183241585519097444e-02,-2.223946089655894076e-02,-2.264650593792690708e-02,-2.305355097929487340e-02,-2.346059602066283972e-02,-2.386764106203080604e-02,-2.427468610339877930e-02,-2.468173114476674562e-02,-2.508877618613471194e-02,-2.549582122750268520e-02,-2.590286626887065152e-02,-2.630991131023861784e-02,-2.671695635160658416e-02,-2.712400139297455048e-02,-2.753104643434250987e-02,-2.790108738104066927e-02,-2.830813242240862865e-02,-2.871517746377660191e-02,-2.912222250514456823e-02,-2.952926754651253455e-02,-2.993631258788050781e-02,-3.034335762924847413e-02,-3.075040267061643351e-02,-3.115744771198440677e-02,-3.156449275335238003e-02,-3.197153779472033941e-02,-3.237858283608830573e-02,-3.278562787745627205e-02,-3.319267291882424531e-02,-3.359971796019220469e-02,-3.400676300156018489e-02,-3.437680394825833041e-02,-3.478384898962629673e-02,-3.519089403099426999e-02,-3.559793907236223631e-02
1.206333486235976020e-02,1.206333486235976020e-02,-3.422878756957906804e-03,-1.931613741764354186e-02,-1.972318245901150818e-02,-2.013022750037947450e-02,-2.053727254174744082e-02,-2.094431758311540714e-02,-2.135136262448338040e-02,-2.175840766585133979e-02,-2.216545270721931304e-02,-2.257249774858727936e-02,-2.297954278995524569e-02,-2.334958373665339815e-02,-2.375662877802136447e-02,-2.416367381938933079e-02,-2.457071886075730405e-02,-2.497776390212527037e-02,-2.538480894349323669e-02,-2.579185398486120301e-02,-2.619889902622916933e-02,-2.660594406759713565e-02,-2.701298910896510197e-02,-2.742003415033306829e-02,-2.782707919170104155e-02,-2.823412423306900093e-02,-2.864116927443696725e-02,-2.904821431580494051e-02,-2.941825526250309297e-02,-2.982530030387105929e-02,-3.023234534523902561e-02,-3.063939038660699193e-02,-3.104643542797495825e-02,-3.145348046934293151e-02,-3.186052551071089783e-02,-3.226757055207886415e-02,-3.267461559344683047e-02,-3.308166063481479680e-02,-3.348870567618276312e-02,-3.389575071755073638e-02,-3.430279575891870270e-02,-3.470984080028667595e-02,-3.511688584165463534e-02,-3.552393088302260166e-02,-3.589397182972075412e-02,-3.630101687108872044e-02,-3.648603734443779667e-02
1.206333486235976020e-02,1.206333486235976020e-02,7.050436412558230836e-03,-2.042626025773799925e-02,-2.083330529910596557e-02,-2.124035034047393189e-02,-2.164739538184189127e-02,-2.205444042320986453e-02,-2.246148546457783085e-02,-2.286853050594579717e-02,-2.327557554731376349e-02,-2.368262058868172981e-02,-2.408966563004970307e-02,-2.449671067141767633e-02,-2.486675161811582185e-02,-2.527379665948378817e-02,-2.568084170085176143e-02,-2.608788674221972081e-02,-2.649493178358769407e-02,-2.690197682495565346e-02,-2.730902186632362671e-02,-2.771606690769159304e-02,-2.812311194905955936e-02,-2.853015699042752568e-02,-2.893720203179549200e-02,-2.934424707316346526e-02,-2.975129211453143158e-02,-3.015833715589939790e-02,-3.056538219726736422e-02,-3.097242723863533054e-02,-3.134246818533348300e-02,-3.174951322670144932e-02,-3.215655826806941564e-02,-3.256360330943738196e-02,-3.297064835080535522e-02,-3.337769339217332154e-02,-3.378473843354128092e-02,-3.419178347490926112e-02,-3.459882851627722744e-02,-3.500587355764519376e-02,-3.541291859901315314e-02,-3.581996364038112640e-02,-3.622700868174909272e-02,-3.648603734443779667e-02,-3.648603734443779667e-02,-3.648603734443779667e-02,-3.648603734443779667e-02
1.206333486235976020e-02,1.206333486235976020e-02,1.206333486235976020e-02,-1.313645360778440026e-02,-2.194342813920041602e-02,-2.235047318056838928e-02,-2.275751822193634866e-02,-2.316456326330432192e-02,-2.357160830467229518e-02,-2.397865334604025456e-02,-2.438569838740822782e-02,-2.479274342877619414e-02,-2.519978847014416046e-02,-2.560683351151211984e-02,-2.601387855288009310e-02,-2.638391949957824556e-02,-2.679096454094621188e-02,-2.719800958231417820e-02,-2.760505462368214452e-02,-2.801209966505011084e-02,-2.841914470641807716e-02,-2.882618974778605042e-02,-2.923323478915401674e-02,-2.964027983052198306e-02,-3.004732487188994938e-02,-3.045436991325792264e-02,-3.086141495462588896e-02,-3.126845999599384834e-02,-3.167550503736182160e-02,-3.208255007872978098e-02,-3.248959512009774731e-02,-3.285963606679589977e-02,-3.326668110816387303e-02,-3.367372614953184629e-02,-3.408077119089980567e-02,-3.448781623226777893e-02,-3.489486127363574525e-02,-3.530190631500371157e-02,-3.570895135637167095e-02,-3.611599639773964421e-02,-3.648603734443779667e-02,-3.648603734443779667e-02,-3.648603734443779667e-02,-3.648603734443779667e-02,-3.648603734443779667e-02,-3.648603734443779667e-02,-3.534816143334097716e-02
1.206333486235976020e-02,1.206333486235976020e-02,1.206333486235976020e-02,-2.037537962756698004e-03,-2.305355097929487340e-02,-2.346059602066283972e-02,-2.386764106203080604e-02,-2.427468610339877930e-02,-2.468173114476674562e-02,-2.508877618613471888e-02,-2.549582122750268520e-02,-2.590286626887064458e-02,-2.630991131023861784e-02,-2.671695635160657722e-02,-2.712400139297454355e-02,-2.753104643434251680e-02,-2.790108738104066233e-02,-2.830813242240863559e-02,-2.871517746377659497e-02,-2.912222250514456823e-02,-2.952926754651254149e-02,-2.993631258788050087e-02,-3.034335762924847413e-02,-3.075040267061644045e-02,-3.115744771198441371e-02,-3.156449275335237309e-02,-3.197153779472034635e-02,-3.237858283608830573e-02,-3.278562787745627205e-02,-3.319267291882424531e-02,-3.359971796019221857e-02,-3.400676300156017795e-02,-3.437680394825833735e-02,-3.478384898962630367e-02,-3.519089403099426305e-02,-3.559793907236223631e-02,-3.600498411373019569e-02,-3.641202915509816895e-02,-3.648603734443779667e-02,-3.648603734443779667e-02,-3.648603734443779667e-02,-3.648603734443779667e-02,-3.648603734443779667e-02,-3.648603734443779667e-02,-3.231382567041612974e-02,-2.814161399639446282e-02,-2.396940232237280283e-02
1.206333486235976020e-02,1.206333486235976020e-02,1.206333486235976020e-02,8.705213271074029383e-03,-2.416367381938933079e-02,-2.457071886075730405e-02,-2.497776390212527037e-02,-2.538480894349323669e-02,-2.579185398486120301e-02,-2.619889902622916933e-02,-2.660594406759712871e-02,-2.701298910896510197e-02,-2.742003415033306829e-02,-2.782707919170103461e-02,-2.823412423306900787e-02,-2.864116927443696725e-02,-2.904821431580494051e-02,-2.945525935717291377e-02,-2.982530030387105929e-02,-3.023234534523902561e-02,-3.063939038660699193e-02,-3.104643542797495825e-02,-3.145348046934293151e-02,-3.186052551071089783e-02,-3.226757055207886415e-02,-3.267461559344682354e-02,-3.308166063481478986e-02,-3.348870567618277005e-02,-3.389575071755073638e-02,-3.430279575891870270e-02,-3.470984080028666902e-02,-3.511688584165463534e-02,-3.552393088302260166e-02,-3.589397182972074718e-02,-3.630101687108872044e-02,-3.648603734443779667e-02,-3.648603734443779667e-02,-3.648603734443779667e-02,-3.648603734443779667e-02,-3.648603734443779667e-02,-3.648603734443779667e-02,-3.345170158151294926e-02,-2.927948990749128233e-02,-2.510727823346961540e-02,-2.093506655944794848e-02,-1.676285488542628849e-02,-1.259064321140462329e-02
1.206333486235976020e-02,1.206333486235976020e-02,1.206333486235976020e-02,1.206333486235976020e-02,-1.360594305890768137e-02,-2.568084170085176143e-02,-2.608788674221972081e-02,-2.649493178358769407e-02,-2.690197682495565346e-02,-2.730902186632362671e-02,-2.771606690769159304e-02,-2.812311194905955936e-02,-2.853015699042752568e-02,-2.893720203179549894e-02,-2.934424707316346526e-02,-2.975129211453143158e-02,-3.015833715589939790e-02,-3.056538219726736422e-02,-3.097242723863533054e-02,-3.134246818533348300e-02,-3.174951322670144932e-02,-3.215655826806941564e-02,-3.256360330943737502e-02,-3.297064835080535522e-02,-3.337769339217332154e-02,-3.378473843354128786e-02,-3.419178347490925418e-02,-3.459882851627722744e-02,-3.500587355764519376e-02,-3.541291859901316008e-02,-3.581996364038112640e-02,-3.622700868174909272e-02,-3.648603734443779667e-02,-3.648603734443779667e-02,-3.648603734443779667e-02,-3.648603734443779667e-02,-3.648603734443779667e-02,-3.648603734443779667e-02,-3.458957749260976183e-02,-3.041736581858810184e-02,-2.624515414456643492e-02,-2.207294247054477493e-02,-1.790073079652310800e-02,-1.372851912250144281e-02,-9.556307448479779351e-03,-5.384095774458112424e-03,-1.211884100436447231e-03
1.206333486235976020e-02,1.206333486235976020e-02,1.206333486235976020e-02,1.206333486235976020e-02,-1.152908824556429443e-03,-2.679096454094621188e-02,-2.719800958231417820e-02,-2.760505462368215146e-02,-2.801209966505011084e-02,-2.841914470641807716e-02,-2.882618974778604348e-02,-2.923323478915401674e-02,-2.964027983052199000e-02,-3.004732487188994938e-02,-3.045436991325792264e-02,-3.086141495462588896e-02,-3.126845999599385528e-02,-3.167550503736181466e-02,-3.208255007872978098e-02,-3.248959512009775424e-02,-3.285963606679590671e-02,-3.326668110816387303e-02,-3.367372614953183935e-02,-3.408077119089981261e-02,-3.448781623226777893e-02,-3.489486127363574525e-02,-3.530190631500371157e-02,-3.570895135637167095e-02,-3.611599639773964421e-02,-3.648603734443779667e-02,-3.648603734443779667e-02,-3.648603734443779667e-02,-3.648603734443779667e-02,-3.648603734443779667e-02,-3.648603734443779667e-02,-3.572745340370658829e-02,-3.155524172968492136e-02,-2.738303005566325443e-02,-2.321081838164159444e-02,-1.903860670761992058e-02,-1.486639503359826232e-02,-1.069418335957659540e-02,-6.521971685554931938e-03,-2.349760011533265011e-03,1.822451662488400181e-03,5.994663336510065374e-03,1.016687501053173057e-02
1.206333486235976020e-02,1.206333486235976020e-02,1.206333486235976020e-02,1.206333486235976020e-02,1.206333486235976020e-02,-2.540331099082814015e-02,-2.830813242240862865e-02,-2.871517746377660191e-02,-2.912222250514456823e-02,-2.952926754651254149e-02,-2.993631258788050087e-02,-3.034335762924847413e-02,-3.075040267061644739e-02,-3.115744771198440677e-02,-3.156449275335238003e-02,-3.197153779472033941e-02,-3.237858283608830573e-02,-3.278562787745627205e-02,-3.319267291882424531e-02,-3.359971796019221163e-02,-3.400676300156017795e-02,-3.437680394825832347e-02,-3.478384898962630367e-02,-3.519089403099426305e-02,-3.559793907236223631e-02,-3.600498411373020263e-02,-3.641202915509816895e-02,-3.648603734443779667e-02,-3.648603734443779667e-02,-3.648603734443779667e-02,-3.648603734443779667e-02,-3.648603734443779667e-02,-3.648603734443779667e-02,-3.231382567041612974e-02,-2.814161399639446975e-02,-2.396940232237279589e-02,-1.979719064835113590e-02,-1.600427094469508010e-02,-1.183205927067341491e-02,-7.659847596651747983e-03,-3.487635922630081056e-03,6.845757513915824016e-04,4.856787425413247594e-03,9.028999099434912787e-03,1.206333486235976020e-02,1.206333486235976020e-02,1.206333486235976020e-02
1.206333486235976020e-02,1.206333486235976020e-02,1.206333486235976020e-02,1.206333486235976020e-02,1.206333486235976020e-02,-1.234664746217553448e-02,-2.941825526250309297e-02,-2.982530030387105929e-02,-3.023234534523902561e-02,-3.063939038660699193e-02,-3.104643542797496519e-02,-3.145348046934292457e-02,-3.186052551071089783e-02,-3.226757055207885722e-02,-3.267461559344682354e-02,-3.308166063481479680e-02,-3.348870567618277005e-02,-3.389575071755073638e-02,-3.430279575891870270e-02,-3.470984080028666902e-02,-3.511688584165463534e-02,-3.552393088302260166e-02,-3.589397182972075412e-02,-3.630101687108872044e-02,-3.648603734443779667e-02,-3.648603734443779667e-02,-3.648603734443779667e-02,-3.648603734443779667e-02,-3.648603734443780361e-02,-3.648603734443779667e-02,-3.345170158151294926e-02,-2.927948990749128233e-02,-2.510727823346962234e-02,-2.093506655944795541e-02,-1.676285488542628849e-02,-1.259064321140462676e-02,-8.418431537382963306e-03,-4.246219863361296379e-03,-4.533001597052353782e-04,3.718911514316429814e-03,7.891123188338095007e-03,1.206333486235976020e-02,1.206333486235976020e-02,1.206333486235976020e-02,1.206333486235976020e-02,1.206333486235976020e-02,1.206333486235976020e-02
1.206333486235976020e-02,1.206333486235976020e-02,1.206333486235976020e-02,1.206333486235976020e-02,1.206333486235976020e-02,1.507916857794970242e-03,-3.056538219726736422e-02,-3.093542314396551668e-02,-3.134246818533348300e-02,-3.174951322670144932e-02,-3.215655826806941564e-02,-3.256360330943738196e-02,-3.297064835080535522e-02,-3.337769339217332154e-02,-3.378473843354128786e-02,-3.419178347490925418e-02,-3.459882851627722744e-02,-3.500587355764518682e-02,-3.541291859901316008e-02,-3.581996364038113334e-02,-3.622700868174909272e-02,-3.648603734443779667e-02,-3.648603734443779667e-02,-3.648603734443779667e-02,-3.648603734443779667e-02,-3.648603734443779667e-02,-3.648603734443779667e-02,-3.458957749260976877e-02,-3.041736581858810184e-02,-2.624515414456643492e-02,-2.207294247054476799e-02,-1.790073079652310800e-02,-1.372851912250144281e-02,-9.556307448479775882e-03,-5.384095774458112424e-03,-1.211884100436445497e-03,2.960327573585217961e-03,7.132539247606883154e-03,1.130475092162854835e-02,1.206333486235976020e-02,1.206333486235976020e-02,1.206333486235976020e-02,1.206333486235976020e-02,1.206333486235976020e-02,1.206333486235976020e-02,1.206333486235976020e-02,1.206333486235976020e-02
1.206333486235976020e-02,1.206333486235976020e-02,1.206333486235976020e-02,1.206333486235976020e-02,1.206333486235976020e-02,1.206333486235976020e-02,-2.484131130303032786e-02,-3.208255007872978792e-02,-3.248959512009775424e-02,-3.285963606679589977e-02,-3.326668110816387303e-02,-3.367372614953184629e-02,-3.408077119089980567e-02,-3.448781623226777893e-02,-3.489486127363573831e-02,-3.530190631500371157e-02,-3.570895135637167789e-02,-3.611599639773965115e-02,-3.648603734443779667e-02,-3.648603734443779667e-02,-3.648603734443779667e-02,-3.648603734443779667e-02,-3.648603734443779667e-02,-3.648603734443779667e-02,-3.572745340370658829e-02,-3.155524172968492136e-02,-2.738303005566325443e-02,-2.321081838164158750e-02,-1.903860670761992752e-02,-1.486639503359826232e-02,-1.069418335957659540e-02,-6.521971685554928469e-03,-2.349760011533265011e-03,1.822451662488400181e-03,5.994663336510065374e-03,1.016687501053173057e-02,1.206333486235976020e-02,1.206333486235976020e-02,1.206333486235976020e-02,1.206333486235976020e-02,1.206333486235976020e-02,1.206333486235976020e-02,1.206333486235976020e-02,1.206333486235976020e-02,1.206333486235976020e-02,1.206333486235976020e-02,1.206333486235976020e-02
1.206333486235976020e-02,1.206333486235976020e-02,1.206333486235976020e-02,1.206333486235976020e-02,1.206333486235976020e-02,1.206333486235976020e-02,-1.036114650754825679e-02,-3.319267291882424531e-02,-3.359971796019221163e-02,-3.400676300156017795e-02,-3.437680394825833735e-02,-3.478384898962629673e-02,-3.519089403099426999e-02,-3.559793907236223631e-02,-3.600498411373019569e-02,-3.641202915509816201e-02,-3.648603734443779667e-02,-3.648603734443779667e-02,-3.648603734443779667e-02,-3.648603734443779667e-02,-3.648603734443779667e-02,-3.648603734443779667e-02,-3.231382567041612974e-02,-2.814161399639446282e-02,-2.396940232237279589e-02,-2.017648261871674009e-02,-1.600427094469507316e-02,-1.183205927067341491e-02,-7.659847596651747983e-03,-3.487635922630081056e-03,6.845757513915824016e-04,4.856787425413247594e-03,9.028999099434912787e-03,1.206333486235976020e-02,1.206333486235976020e-02,1.206333486235976020e-02,1.206333486235976020e-02,1.206333486235976020e-02,1.206333486235976020e-02,1.206333486235976020e-02,1.206333486235976020e-02,1.206333486235976020e-02,1.206333486235976020e-02,1.206333486235976020e-02,1.206333486235976020e-02,1.206333486235976020e-02,1.206333486235976020e-02
1.206333486235976020e-02,1.206333486235976020e-02,1.206333486235976020e-02,1.206333486235976020e-02,1.206333486235976020e-02,1.206333486235976020e-02,4.882227740498745056e-03,-3.430279575891870270e-02,-3.470984080028666902e-02,-3.511688584165463534e-02,-3.552393088302260166e-02,-3.589397182972075412e-02,-3.630101687108872044e-02,-3.648603734443779667e-02,-3.648603734443779667e-02,-3.648603734443779667e-02,-3.648603734443779667e-02,-3.648603734443779667e-02,-3.648603734443779667e-02,-3.345170158151294926e-02,-2.927948990749128233e-02,-2.510727823346961540e-02,-2.093506655944795541e-02,-1.676285488542628849e-02,-1.259064321140462676e-02,-8.418431537382959837e-03,-4.625511833726900571e-03,-4.533001597052353782e-04,3.718911514316429814e-03,7.891123188338095007e-03,1.206333486235976020e-02,1.206333486235976020e-02,1.206333486235976020e-02,1.206333486235976020e-02,1.206333486235976020e-02,1.206333486235976020e-02,1.206333486235976020e-02,1.206333486235976020e-02,1.206333486235976020e-02,1.206333486235976020e-02,1.206333486235976020e-02,1.206333486235976020e-02,1.206333486235976020e-02,1.206333486235976020e-02,1.206333486235976020e-02,1.206333486235976020e-02,1.206333486235976020e-02
