2.642119321678535002e-03,2.642119321678535002e-03,2.642119321678535002e-03,2.642119321678535002e-03,2.642119321678535002e-03,2.642119321678535002e-03,1.331894143351808855e-04,-4.294938309108658689e-03,-3.933290754897005026e-03,-3.604520251068227352e-03,-3.242872696856572822e-03,-2.914102193027795582e-03,-2.552454638816141052e-03,-2.190807084604486522e-03,-1.862036580775710149e-03,-1.500389026564054751e-03,-1.171618522735278379e-03,-8.099709685236229813e-04,-4.483234143119684510e-04,-1.195529104831912111e-04,2.420946437284633192e-04,5.708651475572405591e-04,9.325127017688946557e-04,1.294160255980549403e-03,1.622930759809326426e-03,1.984578314020980956e-03,2.313348817849758196e-03,2.642119321678535002e-03,2.642119321678535002e-03,2.642119321678535002e-03,2.642119321678535002e-03,2.642119321678535002e-03,2.642119321678535002e-03,2.642119321678535002e-03,2.642119321678535002e-03,2.642119321678535002e-03,2.642119321678535002e-03,2.642119321678535002e-03,2.642119321678535002e-03,2.642119321678535002e-03,2.642119321678535002e-03,2.642119321678535002e-03,2.642119321678535002e-03,2.642119321678535002e-03,2.642119321678535002e-03,2.642119321678535002e-03,2.642119321678535002e-03
2.642119321678535002e-03,2.642119321678535002e-03,2.642119321678535002e-03,2.642119321678535002e-03,2.642119321678535002e-03,2.642119321678535002e-03,-3.053829657155025367e-03,-5.281249820594991276e-03,-4.952479316766213169e-03,-4.590831762554559506e-03,-4.229184208342904108e-03,-3.900413704514126435e-03,-3.538766150302471037e-03,-3.209995646473694664e-03,-2.848348092262040134e-03,-2.486700538050385604e-03,-2.157930034221608364e-03,-1.796282480009954701e-03,-1.467511976181177461e-03,-1.105864421969522064e-03,-7.442168677578675333e-04,-4.154463639290907270e-04,-5.379880971743619678e-05,2.749716941113406095e-04,6.366192483229955734e-04,9.982668025346501037e-04,1.327037306363427127e-03,1.688684860575081874e-03,2.017455364403858680e-03,2.379102918615513644e-03,2.642119321678535002e-03,2.642119321678535002e-03,2.642119321678535002e-03,2.642119321678535002e-03,2.642119321678535002e-03,2.642119321678535002e-03,2.642119321678535002e-03,2.642119321678535002e-03,2.642119321678535002e-03,2.642119321678535002e-03,2.642119321678535002e-03,2.642119321678535002e-03,2.642119321678535002e-03,2.642119321678535002e-03,2.642119321678535002e-03,2.642119321678535002e-03,2.642119321678535002e-03
2.642119321678535002e-03,2.642119321678535002e-03,2.642119321678535002e-03,2.642119321678535002e-03,2.642119321678535002e-03,2.040058336542087142e-03,-6.629208886292975791e-03,-6.267561332081323863e-03,-5.938790828252544021e-03,-5.577143274040888624e-03,-5.248372770212112251e-03,-4.886725216000458588e-03,-4.525077661788803191e-03,-4.196307157960026818e-03,-3.834659603748370987e-03,-3.505889099919594614e-03,-3.144241545707940084e-03,-2.782593991496285554e-03,-2.453823487667508314e-03,-2.092175933455853783e-03,-1.763405429627075676e-03,-1.401757875415422013e-03,-1.040110321203767049e-03,-7.113398173749902430e-04,-3.496922631633352790e-04,-2.092175933455847278e-05,3.407257948770960575e-04,7.023733490887510214e-04,1.031143852917527828e-03,1.392791407129182575e-03,1.721561910957959598e-03,2.083209465169614128e-03,2.411979968998390934e-03,2.642119321678535002e-03,2.642119321678535002e-03,2.642119321678535002e-03,2.642119321678535002e-03,2.642119321678535002e-03,2.642119321678535002e-03,2.642119321678535002e-03,2.642119321678535002e-03,2.642119321678535002e-03,2.642119321678535002e-03,2.642119321678535002e-03,2.642119321678535002e-03,2.642119321678535002e-03,2.642119321678535002e-03
2.642119321678535002e-03,2.642119321678535002e-03,2.642119321678535002e-03,2.642119321678535002e-03,2.642119321678535002e-03,-1.671966133249697724e-03,-7.615520397779306644e-03,-7.286749893950530271e-03,-6.925102339738876608e-03,-6.563454785527221211e-03,-6.234684281698444838e-03,-5.873036727486789441e-03,-5.544266223658013068e-03,-5.182618669446357670e-03,-4.820971115234702273e-03,-4.492200611405925900e-03,-4.130553057194270503e-03,-3.801782553365493696e-03,-3.440134999153839166e-03,-3.078487444942184636e-03,-2.749716941113407396e-03,-2.388069386901753733e-03,-2.059298883072975626e-03,-1.697651328861321095e-03,-1.336003774649666565e-03,-1.007233270820889325e-03,-6.455857166092347950e-04,-3.168152127804575550e-04,4.483234143119697521e-05,3.736028452599737815e-04,7.352503994716285286e-04,1.096897953683283276e-03,1.425668457512060299e-03,1.787316011723715046e-03,2.116086515552491852e-03,2.477734069764146382e-03,2.642119321678535002e-03,2.642119321678535002e-03,2.642119321678535002e-03,2.642119321678535002e-03,2.642119321678535002e-03,2.642119321678535002e-03,2.642119321678535002e-03,2.642119321678535002e-03,2.642119321678535002e-03,2.642119321678535002e-03,2.642119321678535002e-03
2.642119321678535002e-03,2.642119321678535002e-03,2.642119321678535002e-03,2.642119321678535002e-03,2.642119321678535002e-03,-5.699404805152215661e-03,-8.601831909265639231e-03,-8.273061405436861124e-03,-7.911413851225205726e-03,-7.582643347396429354e-03,-7.220995793184775691e-03,-6.859348238973120293e-03,-6.530577735144343920e-03,-6.168930180932688523e-03,-5.840159677103910416e-03,-5.478512122892256753e-03,-5.116864568680601355e-03,-4.788094064851824982e-03,-4.426446510640169585e-03,-4.097676006811393212e-03,-3.736028452599739116e-03,-3.374380898388083718e-03,-3.045610394559306478e-03,-2.683962840347651948e-03,-2.355192336518874708e-03,-1.993544782307220178e-03,-1.631897228095565647e-03,-1.303126724266788408e-03,-9.414791700551343109e-04,-6.127086662263566373e-04,-2.510611120147025407e-04,7.770939181407469920e-05,4.393569460257296631e-04,8.010045002373839765e-04,1.129775004066161000e-03,1.491422558277815530e-03,1.820193062106592770e-03,2.181840616318247300e-03,2.543488170529901830e-03,2.642119321678535002e-03,2.642119321678535002e-03,2.642119321678535002e-03,2.642119321678535002e-03,2.642119321678535002e-03,2.642119321678535002e-03,2.642119321678535002e-03,2.642119321678535002e-03
2.642119321678535002e-03,2.642119321678535002e-03,2.642119321678535002e-03,2.642119321678535002e-03,1.022924590321808505e-03,-9.949790974963622012e-03,-9.621020471134845639e-03,-9.259372916923190242e-03,-8.897725362711536579e-03,-8.568954858882761941e-03,-8.207307304671104808e-03,-7.878536800842328436e-03,-7.516889246630674773e-03,-7.155241692419019375e-03,-6.826471188590243003e-03,-6.464823634378587605e-03,-6.136053130549811233e-03,-5.774405576338155835e-03,-5.412758022126500437e-03,-5.083987518297724065e-03,-4.722339964086068667e-03,-4.393569460257292295e-03,-4.031921906045636897e-03,-3.670274351833982800e-03,-3.341503848005206428e-03,-2.979856293793551030e-03,-2.651085789964773790e-03,-2.289438235753119260e-03,-1.927790681541464730e-03,-1.599020177712688357e-03,-1.237372623501032960e-03,-9.086021196722561533e-04,-5.469545654606011893e-04,-2.181840616318243831e-04,1.434634925798301472e-04,5.051110467914846774e-04,8.338815506202617005e-04,1.195529104831916448e-03,1.524299608660693254e-03,1.885947162872348001e-03,2.247594717084002748e-03,2.576365220912779554e-03,2.642119321678535002e-03,2.642119321678535002e-03,2.642119321678535002e-03,2.642119321678535002e-03,2.642119321678535002e-03
2.642119321678535002e-03,2.642119321678535002e-03,2.642119321678535002e-03,2.642119321678535002e-03,-3.456573524345277811e-03,-1.093610248644995633e-02,-1.060733198262117823e-02,-1.024568442840952283e-02,-9.916913924580746456e-03,-9.555266370369091058e-03,-9.193618816157435661e-03,-8.864848312328661023e-03,-8.503200758117005625e-03,-8.174430254288227518e-03,-7.812782700076572120e-03,-7.451135145864920192e-03,-7.122364642036142085e-03,-6.760717087824488422e-03,-6.431946583995710315e-03,-6.070299029784054917e-03,-5.708651475572399520e-03,-5.379880971743623147e-03,-5.018233417531969484e-03,-4.689462913703191377e-03,-4.327815359491537714e-03,-3.966167805279882316e-03,-3.637397301451106377e-03,-3.275749747239450112e-03,-2.946979243410673740e-03,-2.585331689199019210e-03,-2.223684134987363812e-03,-1.894913631158586572e-03,-1.533266076946932042e-03,-1.204495573118155669e-03,-8.428480189065011390e-04,-5.140775150777238990e-04,-1.524299608660693688e-04,2.092175933455855952e-04,5.379880971743624014e-04,8.996356513860171485e-04,1.228406155214793955e-03,1.590053709426448702e-03,1.951701263638103449e-03,2.280471767466880472e-03,2.642119321678535002e-03,2.642119321678535002e-03,2.642119321678535002e-03
2.642119321678535002e-03,2.642119321678535002e-03,2.642119321678535002e-03,2.642119321678535002e-03,-9.018959485998397779e-03,-1.195529104831916274e-02,-1.159364349410750734e-02,-1.123199593989585368e-02,-1.090322543606707731e-02,-1.054157788185542191e-02,-1.021280737802664554e-02,-9.851159823814988406e-03,-9.489512269603336478e-03,-9.160741765774560105e-03,-8.799094211562902973e-03,-8.470323707734128335e-03,-8.108676153522472937e-03,-7.747028599310815805e-03,-7.418258095482041167e-03,-7.056610541270385770e-03,-6.727840037441611132e-03,-6.366192483229953999e-03,-6.004544929018300337e-03,-5.675774425189522229e-03,-5.314126870977868566e-03,-4.985356367149092194e-03,-4.623708812937436796e-03,-4.262061258725781399e-03,-3.933290754897005026e-03,-3.571643200685350062e-03,-3.242872696856572822e-03,-2.881225142644917425e-03,-2.552454638816141052e-03,-2.190807084604486522e-03,-1.829159530392831991e-03,-1.500389026564054751e-03,-1.138741472352400221e-03,-8.099709685236229813e-04,-4.483234143119684510e-04,-8.667586010031348709e-05,2.420946437284628855e-04,6.037421979401178494e-04,9.325127017688946557e-04,1.294160255980549403e-03,1.655807810192204150e-03,1.984578314020980956e-03,2.346225868232635486e-03
2.642119321678535002e-03,2.642119321678535002e-03,2.642119321678535002e-03,9.928495612783819202e-05,-1.327037306363426823e-02,-1.294160255980549359e-02,-1.257995500559383993e-02,-1.225118450176506356e-02,-1.188953694755340816e-02,-1.152788939334175276e-02,-1.119911888951297813e-02,-1.083747133530132099e-02,-1.050870083147254462e-02,-1.014705327726088922e-02,-9.785405723049233825e-03,-9.456635219220459188e-03,-9.094987665008803790e-03,-8.766217161180027417e-03,-8.404569606968372020e-03,-8.042922052756716622e-03,-7.714151548927940250e-03,-7.352503994716286587e-03,-7.023733490887508479e-03,-6.662085936675853082e-03,-6.300438382464199419e-03,-5.971667878635421312e-03,-5.610020324423769383e-03,-5.281249820594991276e-03,-4.919602266383335878e-03,-4.557954712171680481e-03,-4.229184208342904108e-03,-3.867536654131249144e-03,-3.538766150302472772e-03,-3.177118596090817374e-03,-2.848348092262040134e-03,-2.486700538050386471e-03,-2.125052983838731074e-03,-1.796282480009953834e-03,-1.434634925798299303e-03,-1.105864421969522931e-03,-7.442168677578679670e-04,-3.825693135462130030e-04,-5.379880971743619678e-05,3.078487444942183335e-04,6.366192483229955734e-04,9.982668025346503205e-04,1.359914356746304851e-03
2.642119321678535002e-03,2.642119321678535002e-03,2.642119321678535002e-03,-5.988106403826860824e-03,-1.425668457512060082e-02,-1.392791407129182445e-02,-1.356626651708017252e-02,-1.323749601325139268e-02,-1.287584845903973728e-02,-1.254707795521096091e-02,-1.218543040099930551e-02,-1.182378284678765358e-02,-1.149501234295887547e-02,-1.113336478874722181e-02,-1.080459428491844544e-02,-1.044294673070678831e-02,-1.008129917649513464e-02,-9.752528672666356535e-03,-9.390881118454701137e-03,-9.062110614625926500e-03,-8.700463060414271102e-03,-8.338815506202617439e-03,-8.010045002373839332e-03,-7.648397448162185669e-03,-7.319626944333407562e-03,-6.957979390121753899e-03,-6.596331835910098501e-03,-6.267561332081322129e-03,-5.905913777869666731e-03,-5.577143274040888624e-03,-5.215495719829234961e-03,-4.853848165617579563e-03,-4.525077661788803191e-03,-4.163430107577147793e-03,-3.834659603748370987e-03,-3.473012049536716456e-03,-3.144241545707939216e-03,-2.782593991496284686e-03,-2.420946437284629289e-03,-2.092175933455853783e-03,-1.730528379244198386e-03,-1.401757875415422013e-03,-1.040110321203767483e-03,-6.784627669921125190e-04,-3.496922631633352790e-04,1.195529104831925121e-05,3.407257948770964912e-04
2.642119321678535002e-03,2.642119321678535002e-03,2.642119321678535002e-03,-1.166247981834665944e-02,-1.521759109312925511e-02,-1.491422558277815703e-02,-1.458545507894937719e-02,-1.422380752473772526e-02,-1.386215997052606987e-02,-1.353338946669729349e-02,-1.317174191248563810e-02,-1.284297140865686172e-02,-1.248132385444520633e-02,-1.211967630023355093e-02,-1.179090579640477456e-02,-1.142925824219312089e-02,-1.110048773836434279e-02,-1.073884018415268739e-02,-1.037719262994103372e-02,-1.004842212611225562e-02,-9.686774571900603689e-03,-9.358004068071825582e-03,-8.996356513860171919e-03,-8.634708959648514787e-03,-8.305938455819740149e-03,-7.944290901608083016e-03,-7.615520397779306644e-03,-7.253872843567651246e-03,-6.892225289355997583e-03,-6.563454785527221211e-03,-6.201807231315565813e-03,-5.873036727486789441e-03,-5.511389173275134043e-03,-5.182618669446357670e-03,-4.820971115234702273e-03,-4.459323561023048610e-03,-4.130553057194270503e-03,-3.768905502982616406e-03,-3.440134999153839166e-03,-3.078487444942184636e-03,-2.716839890730529238e-03,-2.388069386901753733e-03,-2.026421832690098335e-03,-1.697651328861321095e-03,-1.336003774649666565e-03,-9.743562204380116012e-04,-6.455857166092347950e-04
2.642119321678535002e-03,2.642119321678535002e-03,-9.812678730753213174e-04,-1.420139135402212656e-02,-1.445544128879890956e-02,-1.473489621705336740e-02,-1.498894615183015040e-02,-1.521011903622405785e-02,-1.488134853239527801e-02,-1.451970097818362261e-02,-1.415805342397197068e-02,-1.382928292014319084e-02,-1.346763536593153544e-02,-1.313886486210275907e-02,-1.277721730789110367e-02,-1.241556975367944828e-02,-1.208679924985067190e-02,-1.172515169563901997e-02,-1.139638119181024360e-02,-1.103473363759858820e-02,-1.067308608338693281e-02,-1.034431557955815643e-02,-9.982668025346501037e-03,-9.653897521517724664e-03,-9.292249967306071001e-03,-8.930602413094415604e-03,-8.601831909265637496e-03,-8.240184355053983833e-03,-7.911413851225207461e-03,-7.549766297013550329e-03,-7.188118742801896666e-03,-6.859348238973122028e-03,-6.497700684761464895e-03,-6.168930180932688523e-03,-5.807282626721034860e-03,-5.478512122892256753e-03,-5.116864568680601355e-03,-4.755217014468947692e-03,-4.426446510640169585e-03,-4.064798956428515922e-03,-3.736028452599738248e-03,-3.374380898388083718e-03,-3.012733344176428320e-03,-2.683962840347651948e-03,-2.322315286135997418e-03,-1.993544782307220178e-03,-1.631897228095565647e-03
2.642119321678535002e-03,2.642119321678535002e-03,-5.752643210601761717e-03,-1.341383655621410272e-02,-1.369329148446856055e-02,-1.397274641272302186e-02,-1.422679634749980486e-02,-1.450625127575426616e-02,-1.476030121053104917e-02,-1.503975613878550700e-02,-1.517724198584117883e-02,-1.481559443162952343e-02,-1.445394687741786803e-02,-1.412517637358908819e-02,-1.376352881937743626e-02,-1.343475831554865989e-02,-1.307311076133700449e-02,-1.271146320712534909e-02,-1.238269270329657272e-02,-1.202104514908491732e-02,-1.169227464525614268e-02,-1.133062709104448729e-02,-1.096897953683283362e-02,-1.064020903300405552e-02,-1.027856147879240012e-02,-9.949790974963623746e-03,-9.588143420751968349e-03,-9.226495866540314686e-03,-8.897725362711540048e-03,-8.536077808499882916e-03,-8.207307304671106543e-03,-7.845659750459451146e-03,-7.484012196247797483e-03,-7.155241692419019375e-03,-6.793594138207363978e-03,-6.464823634378587605e-03,-6.103176080166932208e-03,-5.774405576338155835e-03,-5.412758022126500437e-03,-5.051110467914846774e-03,-4.722339964086068667e-03,-4.360692409874415004e-03,-4.031921906045638632e-03,-3.670274351833982800e-03,-3.308626797622327403e-03,-2.979856293793551030e-03,-2.618208739581896500e-03
2.642119321678535002e-03,2.642119321678535002e-03,-1.051766729975878341e-02,-1.265168675188375370e-02,-1.293114168013821327e-02,-1.318519161491499454e-02,-1.346464654316945932e-02,-1.374410147142391715e-02,-1.399815140620070016e-02,-1.427760633445516146e-02,-1.453165626923194446e-02,-1.481111119748640577e-02,-1.506516113226318877e-02,-1.511148788507542425e-02,-1.474984033086376538e-02,-1.442106982703499247e-02,-1.405942227282333708e-02,-1.373065176899455724e-02,-1.336900421478290531e-02,-1.300735666057124644e-02,-1.267858615674247007e-02,-1.231693860253081814e-02,-1.198816809870204177e-02,-1.162652054449038637e-02,-1.126487299027873271e-02,-1.093610248644995460e-02,-1.057445493223830094e-02,-1.024568442840952283e-02,-9.884036874197867431e-03,-9.522389319986215503e-03,-9.193618816157437396e-03,-8.831971261945781998e-03,-8.503200758117005625e-03,-8.141553203905350228e-03,-7.779905649693696565e-03,-7.451135145864918458e-03,-7.089487591653264795e-03,-6.760717087824488422e-03,-6.399069533612833025e-03,-6.070299029784054917e-03,-5.708651475572399520e-03,-5.347003921360745857e-03,-5.018233417531969484e-03,-4.656585863320314086e-03,-4.327815359491537714e-03,-3.966167805279882316e-03,-3.604520251068227352e-03
2.642119321678535002e-03,-8.574185298716396030e-04,-1.161008201929894686e-02,-1.188953694755340816e-02,-1.216899187580786773e-02,-1.242304181058465247e-02,-1.270249673883911204e-02,-1.295654667361589331e-02,-1.323600160187035114e-02,-1.349005153664713415e-02,-1.376950646490159545e-02,-1.404896139315605676e-02,-1.430301132793283976e-02,-1.458246625618730107e-02,-1.483651619096408060e-02,-1.511597111921854190e-02,-1.504573378430966620e-02,-1.471696328048088982e-02,-1.435531572626923442e-02,-1.402654522244045805e-02,-1.366489766822880265e-02,-1.330325011401714726e-02,-1.297447961018837262e-02,-1.261283205597671722e-02,-1.228406155214793911e-02,-1.192241399793628719e-02,-1.156076644372463179e-02,-1.123199593989585542e-02,-1.087034838568420002e-02,-1.054157788185542191e-02,-1.017993032764376825e-02,-9.818282773432112850e-03,-9.489512269603336478e-03,-9.127864715391681080e-03,-8.799094211562904708e-03,-8.437446657351249310e-03,-8.108676153522472937e-03,-7.747028599310817540e-03,-7.385381045099162142e-03,-7.056610541270385770e-03,-6.694962987058732107e-03,-6.366192483229953999e-03,-6.004544929018298602e-03,-5.642897374806644939e-03,-5.314126870977868566e-03,-4.952479316766213169e-03,-4.623708812937436796e-03
2.642119321678535002e-03,-5.216756629431986911e-03,-1.084793221496859958e-02,-1.112738714322306088e-02,-1.138143707799984389e-02,-1.166089200625430519e-02,-1.194034693450876476e-02,-1.219439686928554603e-02,-1.247385179754000560e-02,-1.272790173231678860e-02,-1.300735666057124644e-02,-1.326140659534803291e-02,-1.354086152360249075e-02,-1.382031645185695205e-02,-1.407436638663373506e-02,-1.435382131488819636e-02,-1.460787124966497937e-02,-1.488732617791943720e-02,-1.516678110617389851e-02,-1.501285673392678717e-02,-1.465120917971513524e-02,-1.432243867588635540e-02,-1.396079112167470347e-02,-1.359914356746304460e-02,-1.327037306363427170e-02,-1.290872550942261457e-02,-1.257995500559383820e-02,-1.221830745138218453e-02,-1.185665989717053087e-02,-1.152788939334175276e-02,-1.116624183913009737e-02,-1.083747133530132273e-02,-1.047582378108966733e-02,-1.011417622687801193e-02,-9.785405723049235560e-03,-9.423758168837581897e-03,-9.094987665008803790e-03,-8.733340110797150127e-03,-8.404569606968372020e-03,-8.042922052756716622e-03,-7.681274498545062959e-03,-7.352503994716286587e-03,-6.990856440504631189e-03,-6.662085936675853082e-03,-6.300438382464199419e-03,-5.938790828252544021e-03,-5.610020324423767649e-03
2.642119321678535002e-03,-9.028299557129897818e-03,-1.008578241063825577e-02,-1.036523733889271534e-02,-1.061928727366949661e-02,-1.089874220192395618e-02,-1.115279213670073918e-02,-1.143224706495520222e-02,-1.171170199320966006e-02,-1.196575192798644306e-02,-1.224520685624090263e-02,-1.249925679101768564e-02,-1.277871171927214521e-02,-1.303276165404892821e-02,-1.331221658230338951e-02,-1.359167151055784735e-02,-1.384572144533463035e-02,-1.412517637358909166e-02,-1.437922630836587466e-02,-1.465868123662033597e-02,-1.493813616487479727e-02,-1.519218609965157681e-02,-1.494710263316103259e-02,-1.461833212933225622e-02,-1.425668457512060082e-02,-1.389503702090894542e-02,-1.356626651708017252e-02,-1.320461896286851712e-02,-1.287584845903973728e-02,-1.251420090482808535e-02,-1.215255335061642995e-02,-1.182378284678765358e-02,-1.146213529257599818e-02,-1.113336478874722181e-02,-1.077171723453556468e-02,-1.041006968032391101e-02,-1.008129917649513291e-02,-9.719651622283479245e-03,-9.390881118454702872e-03,-9.029233564243047475e-03,-8.700463060414271102e-03,-8.338815506202617439e-03,-7.977167951990962041e-03,-7.648397448162185669e-03,-7.286749893950530271e-03,-6.957979390121752164e-03,-6.596331835910098501e-03
-9.304578861199651503e-04,-9.044177678053448924e-03,-9.323632606307906759e-03,-9.577682541084689763e-03,-9.857137469339151067e-03,-1.013659239759361064e-02,-1.039064233237039364e-02,-1.067009726062485495e-02,-1.092414719540163622e-02,-1.120360212365609405e-02,-1.148305705191055535e-02,-1.173710698668733836e-02,-1.201656191494179966e-02,-1.227061184971858267e-02,-1.255006677797304050e-02,-1.280411671274982351e-02,-1.308357164100428481e-02,-1.336302656925874612e-02,-1.361707650403552565e-02,-1.389653143228998695e-02,-1.415058136706676996e-02,-1.443003629532123126e-02,-1.470949122357569257e-02,-1.496354115835247210e-02,-1.524299608660693341e-02,-1.491422558277815703e-02,-1.455257802856650164e-02,-1.419093047435484624e-02,-1.386215997052606640e-02,-1.350051241631441447e-02,-1.317174191248563810e-02,-1.281009435827398270e-02,-1.244844680406232730e-02,-1.211967630023355093e-02,-1.175802874602189727e-02,-1.142925824219311916e-02,-1.106761068798146549e-02,-1.070596313376981010e-02,-1.037719262994103372e-02,-1.001554507572938006e-02,-9.686774571900601954e-03,-9.325127017688948292e-03,-8.996356513860171919e-03,-8.634708959648516521e-03,-8.273061405436861124e-03,-7.944290901608084751e-03,-7.582643347396429354e-03
-4.343459978636797503e-03,-8.282027873723099912e-03,-8.561482801977561216e-03,-8.815532736754344220e-03,-9.094987665008805525e-03,-9.349037599785585059e-03,-9.628492528040046364e-03,-9.907947456294507668e-03,-1.016199739107128894e-02,-1.044145231932575024e-02,-1.069550225410253151e-02,-1.097495718235699108e-02,-1.122900711713377582e-02,-1.150846204538823539e-02,-1.178791697364269669e-02,-1.204196690841947796e-02,-1.232142183667393927e-02,-1.257547177145072054e-02,-1.285492669970518011e-02,-1.313438162795964141e-02,-1.338843156273642095e-02,-1.366788649099088225e-02,-1.392193642576766872e-02,-1.420139135402212656e-02,-1.448084628227658786e-02,-1.473489621705336740e-02,-1.501435114530782870e-02,-1.521011903622405438e-02,-1.484847148201239898e-02,-1.448682392780074359e-02,-1.415805342397196721e-02,-1.379640586976031529e-02,-1.346763536593153891e-02,-1.310598781171988005e-02,-1.274434025750822812e-02,-1.241556975367945001e-02,-1.205392219946779635e-02,-1.172515169563901824e-02,-1.136350414142736458e-02,-1.103473363759858820e-02,-1.067308608338693281e-02,-1.031143852917527741e-02,-9.982668025346501037e-03,-9.621020471134845639e-03,-9.292249967306069267e-03,-8.930602413094415604e-03,-8.568954858882760206e-03
-6.931593689175266984e-03,-7.519878069392754369e-03,-7.773928004169537373e-03,-8.053382932423996943e-03,-8.332837860678456512e-03,-8.586887795455239517e-03,-8.866342723709699086e-03,-9.120392658486482090e-03,-9.399847586740941660e-03,-9.679302514995402965e-03,-9.933352449772182499e-03,-1.021280737802664380e-02,-1.046685731280342854e-02,-1.074631224105788811e-02,-1.100036217583467112e-02,-1.127981710408913069e-02,-1.155927203234359026e-02,-1.181332196712037326e-02,-1.209277689537483283e-02,-1.234682683015161757e-02,-1.262628175840607540e-02,-1.290573668666053671e-02,-1.315978662143731624e-02,-1.343924154969177755e-02,-1.369329148446856055e-02,-1.397274641272302186e-02,-1.425220134097748316e-02,-1.450625127575426616e-02,-1.478570620400872400e-02,-1.503975613878550700e-02,-1.514436493545830327e-02,-1.478271738124664440e-02,-1.445394687741786803e-02,-1.409229932320621263e-02,-1.376352881937743626e-02,-1.340188126516578086e-02,-1.304023371095412547e-02,-1.271146320712535083e-02,-1.234981565291369543e-02,-1.202104514908491906e-02,-1.165939759487326366e-02,-1.133062709104448729e-02,-1.096897953683283362e-02,-1.060733198262117996e-02,-1.027856147879240185e-02,-9.916913924580746456e-03,-9.588143420751968349e-03
-6.478273336807947522e-03,-6.757728265062408826e-03,-7.011778199839190095e-03,-7.291233128093651400e-03,-7.545283062870432669e-03,-7.824737991124893974e-03,-8.104192919379353544e-03,-8.358242854156134813e-03,-8.637697782410597852e-03,-8.891747717187379121e-03,-9.171202645441838691e-03,-9.450657573696298261e-03,-9.704707508473079530e-03,-9.984162436727542569e-03,-1.023821237150432557e-02,-1.051766729975878514e-02,-1.077171723453556641e-02,-1.105117216279002772e-02,-1.133062709104448729e-02,-1.158467702582126856e-02,-1.186413195407572986e-02,-1.211818188885251286e-02,-1.239763681710697243e-02,-1.267709174536143200e-02,-1.293114168013821327e-02,-1.321059660839267284e-02,-1.346464654316945585e-02,-1.374410147142391715e-02,-1.402355639967837846e-02,-1.427760633445516146e-02,-1.455706126270962276e-02,-1.481111119748640577e-02,-1.509056612574086360e-02,-1.507861083469254869e-02,-1.474984033086376885e-02,-1.438819277665211345e-02,-1.405942227282333361e-02,-1.369777471861168168e-02,-1.336900421478290531e-02,-1.300735666057124991e-02,-1.264570910635959451e-02,-1.231693860253081814e-02,-1.195529104831916448e-02,-1.162652054449038810e-02,-1.126487299027873097e-02,-1.090322543606707731e-02,-1.057445493223829920e-02
-5.716123532477600244e-03,-5.970173467254381514e-03,-6.249628395508842818e-03,-6.529083323763304123e-03,-6.783133258540085392e-03,-7.062588186794546696e-03,-7.316638121571329700e-03,-7.596093049825789270e-03,-7.875547978080248840e-03,-8.129597912857030109e-03,-8.409052841111491414e-03,-8.663102775888274418e-03,-8.942557704142733987e-03,-9.196607638919518726e-03,-9.476062567173976561e-03,-9.755517495428439601e-03,-1.000956743020521914e-02,-1.028902235845968217e-02,-1.054307229323646344e-02,-1.082252722149092301e-02,-1.110198214974538258e-02,-1.135603208452216385e-02,-1.163548701277662516e-02,-1.188953694755340816e-02,-1.216899187580786947e-02,-1.244844680406232904e-02,-1.270249673883911204e-02,-1.298195166709356987e-02,-1.323600160187035461e-02,-1.351545653012481245e-02,-1.379491145837927375e-02,-1.404896139315605676e-02,-1.432841632141051806e-02,-1.458246625618730107e-02,-1.486192118444176237e-02,-1.514137611269622020e-02,-1.504573378430966620e-02,-1.468408623009801080e-02,-1.435531572626923442e-02,-1.399366817205758250e-02,-1.366489766822880265e-02,-1.330325011401714726e-02,-1.294160255980549359e-02,-1.261283205597671549e-02,-1.225118450176506182e-02,-1.192241399793628719e-02,-1.156076644372463179e-02
-4.953973728147252967e-03,-5.208023662924035971e-03,-5.487478591178495541e-03,-5.741528525955276810e-03,-6.020983454209738114e-03,-6.300438382464199419e-03,-6.554488317240982423e-03,-6.833943245495443727e-03,-7.087993180272226731e-03,-7.367448108526684566e-03,-7.646903036781145871e-03,-7.900952971557927140e-03,-8.180407899812388445e-03,-8.434457834589169714e-03,-8.713912762843631019e-03,-8.967962697620412288e-03,-9.247417625874871858e-03,-9.526872554129333162e-03,-9.780922488906116166e-03,-1.006037741716057747e-02,-1.031442735193736047e-02,-1.059388228019182004e-02,-1.087333720844627788e-02,-1.112738714322306262e-02,-1.140684207147752219e-02,-1.166089200625430519e-02,-1.194034693450876476e-02,-1.221980186276322433e-02,-1.247385179754000907e-02,-1.275330672579446691e-02,-1.300735666057124644e-02,-1.328681158882571121e-02,-1.356626651708016905e-02,-1.382031645185695205e-02,-1.409977138011141336e-02,-1.435382131488819636e-02,-1.463327624314265767e-02,-1.491273117139711897e-02,-1.516678110617389851e-02,-1.497997968354391161e-02,-1.465120917971513524e-02,-1.428956162550347984e-02,-1.396079112167470347e-02,-1.359914356746304807e-02,-1.323749601325138921e-02,-1.290872550942261457e-02,-1.254707795521096091e-02
-4.166418930339229124e-03,-4.445873858593688693e-03,-4.725328786848149998e-03,-4.979378721624931267e-03,-5.258833649879392572e-03,-5.512883584656172106e-03,-5.792338512910635145e-03,-6.071793441165096450e-03,-6.325843375941875985e-03,-6.605298304196339024e-03,-6.859348238973120293e-03,-7.138803167227579863e-03,-7.418258095482041167e-03,-7.672308030258824171e-03,-7.951762958513285476e-03,-8.205812893290066745e-03,-8.485267821544526315e-03,-8.739317756321309319e-03,-9.018772684575770623e-03,-9.298227612830228458e-03,-9.552277547607011463e-03,-9.831732475861472767e-03,-1.008578241063825577e-02,-1.036523733889271534e-02,-1.064469226714717665e-02,-1.089874220192395791e-02,-1.117819713017841748e-02,-1.143224706495519875e-02,-1.171170199320966006e-02,-1.199115692146412136e-02,-1.224520685624090437e-02,-1.252466178449536220e-02,-1.277871171927214521e-02,-1.305816664752660651e-02,-1.333762157578106435e-02,-1.359167151055784735e-02,-1.387112643881231212e-02,-1.412517637358909166e-02,-1.440463130184355296e-02,-1.465868123662033597e-02,-1.493813616487479380e-02,-1.521759109312925511e-02,-1.494710263316103606e-02,-1.458545507894938066e-02,-1.425668457512060082e-02,-1.389503702090894542e-02,-1.353338946669729349e-02
-3.404269126008882280e-03,-3.683724054263342717e-03,-3.937773989040124420e-03,-4.217228917294583990e-03,-4.496683845549045294e-03,-4.750733780325826563e-03,-5.030188708580287868e-03,-5.284238643357069137e-03,-5.563693571611530442e-03,-5.843148499865990012e-03,-6.097198434642773016e-03,-6.376653362897234320e-03,-6.630703297674017324e-03,-6.910158225928476894e-03,-7.164208160705259898e-03,-7.443663088959721202e-03,-7.723118017214180772e-03,-7.977167951990960307e-03,-8.256622880245421611e-03,-8.510672815022204615e-03,-8.790127743276664185e-03,-9.069582671531125490e-03,-9.323632606307908494e-03,-9.603087534562369798e-03,-9.857137469339151067e-03,-1.013659239759361064e-02,-1.041604732584807368e-02,-1.067009726062485495e-02,-1.094955218887931452e-02,-1.120360212365609578e-02,-1.148305705191055535e-02,-1.176251198016501666e-02,-1.201656191494179966e-02,-1.229601684319625923e-02,-1.255006677797304224e-02,-1.282952170622750181e-02,-1.310897663448195964e-02,-1.336302656925874265e-02,-1.364248149751320048e-02,-1.389653143228998695e-02,-1.417598636054444826e-02,-1.443003629532123126e-02,-1.470949122357569257e-02,-1.498894615183015040e-02,-1.524299608660693341e-02,-1.488134853239527801e-02,-1.455257802856650164e-02
-2.642119321678535870e-03,-2.921574249932995439e-03,-3.175624184709777576e-03,-3.455079112964238013e-03,-3.709129047741021017e-03,-3.988583975995481021e-03,-4.268038904249942325e-03,-4.522088839026723595e-03,-4.801543767281184899e-03,-5.055593702057966168e-03,-5.335048630312425738e-03,-5.614503558566887043e-03,-5.868553493343670047e-03,-6.148008421598129616e-03,-6.402058356374912620e-03,-6.681513284629373925e-03,-6.935563219406155194e-03,-7.215018147660616499e-03,-7.494473075915076068e-03,-7.748523010691859073e-03,-8.027977938946316908e-03,-8.282027873723099912e-03,-8.561482801977561216e-03,-8.840937730232020786e-03,-9.094987665008803790e-03,-9.374442593263263360e-03,-9.628492528040046364e-03,-9.907947456294505933e-03,-1.018740238454896897e-02,-1.044145231932575198e-02,-1.072090724758020981e-02,-1.097495718235699282e-02,-1.125441211061145065e-02,-1.153386703886591369e-02,-1.178791697364269496e-02,-1.206737190189715453e-02,-1.232142183667393753e-02,-1.260087676492839884e-02,-1.285492669970517837e-02,-1.313438162795963794e-02,-1.341383655621409925e-02,-1.366788649099088225e-02,-1.394734141924534356e-02,-1.420139135402212656e-02,-1.448084628227658786e-02,-1.476030121053104917e-02,-1.501435114530783217e-02
-1.879969517348188592e-03,-2.134019452124971596e-03,-2.413474380379431166e-03,-2.692929308633891603e-03,-2.946979243410674607e-03,-3.226434171665134177e-03,-3.480484106441916314e-03,-3.759939034696377618e-03,-4.039393962950837622e-03,-4.293443897727620626e-03,-4.572898825982080195e-03,-4.826948760758863199e-03,-5.106403689013322769e-03,-5.360453623790104039e-03,-5.639908552044565343e-03,-5.919363480299024913e-03,-6.173413415075807917e-03,-6.452868343330267487e-03,-6.706918278107052225e-03,-6.986373206361511795e-03,-7.265828134615973100e-03,-7.519878069392754369e-03,-7.799332997647213939e-03,-8.053382932423996943e-03,-8.332837860678456512e-03,-8.612292788932917817e-03,-8.866342723709700821e-03,-9.145797651964160391e-03,-9.399847586740941660e-03,-9.679302514995404699e-03,-9.958757443249862534e-03,-1.021280737802664554e-02,-1.049226230628110684e-02,-1.074631224105788811e-02,-1.102576716931234942e-02,-1.130522209756680725e-02,-1.155927203234359026e-02,-1.183872696059805156e-02,-1.209277689537483456e-02,-1.237223182362929587e-02,-1.262628175840607540e-02,-1.290573668666053671e-02,-1.318519161491499801e-02,-1.343924154969177755e-02,-1.371869647794623885e-02,-1.397274641272302186e-02,-1.425220134097748316e-02
-1.117819713017841748e-03,-1.371869647794623451e-03,-1.651324576049083889e-03,-1.905374510825866893e-03,-2.184829439080327330e-03,-2.464284367334787767e-03,-2.718334302111569904e-03,-2.997789230366030341e-03,-3.251839165142812477e-03,-3.531294093397272914e-03,-3.810749021651733352e-03,-4.064798956428515922e-03,-4.344253884682975492e-03,-4.598303819459758496e-03,-4.877758747714219800e-03,-5.131808682491001070e-03,-5.411263610745462374e-03,-5.690718538999921944e-03,-5.944768473776703213e-03,-6.224223402031164518e-03,-6.478273336807947522e-03,-6.757728265062408826e-03,-7.037183193316870131e-03,-7.291233128093649665e-03,-7.570688056348110970e-03,-7.824737991124893974e-03,-8.104192919379351809e-03,-8.383647847633813113e-03,-8.637697782410596117e-03,-8.917152710665055687e-03,-9.171202645441838691e-03,-9.450657573696299996e-03,-9.730112501950759565e-03,-9.984162436727542569e-03,-1.026361736498200214e-02,-1.051766729975878341e-02,-1.079712222801324471e-02,-1.107657715626770602e-02,-1.133062709104448902e-02,-1.161008201929894686e-02,-1.186413195407572986e-02,-1.214358688233019117e-02,-1.239763681710697417e-02,-1.267709174536143374e-02,-1.295654667361589331e-02,-1.321059660839267631e-02,-1.298592119732445808e-02
-3.302649152098170379e-04,-6.097198434642774750e-04,-8.891747717187379121e-04,-1.143224706495519615e-03,-1.422679634749980052e-03,-1.676729569526763056e-03,-1.956184497781223493e-03,-2.235639426035683931e-03,-2.489689360812466067e-03,-2.769144289066926504e-03,-3.023194223843708641e-03,-3.302649152098169078e-03,-3.582104080352629515e-03,-3.836154015129412519e-03,-4.115608943383872523e-03,-4.369658878160653792e-03,-4.649113806415115097e-03,-4.903163741191896366e-03,-5.182618669446355936e-03,-5.462073597700817240e-03,-5.716123532477600244e-03,-5.995578460732059814e-03,-6.249628395508842818e-03,-6.529083323763302388e-03,-6.808538252017765427e-03,-7.062588186794546696e-03,-7.342043115049006266e-03,-7.596093049825789270e-03,-7.875547978080248840e-03,-8.155002906334708410e-03,-8.409052841111491414e-03,-8.688507769365952718e-03,-8.942557704142735722e-03,-9.222012632397195292e-03,-9.501467560651654862e-03,-9.755517495428437866e-03,-1.003497242368289744e-02,-1.028902235845968044e-02,-1.056847728671414174e-02,-1.084793221496860131e-02,-1.110198214974538432e-02,-1.138143707799984562e-02,-1.163548701277662516e-02,-1.191494194103108646e-02,-1.216899187580786947e-02,-1.244844680406232904e-02,-7.444456995005895722e-03
4.318848891205298059e-04,1.524299608660689351e-04,-1.016199739107127679e-04,-3.810749021651736387e-04,-6.605298304196340758e-04,-9.145797651964162125e-04,-1.194034693450875782e-03,-1.448084628227659220e-03,-1.727539556482118790e-03,-2.006994484736580094e-03,-2.261044419513362231e-03,-2.540499347767822668e-03,-2.794549282544604805e-03,-3.074004210799066109e-03,-3.328054145575847379e-03,-3.607509073830307816e-03,-3.886964002084768253e-03,-4.141013936861550823e-03,-4.420468865116010393e-03,-4.674518799892793397e-03,-4.953973728147252967e-03,-5.233428656401714271e-03,-5.487478591178495541e-03,-5.766933519432955110e-03,-6.020983454209739849e-03,-6.300438382464199419e-03,-9.634901203219567445e-02,-9.660306196697246439e-02,-9.688251689522692223e-02,-7.367448108526686301e-03,-7.646903036781144136e-03,-7.926357965035605441e-03,-8.180407899812388445e-03,-8.459862828066848014e-03,-8.713912762843631019e-03,-8.993367691098090588e-03,-9.272822619352550158e-03,-9.526872554129333162e-03,-9.806327482383794467e-03,-1.006037741716057747e-02,-1.033983234541503704e-02,-1.059388228019181831e-02,-1.087333720844627961e-02,-1.115279213670073918e-02,-1.140684207147752219e-02,-1.168629699973198176e-02,-1.914901383379995822e-03
1.194034693450876216e-03,9.145797651964157789e-04,6.605298304196336422e-04,3.810749021651732051e-04,1.270249673883906347e-04,-1.524299608660693688e-04,-4.318848891205298059e-04,-6.859348238973123763e-04,-9.653897521517723797e-04,-1.219439686928554516e-03,-1.498894615183014953e-03,-1.778349543437475391e-03,-2.032399478214257527e-03,-2.311854406468718832e-03,-2.565904341245500968e-03,-2.845359269499961406e-03,-3.099409204276744410e-03,-3.378864132531203979e-03,-3.658319060785664417e-03,-3.912368995562446120e-03,-4.191823923816907424e-03,-4.445873858593688693e-03,-4.725328786848149998e-03,-5.004783715102609568e-03,-5.258833649879392572e-03,-5.538288578133852141e-03,-9.556145723438765061e-02,-9.584091216264210844e-02,-9.612036709089656628e-02,-6.605298304196339024e-03,-6.884753232450798593e-03,-7.138803167227583332e-03,-7.418258095482041167e-03,-7.697713023736502472e-03,-7.951762958513282006e-03,-8.231217886767743311e-03,-8.485267821544526315e-03,-8.764722749798985885e-03,-9.044177678053447189e-03,-9.298227612830228458e-03,-9.577682541084689763e-03,-9.831732475861472767e-03,-1.011118740411593234e-02,-1.036523733889271534e-02,-1.064469226714717491e-02,-1.007625553808412511e-02,2.642119321678535002e-03
1.956184497781223060e-03,-2.575145222653136834e-01,-2.577939771935681690e-01,-2.580734321218225991e-01,-2.583274820565993890e-01,-2.586069369848538746e-01,3.556699086874949046e-04,7.621498043303446754e-05,-3.066727160515614337e-02,-3.092132153993292637e-02,-3.120077646818738420e-02,-3.145482640296416721e-02,-3.173428133121863198e-02,-1.549704602138370687e-03,-1.803754536915153691e-03,-2.083209465169614995e-03,-2.337259399946397132e-03,-2.616714328200857569e-03,-2.870764262977638839e-03,-3.150219191232100143e-03,-3.429674119486559713e-03,-3.683724054263342717e-03,-3.963178982517802720e-03,-4.217228917294585724e-03,-4.496683845549045294e-03,-4.776138773803506599e-03,-9.479930743005730853e-02,-9.507876235831176637e-02,-9.533281229308854243e-02,-5.843148499865990012e-03,-6.122603428120451316e-03,-6.376653362897234320e-03,-6.656108291151695625e-03,-6.910158225928476894e-03,-7.189613154182938198e-03,-7.469068082437397768e-03,-7.723118017214179037e-03,-8.002572945468640342e-03,-8.256622880245423346e-03,-8.536077808499882916e-03,-8.815532736754344220e-03,-9.069582671531125490e-03,-9.349037599785585059e-03,-9.603087534562368063e-03,-9.882542462816829368e-03,-4.945240761639302027e-03,2.642119321678535002e-03
2.642119321678535002e-03,-2.567523724609833691e-01,-2.570318273892377992e-01,-2.572858773240145891e-01,-2.575653322522690747e-01,-2.578447871805235048e-01,1.117819713017841532e-03,8.383647847633810945e-04,-2.987971680734811952e-02,-3.015917173560258430e-02,-3.043862666385704213e-02,-3.069267659863382514e-02,-3.097213152688828297e-02,-7.621498043303464101e-04,-1.041604732584806847e-03,-1.295654667361589418e-03,-1.575109595616049855e-03,-1.854564523870510292e-03,-2.108614458647292429e-03,-2.388069386901752866e-03,-2.642119321678535870e-03,-2.921574249932995439e-03,-3.201029178187456744e-03,-3.455079112964238881e-03,-3.734534041218699318e-03,-3.988583975995481021e-03,-4.268038904249942325e-03,-4.547493832504403630e-03,-4.801543767281183164e-03,-5.080998695535644469e-03,-5.335048630312425738e-03,-5.614503558566887043e-03,-5.893958486821348347e-03,-6.148008421598129616e-03,-6.427463349852590921e-03,-6.681513284629373925e-03,-6.960968212883833495e-03,-7.240423141138296534e-03,-7.494473075915076068e-03,-7.773928004169537373e-03,-8.027977938946318642e-03,-8.307432867200778212e-03,-8.561482801977561216e-03,-8.840937730232022521e-03,-9.120392658486483825e-03,-3.620211570569144797e-04,2.642119321678535002e-03
2.642119321678535002e-03,-2.565745375066396106e-01,-2.565745375066396106e-01,-2.565745375066396106e-01,-2.568031824479387049e-01,-2.570572323827154948e-01,1.879969517348188159e-03,1.600514589093727721e-03,-2.911756700301777051e-02,-2.939702193127223528e-02,-2.965107186604901829e-02,-2.993052679430347612e-02,-3.020998172255793396e-02,0.000000000000000000e+00,-2.794549282544608708e-04,-5.335048630312425738e-04,-8.129597912857034446e-04,-1.067009726062485148e-03,-1.346464654316945151e-03,-1.625919582571406456e-03,-1.879969517348188592e-03,-2.159424445602649897e-03,-2.413474380379431166e-03,-2.692929308633892471e-03,-2.972384236888352040e-03,-3.226434171665134177e-03,-3.505889099919594614e-03,-3.759939034696377618e-03,-4.039393962950837622e-03,-4.318848891205297191e-03,-4.572898825982080195e-03,-4.852353754236539765e-03,-5.106403689013322769e-03,-5.385858617267782339e-03,-5.665313545522241909e-03,-5.919363480299024913e-03,-6.198818408553486217e-03,-6.452868343330269221e-03,-6.732323271584730526e-03,-7.011778199839190095e-03,-7.265828134615973100e-03,-7.545283062870432669e-03,-7.799332997647215673e-03,-8.078787925901673508e-03,-6.960968212883831760e-03,2.642119321678535002e-03,2.642119321678535002e-03
2.642119321678535002e-03,-2.565745375066396106e-01,-2.565745375066396106e-01,-2.565745375066396106e-01,-2.565745375066396106e-01,-2.565745375066396106e-01,2.642119321678535002e-03,2.388069386901752866e-03,-2.835541719868742844e-02,-2.863487212694188627e-02,-2.888892206171866928e-02,-2.916837698997312711e-02,-2.942242692474991012e-02,7.621498043303464101e-04,4.826948760758859730e-04,2.286449412991038363e-04,-5.080998695535660081e-05,-3.048599217321391712e-04,-5.843148499865991746e-04,-8.383647847633817450e-04,-1.117819713017841315e-03,-1.397274641272301752e-03,-1.651324576049084756e-03,-1.930779504303545193e-03,-2.184829439080327330e-03,-2.464284367334788634e-03,-2.743739295589248204e-03,-2.997789230366030341e-03,-3.277244158620491645e-03,-3.531294093397272914e-03,-3.810749021651733352e-03,-4.090203949906194222e-03,-4.344253884682977226e-03,-4.623708812937436796e-03,-4.877758747714218066e-03,-5.157213675968677635e-03,-5.436668604223138940e-03,-5.690718538999921944e-03,-5.970173467254383248e-03,-6.224223402031164518e-03,-6.503678330285625822e-03,-6.783133258540085392e-03,-7.037183193316868396e-03,-7.316638121571329700e-03,-2.783434597898120765e-03,2.642119321678535002e-03,2.642119321678535002e-03
2.642119321678535002e-03,-2.565745375066396106e-01,-2.565745375066396106e-01,-2.565745375066396106e-01,-2.565745375066396106e-01,-2.565745375066396106e-01,2.642119321678535002e-03,2.642119321678535002e-03,-2.782191233565618413e-02,-2.784731732913386243e-02,-2.812677225738832373e-02,-2.840622718564278157e-02,-2.866027712041956804e-02,1.524299608660693254e-03,1.270249673883911117e-03,9.907947456294504632e-04,7.113398173749900261e-04,4.572898825982076726e-04,1.778349543437472355e-04,-7.621498043303490122e-05,-3.556699086874949046e-04,-6.097198434642774750e-04,-8.891747717187379121e-04,-1.168629699973198349e-03,-1.422679634749980052e-03,-1.702134563004441357e-03,-1.956184497781222626e-03,-2.235639426035683931e-03,-2.515094354290145235e-03,-2.769144289066925637e-03,-3.048599217321386941e-03,-3.302649152098169078e-03,-3.582104080352629515e-03,-3.861559008607089952e-03,-4.115608943383872523e-03,-4.395063871638332093e-03,-4.649113806415115097e-03,-4.928568734669574666e-03,-5.208023662924035971e-03,-5.462073597700817240e-03,-5.741528525955276810e-03,-5.995578460732059814e-03,-6.275033388986522853e-03,-6.554488317240982423e-03,5.747879774324698120e-04,2.642119321678535002e-03,2.642119321678535002e-03
2.642119321678535002e-03,2.642119321678535002e-03,2.642119321678535002e-03,2.642119321678535002e-03,2.642119321678535002e-03,2.642119321678535002e-03,2.642119321678535002e-03,2.642119321678535002e-03,2.642119321678535002e-03,2.642119321678535002e-03,2.642119321678535002e-03,2.642119321678535002e-03,2.565904341245500535e-03,2.286449412991040098e-03,2.032399478214257527e-03,1.752944549959797090e-03,1.498894615183014953e-03,1.219439686928554516e-03,9.653897521517723797e-04,6.859348238973119426e-04,4.064798956428515055e-04,1.524299608660693688e-04,-1.270249673883915020e-04,-3.810749021651732051e-04,-6.605298304196340758e-04,-9.399847586740940793e-04,-1.194034693450876216e-03,-1.473489621705336653e-03,-1.727539556482118790e-03,-2.006994484736579227e-03,-2.286449412991040531e-03,-2.540499347767822668e-03,-2.819954276022282238e-03,-3.074004210799064375e-03,-3.353459139053525679e-03,-3.632914067307986116e-03,-3.886964002084768253e-03,-4.166418930339229124e-03,-4.420468865116010393e-03,-4.699923793370471697e-03,-4.979378721624931267e-03,-5.233428656401714271e-03,-5.512883584656175576e-03,-4.190236111724551446e-03,2.642119321678535002e-03,2.642119321678535002e-03,2.642119321678535002e-03
2.642119321678535002e-03,2.642119321678535002e-03,2.642119321678535002e-03,2.642119321678535002e-03,2.642119321678535002e-03,2.642119321678535002e-03,2.642119321678535002e-03,2.642119321678535002e-03,2.642119321678535002e-03,2.642119321678535002e-03,2.642119321678535002e-03,2.642119321678535002e-03,2.642119321678535002e-03,2.642119321678535002e-03,2.642119321678535002e-03,2.515094354290143934e-03,2.261044419513361797e-03,1.981589491258901360e-03,1.727539556482119007e-03,1.448084628227658570e-03,1.194034693450876433e-03,9.145797651964157789e-04,6.351248369419553418e-04,3.810749021651732051e-04,1.016199739107127679e-04,-1.524299608660693688e-04,-4.318848891205298059e-04,-7.113398173749906767e-04,-9.653897521517723797e-04,-1.244844680406232383e-03,-1.498894615183014953e-03,-1.778349543437475391e-03,-2.057804471691936695e-03,-2.311854406468719699e-03,-2.591309334723179269e-03,-2.845359269499961406e-03,-3.124814197754421843e-03,-3.404269126008881412e-03,-3.658319060785664417e-03,-3.937773989040124420e-03,-4.191823923816907424e-03,-4.471278852071366994e-03,-4.750733780325826563e-03,-1.181332196712037499e-03,2.642119321678535002e-03,2.642119321678535002e-03,2.642119321678535002e-03
2.642119321678535002e-03,2.642119321678535002e-03,2.642119321678535002e-03,2.642119321678535002e-03,2.642119321678535002e-03,2.642119321678535002e-03,2.642119321678535002e-03,2.642119321678535002e-03,2.642119321678535002e-03,2.642119321678535002e-03,2.642119321678535002e-03,2.642119321678535002e-03,2.642119321678535002e-03,2.642119321678535002e-03,2.642119321678535002e-03,2.642119321678535002e-03,2.642119321678535002e-03,2.642119321678535002e-03,2.489689360812465634e-03,2.210234432558005196e-03,1.956184497781223060e-03,1.676729569526762623e-03,1.422679634749980269e-03,1.143224706495520049e-03,8.637697782410596117e-04,6.097198434642770414e-04,3.302649152098166042e-04,7.621498043303446754e-05,-2.032399478214259696e-04,-4.826948760758864067e-04,-7.367448108526685434e-04,-1.016199739107128980e-03,-1.270249673883911117e-03,-1.549704602138371554e-03,-1.829159530392831991e-03,-2.083209465169614128e-03,-2.362664393424075433e-03,-2.616714328200857569e-03,-2.896169256455318006e-03,-3.175624184709778444e-03,-3.429674119486559713e-03,-3.709129047741020150e-03,-3.963178982517802720e-03,1.566376629108097614e-03,2.642119321678535002e-03,2.642119321678535002e-03,2.642119321678535002e-03
2.642119321678535002e-03,2.642119321678535002e-03,2.642119321678535002e-03,2.642119321678535002e-03,2.642119321678535002e-03,2.642119321678535002e-03,2.642119321678535002e-03,2.642119321678535002e-03,2.642119321678535002e-03,2.642119321678535002e-03,2.642119321678535002e-03,2.642119321678535002e-03,2.642119321678535002e-03,2.642119321678535002e-03,2.642119321678535002e-03,2.642119321678535002e-03,2.642119321678535002e-03,2.642119321678535002e-03,2.642119321678535002e-03,2.642119321678535002e-03,2.642119321678535002e-03,2.438879373857109033e-03,2.184829439080326896e-03,1.905374510825866459e-03,1.651324576049084322e-03,1.371869647794623885e-03,1.092414719540163448e-03,8.383647847633810945e-04,5.589098565089204405e-04,3.048599217321378702e-04,2.540499347767786673e-05,-2.540499347767825704e-04,-5.080998695535647071e-04,-7.875547978080247105e-04,-1.041604732584806414e-03,-1.321059660839267718e-03,-1.600514589093727288e-03,-1.854564523870510292e-03,-2.134019452124970729e-03,-2.388069386901752866e-03,-2.667524315156213303e-03,-2.946979243410673740e-03,-1.922840443841770507e-03,2.642119321678535002e-03,2.642119321678535002e-03,2.642119321678535002e-03,2.642119321678535002e-03
2.642119321678535002e-03,2.642119321678535002e-03,2.642119321678535002e-03,2.642119321678535002e-03,2.642119321678535002e-03,2.642119321678535002e-03,2.642119321678535002e-03,2.642119321678535002e-03,2.642119321678535002e-03,2.642119321678535002e-03,2.642119321678535002e-03,2.642119321678535002e-03,2.642119321678535002e-03,2.642119321678535002e-03,2.642119321678535002e-03,2.642119321678535002e-03,2.642119321678535002e-03,2.642119321678535002e-03,2.642119321678535002e-03,2.642119321678535002e-03,2.642119321678535002e-03,2.642119321678535002e-03,2.642119321678535002e-03,2.642119321678535002e-03,2.413474380379431166e-03,2.134019452124970295e-03,1.879969517348188375e-03,1.600514589093727938e-03,1.321059660839267501e-03,1.067009726062485148e-03,7.875547978080247105e-04,5.335048630312421401e-04,2.540499347767821367e-04,-2.540499347767873409e-05,-2.794549282544608708e-04,-5.589098565089213079e-04,-8.129597912857025772e-04,-1.092414719540163882e-03,-1.371869647794624319e-03,-1.625919582571406456e-03,-1.905374510825866893e-03,-2.159424445602649029e-03,4.191823923816906557e-04,2.642119321678535002e-03,2.642119321678535002e-03,2.642119321678535002e-03,2.642119321678535002e-03
2.642119321678535002e-03,2.642119321678535002e-03,2.642119321678535002e-03,2.642119321678535002e-03,2.642119321678535002e-03,2.642119321678535002e-03,2.642119321678535002e-03,2.642119321678535002e-03,2.642119321678535002e-03,2.642119321678535002e-03,2.642119321678535002e-03,2.642119321678535002e-03,2.642119321678535002e-03,2.642119321678535002e-03,2.642119321678535002e-03,2.642119321678535002e-03,2.642119321678535002e-03,2.642119321678535002e-03,2.642119321678535002e-03,2.642119321678535002e-03,2.642119321678535002e-03,2.642119321678535002e-03,2.642119321678535002e-03,2.642119321678535002e-03,2.642119321678535002e-03,2.642119321678535002e-03,2.642119321678535002e-03,2.362664393424074565e-03,2.108614458647292429e-03,1.829159530392831775e-03,1.549704602138371554e-03,1.295654667361589201e-03,1.016199739107128764e-03,7.621498043303464101e-04,4.826948760758859730e-04,2.032399478214255359e-04,-5.080998695535703449e-05,-3.302649152098170379e-04,-5.843148499865996083e-04,-8.637697782410591781e-04,-1.143224706495519615e-03,-1.397274641272301752e-03,2.102263210277872853e-03,2.642119321678535002e-03,2.642119321678535002e-03,2.642119321678535002e-03,2.642119321678535002e-03
2.642119321678535002e-03,2.642119321678535002e-03,2.642119321678535002e-03,2.642119321678535002e-03,2.642119321678535002e-03,2.642119321678535002e-03,2.642119321678535002e-03,2.642119321678535002e-03,2.642119321678535002e-03,2.642119321678535002e-03,2.642119321678535002e-03,2.642119321678535002e-03,2.642119321678535002e-03,2.642119321678535002e-03,2.642119321678535002e-03,2.642119321678535002e-03,2.642119321678535002e-03,2.642119321678535002e-03,2.642119321678535002e-03,2.642119321678535002e-03,2.642119321678535002e-03,2.642119321678535002e-03,2.642119321678535002e-03,2.642119321678535002e-03,2.642119321678535002e-03,2.642119321678535002e-03,2.642119321678535002e-03,2.642119321678535002e-03,2.642119321678535002e-03,2.591309334723178402e-03,2.337259399946396265e-03,2.057804471691935828e-03,1.778349543437475391e-03,1.524299608660693037e-03,1.244844680406232817e-03,9.907947456294504632e-04,7.113398173749898093e-04,4.318848891205293722e-04,1.778349543437468018e-04,-1.016199739107127679e-04,-3.556699086874949046e-04,2.866000826700571338e-04,2.642119321678535002e-03,2.642119321678535002e-03,2.642119321678535002e-03,2.642119321678535002e-03,2.642119321678535002e-03
2.642119321678535002e-03,2.642119321678535002e-03,2.642119321678535002e-03,2.642119321678535002e-03,2.642119321678535002e-03,2.642119321678535002e-03,2.642119321678535002e-03,2.642119321678535002e-03,2.642119321678535002e-03,2.642119321678535002e-03,2.642119321678535002e-03,2.642119321678535002e-03,2.642119321678535002e-03,2.642119321678535002e-03,2.642119321678535002e-03,2.642119321678535002e-03,2.642119321678535002e-03,2.642119321678535002e-03,2.642119321678535002e-03,2.642119321678535002e-03,2.642119321678535002e-03,2.642119321678535002e-03,2.642119321678535002e-03,2.642119321678535002e-03,2.642119321678535002e-03,2.642119321678535002e-03,2.642119321678535002e-03,2.642119321678535002e-03,2.642119321678535002e-03,2.642119321678535002e-03,2.642119321678535002e-03,2.642119321678535002e-03,2.565904341245500535e-03,2.286449412991040098e-03,2.006994484736579661e-03,1.752944549959797090e-03,1.473489621705336870e-03,1.219439686928554733e-03,9.399847586740938624e-04,6.605298304196336422e-04,4.064798956428515055e-04,1.620362240248164002e-03,2.642119321678535002e-03,2.642119321678535002e-03,2.642119321678535002e-03,2.642119321678535002e-03,2.642119321678535002e-03
2.642119321678535002e-03,2.642119321678535002e-03,2.642119321678535002e-03,2.642119321678535002e-03,2.642119321678535002e-03,2.642119321678535002e-03,2.642119321678535002e-03,2.642119321678535002e-03,2.642119321678535002e-03,2.642119321678535002e-03,2.642119321678535002e-03,2.642119321678535002e-03,2.642119321678535002e-03,2.642119321678535002e-03,2.642119321678535002e-03,2.642119321678535002e-03,2.642119321678535002e-03,2.642119321678535002e-03,2.642119321678535002e-03,2.642119321678535002e-03,2.642119321678535002e-03,2.642119321678535002e-03,2.642119321678535002e-03,2.642119321678535002e-03,2.642119321678535002e-03,2.642119321678535002e-03,2.642119321678535002e-03,2.642119321678535002e-03,2.642119321678535002e-03,2.642119321678535002e-03,2.642119321678535002e-03,2.642119321678535002e-03,2.642119321678535002e-03,2.642119321678535002e-03,2.642119321678535002e-03,2.515094354290143934e-03,2.235639426035683497e-03,1.981589491258901360e-03,1.702134563004440923e-03,1.448084628227658570e-03,1.168629699973198132e-03,2.532560287306047549e-03,2.642119321678535002e-03,2.642119321678535002e-03,2.642119321678535002e-03,2.642119321678535002e-03,2.642119321678535002e-03
2.642119321678535002e-03,2.642119321678535002e-03,2.642119321678535002e-03,2.642119321678535002e-03,2.642119321678535002e-03,2.642119321678535002e-03,2.642119321678535002e-03,2.642119321678535002e-03,2.642119321678535002e-03,2.642119321678535002e-03,2.642119321678535002e-03,2.642119321678535002e-03,2.642119321678535002e-03,2.642119321678535002e-03,2.642119321678535002e-03,2.642119321678535002e-03,2.642119321678535002e-03,2.642119321678535002e-03,2.642119321678535002e-03,2.642119321678535002e-03,2.642119321678535002e-03,2.642119321678535002e-03,2.642119321678535002e-03,2.642119321678535002e-03,2.642119321678535002e-03,2.642119321678535002e-03,2.642119321678535002e-03,2.642119321678535002e-03,2.642119321678535002e-03,2.642119321678535002e-03,2.642119321678535002e-03,2.642119321678535002e-03,2.642119321678535002e-03,2.642119321678535002e-03,2.642119321678535002e-03,2.642119321678535002e-03,2.642119321678535002e-03,2.642119321678535002e-03,2.464284367334787333e-03,2.210234432558005196e-03,2.153073197233229021e-03,2.642119321678535002e-03,2.642119321678535002e-03,2.642119321678535002e-03,2.642119321678535002e-03,2.642119321678535002e-03,2.642119321678535002e-03
2.642119321678535002e-03,2.642119321678535002e-03,2.642119321678535002e-03,2.642119321678535002e-03,2.642119321678535002e-03,2.642119321678535002e-03,2.642119321678535002e-03,2.642119321678535002e-03,2.642119321678535002e-03,2.642119321678535002e-03,2.642119321678535002e-03,2.642119321678535002e-03,2.642119321678535002e-03,2.642119321678535002e-03,2.642119321678535002e-03,2.642119321678535002e-03,2.642119321678535002e-03,2.642119321678535002e-03,2.642119321678535002e-03,2.642119321678535002e-03,2.642119321678535002e-03,2.642119321678535002e-03,2.642119321678535002e-03,2.642119321678535002e-03,2.642119321678535002e-03,2.642119321678535002e-03,2.642119321678535002e-03,2.642119321678535002e-03,2.642119321678535002e-03,2.642119321678535002e-03,2.642119321678535002e-03,2.642119321678535002e-03,2.642119321678535002e-03,2.642119321678535002e-03,2.642119321678535002e-03,2.642119321678535002e-03,2.642119321678535002e-03,2.642119321678535002e-03,2.642119321678535002e-03,2.642119321678535002e-03,2.642119321678535002e-03,2.642119321678535002e-03,2.642119321678535002e-03,2.642119321678535002e-03,2.642119321678535002e-03,2.642119321678535002e-03,2.642119321678535002e-03
