1.248956091654878330e-02,1.248956091654878330e-02,1.248956091654878330e-02,1.248956091654878330e-02,1.248956091654878330e-02,1.248956091654878330e-02,1.248956091654878330e-02,-2.224402922293632345e-01,-2.224402922293632345e-01,-2.224402922293632345e-01,9.673287376542685084e-03,-6.354982466361587534e-02,-1.367729367037744115e-01,-2.099960487439329337e-01,-2.578726989240366363e-01,-2.578726989240366363e-01,-2.578726989240365808e-01,-2.578726989240366363e-01,-2.578726989240366918e-01,-2.578726989240366363e-01,-2.578726989240366363e-01,-2.578726989240366363e-01,-2.578726989240366363e-01,-2.578726989240365808e-01,-2.578726989240366363e-01,-2.578726989240366363e-01,-2.578726989240366363e-01,-2.578726989240366363e-01,-2.578726989240366918e-01,-2.578726989240366363e-01,-2.545666386814207649e-01,-1.564983308596595013e-01,-2.984637719028201616e-03,1.248956091654878330e-02,1.248956091654878330e-02,1.248956091654878330e-02,1.248956091654878330e-02,1.248956091654878330e-02,1.248956091654878330e-02,1.248956091654878330e-02,1.248956091654878330e-02,1.248956091654878330e-02,1.248956091654878330e-02,1.248956091654878330e-02,1.248956091654878330e-02,1.248956091654878330e-02,1.248956091654878330e-02
1.248956091654878330e-02,1.248956091654878330e-02,1.248956091654878330e-02,1.248956091654878330e-02,1.248956091654878330e-02,1.248956091654878330e-02,1.248956091654878330e-02,-2.224402922293632345e-01,-2.224402922293632345e-01,-2.224402922293632345e-01,-4.383590988357318613e-02,-1.170590219237317570e-01,-1.902821339638902653e-01,-2.578726989240366363e-01,-2.578726989240366363e-01,-2.578726989240366363e-01,-2.578726989240366363e-01,-2.578726989240366363e-01,-2.578726989240366363e-01,-2.578726989240366363e-01,-2.578726989240365808e-01,-2.578726989240366363e-01,-2.578726989240366363e-01,-2.578726989240366363e-01,-2.578726989240366363e-01,-2.578726989240366363e-01,-2.578726989240366363e-01,-2.578726989240366363e-01,-2.578726989240366363e-01,-2.571380188701219982e-01,-2.475871781692317586e-01,-2.380363374683415190e-01,-1.983636145569512566e-01,-5.259850010995085340e-02,1.248956091654878330e-02,1.248956091654878330e-02,1.248956091654878330e-02,1.248956091654878330e-02,1.248956091654878330e-02,1.248956091654878330e-02,1.248956091654878330e-02,1.248956091654878330e-02,1.248956091654878330e-02,1.248956091654878330e-02,1.248956091654878330e-02,1.248956091654878330e-02,1.248956091654878330e-02
1.248956091654878330e-02,1.248956091654878330e-02,1.248956091654878330e-02,1.248956091654878330e-02,1.248956091654878330e-02,1.248956091654878330e-02,1.248956091654878330e-02,-2.224402922293632345e-01,-2.224402922293632345e-01,-2.562355747094364200e-01,-9.452883360368294352e-02,-1.677519456438414935e-01,-2.437913312240061470e-01,-2.578726989240366363e-01,-2.578726989240366363e-01,-2.578726989240366363e-01,-2.578726989240366363e-01,-2.578726989240365808e-01,-2.578726989240366363e-01,-2.578726989240366363e-01,-2.578726989240366363e-01,-2.578726989240366363e-01,-2.578726989240366363e-01,-2.578726989240366363e-01,-2.578726989240366363e-01,-2.578726989240366363e-01,-2.578726989240366363e-01,-2.578726989240366363e-01,-2.578726989240366918e-01,-2.501585583579329364e-01,-2.406077176570427523e-01,-2.310568769561524849e-01,-2.215060362552622730e-01,-2.119551955543719779e-01,-1.016728318362799394e-01,1.248956091654878330e-02,1.248956091654878330e-02,1.248956091654878330e-02,1.248956091654878330e-02,1.248956091654878330e-02,1.248956091654878330e-02,1.248956091654878330e-02,1.248956091654878330e-02,1.248956091654878330e-02,1.248956091654878330e-02,1.248956091654878330e-02,1.248956091654878330e-02
1.248956091654878330e-02,1.248956091654878330e-02,1.248956091654878330e-02,1.248956091654878330e-02,1.248956091654878330e-02,1.248956091654878330e-02,1.248956091654878330e-02,1.248956091654878330e-02,-1.591806783481707760e-03,-7.481491882364027513e-02,-1.480380308637987974e-01,-2.212611429039573474e-01,-2.578726989240366363e-01,-2.578726989240366363e-01,-2.578726989240366363e-01,-2.578726989240366363e-01,-2.578726989240366363e-01,-2.578726989240366363e-01,-2.578726989240366363e-01,-2.578726989240366918e-01,-2.578726989240366363e-01,-2.578726989240366363e-01,-2.578726989240366363e-01,-2.578726989240366363e-01,-2.578726989240366363e-01,-2.578726989240365808e-01,-2.578726989240366363e-01,-2.578726989240366363e-01,-2.530972785735914887e-01,-2.435464378727012491e-01,-2.339955971718110095e-01,-2.244447564709207976e-01,-2.148939157700304747e-01,-2.053430750691402906e-01,-1.957922343682500510e-01,-1.365586550213826467e-01,-1.706983187767283083e-02,1.248956091654878330e-02,1.248956091654878330e-02,1.248956091654878330e-02,1.248956091654878330e-02,1.248956091654878330e-02,1.248956091654878330e-02,1.248956091654878330e-02,1.248956091654878330e-02,1.248956091654878330e-02,1.248956091654878330e-02
1.248956091654878330e-02,1.248956091654878330e-02,1.248956091654878330e-02,1.248956091654878330e-02,1.248956091654878330e-02,1.248956091654878330e-02,1.248956091654878330e-02,1.248956091654878330e-02,-5.510100404359757204e-02,-1.283241160837561290e-01,-2.015472281239146790e-01,-2.578726989240366363e-01,-2.578726989240366363e-01,-2.578726989240366363e-01,-2.578726989240366363e-01,-2.578726989240366363e-01,-2.578726989240366918e-01,-2.578726989240366363e-01,-2.578726989240366363e-01,-2.578726989240366363e-01,-2.578726989240366363e-01,-2.578726989240366363e-01,-2.578726989240366363e-01,-2.578726989240365808e-01,-2.578726989240366363e-01,-2.578726989240366363e-01,-2.578726989240366363e-01,-2.556686587622927220e-01,-2.461178180614024824e-01,-2.365669773605122428e-01,-2.270161366596219754e-01,-2.174652959587317635e-01,-2.079144552578414962e-01,-1.983636145569512566e-01,-1.888127738560609614e-01,-1.792619331551707496e-01,-1.640173220364420925e-01,-5.764942548061396249e-02,1.248956091654878330e-02,1.248956091654878330e-02,1.248956091654878330e-02,1.248956091654878330e-02,1.248956091654878330e-02,1.248956091654878330e-02,1.248956091654878330e-02,1.248956091654878330e-02,1.248956091654878330e-02
1.248956091654878330e-02,1.248956091654878330e-02,1.248956091654878330e-02,1.248956091654878330e-02,1.248956091654878330e-02,1.248956091654878330e-02,1.248956091654878330e-02,-3.257081572354878635e-02,-1.057939277637073433e-01,-1.790170398038659072e-01,-2.522401518440244850e-01,-2.578726989240366363e-01,-2.578726989240366363e-01,-2.578726989240366363e-01,-2.578726989240366363e-01,-2.578726989240366363e-01,-2.578726989240366363e-01,-2.578726989240366363e-01,-2.578726989240366363e-01,-2.578726989240366363e-01,-2.578726989240366363e-01,-2.578726989240366363e-01,-2.578726989240366363e-01,-2.578726989240365808e-01,-2.578726989240365808e-01,-2.578726989240366363e-01,-2.578726989240366363e-01,-2.486891982501037157e-01,-2.391383575492134206e-01,-2.295875168483232087e-01,-2.200366761474329969e-01,-2.104858354465427017e-01,-2.009349947456524621e-01,-1.913841540447622225e-01,-1.818333133438719551e-01,-1.722824726429817432e-01,-1.627316319420915036e-01,-1.531807912412012362e-01,-8.508513374398857243e-02,3.329018994300688220e-03,1.248956091654878330e-02,1.248956091654878330e-02,1.248956091654878330e-02,1.248956091654878330e-02,1.248956091654878330e-02,1.248956091654878330e-02,1.248956091654878330e-02
1.248956091654878330e-02,1.248956091654878330e-02,1.248956091654878330e-02,1.248956091654878330e-02,1.248956091654878330e-02,1.248956091654878330e-02,-1.285690094350610234e-02,-8.608001298366464715e-02,-1.593031250238232110e-01,-2.325262370639817333e-01,-2.578726989240366363e-01,-2.578726989240365808e-01,-2.578726989240366363e-01,-2.578726989240366363e-01,-2.578726989240366363e-01,-2.578726989240366363e-01,-2.578726989240366363e-01,-2.578726989240365808e-01,-2.578726989240366363e-01,-2.578726989240366363e-01,-2.578726989240366363e-01,-2.578726989240366363e-01,-2.578726989240366363e-01,-2.578726989240366363e-01,-2.578726989240366363e-01,-2.578726989240366363e-01,-2.516279184657622126e-01,-2.420770777648720284e-01,-2.325262370639817333e-01,-2.229753963630914937e-01,-2.134245556622012263e-01,-2.038737149613110144e-01,-1.943228742604207748e-01,-1.847720335595304797e-01,-1.752211928586402956e-01,-1.656703521577500282e-01,-1.561195114568598163e-01,-1.465686707559695212e-01,-1.370178300550792816e-01,-1.099724205703468266e-01,-2.418704489997084567e-02,1.248956091654878330e-02,1.248956091654878330e-02,1.248956091654878330e-02,1.248956091654878330e-02,1.248956091654878330e-02,1.248956091654878330e-02
1.248956091654878330e-02,1.248956091654878330e-02,1.248956091654878330e-02,1.248956091654878330e-02,1.248956091654878330e-02,6.857013836536586873e-03,-6.636609820362197876e-02,-1.395892102437805149e-01,-2.128123222839390372e-01,-2.578726989240366363e-01,-2.578726989240366363e-01,-2.578726989240366918e-01,-2.578726989240366363e-01,-2.578726989240366363e-01,-2.578726989240366363e-01,-2.578726989240366363e-01,-2.578726989240366363e-01,-2.578726989240366363e-01,-2.578726989240366363e-01,-2.578726989240366363e-01,-2.578726989240366363e-01,-2.578726989240366363e-01,-2.578726989240366363e-01,-2.578726989240366363e-01,-2.578726989240366363e-01,-2.541992986544634459e-01,-2.446484579535732062e-01,-2.350976172526829666e-01,-2.255467765517927270e-01,-2.159959358509024319e-01,-2.064450951500122200e-01,-1.968942544491220081e-01,-1.873434137482317130e-01,-1.777925730473415011e-01,-1.682417323464512615e-01,-1.586908916455609941e-01,-1.491400509446707545e-01,-1.395892102437804871e-01,-1.300383695428902475e-01,-1.204875288420000218e-01,-1.109366881411097822e-01,-4.444814326183537528e-02,1.248956091654878330e-02,1.248956091654878330e-02,1.248956091654878330e-02,1.248956091654878330e-02,1.248956091654878330e-02
1.248956091654878330e-02,1.248956091654878330e-02,1.248956091654878330e-02,1.248956091654878330e-02,1.248956091654878330e-02,-4.383590988357318613e-02,-1.170590219237317292e-01,-1.902821339638902931e-01,-2.578726989240366363e-01,-2.578726989240366363e-01,-2.578726989240366363e-01,-2.578726989240366363e-01,-2.578726989240366363e-01,-2.578726989240366363e-01,-2.578726989240366363e-01,-2.578726989240366363e-01,-2.578726989240366363e-01,-2.578726989240366363e-01,-2.578726989240366363e-01,-2.578726989240366363e-01,-2.578726989240366918e-01,-2.578726989240366363e-01,-2.578726989240366363e-01,-2.578726989240366363e-01,-2.571380188701219982e-01,-2.475871781692317586e-01,-2.376689974413841444e-01,-2.281181567404939325e-01,-2.185673160396037207e-01,-2.090164753387134533e-01,-1.994656346378232137e-01,-1.899147939369329463e-01,-1.803639532360427067e-01,-1.708131125351524671e-01,-1.612622718342622274e-01,-1.517114311333719601e-01,-1.421605904324817204e-01,-1.326097497315914808e-01,-1.230589090307012551e-01,-1.135080683298110155e-01,-1.039572276289207758e-01,-9.440638692803050847e-02,-6.051926944121800017e-02,-1.228293215138528613e-03,1.248956091654878330e-02,1.248956091654878330e-02,1.248956091654878330e-02
1.248956091654878330e-02,1.248956091654878330e-02,1.248956091654878330e-02,1.248956091654878330e-02,-2.412199510353048998e-02,-9.734510714368906081e-02,-1.705682191838475970e-01,-2.437913312240061470e-01,-2.578726989240366363e-01,-2.578726989240366363e-01,-2.578726989240366363e-01,-2.578726989240366363e-01,-2.578726989240366363e-01,-2.578726989240366363e-01,-2.578726989240365808e-01,-2.578726989240366363e-01,-2.578726989240366363e-01,-2.578726989240366363e-01,-2.578726989240366363e-01,-2.578726989240366363e-01,-2.578726989240366363e-01,-2.578726989240366363e-01,-2.578726989240366363e-01,-2.578726989240366363e-01,-2.501585583579329919e-01,-2.406077176570427523e-01,-2.310568769561524571e-01,-2.215060362552622453e-01,-2.119551955543719779e-01,-2.024043548534817383e-01,-1.928535141525914987e-01,-1.833026734517012590e-01,-1.737518327508109917e-01,-1.642009920499207798e-01,-1.546501513490305124e-01,-1.450993106481402728e-01,-1.355484699472500054e-01,-1.259976292463597936e-01,-1.164467885454695401e-01,-1.068959478445793004e-01,-9.734510714368906081e-02,-8.779426644279880732e-02,-7.824342574190855382e-02,-6.615564297984433129e-02,-1.437217855470503645e-02,1.248956091654878330e-02,1.248956091654878330e-02
1.248956091654878330e-02,1.248956091654878330e-02,1.248956091654878330e-02,-1.591806783481707760e-03,-7.481491882364026125e-02,-1.480380308637987974e-01,-2.212611429039573474e-01,-2.578726989240366363e-01,-2.578726989240366363e-01,-2.578726989240366363e-01,-2.578726989240366363e-01,-2.578726989240366363e-01,-2.578726989240366363e-01,-2.578726989240366363e-01,-2.578726989240366363e-01,-2.578726989240366918e-01,-2.578726989240366363e-01,-2.578726989240366363e-01,-2.578726989240366363e-01,-2.578726989240366363e-01,-2.578726989240366363e-01,-2.578726989240366363e-01,-2.578726989240366363e-01,-2.527299385466342252e-01,-2.431790978457439301e-01,-2.336282571448536904e-01,-2.240774164439634508e-01,-2.145265757430732112e-01,-2.049757350421829716e-01,-1.954248943412927042e-01,-1.858740536404024646e-01,-1.763232129395122250e-01,-1.667723722386219853e-01,-1.572215315377317457e-01,-1.476706908368414783e-01,-1.381198501359512387e-01,-1.285690094350609991e-01,-1.190181687341707734e-01,-1.094673280332805060e-01,-9.991648733239028024e-02,-9.036564663150002674e-02,-8.081480593060977324e-02,-7.126396522971951975e-02,-6.171312452882927319e-02,-5.216228382793904744e-02,-2.194856661069970183e-02,1.106611831208917894e-02
1.248956091654878330e-02,1.248956091654878330e-02,1.248956091654878330e-02,-5.510100404359757204e-02,-1.283241160837561290e-01,-2.015472281239146790e-01,-2.578726989240366363e-01,-2.578726989240366363e-01,-2.578726989240366363e-01,-2.578726989240366363e-01,-2.578726989240366363e-01,-2.578726989240366363e-01,-2.578726989240366363e-01,-2.578726989240366363e-01,-2.578726989240366363e-01,-2.578726989240366363e-01,-2.578726989240366363e-01,-2.578726989240366363e-01,-2.578726989240365808e-01,-2.578726989240366363e-01,-2.578726989240366363e-01,-2.578726989240366363e-01,-2.556686587622927775e-01,-2.461178180614024824e-01,-2.365669773605122428e-01,-2.270161366596220309e-01,-2.174652959587317635e-01,-2.079144552578414962e-01,-1.983636145569512843e-01,-1.888127738560609892e-01,-1.792619331551707496e-01,-1.697110924542805099e-01,-1.597929117264329513e-01,-1.502420710255426839e-01,-1.406912303246524443e-01,-1.311403896237622324e-01,-1.215895489228719789e-01,-1.120387082219817393e-01,-1.024878675210914858e-01,-9.293702682020124617e-02,-8.338618611931099267e-02,-7.383534541842075305e-02,-6.428450471753049955e-02,-5.473366401664026687e-02,-4.518282331575001337e-02,-3.563198261485975987e-02,-2.005446959670103418e-02
1.248956091654878330e-02,1.248956091654878330e-02,-3.538708926355488282e-02,-1.086102013037134467e-01,-1.818333133438719829e-01,-2.550564253840305606e-01,-2.578726989240366363e-01,-2.578726989240366363e-01,-2.578726989240365808e-01,-2.578726989240366363e-01,-2.578726989240366363e-01,-2.578726989240366918e-01,-2.578726989240366363e-01,-2.578726989240365808e-01,-2.578726989240366363e-01,-2.578726989240366363e-01,-2.578726989240366363e-01,-2.578726989240366363e-01,-2.578726989240366918e-01,-2.578726989240366363e-01,-2.578726989240366363e-01,-2.578726989240366363e-01,-2.486891982501037157e-01,-2.391383575492134761e-01,-2.295875168483232087e-01,-2.200366761474329969e-01,-2.104858354465427017e-01,-2.009349947456524621e-01,-1.913841540447621947e-01,-1.818333133438719551e-01,-1.722824726429817432e-01,-1.627316319420915036e-01,-1.531807912412012362e-01,-1.436299505403109966e-01,-1.340791098394207292e-01,-1.245282691385305035e-01,-1.149774284376402639e-01,-1.054265877367500243e-01,-9.587574703585978464e-02,-8.632490633496953114e-02,-7.677406563407929152e-02,-6.722322493318903802e-02,-5.767238423229879146e-02,-4.812154353140855184e-02,-3.857070283051829834e-02,-2.901986212962805178e-02,-1.946902142873780522e-02
1.248956091654878330e-02,-1.285690094350609887e-02,-8.608001298366466103e-02,-1.593031250238232110e-01,-2.325262370639817611e-01,-2.578726989240366363e-01,-2.578726989240365808e-01,-2.578726989240366363e-01,-2.578726989240366363e-01,-2.578726989240366363e-01,-2.578726989240366363e-01,-2.578726989240366363e-01,-2.578726989240366363e-01,-2.578726989240366363e-01,-2.578726989240366363e-01,-2.578726989240366363e-01,-2.578726989240366363e-01,-2.578726989240366363e-01,-2.578726989240366363e-01,-2.578726989240366363e-01,-2.578726989240366363e-01,-2.512605784388048935e-01,-2.417097377379146539e-01,-2.321588970370244420e-01,-2.226080563361342024e-01,-2.130572156352439350e-01,-2.035063749343536954e-01,-1.939555342334634558e-01,-1.844046935325731884e-01,-1.748538528316829488e-01,-1.653030121307927369e-01,-1.557521714299024695e-01,-1.462013307290122022e-01,-1.366504900281219625e-01,-1.270996493272317229e-01,-1.175488086263414972e-01,-1.079979679254512576e-01,-9.844712722456100407e-02,-8.889628652367076445e-02,-7.934544582278051095e-02,-6.979460512189025745e-02,-6.024376442100001089e-02,-5.069292372010975739e-02,-4.114208301921951777e-02,-3.159124231832927815e-02,-2.204040161743902465e-02,-1.248956091654878330e-02
6.857013836536586873e-03,-6.636609820362197876e-02,-1.395892102437805149e-01,-2.128123222839390649e-01,-2.578726989240366363e-01,-2.578726989240366363e-01,-2.578726989240365808e-01,-2.578726989240366363e-01,-2.578726989240366363e-01,-2.578726989240366363e-01,-2.578726989240366363e-01,-2.578726989240366363e-01,-2.578726989240366918e-01,-2.578726989240366363e-01,-2.578726989240366363e-01,-2.578726989240366363e-01,-2.578726989240366363e-01,-2.578726989240366363e-01,-2.578726989240366363e-01,-2.578726989240366363e-01,-2.541992986544634459e-01,-2.446484579535732062e-01,-2.350976172526829389e-01,-2.255467765517927270e-01,-2.159959358509024596e-01,-2.064450951500122200e-01,-1.968942544491219804e-01,-1.873434137482317130e-01,-1.777925730473415011e-01,-1.682417323464512615e-01,-1.586908916455609941e-01,-1.491400509446707268e-01,-1.395892102437805149e-01,-1.300383695428902753e-01,-1.204875288420000218e-01,-1.109366881411097822e-01,-1.013858474402195425e-01,-9.183500673932930292e-02,-8.228416603843903554e-02,-7.236598531059147688e-02,-6.281514460970123725e-02,-5.326430390881099070e-02,-4.371346320792074414e-02,-3.416262250703049064e-02,-2.461178180614024408e-02,-1.506094110525000619e-02,-5.510100404359756163e-03
-4.665218342357927567e-02,-1.198752954637378326e-01,-1.930984075038963688e-01,-2.578726989240366363e-01,-2.578726989240365808e-01,-2.578726989240366363e-01,-2.578726989240366363e-01,-2.578726989240366363e-01,-2.578726989240366363e-01,-2.578726989240366918e-01,-2.578726989240365808e-01,-2.578726989240366363e-01,-2.578726989240366363e-01,-2.578726989240366363e-01,-2.578726989240366363e-01,-2.578726989240366363e-01,-2.578726989240366363e-01,-2.578726989240366363e-01,-2.578726989240366363e-01,-2.567706788431646792e-01,-2.472198381422744395e-01,-2.376689974413841999e-01,-2.281181567404939603e-01,-2.185673160396037207e-01,-2.090164753387134255e-01,-1.994656346378231859e-01,-1.899147939369329463e-01,-1.803639532360426789e-01,-1.708131125351524671e-01,-1.612622718342622274e-01,-1.517114311333719601e-01,-1.421605904324817482e-01,-1.326097497315914808e-01,-1.230589090307012551e-01,-1.135080683298110155e-01,-1.039572276289207758e-01,-9.440638692803052234e-02,-8.485554622714026884e-02,-7.530470552625001535e-02,-6.575386482535976185e-02,-5.620302412446951529e-02,-4.665218342357927567e-02,-3.710134272268902217e-02,-2.755050202179878255e-02,-1.799966132090854293e-02,-8.448820620018294633e-03,1.102020080871951926e-03
-9.734510714368904694e-02,-1.705682191838475970e-01,-2.437913312240061470e-01,-2.578726989240366363e-01,-2.578726989240366363e-01,-2.578726989240366363e-01,-2.578726989240366363e-01,-2.578726989240366363e-01,-2.578726989240366363e-01,-2.578726989240366363e-01,-2.578726989240366363e-01,-2.578726989240366363e-01,-2.578726989240365808e-01,-2.578726989240366363e-01,-2.578726989240366363e-01,-2.578726989240366363e-01,-2.578726989240366363e-01,-2.578726989240366363e-01,-2.578726989240366363e-01,-2.501585583579329364e-01,-2.406077176570426968e-01,-2.306895369291951658e-01,-2.211386962283049262e-01,-2.115878555274146589e-01,-2.020370148265244470e-01,-1.924861741256341796e-01,-1.829353334247439122e-01,-1.733844927238536726e-01,-1.638336520229634607e-01,-1.542828113220731934e-01,-1.447319706211829538e-01,-1.351811299202926864e-01,-1.256302892194024745e-01,-1.160794485185122210e-01,-1.065286078176219814e-01,-9.697776711673174177e-02,-8.742692641584148827e-02,-7.787608571495123477e-02,-6.832524501406099515e-02,-5.877440431317074859e-02,-4.922356361228050203e-02,-3.967272291139025547e-02,-3.012188221050000198e-02,-2.057104150960976235e-02,-1.102020080871951406e-02,-1.469360107829270970e-03,8.081480593060977324e-03
-1.508543044038049008e-01,-2.240774164439634508e-01,-2.578726989240366363e-01,-2.578726989240366363e-01,-2.578726989240366363e-01,-2.578726989240366363e-01,-2.578726989240366363e-01,-2.578726989240366363e-01,-2.578726989240366363e-01,-2.578726989240366363e-01,-2.578726989240366363e-01,-2.578726989240365808e-01,-2.578726989240366363e-01,-2.578726989240366363e-01,-2.578726989240366363e-01,-2.578726989240366363e-01,-2.578726989240366918e-01,-2.578726989240366363e-01,-2.527299385466342252e-01,-2.431790978457439301e-01,-2.336282571448536904e-01,-2.240774164439634786e-01,-2.145265757430732112e-01,-2.049757350421829438e-01,-1.954248943412927320e-01,-1.858740536404024368e-01,-1.763232129395122250e-01,-1.667723722386219853e-01,-1.572215315377317180e-01,-1.476706908368414783e-01,-1.381198501359512387e-01,-1.285690094350609991e-01,-1.190181687341707734e-01,-1.094673280332805199e-01,-9.991648733239028024e-02,-9.036564663150001286e-02,-8.081480593060977324e-02,-7.126396522971953362e-02,-6.171312452882927319e-02,-5.216228382793903356e-02,-4.261144312704878701e-02,-3.306060242615854045e-02,-2.350976172526830082e-02,-1.395892102437805253e-02,-4.408080323487802502e-03,5.510100404359757897e-03,1.248956091654878330e-02
-2.015472281239146790e-01,-2.578726989240366363e-01,-2.578726989240366363e-01,-2.578726989240366363e-01,-2.578726989240366363e-01,-2.578726989240366363e-01,-2.578726989240366363e-01,-2.578726989240366363e-01,-2.578726989240366363e-01,-2.578726989240366363e-01,-2.578726989240366363e-01,-2.578726989240366363e-01,-2.578726989240366363e-01,-2.578726989240366918e-01,-2.578726989240366363e-01,-2.578726989240366363e-01,-2.578726989240366363e-01,-2.553013187353354030e-01,-2.457504780344451634e-01,-2.361996373335548960e-01,-2.266487966326646841e-01,-2.170979559317744445e-01,-2.075471152308841771e-01,-1.979962745299939653e-01,-1.884454338291036424e-01,-1.788945931282134305e-01,-1.693437524273232186e-01,-1.597929117264329513e-01,-1.502420710255426839e-01,-1.406912303246524443e-01,-1.311403896237622047e-01,-1.215895489228720067e-01,-1.120387082219817393e-01,-1.024878675210915135e-01,-9.293702682020126005e-02,-8.338618611931099267e-02,-7.383534541842075305e-02,-6.428450471753051343e-02,-5.473366401664026687e-02,-4.518282331575001337e-02,-3.563198261485975987e-02,-2.608114191396951331e-02,-1.653030121307926675e-02,-6.979460512189025398e-03,2.571380188701219427e-03,1.212222088959146599e-02,1.248956091654878330e-02
-2.550564253840305606e-01,-2.578726989240366363e-01,-2.578726989240366363e-01,-2.578726989240366363e-01,-2.578726989240366363e-01,-2.578726989240366363e-01,-2.578726989240366363e-01,-2.578726989240366363e-01,-2.578726989240366918e-01,-2.578726989240366363e-01,-2.578726989240365808e-01,-2.578726989240366363e-01,-2.578726989240365808e-01,-2.578726989240366363e-01,-2.578726989240366363e-01,-2.578726989240366363e-01,-2.578726989240366363e-01,-2.486891982501036602e-01,-2.391383575492134761e-01,-2.295875168483232087e-01,-2.200366761474329691e-01,-2.104858354465427017e-01,-2.009349947456524899e-01,-1.913841540447622225e-01,-1.818333133438719551e-01,-1.722824726429817432e-01,-1.627316319420915036e-01,-1.531807912412012362e-01,-1.432626105133536498e-01,-1.337117698124634380e-01,-1.241609291115732122e-01,-1.146100884106829448e-01,-1.050592477097927191e-01,-9.550840700890246560e-02,-8.595756630801222598e-02,-7.640672560712195860e-02,-6.685588490623171898e-02,-5.730504420534147242e-02,-4.775420350445123280e-02,-3.820336280356098624e-02,-2.865252210267073274e-02,-1.910168140178048618e-02,-9.550840700890248294e-03,0.000000000000000000e+00,9.550840700890246560e-03,1.248956091654878330e-02,1.248956091654878330e-02
-2.578726989240366363e-01,-2.578726989240366363e-01,-2.578726989240366363e-01,-2.578726989240366363e-01,-2.578726989240366363e-01,-2.578726989240366363e-01,-2.578726989240366363e-01,-2.578726989240366363e-01,-2.578726989240366363e-01,-2.578726989240366363e-01,-2.578726989240366363e-01,-2.578726989240366363e-01,-2.578726989240366363e-01,-2.578726989240366363e-01,-2.578726989240366363e-01,-2.578726989240366363e-01,-2.512605784388049490e-01,-2.417097377379147094e-01,-2.321588970370244420e-01,-2.226080563361342024e-01,-2.130572156352439350e-01,-2.035063749343536954e-01,-1.939555342334634280e-01,-1.844046935325731884e-01,-1.748538528316829488e-01,-1.653030121307927092e-01,-1.557521714299024418e-01,-1.462013307290122299e-01,-1.366504900281219625e-01,-1.270996493272317507e-01,-1.175488086263414972e-01,-1.079979679254512576e-01,-9.844712722456100407e-02,-8.889628652367075057e-02,-7.934544582278051095e-02,-6.979460512189025745e-02,-6.024376442100001089e-02,-5.069292372010977127e-02,-4.114208301921951777e-02,-3.159124231832927815e-02,-2.204040161743902465e-02,-1.248956091654877983e-02,-2.938720215658536736e-03,6.612120485231708956e-03,1.248956091654878330e-02,1.248956091654878330e-02,1.248956091654878330e-02
-2.578726989240366363e-01,-2.578726989240366363e-01,-2.578726989240365808e-01,-2.578726989240365808e-01,-2.578726989240366363e-01,-2.578726989240366363e-01,-2.578726989240366363e-01,-2.578726989240366363e-01,-2.578726989240366363e-01,-2.578726989240366363e-01,-2.578726989240366363e-01,-2.578726989240366363e-01,-2.578726989240366363e-01,-2.578726989240366363e-01,-2.578726989240366363e-01,-2.538319586275061823e-01,-2.442811179266159427e-01,-2.347302772257256198e-01,-2.251794365248354357e-01,-2.156285958239451406e-01,-2.060777551230549010e-01,-1.965269144221646613e-01,-1.869760737212743940e-01,-1.774252330203841543e-01,-1.678743923194939147e-01,-1.583235516186037029e-01,-1.487727109177134355e-01,-1.392218702168231959e-01,-1.296710295159329285e-01,-1.201201888150427027e-01,-1.105693481141524631e-01,-1.010185074132622235e-01,-9.146766671237196999e-02,-8.191682601148173037e-02,-7.236598531059147688e-02,-6.281514460970123725e-02,-5.326430390881099070e-02,-4.371346320792073720e-02,-3.416262250703049758e-02,-2.461178180614025102e-02,-1.506094110525000272e-02,-5.510100404359756163e-03,4.040740296530488662e-03,1.248956091654878330e-02,1.248956091654878330e-02,1.248956091654878330e-02,1.248956091654878330e-02
-2.578726989240366363e-01,-2.578726989240366363e-01,-2.578726989240366363e-01,-2.578726989240366363e-01,-2.578726989240366918e-01,-2.578726989240365808e-01,-2.578726989240365808e-01,-2.578726989240366363e-01,-2.578726989240366363e-01,-2.578726989240366363e-01,-2.578726989240366363e-01,-2.578726989240366363e-01,-2.578726989240366363e-01,-2.578726989240366363e-01,-2.567706788431646792e-01,-2.472198381422744395e-01,-2.376689974413841999e-01,-2.281181567404939603e-01,-2.185673160396036929e-01,-2.090164753387134255e-01,-1.994656346378232137e-01,-1.899147939369329185e-01,-1.803639532360427067e-01,-1.708131125351524671e-01,-1.612622718342622274e-01,-1.517114311333719601e-01,-1.421605904324817204e-01,-1.326097497315914808e-01,-1.230589090307012551e-01,-1.135080683298110155e-01,-1.039572276289207620e-01,-9.440638692803052234e-02,-8.485554622714026884e-02,-7.530470552625001535e-02,-6.538652479840247056e-02,-5.583568409751221012e-02,-4.628484339662196356e-02,-3.673400269573171006e-02,-2.718316199484146350e-02,-1.763232129395122388e-02,-8.081480593060975590e-03,1.469360107829269235e-03,1.102020080871951406e-02,1.248956091654878330e-02,1.248956091654878330e-02,1.248956091654878330e-02,1.248956091654878330e-02
-2.578726989240366363e-01,-2.578726989240366363e-01,-2.578726989240365808e-01,-2.578726989240366363e-01,-2.578726989240366363e-01,-2.578726989240366363e-01,-2.578726989240366363e-01,-2.578726989240366363e-01,-2.578726989240366918e-01,-2.578726989240366363e-01,-2.578726989240366363e-01,-2.578726989240366363e-01,-2.578726989240366363e-01,-2.578726989240366363e-01,-2.497912183309756728e-01,-2.402403776300853777e-01,-2.306895369291951658e-01,-2.211386962283049262e-01,-2.115878555274146589e-01,-2.020370148265244470e-01,-1.924861741256341519e-01,-1.829353334247439400e-01,-1.733844927238537004e-01,-1.638336520229634607e-01,-1.542828113220731934e-01,-1.447319706211829260e-01,-1.351811299202927141e-01,-1.256302892194024468e-01,-1.160794485185122210e-01,-1.065286078176219814e-01,-9.697776711673174177e-02,-8.742692641584148827e-02,-7.787608571495123477e-02,-6.832524501406099515e-02,-5.877440431317074859e-02,-4.922356361228050203e-02,-3.967272291139025547e-02,-3.012188221050000198e-02,-2.057104150960976235e-02,-1.102020080871951406e-02,-1.469360107829267501e-03,8.081480593060977324e-03,1.248956091654878330e-02,1.248956091654878330e-02,1.248956091654878330e-02,1.248956091654878330e-02,1.248956091654878330e-02
-2.578726989240366363e-01,-2.578726989240366363e-01,-2.578726989240366363e-01,-2.578726989240366363e-01,-2.578726989240366363e-01,-2.578726989240366918e-01,-2.578726989240366363e-01,-2.578726989240366363e-01,-2.578726989240366363e-01,-2.578726989240366363e-01,-2.578726989240366363e-01,-2.578726989240366363e-01,-2.578726989240366363e-01,-2.527299385466342252e-01,-2.431790978457439301e-01,-2.332609171178963714e-01,-2.237100764170061318e-01,-2.141592357161158922e-01,-2.046083950152256525e-01,-1.950575543143354129e-01,-1.855067136134451178e-01,-1.759558729125549059e-01,-1.664050322116646941e-01,-1.568541915107744267e-01,-1.473033508098841315e-01,-1.377525101089939197e-01,-1.282016694081036801e-01,-1.186508287072134543e-01,-1.090999880063232008e-01,-9.954914730543296120e-02,-8.999830660454270770e-02,-8.044746590365245420e-02,-7.089662520276221458e-02,-6.134578450187196802e-02,-5.179494380098171452e-02,-4.224410310009147490e-02,-3.269326239920122140e-02,-2.314242169831097484e-02,-1.359158099742073002e-02,-4.040740296530490397e-03,5.510100404359757897e-03,1.248956091654878330e-02,1.248956091654878330e-02,1.248956091654878330e-02,1.248956091654878330e-02,1.248956091654878330e-02,1.248956091654878330e-02
-2.578726989240366363e-01,-2.578726989240366363e-01,-2.578726989240366363e-01,-2.578726989240366363e-01,-2.578726989240366363e-01,-2.578726989240366363e-01,-2.578726989240366363e-01,-2.578726989240366363e-01,-2.578726989240366363e-01,-2.578726989240366363e-01,-2.578726989240366363e-01,-2.578726989240366363e-01,-2.553013187353354030e-01,-2.457504780344451634e-01,-2.361996373335549237e-01,-2.266487966326647119e-01,-2.170979559317744445e-01,-2.075471152308841494e-01,-1.979962745299939653e-01,-1.884454338291036979e-01,-1.788945931282134305e-01,-1.693437524273231909e-01,-1.597929117264329513e-01,-1.502420710255426839e-01,-1.406912303246524443e-01,-1.311403896237622324e-01,-1.215895489228719789e-01,-1.120387082219817254e-01,-1.024878675210914997e-01,-9.293702682020124617e-02,-8.338618611931099267e-02,-7.383534541842075305e-02,-6.428450471753049955e-02,-5.473366401664026687e-02,-4.518282331575001337e-02,-3.563198261485975987e-02,-2.608114191396951331e-02,-1.653030121307926675e-02,-6.979460512189025398e-03,2.571380188701221162e-03,1.212222088959146599e-02,1.248956091654878330e-02,1.248956091654878330e-02,1.248956091654878330e-02,1.248956091654878330e-02,1.248956091654878330e-02,1.248956091654878330e-02
-2.578726989240366363e-01,-2.578726989240366363e-01,-2.578726989240366363e-01,-2.578726989240366363e-01,-2.578726989240366918e-01,-2.578726989240366363e-01,-2.578726989240365808e-01,-2.578726989240366363e-01,-2.578726989240366363e-01,-2.578726989240366363e-01,-2.578726989240366363e-01,-2.578726989240366363e-01,-2.483218582231463967e-01,-2.387710175222561571e-01,-2.292201768213658897e-01,-2.196693361204756501e-01,-2.101184954195853827e-01,-2.005676547186951708e-01,-1.910168140178049034e-01,-1.814659733169146638e-01,-1.719151326160244242e-01,-1.623642919151341846e-01,-1.528134512142439172e-01,-1.432626105133536776e-01,-1.337117698124634102e-01,-1.241609291115732122e-01,-1.146100884106829726e-01,-1.050592477097927191e-01,-9.550840700890246560e-02,-8.595756630801222598e-02,-7.640672560712195860e-02,-6.685588490623171898e-02,-5.730504420534147242e-02,-4.775420350445123280e-02,-3.820336280356097930e-02,-2.865252210267073274e-02,-1.910168140178049312e-02,-9.550840700890248294e-03,0.000000000000000000e+00,9.550840700890246560e-03,1.248956091654878330e-02,1.248956091654878330e-02,1.248956091654878330e-02,1.248956091654878330e-02,1.248956091654878330e-02,1.248956091654878330e-02,1.248956091654878330e-02
-2.578726989240365808e-01,-2.578726989240366918e-01,-2.578726989240366363e-01,-2.578726989240366363e-01,-2.578726989240366363e-01,-2.578726989240366918e-01,-2.578726989240366363e-01,-2.578726989240366363e-01,-2.578726989240366363e-01,-2.578726989240365808e-01,-2.578726989240366363e-01,-2.512605784388049490e-01,-2.417097377379146539e-01,-2.321588970370244420e-01,-2.226080563361342024e-01,-2.130572156352439350e-01,-2.035063749343536954e-01,-1.939555342334634558e-01,-1.844046935325731607e-01,-1.748538528316829488e-01,-1.653030121307927369e-01,-1.553848314029451227e-01,-1.458339907020548831e-01,-1.362831500011646435e-01,-1.267323093002744039e-01,-1.171814685993841504e-01,-1.076306278984939385e-01,-9.807978719760368502e-02,-8.852894649671344540e-02,-7.897810579582319190e-02,-6.942726509493293841e-02,-5.987642439404269185e-02,-5.032558369315245222e-02,-4.077474299226219873e-02,-3.122390229137195911e-02,-2.167306159048171255e-02,-1.212222088959146772e-02,-2.571380188701219427e-03,6.979460512189026265e-03,1.248956091654878330e-02,1.248956091654878330e-02,1.248956091654878330e-02,1.248956091654878330e-02,1.248956091654878330e-02,1.248956091654878330e-02,1.248956091654878330e-02,1.248956091654878330e-02
-2.578726989240366363e-01,-2.578726989240366363e-01,-2.578726989240366363e-01,-2.578726989240366363e-01,-2.578726989240366363e-01,-2.578726989240366363e-01,-2.578726989240366363e-01,-2.578726989240365808e-01,-2.578726989240366363e-01,-2.578726989240366918e-01,-2.538319586275061268e-01,-2.442811179266158872e-01,-2.347302772257256198e-01,-2.251794365248354635e-01,-2.156285958239451406e-01,-2.060777551230549287e-01,-1.965269144221646613e-01,-1.869760737212743940e-01,-1.774252330203841543e-01,-1.678743923194939425e-01,-1.583235516186036751e-01,-1.487727109177134355e-01,-1.392218702168231959e-01,-1.296710295159329285e-01,-1.201201888150427305e-01,-1.105693481141524631e-01,-1.010185074132622235e-01,-9.146766671237196999e-02,-8.191682601148173037e-02,-7.236598531059149075e-02,-6.281514460970123725e-02,-5.326430390881099070e-02,-4.371346320792073720e-02,-3.416262250703049758e-02,-2.461178180614024408e-02,-1.506094110525000272e-02,-5.510100404359756163e-03,4.040740296530488662e-03,1.248956091654878330e-02,1.248956091654878330e-02,1.248956091654878330e-02,1.248956091654878330e-02,1.248956091654878330e-02,1.248956091654878330e-02,1.248956091654878330e-02,1.248956091654878330e-02,1.248956091654878330e-02
-2.578726989240366363e-01,-2.578726989240366363e-01,-2.578726989240366363e-01,-2.578726989240366363e-01,-2.578726989240366363e-01,-2.578726989240366363e-01,-2.578726989240366363e-01,-2.578726989240366363e-01,-2.578726989240366363e-01,-2.564033388162073601e-01,-2.468524981153171205e-01,-2.373016574144268809e-01,-2.277508167135366413e-01,-2.181999760126464016e-01,-2.086491353117561343e-01,-1.990982946108658946e-01,-1.895474539099756273e-01,-1.799966132090853876e-01,-1.704457725081951480e-01,-1.608949318073049084e-01,-1.513440911064146410e-01,-1.417932504055244014e-01,-1.322424097046341618e-01,-1.226915690037439360e-01,-1.131407283028536964e-01,-1.035898876019634568e-01,-9.403904690107320330e-02,-8.448820620018294980e-02,-7.493736549929269630e-02,-6.538652479840245668e-02,-5.583568409751221012e-02,-4.628484339662195662e-02,-3.673400269573171006e-02,-2.718316199484147044e-02,-1.763232129395122388e-02,-8.081480593060979059e-03,1.469360107829269235e-03,1.102020080871951406e-02,1.248956091654878330e-02,1.248956091654878330e-02,1.248956091654878330e-02,1.248956091654878330e-02,1.248956091654878330e-02,1.248956091654878330e-02,1.248956091654878330e-02,1.248956091654878330e-02,1.248956091654878330e-02
-2.578726989240366363e-01,-2.578726989240366363e-01,-2.578726989240366363e-01,-2.578726989240366363e-01,-2.578726989240366363e-01,-2.578726989240366363e-01,-2.578726989240366363e-01,-2.578726989240366363e-01,-2.578726989240366363e-01,-2.497912183309756728e-01,-2.402403776300853777e-01,-2.306895369291951381e-01,-2.211386962283049540e-01,-2.115878555274146866e-01,-2.020370148265244192e-01,-1.924861741256341796e-01,-1.829353334247439122e-01,-1.733844927238537004e-01,-1.638336520229634607e-01,-1.542828113220731934e-01,-1.447319706211829260e-01,-1.351811299202926864e-01,-1.256302892194024468e-01,-1.160794485185122210e-01,-1.065286078176219814e-01,-9.697776711673172789e-02,-8.742692641584148827e-02,-7.787608571495124865e-02,-6.795790498710367611e-02,-5.840706428621342955e-02,-4.885622358532318299e-02,-3.930538288443294337e-02,-2.975454218354268987e-02,-2.020370148265244331e-02,-1.065286078176219849e-02,-1.102020080871951926e-03,8.448820620018294633e-03,1.248956091654878330e-02,1.248956091654878330e-02,1.248956091654878330e-02,1.248956091654878330e-02,1.248956091654878330e-02,1.248956091654878330e-02,1.248956091654878330e-02,1.248956091654878330e-02,1.248956091654878330e-02,1.248956091654878330e-02
-2.578726989240366363e-01,-2.578726989240365808e-01,-2.578726989240366363e-01,-2.578726989240366363e-01,-2.578726989240366363e-01,-2.578726989240366363e-01,-2.578726989240366363e-01,-2.578726989240366363e-01,-2.523625985196768506e-01,-2.428117578187866665e-01,-2.332609171178963714e-01,-2.237100764170061595e-01,-2.141592357161158644e-01,-2.046083950152256525e-01,-1.950575543143354129e-01,-1.855067136134451178e-01,-1.759558729125549059e-01,-1.664050322116646663e-01,-1.568541915107743989e-01,-1.473033508098841593e-01,-1.377525101089939197e-01,-1.282016694081036801e-01,-1.186508287072134543e-01,-1.090999880063232147e-01,-9.954914730543294732e-02,-8.999830660454270770e-02,-8.044746590365245420e-02,-7.089662520276220070e-02,-6.134578450187196802e-02,-5.179494380098171452e-02,-4.224410310009146796e-02,-3.269326239920122140e-02,-2.314242169831098178e-02,-1.359158099742073349e-02,-4.040740296530490397e-03,5.510100404359757897e-03,1.248956091654878330e-02,1.248956091654878330e-02,1.248956091654878330e-02,1.248956091654878330e-02,1.248956091654878330e-02,1.248956091654878330e-02,1.248956091654878330e-02,1.248956091654878330e-02,1.248956091654878330e-02,1.248956091654878330e-02,1.248956091654878330e-02
-2.578726989240366363e-01,-2.578726989240366363e-01,-2.578726989240365808e-01,-2.578726989240366363e-01,-2.578726989240366363e-01,-2.578726989240366918e-01,-2.578726989240365808e-01,-2.553013187353354030e-01,-2.457504780344451634e-01,-2.361996373335548960e-01,-2.262814566057073651e-01,-2.167306159048170977e-01,-2.071797752039268581e-01,-1.976289345030366185e-01,-1.880780938021463233e-01,-1.785272531012561115e-01,-1.689764124003658996e-01,-1.594255716994756322e-01,-1.498747309985853648e-01,-1.403238902976951252e-01,-1.307730495968048856e-01,-1.212222088959146599e-01,-1.116713681950244202e-01,-1.021205274941341806e-01,-9.256968679324394100e-02,-8.301884609235367363e-02,-7.346800539146343401e-02,-6.391716469057319439e-02,-5.436632398968293395e-02,-4.481548328879269433e-02,-3.526464258790244083e-02,-2.571380188701219427e-02,-1.616296118612195465e-02,-6.612120485231709824e-03,2.938720215658538470e-03,1.248956091654878330e-02,1.248956091654878330e-02,1.248956091654878330e-02,1.248956091654878330e-02,1.248956091654878330e-02,1.248956091654878330e-02,1.248956091654878330e-02,1.248956091654878330e-02,1.248956091654878330e-02,1.248956091654878330e-02,1.248956091654878330e-02,1.248956091654878330e-02
-2.578726989240366363e-01,-2.578726989240366363e-01,-2.578726989240366363e-01,-2.578726989240366363e-01,-2.578726989240366363e-01,-2.578726989240366363e-01,-2.578726989240366363e-01,-2.483218582231463967e-01,-2.387710175222561015e-01,-2.292201768213658897e-01,-2.196693361204756778e-01,-2.101184954195854104e-01,-2.005676547186951708e-01,-1.910168140178049034e-01,-1.814659733169146361e-01,-1.719151326160244242e-01,-1.623642919151341846e-01,-1.528134512142439172e-01,-1.432626105133536776e-01,-1.337117698124634380e-01,-1.241609291115732122e-01,-1.146100884106829448e-01,-1.050592477097927191e-01,-9.550840700890246560e-02,-8.595756630801221210e-02,-7.640672560712197248e-02,-6.685588490623171898e-02,-5.730504420534147242e-02,-4.775420350445123974e-02,-3.820336280356097930e-02,-2.865252210267073274e-02,-1.910168140178048618e-02,-9.550840700890244825e-03,0.000000000000000000e+00,9.918180727847562134e-03,1.248956091654878330e-02,1.248956091654878330e-02,1.248956091654878330e-02,1.248956091654878330e-02,1.248956091654878330e-02,1.248956091654878330e-02,1.248956091654878330e-02,1.248956091654878330e-02,1.248956091654878330e-02,1.248956091654878330e-02,1.248956091654878330e-02,1.248956091654878330e-02
-2.578726989240366363e-01,-2.578726989240366363e-01,-2.578726989240365808e-01,-2.578726989240366363e-01,-2.578726989240366363e-01,-2.578726989240366363e-01,-2.508932384118476300e-01,-2.413423977109573904e-01,-2.317915570100671230e-01,-2.222407163091768834e-01,-2.126898756082866437e-01,-2.031390349073964041e-01,-1.935881942065061367e-01,-1.840373535056158694e-01,-1.744865128047256297e-01,-1.649356721038354179e-01,-1.553848314029451505e-01,-1.458339907020548831e-01,-1.362831500011646435e-01,-1.267323093002744039e-01,-1.171814685993841781e-01,-1.076306278984939385e-01,-9.807978719760369890e-02,-8.852894649671343152e-02,-7.897810579582319190e-02,-6.942726509493293841e-02,-5.987642439404269185e-02,-5.032558369315245222e-02,-4.077474299226220567e-02,-3.122390229137195911e-02,-2.167306159048171255e-02,-1.212222088959146425e-02,-2.571380188701221162e-03,6.979460512189026265e-03,1.248956091654878330e-02,1.248956091654878330e-02,1.248956091654878330e-02,1.248956091654878330e-02,1.248956091654878330e-02,1.248956091654878330e-02,1.248956091654878330e-02,1.248956091654878330e-02,1.248956091654878330e-02,1.248956091654878330e-02,1.248956091654878330e-02,1.248956091654878330e-02,1.248956091654878330e-02
-2.156285958239451683e-01,-2.578726989240366363e-01,-2.578726989240366363e-01,-2.578726989240366363e-01,-2.578726989240366918e-01,-2.538319586275061823e-01,-2.442811179266159427e-01,-2.347302772257256476e-01,-2.251794365248354080e-01,-2.156285958239451683e-01,-2.060777551230549010e-01,-1.965269144221646613e-01,-1.869760737212743940e-01,-1.774252330203841543e-01,-1.678743923194939425e-01,-1.583235516186036751e-01,-1.487727109177134355e-01,-1.388545301898658768e-01,-1.293036894889756372e-01,-1.197528487880853837e-01,-1.102020080871951718e-01,-1.006511673863049044e-01,-9.110032668541466483e-02,-8.154948598452441133e-02,-7.199864528363417171e-02,-6.244780458274391127e-02,-5.289696388185367165e-02,-4.334612318096342509e-02,-3.379528248007317159e-02,-2.424444177918293197e-02,-1.469360107829268715e-02,-5.142760377402437119e-03,4.408080323487805971e-03,1.248956091654878330e-02,1.248956091654878330e-02,1.248956091654878330e-02,1.248956091654878330e-02,1.248956091654878330e-02,1.248956091654878330e-02,1.248956091654878330e-02,1.248956091654878330e-02,1.248956091654878330e-02,1.248956091654878330e-02,1.248956091654878330e-02,1.248956091654878330e-02,1.248956091654878330e-02,1.248956091654878330e-02
4.040740296530488662e-03,-1.564868514838171076e-01,-2.578726989240366363e-01,-2.578726989240366363e-01,-2.564033388162073601e-01,-2.468524981153171205e-01,-2.373016574144268531e-01,-2.277508167135366413e-01,-2.181999760126464016e-01,-2.086491353117561065e-01,-1.990982946108658946e-01,-1.895474539099755995e-01,-1.799966132090853876e-01,-1.704457725081951480e-01,-1.608949318073049084e-01,-1.513440911064146688e-01,-1.417932504055243736e-01,-1.322424097046341618e-01,-1.226915690037439360e-01,-1.131407283028536964e-01,-1.035898876019634429e-01,-9.403904690107321718e-02,-8.448820620018294980e-02,-7.493736549929271018e-02,-6.538652479840245668e-02,-5.583568409751221012e-02,-4.628484339662196356e-02,-3.673400269573171700e-02,-2.718316199484146350e-02,-1.763232129395122388e-02,-8.081480593060979059e-03,1.469360107829269235e-03,1.102020080871951406e-02,1.248956091654878330e-02,1.248956091654878330e-02,1.248956091654878330e-02,1.248956091654878330e-02,1.248956091654878330e-02,1.248956091654878330e-02,1.248956091654878330e-02,1.248956091654878330e-02,1.248956091654878330e-02,1.248956091654878330e-02,1.248956091654878330e-02,1.248956091654878330e-02,1.248956091654878330e-02,1.248956091654878330e-02
1.248956091654878330e-02,1.248956091654878330e-02,-8.889628652367076445e-02,-2.494238783040183538e-01,-2.494238783040183538e-01,-2.398730376031281142e-01,-2.303221969022378468e-01,-2.207713562013476349e-01,-2.112205155004573398e-01,-2.016696747995671279e-01,-1.921188340986768606e-01,-1.825679933977865932e-01,-1.730171526968963813e-01,-1.634663119960061417e-01,-1.539154712951158743e-01,-1.443646305942256347e-01,-1.348137898933353951e-01,-1.252629491924451277e-01,-1.157121084915549020e-01,-1.061612677906646623e-01,-9.661042708977442273e-02,-8.705958638888416923e-02,-7.750874568799391573e-02,-6.795790498710367611e-02,-5.840706428621342955e-02,-4.885622358532318299e-02,-3.930538288443293643e-02,-2.975454218354268987e-02,-2.020370148265244331e-02,-1.065286078176219502e-02,-1.102020080871950192e-03,8.448820620018294633e-03,-1.161359036675460449e-01,-1.161359036675460449e-01,-1.161359036675460449e-01,1.248956091654878330e-02,1.248956091654878330e-02,1.248956091654878330e-02,1.248956091654878330e-02,1.248956091654878330e-02,1.248956091654878330e-02,1.248956091654878330e-02,1.248956091654878330e-02,1.248956091654878330e-02,1.248956091654878330e-02,1.248956091654878330e-02,1.248956091654878330e-02
1.248956091654878330e-02,1.248956091654878330e-02,1.248956091654878330e-02,-2.889358899536147857e-02,-1.789864281349527741e-01,-2.332609171178963714e-01,-2.237100764170061595e-01,-2.141592357161158922e-01,-2.046083950152256525e-01,-1.950575543143354129e-01,-1.855067136134451178e-01,-1.759558729125549059e-01,-1.664050322116646941e-01,-1.568541915107743989e-01,-1.473033508098841593e-01,-1.377525101089939197e-01,-1.282016694081036801e-01,-1.186508287072134543e-01,-1.090999880063232008e-01,-9.954914730543296120e-02,-8.999830660454270770e-02,-8.044746590365245420e-02,-7.089662520276220070e-02,-6.097844447491464898e-02,-5.142760377402440936e-02,-4.187676307313415586e-02,-3.232592237224390236e-02,-2.277508167135366274e-02,-1.322424097046341791e-02,-3.673400269573171353e-03,5.877440431317074339e-03,1.248956091654878330e-02,-1.161359036675460449e-01,-1.161359036675460449e-01,-1.161359036675460449e-01,1.248956091654878330e-02,1.248956091654878330e-02,1.248956091654878330e-02,1.248956091654878330e-02,1.248956091654878330e-02,1.248956091654878330e-02,1.248956091654878330e-02,1.248956091654878330e-02,1.248956091654878330e-02,1.248956091654878330e-02,1.248956091654878330e-02,1.248956091654878330e-02
1.248956091654878330e-02,1.248956091654878330e-02,1.248956091654878330e-02,1.248956091654878330e-02,1.248956091654878330e-02,-1.068959478445793004e-01,-2.167306159048171255e-01,-2.071797752039268581e-01,-1.976289345030366185e-01,-1.880780938021463511e-01,-1.785272531012561392e-01,-1.689764124003658718e-01,-1.594255716994756322e-01,-1.498747309985853926e-01,-1.403238902976951252e-01,-1.307730495968048856e-01,-1.212222088959146599e-01,-1.116713681950244202e-01,-1.021205274941341806e-01,-9.256968679324394100e-02,-8.301884609235367363e-02,-7.346800539146343401e-02,-6.391716469057319439e-02,-5.436632398968293395e-02,-4.481548328879269433e-02,-3.526464258790244083e-02,-2.571380188701220121e-02,-1.616296118612195465e-02,-6.612120485231709824e-03,2.938720215658536736e-03,1.248956091654878330e-02,1.248956091654878330e-02,-1.161359036675460449e-01,-1.161359036675460449e-01,-1.161359036675460449e-01,1.248956091654878330e-02,1.248956091654878330e-02,1.248956091654878330e-02,1.248956091654878330e-02,1.248956091654878330e-02,1.248956091654878330e-02,1.248956091654878330e-02,1.248956091654878330e-02,1.248956091654878330e-02,1.248956091654878330e-02,1.248956091654878330e-02,1.248956091654878330e-02
1.248956091654878330e-02,1.248956091654878330e-02,1.248956091654878330e-02,1.248956091654878330e-02,1.248956091654878330e-02,1.248956091654878330e-02,-5.001564054540721255e-02,-1.736140802407020178e-01,-1.906494739908475566e-01,-1.810986332899573448e-01,-1.715477925890671052e-01,-1.619969518881768655e-01,-1.524461111872865982e-01,-1.428952704863963585e-01,-1.333444297855061189e-01,-1.237935890846158654e-01,-1.142427483837256258e-01,-1.046919076828354139e-01,-9.514106698194513267e-02,-8.559022628105489305e-02,-7.603938558016463956e-02,-6.648854487927439993e-02,-5.693770417838416725e-02,-4.738686347749391375e-02,-3.783602277660366719e-02,-2.828518207571342064e-02,-1.873434137482317408e-02,-9.183500673932925781e-03,3.673400269573173088e-04,9.918180727847562134e-03,1.248956091654878330e-02,1.248956091654878330e-02,1.248956091654878330e-02,1.248956091654878330e-02,1.248956091654878330e-02,1.248956091654878330e-02,1.248956091654878330e-02,1.248956091654878330e-02,1.248956091654878330e-02,1.248956091654878330e-02,1.248956091654878330e-02,1.248956091654878330e-02,1.248956091654878330e-02,1.248956091654878330e-02,1.248956091654878330e-02,1.248956091654878330e-02,1.248956091654878330e-02
1.248956091654878330e-02,1.248956091654878330e-02,1.248956091654878330e-02,1.248956091654878330e-02,1.248956091654878330e-02,1.248956091654878330e-02,1.248956091654878330e-02,-3.902987786421497490e-04,-1.103397605973041179e-01,-1.744865128047256297e-01,-1.649356721038353901e-01,-1.553848314029451505e-01,-1.458339907020548831e-01,-1.362831500011646435e-01,-1.267323093002744039e-01,-1.171814685993841781e-01,-1.076306278984939385e-01,-9.807978719760368502e-02,-8.852894649671343152e-02,-7.897810579582319190e-02,-6.942726509493293841e-02,-5.987642439404269185e-02,-5.032558369315245222e-02,-4.077474299226219873e-02,-3.122390229137195217e-02,-2.167306159048171255e-02,-1.212222088959146425e-02,-2.571380188701221162e-03,6.979460512189026265e-03,1.248956091654878330e-02,1.248956091654878330e-02,1.248956091654878330e-02,1.248956091654878330e-02,1.248956091654878330e-02,1.248956091654878330e-02,1.248956091654878330e-02,1.248956091654878330e-02,1.248956091654878330e-02,1.248956091654878330e-02,1.248956091654878330e-02,1.248956091654878330e-02,1.248956091654878330e-02,1.248956091654878330e-02,1.248956091654878330e-02,1.248956091654878330e-02,1.248956091654878330e-02,1.248956091654878330e-02
1.248956091654878330e-02,1.248956091654878330e-02,1.248956091654878330e-02,1.248956091654878330e-02,1.248956091654878330e-02,1.248956091654878330e-02,1.248956091654878330e-02,1.248956091654878330e-02,1.248956091654878330e-02,-6.063406319964215890e-02,-1.526297812007652577e-01,-1.484053708907561164e-01,-1.388545301898658768e-01,-1.293036894889756649e-01,-1.197528487880854114e-01,-1.102020080871951579e-01,-1.006511673863049044e-01,-9.110032668541466483e-02,-8.154948598452441133e-02,-7.199864528363417171e-02,-6.244780458274392515e-02,-5.289696388185367165e-02,-4.334612318096342509e-02,-3.379528248007317853e-02,-2.424444177918292503e-02,-1.469360107829268715e-02,-5.142760377402440589e-03,4.408080323487805971e-03,1.248956091654878330e-02,1.248956091654878330e-02,1.248956091654878330e-02,1.248956091654878330e-02,1.248956091654878330e-02,1.248956091654878330e-02,1.248956091654878330e-02,1.248956091654878330e-02,1.248956091654878330e-02,1.248956091654878330e-02,1.248956091654878330e-02,1.248956091654878330e-02,1.248956091654878330e-02,1.248956091654878330e-02,1.248956091654878330e-02,1.248956091654878330e-02,1.248956091654878330e-02,1.248956091654878330e-02,1.248956091654878330e-02
1.248956091654878330e-02,1.248956091654878330e-02,1.248956091654878330e-02,1.248956091654878330e-02,1.248956091654878330e-02,1.248956091654878330e-02,1.248956091654878330e-02,1.248956091654878330e-02,1.248956091654878330e-02,1.248956091654878330e-02,-1.305205033282717288e-02,-1.029470425547881346e-01,-1.318750696776768427e-01,-1.223242289767866448e-01,-1.127733882758963496e-01,-1.032225475750061378e-01,-9.367170687411587038e-02,-8.412086617322563076e-02,-7.457002547233539114e-02,-6.501918477144515152e-02,-5.546834407055489108e-02,-4.591750336966465146e-02,-3.636666266877439102e-02,-2.681582196788415140e-02,-1.726498126699390484e-02,-7.714140566103660016e-03,1.836700134786586544e-03,1.138754083567683137e-02,1.248956091654878330e-02,1.248956091654878330e-02,1.248956091654878330e-02,1.248956091654878330e-02,1.248956091654878330e-02,1.248956091654878330e-02,1.248956091654878330e-02,1.248956091654878330e-02,1.248956091654878330e-02,1.248956091654878330e-02,1.248956091654878330e-02,1.248956091654878330e-02,1.248956091654878330e-02,1.248956091654878330e-02,1.248956091654878330e-02,1.248956091654878330e-02,1.248956091654878330e-02,1.248956091654878330e-02,1.248956091654878330e-02
1.248956091654878330e-02,1.248956091654878330e-02,1.248956091654878330e-02,1.248956091654878330e-02,1.248956091654878330e-02,1.248956091654878330e-02,1.248956091654878330e-02,1.248956091654878330e-02,1.248956091654878330e-02,1.248956091654878330e-02,1.248956091654878330e-02,1.248956091654878330e-02,-6.069146007885423827e-02,-1.157121084915549020e-01,-1.061612677906646901e-01,-9.661042708977442273e-02,-8.705958638888416923e-02,-7.750874568799391573e-02,-6.795790498710367611e-02,-5.840706428621342955e-02,-4.885622358532318299e-02,-3.930538288443293643e-02,-2.975454218354268293e-02,-2.020370148265244331e-02,-1.065286078176219849e-02,-1.102020080871950192e-03,8.448820620018294633e-03,1.248956091654878330e-02,1.248956091654878330e-02,1.248956091654878330e-02,1.248956091654878330e-02,1.248956091654878330e-02,1.248956091654878330e-02,1.248956091654878330e-02,1.248956091654878330e-02,1.248956091654878330e-02,1.248956091654878330e-02,1.248956091654878330e-02,1.248956091654878330e-02,1.248956091654878330e-02,1.248956091654878330e-02,1.248956091654878330e-02,1.248956091654878330e-02,1.248956091654878330e-02,1.248956091654878330e-02,1.248956091654878330e-02,1.248956091654878330e-02
1.248956091654878330e-02,1.248956091654878330e-02,1.248956091654878330e-02,1.248956091654878330e-02,1.248956091654878330e-02,1.248956091654878330e-02,1.248956091654878330e-02,1.248956091654878330e-02,1.248956091654878330e-02,1.248956091654878330e-02,1.248956091654878330e-02,1.248956091654878330e-02,1.248956091654878330e-02,-2.160418533542721869e-02,-8.522288625409758789e-02,-8.963096657758538865e-02,-8.008012587669513516e-02,-7.052928517580489554e-02,-6.097844447491466285e-02,-5.142760377402439548e-02,-4.187676307313415586e-02,-3.232592237224390236e-02,-2.277508167135366274e-02,-1.322424097046341791e-02,-3.673400269573171353e-03,5.877440431317074339e-03,1.248956091654878330e-02,1.248956091654878330e-02,1.248956091654878330e-02,1.248956091654878330e-02,1.248956091654878330e-02,1.248956091654878330e-02,1.248956091654878330e-02,1.248956091654878330e-02,1.248956091654878330e-02,1.248956091654878330e-02,1.248956091654878330e-02,1.248956091654878330e-02,1.248956091654878330e-02,1.248956091654878330e-02,1.248956091654878330e-02,1.248956091654878330e-02,1.248956091654878330e-02,1.248956091654878330e-02,1.248956091654878330e-02,1.248956091654878330e-02,1.248956091654878330e-02
1.248956091654878330e-02,1.248956091654878330e-02,1.248956091654878330e-02,1.248956091654878330e-02,1.248956091654878330e-02,1.248956091654878330e-02,1.248956091654878330e-02,1.248956091654878330e-02,1.248956091654878330e-02,1.248956091654878330e-02,1.248956091654878330e-02,1.248956091654878330e-02,1.248956091654878330e-02,1.248956091654878330e-02,5.923357934686739219e-03,-5.018783118304345064e-02,-7.346800539146343401e-02,-6.354982466361586146e-02,-5.399898396272561490e-02,-4.444814326183538222e-02,-3.489730256094512872e-02,-2.534646186005488216e-02,-1.579562115916463561e-02,-6.244780458274390780e-03,3.306060242615854045e-03,1.248956091654878330e-02,1.248956091654878330e-02,1.248956091654878330e-02,1.248956091654878330e-02,1.248956091654878330e-02,1.248956091654878330e-02,1.248956091654878330e-02,1.248956091654878330e-02,1.248956091654878330e-02,1.248956091654878330e-02,1.248956091654878330e-02,1.248956091654878330e-02,1.248956091654878330e-02,1.248956091654878330e-02,1.248956091654878330e-02,1.248956091654878330e-02,1.248956091654878330e-02,1.248956091654878330e-02,1.248956091654878330e-02,1.248956091654878330e-02,1.248956091654878330e-02,1.248956091654878330e-02
