1.041279767916923615e-01,1.041279767916923615e-01,1.041279767916923615e-01,1.041279767916923615e-01,1.041279767916923615e-01,1.041279767916923615e-01,1.041279767916923615e-01,1.041279767916923615e-01,1.041279767916923615e-01,1.041279767916923615e-01,1.041279767916923615e-01,1.041279767916923615e-01,1.041279767916923615e-01,1.041279767916923615e-01,1.041279767916923615e-01,8.947589067191162593e-02,5.668139518793589154e-02,1.648114974305553426e-02,-1.834657090012628555e-02,-5.004195017011578428e-02,-7.885949080348489404e-02,-1.043391301610459287e-01,-1.010403831524028240e-01,-9.133012489550670909e-02,-8.130663250129135933e-02,-7.159637424439527220e-02,-6.157288185017992244e-02,-5.154938945596457267e-02,-4.183913119906848554e-02,-3.181563880485316353e-02,-2.179214641063781377e-02,-1.208188815374169889e-02,-2.058395759526363000e-03,7.965096634688972888e-03,1.767535489158508777e-02,2.769884728580040978e-02,3.740910554269652466e-02,4.743259793691186055e-02,5.745609033112719644e-02,6.716634858802331132e-02,7.718984098223863333e-02,8.721333337645398309e-02,9.692359163335008410e-02,1.041279767916923615e-01,1.041279767916923615e-01,1.041279767916923615e-01,1.041279767916923615e-01
1.041279767916923615e-01,1.041279767916923615e-01,1.041279767916923615e-01,1.041279767916923615e-01,1.041279767916923615e-01,1.041279767916923615e-01,1.041279767916923615e-01,1.041279767916923615e-01,1.041279767916923615e-01,8.893052766497189232e-02,6.486184029203183321e-02,3.490323244414268722e-02,-5.271842400417503516e-04,-3.593942215732817691e-02,-8.267703185206301542e-02,-1.273967984211208104e-01,-1.460118557246636029e-01,-1.520975475354371664e-01,-1.423872892785410793e-01,-1.323637968843257295e-01,-1.226535386274296147e-01,-1.126300462332142927e-01,-1.026065538389989706e-01,-9.289629558210285576e-02,-8.287280318788750599e-02,-7.284931079367221174e-02,-6.313905253677606910e-02,-5.311556014256074709e-02,-4.340530188566463221e-02,-3.338180949144931020e-02,-2.335831709723396044e-02,-1.364805884033784555e-02,-3.624566446122495789e-03,6.398925948092826221e-03,1.610918420498894110e-02,2.613267659920426311e-02,3.615616899341959900e-02,4.586642725031571388e-02,5.588991964453104977e-02,6.560017790142716465e-02,7.562367029564250054e-02,8.564716268985783643e-02,9.535742094675393743e-02,1.041279767916923615e-01,1.041279767916923615e-01,1.041279767916923615e-01,1.041279767916923615e-01
1.041279767916923615e-01,1.041279767916923615e-01,1.041279767916923615e-01,1.026009603722611158e-01,9.492952074130892037e-02,8.173173597336746976e-02,6.251677936219099396e-02,3.795726528300517877e-02,7.198791691604436438e-03,-1.454301351839278056e-02,-3.257635028119984510e-02,-5.119140758474260977e-02,-6.980646488828537444e-02,-8.783980165109242511e-02,-1.064548589546352175e-01,-1.244881957174422960e-01,-1.431032530209850606e-01,-1.536637182220333686e-01,-1.439534599651372260e-01,-1.339299675709218762e-01,-1.239064751767065264e-01,-1.141962169198104393e-01,-1.041727245255951451e-01,-9.446246626869900243e-02,-8.443897387448365266e-02,-7.441548148026833065e-02,-6.470522322337221577e-02,-5.468173082915689376e-02,-4.465823843494154399e-02,-3.494798017804545687e-02,-2.492448778383010710e-02,-1.490099538961475734e-02,-5.190737132718642455e-03,4.832755261496679555e-03,1.454301351839279444e-02,2.456650591260813032e-02,3.458999830682346621e-02,4.430025656371956722e-02,5.432374895793490310e-02,6.434724135215023899e-02,7.405749960904635387e-02,8.408099200326168976e-02,9.379125026015779076e-02,1.038147426543731267e-01,1.041279767916923615e-01,1.041279767916923615e-01,1.041279767916923615e-01
1.041279767916923615e-01,1.041279767916923615e-01,1.041279767916923615e-01,9.889249192507096331e-02,8.027743462152819864e-02,6.224409785872113410e-02,4.362904055517835555e-02,2.501398325163559089e-02,6.980646488828540219e-03,-1.163441081471423832e-02,-2.966774757752130287e-02,-4.828280488106406754e-02,-6.689786218460683220e-02,-8.493119894741388287e-02,-1.035462562509566198e-01,-1.221613135544994122e-01,-1.401946503173064906e-01,-1.552298889086294598e-01,-1.455196306517333726e-01,-1.354961382575180229e-01,-1.254726458633026731e-01,-1.157623876064065860e-01,-1.057388952121912917e-01,-9.571540281797591421e-02,-8.600514456107979933e-02,-7.598165216686447732e-02,-6.627139390996836243e-02,-5.624790151575304042e-02,-4.622440912153769066e-02,-3.651415086464160353e-02,-2.649065847042625377e-02,-1.646716607621090400e-02,-6.756907819314802999e-03,3.266584574900532889e-03,1.297684283179663389e-02,2.300033522601198366e-02,3.302382762022731955e-02,4.273408587712342055e-02,5.275757827133875644e-02,6.278107066555409232e-02,7.249132892245020721e-02,8.251482131666554309e-02,9.222507957356164410e-02,1.022485719677769800e-01,1.041279767916923615e-01,1.041279767916923615e-01,1.041279767916923615e-01
1.041279767916923615e-01,1.041279767916923615e-01,1.041279767916923615e-01,1.018010946287495194e-01,8.318603732520674088e-02,6.515270056239969021e-02,4.653764325885692554e-02,2.792258595531416088e-02,9.889249192507096331e-03,-8.725808111035668335e-03,-2.734086541457844688e-02,-4.537420217738549755e-02,-6.398925948092828997e-02,-8.202259624373531288e-02,-1.006376535472780775e-01,-1.192527108508208700e-01,-1.372860476136279484e-01,-1.559011049171707131e-01,-1.467725672010102567e-01,-1.370623089441141695e-01,-1.270388165498988475e-01,-1.173285582930027326e-01,-1.073050658987874384e-01,-9.728157350457208863e-02,-8.757131524767594599e-02,-7.754782285346062398e-02,-6.752433045924530197e-02,-5.781407220234918709e-02,-4.779057980813383733e-02,-3.808032155123775020e-02,-2.805682915702237268e-02,-1.803333676280705067e-02,-8.323078505910949665e-03,1.700413888304386223e-03,1.172390628251972211e-02,2.143416453941583699e-02,3.145765693363115900e-02,4.116791519052727388e-02,5.119140758474261671e-02,6.121489997895794566e-02,7.092515823585406054e-02,8.094865063006939643e-02,9.097214302428473232e-02,1.006824012811808333e-01,1.041279767916923615e-01,1.041279767916923615e-01,1.041279767916923615e-01
1.041279767916923615e-01,1.041279767916923615e-01,1.041279767916923615e-01,1.041279767916923615e-01,8.609464002888531087e-02,6.747958272534253232e-02,4.944624596253548166e-02,3.083118865899271699e-02,1.279785189618565244e-02,-5.817205407357126101e-03,-2.443226271089987689e-02,-4.246559947370695531e-02,-6.108065677724974774e-02,-7.969571408079245689e-02,-9.772905084359953531e-02,-1.163441081471423000e-01,-1.343774449099493506e-01,-1.529925022134921153e-01,-1.483387378876064033e-01,-1.386284796307103440e-01,-1.286049872364949664e-01,-1.185814948422796167e-01,-1.088712365853835573e-01,-9.884774419116820754e-02,-8.913748593427212041e-02,-7.911399354005677065e-02,-6.909050114584142088e-02,-5.938024288894533376e-02,-4.935675049472998399e-02,-3.933325810051466198e-02,-2.962299984361854710e-02,-1.959950744940319733e-02,-9.889249192507082453e-03,1.342432017082395568e-04,1.015773559592357544e-02,1.986799385281967645e-02,2.989148624703501234e-02,3.991497864125036210e-02,4.962523689814646310e-02,5.964872929236179899e-02,6.935898754925790000e-02,7.938247994347324976e-02,8.940597233768858565e-02,9.911623059458468665e-02,1.041279767916923615e-01,1.041279767916923615e-01,1.041279767916923615e-01
1.041279767916923615e-01,1.041279767916923615e-01,1.041279767916923615e-01,1.041279767916923615e-01,8.900324273256386698e-02,7.038818542902108844e-02,5.235484866621403083e-02,3.373979136267127310e-02,1.512473405912849456e-02,-2.908602703678556112e-03,-2.152366000722133466e-02,-3.955699677002835757e-02,-5.817205407357117775e-02,-7.678711137711391466e-02,-9.482044813992096532e-02,-1.134355054434637855e-01,-1.320505627470065502e-01,-1.500838995098135731e-01,-1.499049085742026055e-01,-1.401946503173064629e-01,-1.301711579230911131e-01,-1.201476655288757911e-01,-1.104374072719797040e-01,-1.004139148777643820e-01,-9.039042248354903220e-02,-8.068016422665291731e-02,-7.065667183243756755e-02,-6.094641357554145267e-02,-5.092292118132610290e-02,-4.089942878711078089e-02,-3.118917053021469377e-02,-2.116567813599937176e-02,-1.114218574178399424e-02,-1.431927484887907109e-03,8.591564909327428778e-03,1.830182316622352978e-02,2.832531556043886567e-02,3.834880795465420156e-02,4.805906621155031644e-02,5.808255860576565233e-02,6.810605099998098821e-02,7.781630925687710310e-02,8.783980165109243898e-02,9.755005990798853999e-02,1.041279767916923615e-01,1.041279767916923615e-01,1.041279767916923615e-01
1.041279767916923615e-01,1.041279767916923615e-01,1.041279767916923615e-01,1.041279767916923615e-01,9.191184543624242309e-02,7.329678813269965842e-02,5.526345136989259388e-02,3.664839406634982921e-02,1.803333676280706455e-02,0.000000000000000000e+00,-1.861505730354276467e-02,-3.723011460708552933e-02,-5.526345136989260776e-02,-7.387850867343537242e-02,-9.191184543624242309e-02,-1.105269027397851878e-01,-1.291419600433279247e-01,-1.471752968061350308e-01,-1.514710792607987522e-01,-1.414475868665834024e-01,-1.317373286096872875e-01,-1.217138362154719378e-01,-1.120035779585758229e-01,-1.019800855643605286e-01,-9.195659317014517886e-02,-8.224633491324906398e-02,-7.222284251903371421e-02,-6.219935012481839220e-02,-5.248909186792227732e-02,-4.246559947370695531e-02,-3.275534121681084043e-02,-2.273184882259549067e-02,-1.270835642838016866e-02,-2.998098171484039898e-03,7.025394222731282112e-03,1.704888661694661800e-02,2.675914487384271900e-02,3.678263726805805489e-02,4.649289552495416977e-02,5.651638791916950566e-02,6.653988031338484155e-02,7.625013857028095643e-02,8.627363096449629232e-02,9.629712335871162820e-02,1.041279767916923615e-01,1.041279767916923615e-01,1.041279767916923615e-01
1.041279767916923615e-01,1.041279767916923615e-01,1.041279767916923615e-01,1.041279767916923615e-01,9.482044813992097920e-02,7.620539083637821454e-02,5.759033353283544293e-02,3.955699677002838532e-02,2.094193946648562066e-02,2.908602703678556112e-03,-1.570645459986420855e-02,-3.432151190340698710e-02,-5.235484866621403777e-02,-7.096990596975680243e-02,-8.958496327329956710e-02,-1.076183000361066178e-01,-1.262333573396493824e-01,-1.442666941024564331e-01,-1.530372499473948988e-01,-1.430137575531795491e-01,-1.333034992962834342e-01,-1.232800069020680844e-01,-1.132565145078527624e-01,-1.035462562509566753e-01,-9.352276385674132553e-02,-8.381250559984518289e-02,-7.378901320562988864e-02,-6.376552081141453887e-02,-5.405526255451842399e-02,-4.403177016030307422e-02,-3.400827776608775221e-02,-2.429801950919163733e-02,-1.427452711497630145e-02,-4.564268858080186564e-03,5.459223536135135446e-03,1.548271593035047133e-02,2.519297418724657234e-02,3.521646658146190823e-02,4.523995897567725799e-02,5.495021723257335899e-02,6.497370962678869488e-02,7.468396788368480976e-02,8.470746027790014565e-02,9.473095267211548154e-02,1.041279767916923615e-01,1.041279767916923615e-01,1.041279767916923615e-01
1.041279767916923615e-01,1.041279767916923615e-01,1.041279767916923615e-01,1.041279767916923615e-01,9.772905084359953531e-02,7.911399354005677065e-02,6.049893623651399210e-02,4.246559947370694144e-02,2.385054217016417677e-02,5.235484866621412103e-03,-1.279785189618565244e-02,-3.141290919972841711e-02,-4.944624596253546778e-02,-6.806130326607826020e-02,-8.667636056962099711e-02,-1.047096973324280478e-01,-1.233247546359708680e-01,-1.419398119395136049e-01,-1.546034206339910455e-01,-1.445799282397756957e-01,-1.348696699828795809e-01,-1.248461775886642311e-01,-1.148226851944488813e-01,-1.051124269375528220e-01,-9.508893454333747219e-02,-8.506544214912212243e-02,-7.535518389222603530e-02,-6.533169149801068554e-02,-5.562143324111457066e-02,-4.559794084689922089e-02,-3.557444845268389888e-02,-2.586419019578778400e-02,-1.584069780157246199e-02,-5.817205407357112223e-03,3.893052849538988780e-03,1.391654524375432467e-02,2.362680350065043955e-02,3.365029589486576156e-02,4.367378828908110439e-02,5.338404654597721233e-02,6.340753894019254822e-02,7.343103133440789798e-02,8.314128959130399898e-02,9.316478198551933487e-02,1.028750402424154498e-01,1.041279767916923615e-01,1.041279767916923615e-01
1.041279767916923615e-01,1.041279767916923615e-01,1.041279767916923615e-01,1.041279767916923615e-01,1.000559330065423774e-01,8.202259624373532676e-02,6.340753894019256209e-02,4.537420217738549755e-02,2.675914487384273288e-02,8.144087570299968215e-03,-9.889249192507096331e-03,-2.850430649604984712e-02,-4.711936379959263954e-02,-6.515270056239971797e-02,-8.376775786594245488e-02,-1.018010946287495055e-01,-1.204161519322922980e-01,-1.390312092358350626e-01,-1.561695913205871922e-01,-1.461460989263718424e-01,-1.361226065321564926e-01,-1.264123482752603778e-01,-1.163888558810450280e-01,-1.066785976241489686e-01,-9.665510522993361886e-02,-8.663161283571826909e-02,-7.692135457882215421e-02,-6.689786218460683220e-02,-5.687436979039148244e-02,-4.716411153349536756e-02,-3.714061913928004555e-02,-2.743036088238393067e-02,-1.740686848816859478e-02,-7.383376093953245012e-03,2.326882162942855992e-03,1.235037455715817800e-02,2.237386695137351389e-02,3.208412520826961489e-02,4.210761760248495772e-02,5.181787585938107260e-02,6.184136825359640155e-02,7.186486064781175132e-02,8.157511890470785232e-02,9.159861129892318821e-02,1.016221036931385241e-01,1.041279767916923615e-01,1.041279767916923615e-01
1.041279767916923615e-01,1.041279767916923615e-01,1.041279767916923615e-01,1.041279767916923615e-01,1.029645357102209335e-01,8.493119894741388287e-02,6.631614164387111821e-02,4.770108434032833966e-02,2.966774757752128899e-02,1.105269027397852433e-02,-6.980646488828540219e-03,-2.559570379237133264e-02,-4.421076109591409731e-02,-6.224409785872112022e-02,-8.085915516226388489e-02,-9.947421246580664955e-02,-1.175075492286137280e-01,-1.361226065321565204e-01,-1.541559432949635433e-01,-1.477122696129679891e-01,-1.376887772187526393e-01,-1.279785189618565244e-01,-1.179550265676411747e-01,-1.079315341734258804e-01,-9.822127591652976553e-02,-8.819778352231441576e-02,-7.848752526541830088e-02,-6.846403287120297887e-02,-5.844054047698762910e-02,-4.873028222009151422e-02,-3.870678982587621997e-02,-2.868329743166087020e-02,-1.897303917476475532e-02,-8.949546780549391678e-03,7.607114763467093255e-04,1.078420387056203134e-02,2.080769626477736722e-02,3.051795452167346823e-02,4.054144691588881799e-02,5.056493931010415388e-02,6.027519756700026182e-02,7.029868996121560465e-02,8.000894821811170565e-02,9.003244061232704154e-02,1.000559330065423774e-01,1.041279767916923615e-01,1.041279767916923615e-01
1.041279767916923615e-01,1.041279767916923615e-01,1.041279767916923615e-01,1.041279767916923615e-01,1.041279767916923615e-01,8.783980165109243898e-02,6.922474434754966044e-02,5.060968704400689577e-02,3.257635028119983123e-02,1.396129297765708044e-02,-4.653764325885698105e-03,-2.268710108869276265e-02,-4.130215839223552732e-02,-5.933549515504257799e-02,-7.795055245858531490e-02,-9.656560976212807956e-02,-1.145989465249351580e-01,-1.332140038284779227e-01,-1.518290611320206873e-01,-1.492784402995640802e-01,-1.392549479053487860e-01,-1.295446896484526711e-01,-1.195211972542373213e-01,-1.094977048600219993e-01,-9.978744660312588444e-02,-8.976395420891056243e-02,-7.974046181469524042e-02,-7.003020355779912554e-02,-6.000671116358377577e-02,-5.029645290668766089e-02,-4.027296051247233888e-02,-3.024946811825698911e-02,-2.053920986136088811e-02,-1.051571746714555222e-02,-4.922250729302024563e-04,9.218033183965884669e-03,1.924152557818123443e-02,2.895178383507733544e-02,3.897527622929267133e-02,4.899876862350800721e-02,5.870902688040411516e-02,6.873251927461945798e-02,7.875601166883479387e-02,8.846626992573089487e-02,9.848976231994623076e-02,1.041279767916923615e-01,1.041279767916923615e-01
1.041279767916923615e-01,1.041279767916923615e-01,1.041279767916923615e-01,1.041279767916923615e-01,1.041279767916923615e-01,9.016668381403528110e-02,7.213334705122823043e-02,5.351828974768545882e-02,3.548495298487840122e-02,1.686989568133565043e-02,-1.745161622207128116e-03,-1.977849838501420654e-02,-3.839355568855695733e-02,-5.700861299209972199e-02,-7.504194975490680042e-02,-9.365700705844953733e-02,-1.116903438212566435e-01,-1.303054011247993804e-01,-1.489204584283421451e-01,-1.508446109861602824e-01,-1.408211185919449326e-01,-1.307976261977295829e-01,-1.210873679408334680e-01,-1.110638755466181460e-01,-1.013536172897220589e-01,-9.133012489550670909e-02,-8.130663250129135933e-02,-7.159637424439527220e-02,-6.157288185017992244e-02,-5.154938945596460043e-02,-4.183913119906848554e-02,-3.181563880485316353e-02,-2.210538054795704865e-02,-1.208188815374169889e-02,-2.058395759526349122e-03,7.651862497369738003e-03,1.767535489158507389e-02,2.769884728580040978e-02,3.740910554269652466e-02,4.743259793691186055e-02,5.714285619380796849e-02,6.716634858802331132e-02,7.718984098223864720e-02,8.690009923913474821e-02,9.692359163335008410e-02,1.041279767916923615e-01,1.041279767916923615e-01
1.041279767916923615e-01,1.041279767916923615e-01,1.041279767916923615e-01,1.041279767916923615e-01,1.041279767916923615e-01,9.307528651771383721e-02,7.504194975490678654e-02,5.642689245136401494e-02,3.781183514782124333e-02,1.977849838501419266e-02,1.163441081471414118e-03,-1.686989568133563655e-02,-3.548495298487841509e-02,-5.410001028842117976e-02,-7.213334705122823043e-02,-9.074840435477099509e-02,-1.093634616583137598e-01,-1.273967984211208382e-01,-1.460118557246636029e-01,-1.524107816727563736e-01,-1.423872892785410793e-01,-1.323637968843257295e-01,-1.226535386274296147e-01,-1.126300462332142927e-01,-1.026065538389989706e-01,-9.289629558210285576e-02,-8.287280318788750599e-02,-7.316254493099141887e-02,-6.313905253677606910e-02,-5.311556014256074709e-02,-4.340530188566460446e-02,-3.338180949144931020e-02,-2.335831709723396044e-02,-1.364805884033784555e-02,-3.624566446122509666e-03,6.085691810773591337e-03,1.610918420498892722e-02,2.613267659920426311e-02,3.584293485610037799e-02,4.586642725031571388e-02,5.588991964453104977e-02,6.560017790142716465e-02,7.562367029564250054e-02,8.533392855253860154e-02,9.535742094675393743e-02,1.041279767916923615e-01,1.041279767916923615e-01
1.041279767916923615e-01,1.041279767916923615e-01,1.041279767916923615e-01,1.041279767916923615e-01,1.041279767916923615e-01,9.598388922139239332e-02,7.795055245858534265e-02,5.933549515504257799e-02,4.072043785149981332e-02,2.268710108869276265e-02,4.072043785149984108e-03,-1.454301351839279444e-02,-3.257635028119984510e-02,-5.119140758474260977e-02,-6.922474434754968819e-02,-8.783980165109242511e-02,-1.064548589546352175e-01,-1.244881957174422404e-01,-1.431032530209850606e-01,-1.536637182220333131e-01,-1.439534599651372260e-01,-1.339299675709218762e-01,-1.242197093140257613e-01,-1.141962169198104393e-01,-1.041727245255951173e-01,-9.446246626869900243e-02,-8.443897387448365266e-02,-7.441548148026833065e-02,-6.470522322337221577e-02,-5.468173082915689376e-02,-4.497147257226077888e-02,-3.494798017804545687e-02,-2.492448778383010710e-02,-1.521422952693399222e-02,-5.190737132718642455e-03,4.832755261496679555e-03,1.454301351839278056e-02,2.456650591260811645e-02,3.427676416950423133e-02,4.430025656371956722e-02,5.432374895793490310e-02,6.403400721483101798e-02,7.405749960904635387e-02,8.408099200326168976e-02,9.379125026015779076e-02,1.038147426543731267e-01,1.041279767916923615e-01
1.041279767916923615e-01,1.041279767916923615e-01,1.041279767916923615e-01,1.041279767916923615e-01,1.041279767916923615e-01,9.889249192507096331e-02,8.027743462152818477e-02,6.224409785872113410e-02,4.362904055517836249e-02,2.559570379237130489e-02,6.980646488828526341e-03,-1.163441081471422445e-02,-2.966774757752130287e-02,-4.828280488106403978e-02,-6.689786218460683220e-02,-8.493119894741388287e-02,-1.035462562509566475e-01,-1.215795930137636982e-01,-1.401946503173064629e-01,-1.552298889086294598e-01,-1.455196306517333726e-01,-1.354961382575180229e-01,-1.254726458633026731e-01,-1.157623876064065860e-01,-1.057388952121912917e-01,-9.602863695529514909e-02,-8.600514456107979933e-02,-7.598165216686447732e-02,-6.627139390996836243e-02,-5.624790151575304042e-02,-4.622440912153769066e-02,-3.651415086464157578e-02,-2.649065847042628152e-02,-1.678040021353012501e-02,-6.756907819314802999e-03,3.266584574900532889e-03,1.297684283179663389e-02,2.300033522601198366e-02,3.302382762022730567e-02,4.273408587712342055e-02,5.275757827133875644e-02,6.246783652823486438e-02,7.249132892245020721e-02,8.251482131666554309e-02,9.222507957356164410e-02,1.022485719677769800e-01,1.041279767916923615e-01
1.041279767916923615e-01,1.041279767916923615e-01,1.041279767916923615e-01,1.041279767916923615e-01,1.041279767916923615e-01,1.018010946287495194e-01,8.318603732520674088e-02,6.515270056239969021e-02,4.653764325885691860e-02,2.792258595531416088e-02,9.889249192507096331e-03,-8.725808111035682213e-03,-2.675914487384273288e-02,-4.537420217738549755e-02,-6.398925948092828997e-02,-8.202259624373534064e-02,-1.006376535472780775e-01,-1.192527108508208700e-01,-1.372860476136279206e-01,-1.559011049171707131e-01,-1.470858013383295193e-01,-1.370623089441141973e-01,-1.270388165498988475e-01,-1.173285582930027049e-01,-1.073050658987874106e-01,-9.728157350457206087e-02,-8.757131524767594599e-02,-7.754782285346062398e-02,-6.783756459656448135e-02,-5.781407220234918709e-02,-4.779057980813383733e-02,-3.808032155123772244e-02,-2.805682915702240043e-02,-1.803333676280705067e-02,-8.323078505910935787e-03,1.700413888304386223e-03,1.141067214520048723e-02,2.143416453941583699e-02,3.145765693363117288e-02,4.116791519052727388e-02,5.119140758474261671e-02,6.121489997895794566e-02,7.092515823585406054e-02,8.094865063006939643e-02,9.065890888696549743e-02,1.006824012811808333e-01,1.041279767916923615e-01
1.041279767916923615e-01,1.041279767916923615e-01,1.041279767916923615e-01,1.041279767916923615e-01,1.041279767916923615e-01,1.041279767916923615e-01,8.609464002888531087e-02,6.806130326607824632e-02,4.944624596253548166e-02,3.083118865899270311e-02,1.279785189618566632e-02,-5.817205407357126101e-03,-2.443226271089987689e-02,-4.246559947370695531e-02,-6.108065677724971998e-02,-7.911399354005677065e-02,-9.772905084359953531e-02,-1.163441081471423000e-01,-1.343774449099493506e-01,-1.529925022134921708e-01,-1.483387378876064033e-01,-1.386284796307103440e-01,-1.286049872364949664e-01,-1.188947289795988516e-01,-1.088712365853835573e-01,-9.884774419116820754e-02,-8.913748593427212041e-02,-7.911399354005677065e-02,-6.909050114584144864e-02,-5.938024288894533376e-02,-4.935675049472998399e-02,-3.964649223783386911e-02,-2.962299984361854710e-02,-1.959950744940319733e-02,-9.889249192507082453e-03,1.342432017082534346e-04,1.015773559592357544e-02,1.986799385281967645e-02,2.989148624703501234e-02,3.960174450393112722e-02,4.962523689814647004e-02,5.964872929236179899e-02,6.935898754925791387e-02,7.938247994347324976e-02,8.940597233768858565e-02,9.911623059458468665e-02,1.041279767916923615e-01
1.041279767916923615e-01,1.041279767916923615e-01,1.041279767916923615e-01,1.041279767916923615e-01,1.041279767916923615e-01,1.041279767916923615e-01,8.900324273256386698e-02,7.096990596975680243e-02,5.235484866621403777e-02,3.373979136267127310e-02,1.570645459986419468e-02,-2.908602703678556112e-03,-2.152366000722133466e-02,-3.955699677002838532e-02,-5.817205407357117775e-02,-7.620539083637820066e-02,-9.482044813992096532e-02,-1.134355054434637300e-01,-1.314688422062708084e-01,-1.500838995098135731e-01,-1.499049085742025500e-01,-1.401946503173064629e-01,-1.301711579230911686e-01,-1.204608996661949982e-01,-1.104374072719797040e-01,-1.004139148777643542e-01,-9.070365662086826708e-02,-8.068016422665294507e-02,-7.065667183243759530e-02,-6.094641357554145267e-02,-5.092292118132615841e-02,-4.089942878711078089e-02,-3.118917053021469377e-02,-2.116567813599937176e-02,-1.145541987910324300e-02,-1.431927484887907109e-03,8.591564909327428778e-03,1.830182316622352978e-02,2.832531556043886567e-02,3.834880795465420156e-02,4.805906621155031644e-02,5.808255860576565233e-02,6.779281686266176721e-02,7.781630925687710310e-02,8.783980165109243898e-02,9.755005990798853999e-02,1.041279767916923615e-01
1.041279767916923615e-01,1.041279767916923615e-01,1.041279767916923615e-01,1.041279767916923615e-01,1.041279767916923615e-01,1.041279767916923615e-01,9.191184543624242309e-02,7.329678813269965842e-02,5.526345136989259388e-02,3.664839406634982921e-02,1.861505730354276467e-02,0.000000000000000000e+00,-1.861505730354276467e-02,-3.664839406634981533e-02,-5.526345136989260776e-02,-7.387850867343537242e-02,-9.191184543624239534e-02,-1.105269027397851878e-01,-1.285602395025922384e-01,-1.471752968061349753e-01,-1.514710792607987522e-01,-1.417608210039026095e-01,-1.317373286096872875e-01,-1.217138362154719378e-01,-1.120035779585758229e-01,-1.019800855643605286e-01,-9.226982730746441375e-02,-8.224633491324906398e-02,-7.222284251903374197e-02,-6.251258426213759933e-02,-5.248909186792227732e-02,-4.246559947370695531e-02,-3.275534121681084043e-02,-2.273184882259549067e-02,-1.270835642838015478e-02,-2.998098171484039898e-03,7.025394222731282112e-03,1.673565247962739699e-02,2.675914487384271900e-02,3.678263726805806877e-02,4.649289552495416977e-02,5.651638791916950566e-02,6.653988031338484155e-02,7.625013857028095643e-02,8.627363096449629232e-02,9.598388922139239332e-02,1.041279767916923615e-01
1.041279767916923615e-01,1.041279767916923615e-01,1.041279767916923615e-01,1.041279767916923615e-01,1.041279767916923615e-01,1.041279767916923615e-01,9.482044813992097920e-02,7.620539083637821454e-02,5.817205407357114999e-02,3.955699677002838532e-02,2.094193946648562066e-02,2.908602703678556112e-03,-1.570645459986420855e-02,-3.373979136267127310e-02,-5.235484866621403777e-02,-7.096990596975680243e-02,-8.900324273256385310e-02,-1.076183000361066455e-01,-1.262333573396494102e-01,-1.442666941024564609e-01,-1.530372499473948433e-01,-1.433269916904987562e-01,-1.333034992962834342e-01,-1.232800069020680844e-01,-1.135697486451719695e-01,-1.035462562509566475e-01,-9.352276385674132553e-02,-8.381250559984521065e-02,-7.378901320562988864e-02,-6.376552081141453887e-02,-5.405526255451842399e-02,-4.403177016030310198e-02,-3.432151190340698710e-02,-2.429801950919163733e-02,-1.427452711497630145e-02,-4.564268858080186564e-03,5.459223536135135446e-03,1.548271593035047133e-02,2.519297418724657234e-02,3.521646658146190823e-02,4.492672483835802311e-02,5.495021723257336593e-02,6.497370962678869488e-02,7.468396788368480976e-02,8.470746027790014565e-02,9.473095267211548154e-02,1.041279767916923615e-01
1.041279767916923615e-01,1.041279767916923615e-01,1.041279767916923615e-01,1.041279767916923615e-01,1.041279767916923615e-01,1.041279767916923615e-01,9.772905084359953531e-02,7.911399354005677065e-02,6.108065677724971304e-02,4.246559947370694144e-02,2.385054217016417677e-02,5.817205407357112223e-03,-1.279785189618565244e-02,-3.141290919972841711e-02,-4.944624596253546778e-02,-6.806130326607826020e-02,-8.609464002888528311e-02,-1.047096973324280755e-01,-1.233247546359708402e-01,-1.413580913987778909e-01,-1.546034206339909900e-01,-1.445799282397756680e-01,-1.348696699828796086e-01,-1.248461775886642311e-01,-1.151359193317681162e-01,-1.051124269375528220e-01,-9.508893454333747219e-02,-8.537867628644132956e-02,-7.535518389222603530e-02,-6.533169149801065778e-02,-5.562143324111457066e-02,-4.559794084689924865e-02,-3.557444845268392664e-02,-2.586419019578778400e-02,-1.584069780157244811e-02,-6.130439544676333230e-03,3.893052849538988780e-03,1.391654524375432467e-02,2.362680350065043955e-02,3.365029589486576156e-02,4.367378828908110439e-02,5.338404654597721233e-02,6.340753894019254822e-02,7.311779719708866310e-02,8.314128959130399898e-02,9.316478198551933487e-02,1.028750402424154498e-01
1.041279767916923615e-01,1.041279767916923615e-01,1.041279767916923615e-01,1.041279767916923615e-01,1.041279767916923615e-01,1.041279767916923615e-01,1.006376535472780914e-01,8.202259624373532676e-02,6.340753894019254822e-02,4.537420217738549755e-02,2.675914487384273288e-02,8.725808111035668335e-03,-9.889249192507110209e-03,-2.850430649604987487e-02,-4.653764325885692554e-02,-6.515270056239971797e-02,-8.376775786594245488e-02,-1.018010946287495055e-01,-1.204161519322922980e-01,-1.384494886950993486e-01,-1.561695913205871922e-01,-1.461460989263717869e-01,-1.364358406694757275e-01,-1.264123482752603778e-01,-1.163888558810450280e-01,-1.066785976241489686e-01,-9.665510522993361886e-02,-8.694484697303747622e-02,-7.692135457882218197e-02,-6.689786218460680445e-02,-5.718760392771068957e-02,-4.716411153349536756e-02,-3.714061913928007330e-02,-2.743036088238393067e-02,-1.740686848816859478e-02,-7.383376093953258890e-03,2.326882162942855992e-03,1.235037455715817800e-02,2.206063281405429288e-02,3.208412520826961489e-02,4.210761760248495772e-02,5.181787585938107954e-02,6.184136825359640849e-02,7.186486064781173744e-02,8.157511890470785232e-02,9.159861129892318821e-02,1.013088695558193031e-01
1.041279767916923615e-01,1.041279767916923615e-01,1.041279767916923615e-01,1.041279767916923615e-01,1.041279767916923615e-01,1.041279767916923615e-01,1.035462562509566475e-01,8.493119894741388287e-02,6.631614164387111821e-02,4.828280488106405366e-02,2.966774757752128899e-02,1.105269027397851045e-02,-6.980646488828540219e-03,-2.559570379237130489e-02,-4.362904055517835555e-02,-6.224409785872112022e-02,-8.085915516226388489e-02,-9.889249192507096331e-02,-1.175075492286137557e-01,-1.361226065321564926e-01,-1.541559432949635433e-01,-1.477122696129679336e-01,-1.380020113560718464e-01,-1.279785189618565244e-01,-1.179550265676411747e-01,-1.082447683107450875e-01,-9.822127591652976553e-02,-8.819778352231441576e-02,-7.848752526541830088e-02,-6.846403287120297887e-02,-5.875377461430686399e-02,-4.873028222009154198e-02,-3.870678982587621997e-02,-2.899653156898007733e-02,-1.897303917476474144e-02,-8.949546780549391678e-03,7.607114763467093255e-04,1.078420387056203134e-02,2.049446212745814622e-02,3.051795452167346823e-02,4.054144691588881799e-02,5.025170517278493287e-02,6.027519756700026182e-02,7.029868996121560465e-02,8.000894821811170565e-02,9.003244061232704154e-02,9.974269886922315642e-02
1.041279767916923615e-01,1.041279767916923615e-01,1.041279767916923615e-01,1.041279767916923615e-01,1.041279767916923615e-01,1.041279767916923615e-01,1.041279767916923615e-01,8.783980165109243898e-02,6.922474434754966044e-02,5.119140758474260977e-02,3.257635028119984510e-02,1.396129297765706656e-02,-4.072043785149984108e-03,-2.268710108869276265e-02,-4.130215839223552732e-02,-5.933549515504257799e-02,-7.795055245858537041e-02,-9.598388922139239332e-02,-1.145989465249351580e-01,-1.332140038284779504e-01,-1.512473405912850011e-01,-1.492784402995640802e-01,-1.392549479053487582e-01,-1.295446896484526988e-01,-1.195211972542372936e-01,-1.098109389973412064e-01,-9.978744660312591219e-02,-8.976395420891056243e-02,-8.005369595201447530e-02,-7.003020355779912554e-02,-6.000671116358380353e-02,-5.029645290668766089e-02,-4.027296051247233888e-02,-3.056270225557622400e-02,-2.053920986136088811e-02,-1.051571746714555222e-02,-8.054592102494373407e-04,9.218033183965884669e-03,1.924152557818122056e-02,2.895178383507732156e-02,3.897527622929267133e-02,4.868553448618877927e-02,5.870902688040410822e-02,6.873251927461945798e-02,7.844277753151555899e-02,8.846626992573089487e-02,9.848976231994623076e-02
1.041279767916923615e-01,1.041279767916923615e-01,1.041279767916923615e-01,1.041279767916923615e-01,1.041279767916923615e-01,1.041279767916923615e-01,1.041279767916923615e-01,9.074840435477099509e-02,7.213334705122823043e-02,5.351828974768546576e-02,3.548495298487841509e-02,1.686989568133563655e-02,-1.163441081471441874e-03,-1.977849838501420654e-02,-3.839355568855695733e-02,-5.642689245136403575e-02,-7.504194975490677266e-02,-9.365700705844953733e-02,-1.116903438212566158e-01,-1.303054011247993804e-01,-1.483387378876064588e-01,-1.508446109861602269e-01,-1.408211185919449326e-01,-1.311108603350487900e-01,-1.210873679408334680e-01,-1.110638755466181460e-01,-1.013536172897220589e-01,-9.133012489550670909e-02,-8.161986663861062197e-02,-7.159637424439527220e-02,-6.157288185017992244e-02,-5.186262359328380755e-02,-4.183913119906848554e-02,-3.181563880485316353e-02,-2.210538054795704865e-02,-1.208188815374169889e-02,-2.371629896845584007e-03,7.651862497369738003e-03,1.767535489158507389e-02,2.738561314848118877e-02,3.740910554269651078e-02,4.743259793691186055e-02,5.714285619380796849e-02,6.716634858802331132e-02,7.687660684491941232e-02,8.690009923913474821e-02,9.692359163335008410e-02
1.041279767916923615e-01,1.041279767916923615e-01,1.041279767916923615e-01,1.041279767916923615e-01,1.041279767916923615e-01,1.041279767916923615e-01,1.041279767916923615e-01,9.365700705844955121e-02,7.504194975490678654e-02,5.642689245136401494e-02,3.839355568855695733e-02,1.977849838501419266e-02,1.163441081471414118e-03,-1.686989568133562267e-02,-3.548495298487838734e-02,-5.351828974768546576e-02,-7.213334705122823043e-02,-9.074840435477096734e-02,-1.087817411175780458e-01,-1.273967984211208382e-01,-1.460118557246636029e-01,-1.524107816727564291e-01,-1.423872892785410793e-01,-1.326770310216449644e-01,-1.226535386274296147e-01,-1.126300462332142927e-01,-1.029197879763181778e-01,-9.289629558210285576e-02,-8.287280318788750599e-02,-7.316254493099141887e-02,-6.313905253677606910e-02,-5.342879427987998198e-02,-4.340530188566463221e-02,-3.338180949144931020e-02,-2.367155123455319532e-02,-1.364805884033784555e-02,-3.624566446122495789e-03,6.085691810773591337e-03,1.610918420498892722e-02,2.581944246188502823e-02,3.584293485610037799e-02,4.586642725031571388e-02,5.557668550721182182e-02,6.560017790142716465e-02,7.562367029564250054e-02,8.533392855253860154e-02,9.535742094675393743e-02
1.041279767916923615e-01,1.041279767916923615e-01,1.041279767916923615e-01,1.041279767916923615e-01,1.041279767916923615e-01,1.041279767916923615e-01,1.041279767916923615e-01,9.598388922139239332e-02,7.795055245858534265e-02,5.933549515504257799e-02,4.130215839223551344e-02,2.268710108869276265e-02,4.072043785149970230e-03,-1.396129297765708044e-02,-3.257635028119984510e-02,-5.119140758474263753e-02,-6.922474434754968819e-02,-8.783980165109242511e-02,-1.058731384138995035e-01,-1.244881957174422682e-01,-1.431032530209850329e-01,-1.539769523593525202e-01,-1.439534599651372260e-01,-1.339299675709218762e-01,-1.242197093140257613e-01,-1.141962169198104393e-01,-1.044859586629143522e-01,-9.446246626869900243e-02,-8.443897387448365266e-02,-7.472871561758756553e-02,-6.470522322337221577e-02,-5.468173082915689376e-02,-4.497147257226077888e-02,-3.494798017804545687e-02,-2.523772192114934199e-02,-1.521422952693399222e-02,-5.190737132718642455e-03,4.519521124177444671e-03,1.454301351839278056e-02,2.456650591260811645e-02,3.427676416950423133e-02,4.430025656371956722e-02,5.401051482061567516e-02,6.403400721483101798e-02,7.405749960904635387e-02,8.376775786594245488e-02,9.379125026015779076e-02
1.041279767916923615e-01,1.041279767916923615e-01,1.041279767916923615e-01,1.041279767916923615e-01,1.041279767916923615e-01,1.041279767916923615e-01,1.041279767916923615e-01,9.889249192507096331e-02,8.085915516226389876e-02,6.224409785872113410e-02,4.362904055517836249e-02,2.559570379237130489e-02,6.980646488828540219e-03,-1.105269027397853820e-02,-2.966774757752127512e-02,-4.828280488106406754e-02,-6.631614164387111821e-02,-8.493119894741388287e-02,-1.035462562509566475e-01,-1.215795930137637260e-01,-1.401946503173064629e-01,-1.555431230459486669e-01,-1.455196306517333726e-01,-1.354961382575180506e-01,-1.257858800006219080e-01,-1.157623876064065860e-01,-1.057388952121912640e-01,-9.602863695529514909e-02,-8.600514456107979933e-02,-7.629488630418371220e-02,-6.627139390996836243e-02,-5.624790151575304042e-02,-4.653764325885692554e-02,-3.651415086464160353e-02,-2.649065847042625377e-02,-1.678040021353013889e-02,-6.756907819314802999e-03,2.953350437581298005e-03,1.297684283179663389e-02,2.300033522601198366e-02,3.271059348290808466e-02,4.273408587712342055e-02,5.275757827133875644e-02,6.246783652823486438e-02,7.249132892245019333e-02,8.220158717934630821e-02,9.222507957356164410e-02
1.041279767916923615e-01,1.041279767916923615e-01,1.041279767916923615e-01,1.041279767916923615e-01,1.041279767916923615e-01,1.041279767916923615e-01,1.041279767916923615e-01,1.018010946287495194e-01,8.376775786594245488e-02,6.515270056239969021e-02,4.653764325885692554e-02,2.850430649604987487e-02,9.889249192507096331e-03,-8.725808111035682213e-03,-2.675914487384273288e-02,-4.537420217738549755e-02,-6.340753894019257597e-02,-8.202259624373531288e-02,-1.006376535472780775e-01,-1.186709903100851560e-01,-1.372860476136279484e-01,-1.559011049171707131e-01,-1.470858013383295193e-01,-1.370623089441141695e-01,-1.273520506872180824e-01,-1.173285582930027049e-01,-1.073050658987874106e-01,-9.759480764189129576e-02,-8.757131524767594599e-02,-7.754782285346065174e-02,-6.783756459656450910e-02,-5.781407220234918709e-02,-4.810381394545307221e-02,-3.808032155123775020e-02,-2.805682915702240043e-02,-1.834657090012628555e-02,-8.323078505910935787e-03,1.700413888304386223e-03,1.141067214520048723e-02,2.143416453941583699e-02,3.114442279631193800e-02,4.116791519052727388e-02,5.119140758474261671e-02,6.090166584163871771e-02,7.092515823585404666e-02,8.094865063006939643e-02,9.065890888696549743e-02
1.041279767916923615e-01,1.041279767916923615e-01,1.041279767916923615e-01,1.041279767916923615e-01,1.041279767916923615e-01,1.041279767916923615e-01,1.041279767916923615e-01,1.041279767916923615e-01,8.609464002888531087e-02,6.806130326607824632e-02,4.944624596253547472e-02,3.141290919972843099e-02,1.279785189618565244e-02,-5.817205407357112223e-03,-2.385054217016419065e-02,-4.246559947370695531e-02,-6.108065677724974774e-02,-7.911399354005677065e-02,-9.772905084359953531e-02,-1.157623876064065860e-01,-1.343774449099493784e-01,-1.529925022134921153e-01,-1.486519720249256660e-01,-1.386284796307103162e-01,-1.286049872364949664e-01,-1.188947289795988793e-01,-1.088712365853835573e-01,-9.916097832848744242e-02,-8.913748593427212041e-02,-7.911399354005674289e-02,-6.940373528316065577e-02,-5.938024288894533376e-02,-4.935675049472998399e-02,-3.964649223783386911e-02,-2.962299984361854710e-02,-1.991274158672243222e-02,-9.889249192507096331e-03,1.342432017082395568e-04,9.844501458604354438e-03,1.986799385281967645e-02,2.989148624703502621e-02,3.960174450393112722e-02,4.962523689814646310e-02,5.933549515504257105e-02,6.935898754925790000e-02,7.938247994347324976e-02,8.909273820036935077e-02
1.041279767916923615e-01,1.041279767916923615e-01,1.041279767916923615e-01,1.041279767916923615e-01,1.041279767916923615e-01,1.041279767916923615e-01,1.041279767916923615e-01,1.041279767916923615e-01,8.900324273256386698e-02,7.096990596975680243e-02,-4.024335553446226066e-02,-5.885841283800499757e-02,-7.689174960081207599e-02,-2.908602703678556112e-03,-2.094193946648562066e-02,-3.955699677002835757e-02,-5.817205407357114999e-02,-7.620539083637820066e-02,-9.482044813992096532e-02,-1.134355054434637577e-01,-1.314688422062708362e-01,-1.500838995098135731e-01,-1.502181427115218126e-01,-1.401946503173064629e-01,-1.301711579230911131e-01,-1.204608996661950260e-01,-1.104374072719797040e-01,-1.004139148777643542e-01,-9.070365662086826708e-02,-8.068016422665291731e-02,-7.096990596975680243e-02,-6.094641357554148042e-02,-5.092292118132613066e-02,-4.121266292443004353e-02,-3.118917053021469377e-02,-2.116567813599934400e-02,-1.145541987910324300e-02,-1.431927484887893232e-03,8.278330772008207772e-03,1.830182316622352978e-02,2.832531556043887955e-02,3.803557381733498055e-02,4.805906621155031644e-02,5.808255860576565233e-02,6.779281686266176721e-02,7.781630925687710310e-02,8.752656751377321798e-02
1.041279767916923615e-01,1.041279767916923615e-01,1.041279767916923615e-01,1.041279767916923615e-01,1.041279767916923615e-01,1.041279767916923615e-01,1.041279767916923615e-01,1.041279767916923615e-01,9.191184543624242309e-02,7.387850867343537242e-02,-3.733475283078369067e-02,-5.594981013432645534e-02,-7.398314689713350600e-02,0.000000000000000000e+00,-1.861505730354276467e-02,-3.664839406634981533e-02,-5.526345136989260776e-02,-7.329678813269965842e-02,-9.191184543624242309e-02,-1.105269027397851878e-01,-1.285602395025922384e-01,-1.471752968061350308e-01,-1.514710792607986967e-01,-1.417608210039026095e-01,-1.317373286096872875e-01,-1.220270703527911726e-01,-1.120035779585758506e-01,-1.019800855643605009e-01,-9.226982730746438599e-02,-8.224633491324906398e-02,-7.222284251903374197e-02,-6.251258426213762709e-02,-5.248909186792227732e-02,-4.277883361102616244e-02,-3.275534121681084043e-02,-2.273184882259551842e-02,-1.302159056569938966e-02,-2.998098171484039898e-03,7.025394222731282112e-03,1.673565247962738312e-02,2.675914487384271900e-02,3.646940313073882001e-02,4.649289552495417671e-02,5.651638791916951260e-02,6.622664617606562054e-02,7.625013857028095643e-02,8.627363096449629232e-02
1.041279767916923615e-01,1.041279767916923615e-01,1.041279767916923615e-01,1.041279767916923615e-01,1.041279767916923615e-01,1.041279767916923615e-01,1.041279767916923615e-01,1.041279767916923615e-01,9.482044813992097920e-02,7.620539083637820066e-02,-3.442615012710512068e-02,-5.304120743064791310e-02,-7.107454419345496377e-02,2.908602703678556112e-03,-1.570645459986422243e-02,-3.373979136267127310e-02,-5.235484866621406552e-02,-7.096990596975680243e-02,-8.900324273256385310e-02,-1.076183000361066178e-01,-1.256516367989136962e-01,-1.442666941024564886e-01,-1.530372499473948988e-01,-1.433269916904987562e-01,-1.333034992962834342e-01,-1.232800069020680844e-01,-1.135697486451719695e-01,-1.035462562509566753e-01,-9.383599799406053266e-02,-8.381250559984518289e-02,-7.378901320562986088e-02,-6.407875494873377376e-02,-5.405526255451842399e-02,-4.403177016030310198e-02,-3.432151190340698710e-02,-2.429801950919163733e-02,-1.458776125229552245e-02,-4.564268858080186564e-03,5.459223536135135446e-03,1.516948179303123645e-02,2.519297418724657234e-02,3.521646658146190823e-02,4.492672483835802311e-02,5.495021723257336593e-02,6.466047548946947388e-02,7.468396788368480976e-02,8.470746027790014565e-02
1.041279767916923615e-01,1.041279767916923615e-01,1.041279767916923615e-01,1.041279767916923615e-01,1.041279767916923615e-01,1.041279767916923615e-01,1.041279767916923615e-01,1.041279767916923615e-01,9.772905084359953531e-02,7.911399354005677065e-02,6.108065677724970610e-02,4.246559947370694144e-02,2.385054217016417677e-02,5.817205407357112223e-03,-1.279785189618566632e-02,-3.083118865899273087e-02,-4.944624596253546778e-02,-6.806130326607826020e-02,-8.609464002888531087e-02,-1.047096973324280478e-01,-1.233247546359708402e-01,-1.413580913987778909e-01,-1.546034206339910455e-01,-1.448931623770949029e-01,-1.348696699828795809e-01,-1.248461775886642311e-01,-1.151359193317681162e-01,-1.051124269375528220e-01,-9.508893454333747219e-02,-8.537867628644135731e-02,-7.535518389222600755e-02,-6.564492563532989267e-02,-5.562143324111457066e-02,-4.559794084689924865e-02,-3.588768259000316152e-02,-2.586419019578778400e-02,-1.584069780157244811e-02,-6.130439544676333230e-03,3.893052849538988780e-03,1.360331110643508978e-02,2.362680350065043955e-02,3.365029589486576156e-02,4.336055415176187644e-02,5.338404654597721233e-02,6.340753894019254822e-02,7.311779719708866310e-02,8.314128959130399898e-02
1.041279767916923615e-01,1.041279767916923615e-01,1.041279767916923615e-01,1.041279767916923615e-01,1.041279767916923615e-01,1.041279767916923615e-01,1.041279767916923615e-01,1.041279767916923615e-01,1.006376535472780914e-01,8.202259624373532676e-02,6.398925948092826221e-02,4.537420217738549755e-02,2.675914487384271900e-02,8.725808111035682213e-03,-9.889249192507110209e-03,-2.850430649604987487e-02,-4.653764325885692554e-02,-6.515270056239971797e-02,-8.318603732520674088e-02,-1.018010946287495055e-01,-1.204161519322922980e-01,-1.384494886950993486e-01,-1.561695913205871922e-01,-1.461460989263718424e-01,-1.364358406694757275e-01,-1.264123482752603778e-01,-1.167020900183642629e-01,-1.066785976241489409e-01,-9.665510522993361886e-02,-8.694484697303750398e-02,-7.692135457882215421e-02,-6.689786218460683220e-02,-5.718760392771071732e-02,-4.716411153349536756e-02,-3.745385327659928043e-02,-2.743036088238393067e-02,-1.740686848816860866e-02,-7.696610231272479896e-03,2.326882162942842114e-03,1.235037455715817800e-02,2.206063281405427901e-02,3.208412520826961489e-02,4.179438346516572977e-02,5.181787585938106566e-02,6.184136825359640155e-02,7.155162651049251643e-02,8.157511890470785232e-02
1.041279767916923615e-01,1.041279767916923615e-01,1.041279767916923615e-01,1.041279767916923615e-01,1.041279767916923615e-01,1.041279767916923615e-01,1.041279767916923615e-01,1.041279767916923615e-01,1.035462562509566475e-01,8.493119894741388287e-02,6.631614164387111821e-02,4.828280488106405366e-02,2.966774757752128899e-02,1.163441081471423832e-02,-6.980646488828540219e-03,-2.559570379237130489e-02,-4.362904055517832780e-02,-6.224409785872114798e-02,-8.085915516226388489e-02,-9.889249192507093555e-02,-1.175075492286137280e-01,-1.355408859914207786e-01,-1.541559432949635433e-01,-1.477122696129679891e-01,-1.380020113560718742e-01,-1.279785189618565244e-01,-1.179550265676412024e-01,-1.082447683107450875e-01,-9.822127591652976553e-02,-8.851101765963365064e-02,-7.848752526541830088e-02,-6.846403287120297887e-02,-5.875377461430686399e-02,-4.873028222009151422e-02,-3.870678982587619221e-02,-2.899653156898010509e-02,-1.897303917476472757e-02,-9.262780917868640440e-03,7.607114763467093255e-04,1.078420387056203134e-02,2.049446212745813234e-02,3.051795452167346823e-02,4.054144691588881799e-02,5.025170517278492593e-02,6.027519756700026182e-02,6.998545582389636976e-02,8.000894821811170565e-02
1.041279767916923615e-01,1.041279767916923615e-01,1.041279767916923615e-01,1.041279767916923615e-01,1.041279767916923615e-01,1.041279767916923615e-01,1.041279767916923615e-01,1.041279767916923615e-01,1.041279767916923615e-01,8.783980165109243898e-02,6.922474434754967432e-02,5.119140758474261671e-02,3.257635028119983123e-02,1.396129297765708044e-02,-4.072043785149984108e-03,-2.268710108869276265e-02,-4.072043785149978556e-02,-5.933549515504260574e-02,-7.795055245858531490e-02,-9.598388922139239332e-02,-1.145989465249351580e-01,-1.332140038284779504e-01,-1.512473405912850011e-01,-1.492784402995640802e-01,-1.395681820426679931e-01,-1.295446896484526988e-01,-1.195211972542373213e-01,-1.098109389973412342e-01,-9.978744660312591219e-02,-8.976395420891056243e-02,-8.005369595201447530e-02,-7.003020355779912554e-02,-6.031994530090303841e-02,-5.029645290668766089e-02,-4.027296051247233888e-02,-3.056270225557625175e-02,-2.053920986136088811e-02,-1.051571746714555222e-02,-8.054592102494373407e-04,9.218033183965884669e-03,1.892829144086199955e-02,2.895178383507732156e-02,3.897527622929265745e-02,4.868553448618877927e-02,5.870902688040411516e-02,6.873251927461945798e-02,7.844277753151555899e-02
1.041279767916923615e-01,1.041279767916923615e-01,1.041279767916923615e-01,1.041279767916923615e-01,1.041279767916923615e-01,1.041279767916923615e-01,1.041279767916923615e-01,1.041279767916923615e-01,1.041279767916923615e-01,9.074840435477099509e-02,7.213334705122823043e-02,5.410001028842116588e-02,3.548495298487840122e-02,1.686989568133565043e-02,-1.163441081471427996e-03,-1.977849838501419266e-02,-3.781183514782124333e-02,-5.642689245136403575e-02,-7.504194975490677266e-02,-9.307528651771382333e-02,-1.116903438212566158e-01,-1.303054011247993804e-01,-1.483387378876064588e-01,-1.508446109861602269e-01,-1.411343527292641953e-01,-1.311108603350488455e-01,-1.210873679408334680e-01,-1.113771096839373809e-01,-1.013536172897220589e-01,-9.133012489550670909e-02,-8.161986663861059421e-02,-7.159637424439524445e-02,-6.157288185017992244e-02,-5.186262359328383531e-02,-4.183913119906848554e-02,-3.212887294217239842e-02,-2.210538054795704865e-02,-1.208188815374169889e-02,-2.371629896845584007e-03,7.651862497369738003e-03,1.767535489158507389e-02,2.738561314848117489e-02,3.740910554269652466e-02,4.711936379959263260e-02,5.714285619380796849e-02,6.716634858802331132e-02,7.687660684491941232e-02
1.041279767916923615e-01,1.041279767916923615e-01,1.041279767916923615e-01,1.041279767916923615e-01,1.041279767916923615e-01,1.041279767916923615e-01,1.041279767916923615e-01,1.041279767916923615e-01,1.041279767916923615e-01,9.365700705844955121e-02,7.504194975490678654e-02,5.700861299209972199e-02,3.839355568855695733e-02,1.977849838501419266e-02,-2.081936737588627462e-01,-2.268087310624054831e-01,-2.454237883659482755e-01,-2.634571251287552984e-01,-2.820721824322980353e-01,-9.016668381403528110e-02,-1.087817411175780735e-01,-1.273967984211208104e-01,-1.454301351839278889e-01,-1.524107816727564291e-01,-1.423872892785410793e-01,-1.326770310216449644e-01,-1.226535386274296424e-01,-1.129432803705335275e-01,-1.029197879763182055e-01,-9.289629558210285576e-02,-8.318603732520676863e-02,-7.316254493099141887e-02,-6.313905253677606910e-02,-5.342879427987998198e-02,-4.340530188566463221e-02,-3.338180949144931020e-02,-2.367155123455319532e-02,-1.364805884033784555e-02,-3.937800583441730673e-03,6.085691810773591337e-03,1.610918420498892722e-02,2.581944246188502823e-02,3.584293485610037799e-02,4.586642725031571388e-02,5.557668550721182182e-02,6.560017790142716465e-02,7.531043615832326565e-02
1.041279767916923615e-01,1.041279767916923615e-01,1.041279767916923615e-01,1.041279767916923615e-01,1.041279767916923615e-01,1.041279767916923615e-01,1.041279767916923615e-01,1.041279767916923615e-01,1.041279767916923615e-01,9.656560976212810732e-02,7.795055245858534265e-02,5.933549515504257799e-02,4.130215839223551344e-02,2.268710108869276265e-02,-2.052850710551841484e-01,-2.239001283587269409e-01,-2.425151856622697333e-01,-2.605485224250767562e-01,-2.791635797286194931e-01,-8.783980165109242511e-02,-1.058731384138994758e-01,-1.244881957174422682e-01,-1.425215324802493189e-01,-1.539769523593525757e-01,-1.439534599651372260e-01,-1.342432017082411388e-01,-1.242197093140257891e-01,-1.141962169198104393e-01,-1.044859586629143522e-01,-9.446246626869900243e-02,-8.443897387448365266e-02,-7.472871561758756553e-02,-6.470522322337221577e-02,-5.499496496647612864e-02,-4.497147257226077888e-02,-3.494798017804545687e-02,-2.523772192114934199e-02,-1.521422952693399222e-02,-5.190737132718642455e-03,4.519521124177444671e-03,1.454301351839279444e-02,2.425327177528889544e-02,3.427676416950423133e-02,4.430025656371956722e-02,5.401051482061567516e-02,6.403400721483101798e-02,7.405749960904635387e-02
1.041279767916923615e-01,1.041279767916923615e-01,1.041279767916923615e-01,1.041279767916923615e-01,1.041279767916923615e-01,1.041279767916923615e-01,1.041279767916923615e-01,1.041279767916923615e-01,1.041279767916923615e-01,9.947421246580666343e-02,8.085915516226389876e-02,6.224409785872113410e-02,4.421076109591406955e-02,2.559570379237130489e-02,-2.029581888922412924e-01,-2.209915256550483986e-01,-2.396065829585911910e-01,-2.576399197213982140e-01,-2.762549770249409509e-01,-8.493119894741388287e-02,-1.029645357102209335e-01,-1.215795930137637260e-01,-1.401946503173064629e-01,-1.555431230459487224e-01,-1.455196306517333726e-01,-1.358093723948372855e-01,-1.257858800006219357e-01,-1.157623876064065860e-01,-1.060521293495104989e-01,-9.602863695529514909e-02,-8.600514456107979933e-02,-7.629488630418371220e-02,-6.627139390996836243e-02,-5.624790151575304042e-02,-4.653764325885692554e-02,-3.651415086464160353e-02,-2.680389260774546090e-02,-1.678040021353013889e-02,-6.756907819314789121e-03,2.953350437581311883e-03,1.297684283179663389e-02,2.300033522601198366e-02,3.271059348290808466e-02,4.273408587712342055e-02,5.244434413401952849e-02,6.246783652823486438e-02,7.249132892245019333e-02
1.041279767916923615e-01,1.041279767916923615e-01,1.041279767916923615e-01,1.041279767916923615e-01,1.041279767916923615e-01,1.041279767916923615e-01,1.041279767916923615e-01,1.041279767916923615e-01,1.041279767916923615e-01,1.018010946287495194e-01,8.376775786594245488e-02,6.515270056239969021e-02,4.711936379959263260e-02,2.850430649604987487e-02,-2.000495861885627502e-01,-2.180829229513698009e-01,-2.366979802549125933e-01,-2.553130375584553580e-01,-2.733463743212624086e-01,-8.202259624373534064e-02,-1.000559330065423636e-01,-1.186709903100851560e-01,-1.372860476136278929e-01,-1.553193843764350268e-01,-1.470858013383295193e-01,-1.370623089441141973e-01,-1.273520506872180824e-01,-1.173285582930027049e-01,-1.076183000361066455e-01,-9.759480764189129576e-02,-8.757131524767597375e-02,-7.786105699077985887e-02,-6.783756459656450910e-02,-5.781407220234918709e-02,-4.810381394545307221e-02,-3.808032155123772244e-02,-2.805682915702240043e-02,-1.834657090012628555e-02,-8.323078505910935787e-03,1.387179750985165216e-03,1.141067214520048723e-02,2.143416453941582311e-02,3.114442279631193800e-02,4.116791519052727388e-02,5.119140758474261671e-02,6.630495471039542232e-02,8.026345095468358226e-02
1.041279767916923615e-01,1.041279767916923615e-01,1.041279767916923615e-01,1.041279767916923615e-01,1.041279767916923615e-01,1.041279767916923615e-01,1.041279767916923615e-01,1.041279767916923615e-01,1.041279767916923615e-01,1.041279767916923615e-01,8.667636056962102487e-02,6.806130326607824632e-02,4.944624596253547472e-02,3.141290919972843099e-02,-1.971409834848842080e-01,-2.151743202476912586e-01,-2.337893775512339956e-01,-2.524044348547768157e-01,-2.704377716175838664e-01,-7.911399354005677065e-02,-9.772905084359950756e-02,-1.157623876064065860e-01,-1.343774449099493784e-01,-1.524107816727564291e-01,-1.486519720249256660e-01,-1.386284796307103162e-01,-1.289182213738142291e-01,-1.188947289795988793e-01,-1.088712365853835851e-01,-9.916097832848744242e-02,-8.913748593427212041e-02,-7.911399354005677065e-02,-6.940373528316065577e-02,-5.938024288894530600e-02,-4.966998463204921888e-02,-3.964649223783386911e-02,-2.962299984361854710e-02,-1.991274158672243222e-02,-6.326210880500865441e-03,1.963306824983027110e-02,4.225444610435334647e-02,6.199798532225601899e-02,7.850150893226291726e-02,9.202930823773712576e-02,1.024247661700190548e-01,1.041279767916923615e-01,1.041279767916923615e-01
1.041279767916923615e-01,1.041279767916923615e-01,1.041279767916923615e-01,1.041279767916923615e-01,1.041279767916923615e-01,1.041279767916923615e-01,1.041279767916923615e-01,1.041279767916923615e-01,1.041279767916923615e-01,1.041279767916923615e-01,8.958496327329956710e-02,7.096990596975680243e-02,5.235484866621403777e-02,3.432151190340697322e-02,1.570645459986422243e-02,-2.908602703678556112e-03,-2.094193946648562066e-02,-3.955699677002838532e-02,-5.759033353283546375e-02,-7.620539083637820066e-02,-9.482044813992096532e-02,-1.128537849027280715e-01,-1.314688422062708362e-01,-1.500838995098135731e-01,-1.502181427115218126e-01,-1.401946503173064629e-01,-1.304843920604104035e-01,-1.204608996661950260e-01,-1.104374072719797040e-01,-1.007271490150835891e-01,-9.070365662086823932e-02,-8.068016422665291731e-02,-4.908267062457563612e-02,-1.451924128475695630e-02,1.188052335117933955e-02,4.054144691588881799e-02,6.607002910740600310e-02,8.842711565856599398e-02,1.041279767916923615e-01,1.041279767916923615e-01,1.041279767916923615e-01,1.041279767916923615e-01,1.041279767916923615e-01,1.041279767916923615e-01,1.041279767916923615e-01,1.041279767916923615e-01,1.041279767916923615e-01
1.041279767916923615e-01,1.041279767916923615e-01,1.041279767916923615e-01,1.041279767916923615e-01,1.041279767916923615e-01,1.041279767916923615e-01,1.041279767916923615e-01,1.041279767916923615e-01,1.041279767916923615e-01,1.041279767916923615e-01,9.191184543624242309e-02,7.387850867343537242e-02,5.526345136989259388e-02,3.723011460708554321e-02,1.861505730354276467e-02,0.000000000000000000e+00,-1.803333676280707842e-02,-3.664839406634981533e-02,-5.526345136989260776e-02,-7.329678813269965842e-02,-9.191184543624242309e-02,-1.099451821990494738e-01,-1.285602395025922384e-01,-1.471752968061349753e-01,-1.517843133981179593e-01,-1.340767960727902997e-01,-8.751258384692858772e-02,-4.428627289687495083e-02,-3.937800583441730673e-03,3.317065612209570136e-02,6.730338852310047137e-02,9.247958231013352071e-02,1.041279767916923615e-01,1.041279767916923615e-01,1.041279767916923615e-01,1.041279767916923615e-01,1.041279767916923615e-01,1.041279767916923615e-01,1.041279767916923615e-01,1.041279767916923615e-01,1.041279767916923615e-01,1.041279767916923615e-01,1.041279767916923615e-01,1.041279767916923615e-01,1.041279767916923615e-01,1.041279767916923615e-01,1.041279767916923615e-01
