0.000000000000000000e+00,0.000000000000000000e+00,0.000000000000000000e+00,0.000000000000000000e+00,0.000000000000000000e+00,0.000000000000000000e+00,0.000000000000000000e+00,0.000000000000000000e+00,0.000000000000000000e+00,0.000000000000000000e+00,0.000000000000000000e+00,0.000000000000000000e+00,0.000000000000000000e+00,0.000000000000000000e+00,0.000000000000000000e+00,0.000000000000000000e+00,0.000000000000000000e+00,0.000000000000000000e+00,0.000000000000000000e+00,0.000000000000000000e+00,0.000000000000000000e+00,0.000000000000000000e+00,0.000000000000000000e+00,0.000000000000000000e+00,0.000000000000000000e+00,0.000000000000000000e+00,0.000000000000000000e+00,0.000000000000000000e+00,0.000000000000000000e+00,0.000000000000000000e+00,0.000000000000000000e+00,0.000000000000000000e+00,0.000000000000000000e+00,0.000000000000000000e+00,0.000000000000000000e+00,0.000000000000000000e+00,0.000000000000000000e+00,0.000000000000000000e+00,0.000000000000000000e+00,0.000000000000000000e+00,0.000000000000000000e+00,0.000000000000000000e+00,0.000000000000000000e+00,0.000000000000000000e+00,0.000000000000000000e+00,0.000000000000000000e+00,0.000000000000000000e+00
0.000000000000000000e+00,0.000000000000000000e+00,0.000000000000000000e+00,0.000000000000000000e+00,0.000000000000000000e+00,0.000000000000000000e+00,0.000000000000000000e+00,0.000000000000000000e+00,0.000000000000000000e+00,0.000000000000000000e+00,0.000000000000000000e+00,0.000000000000000000e+00,0.000000000000000000e+00,0.000000000000000000e+00,0.000000000000000000e+00,0.000000000000000000e+00,0.000000000000000000e+00,0.000000000000000000e+00,0.000000000000000000e+00,0.000000000000000000e+00,0.000000000000000000e+00,0.000000000000000000e+00,0.000000000000000000e+00,0.000000000000000000e+00,0.000000000000000000e+00,0.000000000000000000e+00,0.000000000000000000e+00,0.000000000000000000e+00,0.000000000000000000e+00,0.000000000000000000e+00,0.000000000000000000e+00,0.000000000000000000e+00,0.000000000000000000e+00,0.000000000000000000e+00,0.000000000000000000e+00,0.000000000000000000e+00,0.000000000000000000e+00,0.000000000000000000e+00,0.000000000000000000e+00,0.000000000000000000e+00,0.000000000000000000e+00,0.000000000000000000e+00,0.000000000000000000e+00,0.000000000000000000e+00,0.000000000000000000e+00,0.000000000000000000e+00,0.000000000000000000e+00
0.000000000000000000e+00,0.000000000000000000e+00,0.000000000000000000e+00,0.000000000000000000e+00,0.000000000000000000e+00,0.000000000000000000e+00,0.000000000000000000e+00,0.000000000000000000e+00,0.000000000000000000e+00,0.000000000000000000e+00,0.000000000000000000e+00,0.000000000000000000e+00,0.000000000000000000e+00,0.000000000000000000e+00,0.000000000000000000e+00,0.000000000000000000e+00,0.000000000000000000e+00,0.000000000000000000e+00,0.000000000000000000e+00,0.000000000000000000e+00,0.000000000000000000e+00,0.000000000000000000e+00,0.000000000000000000e+00,0.000000000000000000e+00,0.000000000000000000e+00,0.000000000000000000e+00,0.000000000000000000e+00,0.000000000000000000e+00,0.000000000000000000e+00,0.000000000000000000e+00,0.000000000000000000e+00,0.000000000000000000e+00,0.000000000000000000e+00,0.000000000000000000e+00,0.000000000000000000e+00,0.000000000000000000e+00,0.000000000000000000e+00,0.000000000000000000e+00,0.000000000000000000e+00,0.000000000000000000e+00,0.000000000000000000e+00,-2.430116540046116380e-01,-2.430116540046116380e-01,-2.430116540046116380e-01,-2.430116540046116380e-01,-2.430116540046116380e-01,0.000000000000000000e+00
0.000000000000000000e+00,0.000000000000000000e+00,0.000000000000000000e+00,0.000000000000000000e+00,0.000000000000000000e+00,0.000000000000000000e+00,0.000000000000000000e+00,0.000000000000000000e+00,0.000000000000000000e+00,0.000000000000000000e+00,0.000000000000000000e+00,0.000000000000000000e+00,0.000000000000000000e+00,0.000000000000000000e+00,0.000000000000000000e+00,0.000000000000000000e+00,0.000000000000000000e+00,0.000000000000000000e+00,0.000000000000000000e+00,0.000000000000000000e+00,0.000000000000000000e+00,0.000000000000000000e+00,0.000000000000000000e+00,0.000000000000000000e+00,0.000000000000000000e+00,0.000000000000000000e+00,0.000000000000000000e+00,0.000000000000000000e+00,0.000000000000000000e+00,0.000000000000000000e+00,0.000000000000000000e+00,0.000000000000000000e+00,0.000000000000000000e+00,0.000000000000000000e+00,0.000000000000000000e+00,0.000000000000000000e+00,0.000000000000000000e+00,0.000000000000000000e+00,0.000000000000000000e+00,0.000000000000000000e+00,0.000000000000000000e+00,-2.430116540046116380e-01,-2.430116540046116380e-01,-2.430116540046116380e-01,-2.430116540046116380e-01,-2.430116540046116380e-01,0.000000000000000000e+00
0.000000000000000000e+00,0.000000000000000000e+00,0.000000000000000000e+00,0.000000000000000000e+00,0.000000000000000000e+00,0.000000000000000000e+00,0.000000000000000000e+00,0.000000000000000000e+00,0.000000000000000000e+00,0.000000000000000000e+00,0.000000000000000000e+00,0.000000000000000000e+00,0.000000000000000000e+00,0.000000000000000000e+00,0.000000000000000000e+00,0.000000000000000000e+00,0.000000000000000000e+00,0.000000000000000000e+00,0.000000000000000000e+00,0.000000000000000000e+00,0.000000000000000000e+00,0.000000000000000000e+00,0.000000000000000000e+00,0.000000000000000000e+00,0.000000000000000000e+00,0.000000000000000000e+00,0.000000000000000000e+00,0.000000000000000000e+00,0.000000000000000000e+00,0.000000000000000000e+00,0.000000000000000000e+00,0.000000000000000000e+00,0.000000000000000000e+00,0.000000000000000000e+00,0.000000000000000000e+00,0.000000000000000000e+00,0.000000000000000000e+00,0.000000000000000000e+00,0.000000000000000000e+00,0.000000000000000000e+00,0.000000000000000000e+00,-2.430116540046116380e-01,-2.430116540046116380e-01,-2.430116540046116380e-01,-2.430116540046116380e-01,-2.430116540046116380e-01,0.000000000000000000e+00
0.000000000000000000e+00,0.000000000000000000e+00,0.000000000000000000e+00,0.000000000000000000e+00,0.000000000000000000e+00,0.000000000000000000e+00,0.000000000000000000e+00,0.000000000000000000e+00,0.000000000000000000e+00,0.000000000000000000e+00,0.000000000000000000e+00,0.000000000000000000e+00,0.000000000000000000e+00,0.000000000000000000e+00,0.000000000000000000e+00,0.000000000000000000e+00,0.000000000000000000e+00,0.000000000000000000e+00,0.000000000000000000e+00,0.000000000000000000e+00,0.000000000000000000e+00,0.000000000000000000e+00,0.000000000000000000e+00,0.000000000000000000e+00,0.000000000000000000e+00,0.000000000000000000e+00,0.000000000000000000e+00,0.000000000000000000e+00,0.000000000000000000e+00,0.000000000000000000e+00,0.000000000000000000e+00,0.000000000000000000e+00,0.000000000000000000e+00,0.000000000000000000e+00,0.000000000000000000e+00,0.000000000000000000e+00,0.000000000000000000e+00,0.000000000000000000e+00,0.000000000000000000e+00,0.000000000000000000e+00,0.000000000000000000e+00,-2.430116540046116380e-01,-2.430116540046116380e-01,-2.430116540046116380e-01,-2.430116540046116380e-01,-2.430116540046116380e-01,0.000000000000000000e+00
0.000000000000000000e+00,0.000000000000000000e+00,0.000000000000000000e+00,0.000000000000000000e+00,0.000000000000000000e+00,0.000000000000000000e+00,0.000000000000000000e+00,0.000000000000000000e+00,0.000000000000000000e+00,0.000000000000000000e+00,0.000000000000000000e+00,0.000000000000000000e+00,0.000000000000000000e+00,0.000000000000000000e+00,0.000000000000000000e+00,0.000000000000000000e+00,0.000000000000000000e+00,0.000000000000000000e+00,0.000000000000000000e+00,0.000000000000000000e+00,0.000000000000000000e+00,0.000000000000000000e+00,0.000000000000000000e+00,0.000000000000000000e+00,0.000000000000000000e+00,0.000000000000000000e+00,0.000000000000000000e+00,0.000000000000000000e+00,0.000000000000000000e+00,0.000000000000000000e+00,0.000000000000000000e+00,0.000000000000000000e+00,0.000000000000000000e+00,0.000000000000000000e+00,0.000000000000000000e+00,0.000000000000000000e+00,0.000000000000000000e+00,0.000000000000000000e+00,0.000000000000000000e+00,0.000000000000000000e+00,0.000000000000000000e+00,-2.430116540046116380e-01,-2.430116540046116380e-01,-2.430116540046116380e-01,-2.430116540046116380e-01,-2.430116540046116380e-01,0.000000000000000000e+00
0.000000000000000000e+00,0.000000000000000000e+00,0.000000000000000000e+00,0.000000000000000000e+00,0.000000000000000000e+00,0.000000000000000000e+00,0.000000000000000000e+00,0.000000000000000000e+00,0.000000000000000000e+00,0.000000000000000000e+00,0.000000000000000000e+00,0.000000000000000000e+00,0.000000000000000000e+00,0.000000000000000000e+00,0.000000000000000000e+00,0.000000000000000000e+00,0.000000000000000000e+00,0.000000000000000000e+00,0.000000000000000000e+00,0.000000000000000000e+00,0.000000000000000000e+00,0.000000000000000000e+00,0.000000000000000000e+00,0.000000000000000000e+00,0.000000000000000000e+00,0.000000000000000000e+00,0.000000000000000000e+00,0.000000000000000000e+00,0.000000000000000000e+00,0.000000000000000000e+00,0.000000000000000000e+00,0.000000000000000000e+00,0.000000000000000000e+00,0.000000000000000000e+00,0.000000000000000000e+00,0.000000000000000000e+00,0.000000000000000000e+00,0.000000000000000000e+00,0.000000000000000000e+00,0.000000000000000000e+00,0.000000000000000000e+00,0.000000000000000000e+00,0.000000000000000000e+00,0.000000000000000000e+00,0.000000000000000000e+00,0.000000000000000000e+00,0.000000000000000000e+00
0.000000000000000000e+00,0.000000000000000000e+00,0.000000000000000000e+00,0.000000000000000000e+00,0.000000000000000000e+00,0.000000000000000000e+00,0.000000000000000000e+00,0.000000000000000000e+00,0.000000000000000000e+00,0.000000000000000000e+00,0.000000000000000000e+00,0.000000000000000000e+00,0.000000000000000000e+00,0.000000000000000000e+00,0.000000000000000000e+00,0.000000000000000000e+00,0.000000000000000000e+00,0.000000000000000000e+00,0.000000000000000000e+00,0.000000000000000000e+00,0.000000000000000000e+00,0.000000000000000000e+00,0.000000000000000000e+00,0.000000000000000000e+00,0.000000000000000000e+00,0.000000000000000000e+00,0.000000000000000000e+00,0.000000000000000000e+00,0.000000000000000000e+00,0.000000000000000000e+00,0.000000000000000000e+00,0.000000000000000000e+00,0.000000000000000000e+00,0.000000000000000000e+00,0.000000000000000000e+00,0.000000000000000000e+00,0.000000000000000000e+00,0.000000000000000000e+00,0.000000000000000000e+00,0.000000000000000000e+00,0.000000000000000000e+00,0.000000000000000000e+00,0.000000000000000000e+00,0.000000000000000000e+00,0.000000000000000000e+00,0.000000000000000000e+00,0.000000000000000000e+00
0.000000000000000000e+00,0.000000000000000000e+00,0.000000000000000000e+00,0.000000000000000000e+00,0.000000000000000000e+00,0.000000000000000000e+00,0.000000000000000000e+00,0.000000000000000000e+00,0.000000000000000000e+00,0.000000000000000000e+00,0.000000000000000000e+00,0.000000000000000000e+00,0.000000000000000000e+00,0.000000000000000000e+00,0.000000000000000000e+00,0.000000000000000000e+00,0.000000000000000000e+00,0.000000000000000000e+00,0.000000000000000000e+00,0.000000000000000000e+00,0.000000000000000000e+00,0.000000000000000000e+00,0.000000000000000000e+00,0.000000000000000000e+00,0.000000000000000000e+00,0.000000000000000000e+00,0.000000000000000000e+00,0.000000000000000000e+00,0.000000000000000000e+00,0.000000000000000000e+00,0.000000000000000000e+00,0.000000000000000000e+00,0.000000000000000000e+00,0.000000000000000000e+00,0.000000000000000000e+00,0.000000000000000000e+00,0.000000000000000000e+00,0.000000000000000000e+00,0.000000000000000000e+00,0.000000000000000000e+00,0.000000000000000000e+00,0.000000000000000000e+00,0.000000000000000000e+00,0.000000000000000000e+00,0.000000000000000000e+00,0.000000000000000000e+00,0.000000000000000000e+00
0.000000000000000000e+00,0.000000000000000000e+00,0.000000000000000000e+00,0.000000000000000000e+00,0.000000000000000000e+00,0.000000000000000000e+00,0.000000000000000000e+00,0.000000000000000000e+00,0.000000000000000000e+00,0.000000000000000000e+00,0.000000000000000000e+00,0.000000000000000000e+00,0.000000000000000000e+00,0.000000000000000000e+00,0.000000000000000000e+00,0.000000000000000000e+00,0.000000000000000000e+00,0.000000000000000000e+00,0.000000000000000000e+00,0.000000000000000000e+00,0.000000000000000000e+00,0.000000000000000000e+00,0.000000000000000000e+00,0.000000000000000000e+00,0.000000000000000000e+00,0.000000000000000000e+00,0.000000000000000000e+00,0.000000000000000000e+00,0.000000000000000000e+00,0.000000000000000000e+00,0.000000000000000000e+00,0.000000000000000000e+00,0.000000000000000000e+00,0.000000000000000000e+00,0.000000000000000000e+00,0.000000000000000000e+00,0.000000000000000000e+00,0.000000000000000000e+00,0.000000000000000000e+00,0.000000000000000000e+00,0.000000000000000000e+00,0.000000000000000000e+00,0.000000000000000000e+00,0.000000000000000000e+00,0.000000000000000000e+00,0.000000000000000000e+00,0.000000000000000000e+00
0.000000000000000000e+00,0.000000000000000000e+00,-3.577600871237291563e-02,-2.400454778120505311e-02,-1.292552572834118271e-02,0.000000000000000000e+00,0.000000000000000000e+00,0.000000000000000000e+00,0.000000000000000000e+00,0.000000000000000000e+00,0.000000000000000000e+00,0.000000000000000000e+00,0.000000000000000000e+00,0.000000000000000000e+00,0.000000000000000000e+00,0.000000000000000000e+00,0.000000000000000000e+00,0.000000000000000000e+00,0.000000000000000000e+00,0.000000000000000000e+00,0.000000000000000000e+00,0.000000000000000000e+00,0.000000000000000000e+00,0.000000000000000000e+00,0.000000000000000000e+00,0.000000000000000000e+00,0.000000000000000000e+00,0.000000000000000000e+00,0.000000000000000000e+00,0.000000000000000000e+00,0.000000000000000000e+00,0.000000000000000000e+00,0.000000000000000000e+00,0.000000000000000000e+00,0.000000000000000000e+00,0.000000000000000000e+00,0.000000000000000000e+00,0.000000000000000000e+00,0.000000000000000000e+00,0.000000000000000000e+00,0.000000000000000000e+00,0.000000000000000000e+00,0.000000000000000000e+00,0.000000000000000000e+00,0.000000000000000000e+00,0.000000000000000000e+00,0.000000000000000000e+00
0.000000000000000000e+00,-2.008072747081576792e-02,-9.417168744934291402e-02,-8.309266539647902627e-02,-7.016713966813785397e-02,-5.724161393979666779e-02,-4.616259188693279392e-02,-3.323706615859161467e-02,-2.031154043025042849e-02,-9.232518377386558089e-03,0.000000000000000000e+00,0.000000000000000000e+00,0.000000000000000000e+00,0.000000000000000000e+00,0.000000000000000000e+00,0.000000000000000000e+00,0.000000000000000000e+00,0.000000000000000000e+00,0.000000000000000000e+00,0.000000000000000000e+00,0.000000000000000000e+00,0.000000000000000000e+00,0.000000000000000000e+00,0.000000000000000000e+00,0.000000000000000000e+00,0.000000000000000000e+00,0.000000000000000000e+00,0.000000000000000000e+00,0.000000000000000000e+00,0.000000000000000000e+00,0.000000000000000000e+00,0.000000000000000000e+00,0.000000000000000000e+00,0.000000000000000000e+00,0.000000000000000000e+00,0.000000000000000000e+00,0.000000000000000000e+00,0.000000000000000000e+00,0.000000000000000000e+00,0.000000000000000000e+00,0.000000000000000000e+00,0.000000000000000000e+00,0.000000000000000000e+00,0.000000000000000000e+00,0.000000000000000000e+00,0.000000000000000000e+00,0.000000000000000000e+00
0.000000000000000000e+00,-6.676264851647656373e-02,-1.532598050646168941e-01,-1.403342793362757079e-01,-1.274087536079345218e-01,-1.163297315550706479e-01,-1.034042058267294478e-01,-9.047868009838827552e-02,-7.939965804552441553e-02,-6.647413231718322935e-02,-5.354860658884204316e-02,-4.246958453597816929e-02,-2.954405880763699005e-02,-1.846503675477311965e-02,-5.539511026431936068e-03,0.000000000000000000e+00,0.000000000000000000e+00,0.000000000000000000e+00,0.000000000000000000e+00,0.000000000000000000e+00,0.000000000000000000e+00,0.000000000000000000e+00,0.000000000000000000e+00,0.000000000000000000e+00,0.000000000000000000e+00,0.000000000000000000e+00,0.000000000000000000e+00,0.000000000000000000e+00,0.000000000000000000e+00,0.000000000000000000e+00,0.000000000000000000e+00,0.000000000000000000e+00,0.000000000000000000e+00,0.000000000000000000e+00,0.000000000000000000e+00,0.000000000000000000e+00,0.000000000000000000e+00,0.000000000000000000e+00,0.000000000000000000e+00,0.000000000000000000e+00,0.000000000000000000e+00,0.000000000000000000e+00,0.000000000000000000e+00,0.000000000000000000e+00,0.000000000000000000e+00,0.000000000000000000e+00,0.000000000000000000e+00
0.000000000000000000e+00,-1.396418404579717054e-01,-2.105014190044135480e-01,-1.975758932760723618e-01,-1.864968712232084602e-01,-1.735713454948673018e-01,-1.606458197665261434e-01,-1.495667977136622695e-01,-1.366412719853210833e-01,-1.237157462569798971e-01,-1.126367242041160233e-01,-9.971119847577483708e-02,-8.678567274743365090e-02,-7.570665069456979090e-02,-6.278112496622860472e-02,-4.985559923788742548e-02,-3.877657718502354467e-02,-2.160381492374598145e-01,-2.049591271845959406e-01,-1.920336014562547544e-01,-1.901870977807774421e-01,0.000000000000000000e+00,0.000000000000000000e+00,0.000000000000000000e+00,0.000000000000000000e+00,0.000000000000000000e+00,0.000000000000000000e+00,0.000000000000000000e+00,0.000000000000000000e+00,0.000000000000000000e+00,0.000000000000000000e+00,0.000000000000000000e+00,0.000000000000000000e+00,0.000000000000000000e+00,0.000000000000000000e+00,0.000000000000000000e+00,0.000000000000000000e+00,0.000000000000000000e+00,0.000000000000000000e+00,0.000000000000000000e+00,0.000000000000000000e+00,0.000000000000000000e+00,0.000000000000000000e+00,0.000000000000000000e+00,0.000000000000000000e+00,0.000000000000000000e+00,0.000000000000000000e+00
0.000000000000000000e+00,-1.920363822496404249e-01,-2.363524704610959482e-01,-2.363524704610958926e-01,-2.363524704610959204e-01,-2.308129594346639835e-01,-2.197339373818001373e-01,-2.068084116534589234e-01,-1.938828859251177372e-01,-1.828038638722538634e-01,-1.698783381439126772e-01,-1.569528124155715187e-01,-1.458737903627076171e-01,-1.329482646343664587e-01,-1.200227389060252725e-01,-1.089437168531613986e-01,-9.601819112482022633e-02,-2.732797631772564406e-01,-2.622007411243926223e-01,-2.492752153960514083e-01,-2.381961933431875345e-01,-3.508356983406892698e-02,-2.215804410572774080e-02,-1.107902205286387040e-02,0.000000000000000000e+00,0.000000000000000000e+00,0.000000000000000000e+00,0.000000000000000000e+00,0.000000000000000000e+00,0.000000000000000000e+00,0.000000000000000000e+00,0.000000000000000000e+00,0.000000000000000000e+00,0.000000000000000000e+00,0.000000000000000000e+00,0.000000000000000000e+00,0.000000000000000000e+00,0.000000000000000000e+00,0.000000000000000000e+00,0.000000000000000000e+00,0.000000000000000000e+00,0.000000000000000000e+00,0.000000000000000000e+00,0.000000000000000000e+00,0.000000000000000000e+00,0.000000000000000000e+00,0.000000000000000000e+00
-7.386014701909247512e-03,-2.363524704610959204e-01,-2.363524704610959204e-01,-2.363524704610958926e-01,-2.363524704610959204e-01,-2.363524704610959482e-01,-2.363524704610959204e-01,-2.363524704610959204e-01,-2.363524704610959204e-01,-2.363524704610959204e-01,-2.271199520837093311e-01,-2.160409300308455127e-01,-2.031154043025042988e-01,-1.901898785741631126e-01,-1.791108565212992387e-01,-1.661853307929580525e-01,-1.532598050646168941e-01,-3.323678807925304346e-01,-3.194423550641892762e-01,-3.065168293358481177e-01,-2.954378072829841884e-01,-9.232518377386558783e-02,-8.124616172100171396e-02,-6.832063599266054166e-02,-5.539511026431935548e-02,-4.431608821145548160e-02,-3.139056248311430236e-02,-1.846503675477311965e-02,-7.386014701909247512e-03,0.000000000000000000e+00,0.000000000000000000e+00,0.000000000000000000e+00,0.000000000000000000e+00,0.000000000000000000e+00,0.000000000000000000e+00,0.000000000000000000e+00,0.000000000000000000e+00,0.000000000000000000e+00,0.000000000000000000e+00,0.000000000000000000e+00,0.000000000000000000e+00,0.000000000000000000e+00,0.000000000000000000e+00,0.000000000000000000e+00,0.000000000000000000e+00,0.000000000000000000e+00,0.000000000000000000e+00
-5.702855582339543677e-02,-2.298186882247915674e-01,-2.318072306445363717e-01,-2.337957730642811760e-01,-2.355002379954910241e-01,-2.363524704610958926e-01,-2.363524704610958926e-01,-2.363524704610959204e-01,-2.363524704610959204e-01,-2.363524704610959204e-01,-2.363524704610959204e-01,-2.363524704610959204e-01,-2.363524704610959204e-01,-2.363524704610959482e-01,-2.363524704610959204e-01,-2.234269447327547620e-01,-2.123479226798908603e-01,-3.896094947323270885e-01,-3.766839690039859301e-01,-3.656049469511220562e-01,-3.526794212227808978e-01,-1.495667977136622417e-01,-1.384877756607983956e-01,-1.255622499324572094e-01,-1.144832278795933356e-01,-1.015577021512521633e-01,-8.863217642291097709e-02,-7.755315437004710322e-02,-6.462762864170591703e-02,-5.170210291336473085e-02,-4.062308086050085698e-02,-2.769755513215967774e-02,-1.477202940381849502e-02,-3.693007350954623756e-03,0.000000000000000000e+00,0.000000000000000000e+00,0.000000000000000000e+00,0.000000000000000000e+00,0.000000000000000000e+00,0.000000000000000000e+00,0.000000000000000000e+00,0.000000000000000000e+00,0.000000000000000000e+00,0.000000000000000000e+00,0.000000000000000000e+00,0.000000000000000000e+00,0.000000000000000000e+00
-1.028005411635926347e-01,-2.210122860802074540e-01,-2.230008284999522861e-01,-2.247052934311620787e-01,-2.266938358509068552e-01,-2.286823782706516872e-01,-2.303868432018615353e-01,-2.323753856216063118e-01,-2.343639280413511161e-01,-2.360683929725609365e-01,-2.363524704610959204e-01,-2.363524704610959204e-01,-2.363524704610959204e-01,-2.363524704610959204e-01,-2.363524704610959204e-01,-2.363524704610958926e-01,-2.363524704610959204e-01,-2.363524704610959204e-01,-2.363524704610959204e-01,-2.326594631101412958e-01,-2.197339373818001096e-01,-2.086549153289362357e-01,-1.957293896005950218e-01,-1.828038638722538634e-01,-1.717248418193899895e-01,-1.587993160910488033e-01,-1.477202940381849572e-01,-1.347947683098437710e-01,-1.218692425815025848e-01,-1.107902205286387110e-01,-9.786469480029753865e-02,-8.493916907195633859e-02,-7.386014701909247859e-02,-6.093462129075129241e-02,-4.800909556241010623e-02,-3.693007350954623236e-02,-2.400454778120505311e-02,-1.107902205286387040e-02,0.000000000000000000e+00,0.000000000000000000e+00,0.000000000000000000e+00,0.000000000000000000e+00,0.000000000000000000e+00,0.000000000000000000e+00,0.000000000000000000e+00,0.000000000000000000e+00,0.000000000000000000e+00
-1.379551303697953146e-01,-2.122058839356233684e-01,-2.141944263553682004e-01,-2.158988912865779930e-01,-2.178874337063227973e-01,-2.195918986375325899e-01,-2.215804410572773941e-01,-2.235689834770221984e-01,-2.252734484082319910e-01,-2.272619908279768230e-01,-2.292505332477216551e-01,-2.309549981789314477e-01,-2.329435405986762797e-01,-2.349320830184210562e-01,-2.363524704610958926e-01,-2.363524704610959204e-01,-2.363524704610959204e-01,-2.363524704610959204e-01,-2.363524704610959204e-01,-2.363524704610959204e-01,-2.363524704610959204e-01,-2.363524704610959204e-01,-2.363524704610959204e-01,-2.363524704610959204e-01,-2.289664557591866711e-01,-2.160409300308454572e-01,-2.049619079779816389e-01,-1.920363822496404249e-01,-1.809573601967765510e-01,-1.680318344684353649e-01,-1.551063087400941787e-01,-1.440272866872303048e-01,-1.311017609588891186e-01,-1.181762352305479602e-01,-1.070972131776840863e-01,-9.417168744934291402e-02,-8.124616172100172784e-02,-7.016713966813785397e-02,-5.724161393979666779e-02,-4.431608821145548854e-02,-3.323706615859161467e-02,-2.031154043025042849e-02,-7.386014701909247512e-03,0.000000000000000000e+00,0.000000000000000000e+00,0.000000000000000000e+00,0.000000000000000000e+00
-1.762345719498826790e-01,-2.033994817910392827e-01,-2.051039467222491308e-01,-2.070924891419939073e-01,-2.090810315617387394e-01,-2.107854964929485320e-01,-2.127740389126933085e-01,-2.144785038439031566e-01,-2.164670462636479331e-01,-2.184555886833927374e-01,-2.201600536146025577e-01,-2.221485960343473343e-01,-2.241371384540921385e-01,-2.258416033853019866e-01,-2.278301458050467632e-01,-2.298186882247915674e-01,-2.315231531560014155e-01,-2.335116955757462476e-01,-2.355002379954909963e-01,-2.363524704610959204e-01,-2.363524704610958926e-01,-2.363524704610959204e-01,-2.363524704610959204e-01,-2.363524704610959204e-01,-2.363524704610959204e-01,-2.363524704610959482e-01,-2.363524704610959204e-01,-2.363524704610959204e-01,-2.363524704610959204e-01,-2.252734484082320188e-01,-2.141944263553681727e-01,-2.012689006270269587e-01,-1.883433748986858003e-01,-1.772643528458219264e-01,-1.643388271174807125e-01,-1.514133013891395541e-01,-1.403342793362756802e-01,-1.274087536079345218e-01,-1.144832278795933356e-01,-1.034042058267294617e-01,-9.047868009838827552e-02,-7.755315437004710322e-02,-6.647413231718322935e-02,-5.354860658884205010e-02,-4.062308086050086392e-02,-2.954405880763699005e-02,-1.661853307929580734e-02
-1.926045372267103928e-01,-1.943090021579202409e-01,-1.962975445776650174e-01,-1.982860869974098217e-01,-1.999905519286196420e-01,-2.019790943483644463e-01,-2.039676367681092506e-01,-2.056721016993190709e-01,-2.076606441190638475e-01,-2.093651090502736678e-01,-2.113536514700184721e-01,-2.133421938897632764e-01,-2.150466588209730689e-01,-2.170352012407178455e-01,-2.190237436604626775e-01,-2.207282085916724979e-01,-2.227167510114173021e-01,-2.247052934311620787e-01,-2.264097583623719268e-01,-2.283983007821166755e-01,-2.303868432018615353e-01,-2.320913081330713279e-01,-2.340798505528161599e-01,-2.360683929725609365e-01,-2.363524704610959204e-01,-2.363524704610959204e-01,-2.363524704610959204e-01,-2.363524704610958926e-01,-2.363524704610959204e-01,-2.363524704610959204e-01,-2.363524704610959204e-01,-2.363524704610959204e-01,-2.363524704610959204e-01,-2.345059667856186081e-01,-2.215804410572774219e-01,-2.105014190044135480e-01,-1.975758932760723618e-01,-1.846503675477311757e-01,-1.735713454948673018e-01,-1.606458197665261156e-01,-1.477202940381849294e-01,-1.366412719853210556e-01,-1.237157462569798971e-01,-1.107902205286387110e-01,-9.971119847577483708e-02,-8.678567274743366478e-02,-7.386014701909247859e-02
-1.835140575935912954e-01,-1.855026000133361275e-01,-1.874911424330809040e-01,-1.891956073642907521e-01,-1.911841497840355286e-01,-1.931726922037803607e-01,-1.948771571349901532e-01,-1.968656995547349575e-01,-1.988542419744797618e-01,-2.005587069056895821e-01,-2.025472493254343864e-01,-2.042517142566442068e-01,-2.062402566763890110e-01,-2.082287990961337876e-01,-2.099332640273436357e-01,-2.119218064470884400e-01,-2.139103488668331887e-01,-2.156148137980430091e-01,-2.176033562177878411e-01,-2.195918986375325899e-01,-2.212963635687424380e-01,-2.232849059884872145e-01,-2.252734484082320188e-01,-2.269779133394418669e-01,-2.289664557591866711e-01,-2.309549981789314754e-01,-2.326594631101412958e-01,-2.346480055298860723e-01,-2.363524704610959204e-01,-2.363524704610958926e-01,-2.363524704610959482e-01,-2.363524704610959204e-01,-2.363524704610959204e-01,-2.363524704610958926e-01,-2.363524704610959204e-01,-2.363524704610959204e-01,-2.363524704610959204e-01,-2.363524704610959204e-01,-2.308129594346639835e-01,-2.178874337063227973e-01,-2.068084116534589234e-01,-1.938828859251177372e-01,-1.809573601967765510e-01,-1.698783381439126772e-01,-1.569528124155714910e-01,-1.440272866872303048e-01,-1.329482646343664587e-01
-1.747076554490072375e-01,-1.766961978687520141e-01,-2.410406427552529707e-01,-2.430291851749978027e-01,-2.450177275947425792e-01,-2.467221925259523996e-01,-2.487107349456972039e-01,-1.880592974101508719e-01,-1.897637623413606922e-01,-1.917523047611054965e-01,-1.937408471808502730e-01,-1.954453121120601211e-01,-1.974338545318048976e-01,-1.991383194630147457e-01,-2.011268618827594945e-01,-2.031154043025043265e-01,-2.048198692337141469e-01,-2.068084116534589234e-01,-2.087969540732037554e-01,-2.105014190044135480e-01,-2.124899614241583801e-01,-2.144785038439031566e-01,-2.161829687751129492e-01,-2.181715111948577535e-01,-2.201600536146025577e-01,-2.218645185458123781e-01,-2.238530609655571824e-01,-2.258416033853019589e-01,-2.275460683165117792e-01,-2.295346107362565835e-01,-2.315231531560013600e-01,-2.332276180872112359e-01,-2.352161605069560679e-01,-2.363524704610958926e-01,-2.363524704610959482e-01,-2.363524704610959204e-01,-2.363524704610959204e-01,-2.363524704610959204e-01,-2.363524704610959204e-01,-2.363524704610959204e-01,-2.363524704610959204e-01,-2.363524704610959204e-01,-2.363524704610959204e-01,-2.271199520837093311e-01,-2.141944263553682004e-01,-2.031154043025042988e-01,-1.901898785741630848e-01
-1.659012533044230964e-01,-1.676057182356329167e-01,-2.322342406106689128e-01,-2.342227830304136893e-01,-2.359272479616235096e-01,-2.379157903813683139e-01,-2.399043328011131182e-01,-1.789688177770317745e-01,-1.809573601967765510e-01,-1.829459026165213831e-01,-1.846503675477311757e-01,-1.866389099674760077e-01,-1.886274523872208120e-01,-1.903319173184306323e-01,-1.923204597381754366e-01,-1.940249246693852569e-01,-1.960134670891300335e-01,-1.980020095088748655e-01,-1.997064744400846581e-01,-2.016950168598294624e-01,-2.036835592795742667e-01,-2.053880242107840870e-01,-2.073765666305288913e-01,-2.093651090502736956e-01,-2.110695739814834604e-01,-2.130581164012282924e-01,-2.150466588209730967e-01,-2.167511237521828893e-01,-2.187396661719277213e-01,-2.207282085916724979e-01,-2.224326735228823182e-01,-2.244212159426270947e-01,-2.264097583623719268e-01,-2.281142232935817471e-01,-2.301027657133265236e-01,-2.320913081330713834e-01,-2.337957730642811760e-01,-2.357843154840260080e-01,-2.363524704610959204e-01,-2.363524704610959482e-01,-2.363524704610959482e-01,-2.363524704610959204e-01,-2.363524704610959204e-01,-2.363524704610959204e-01,-2.363524704610959204e-01,-2.363524704610959204e-01,-2.363524704610959204e-01
-1.568107736713040268e-01,-1.587993160910488588e-01,-2.234278384660847994e-01,-2.251323033972945920e-01,-2.271208458170394240e-01,-2.291093882367842005e-01,-2.308138531679940209e-01,-1.701624156324476611e-01,-1.721509580521924654e-01,-1.738554229834022857e-01,-1.758439654031470900e-01,-1.778325078228918943e-01,-1.795369727541017424e-01,-1.815255151738464912e-01,-1.835140575935912677e-01,-1.852185225248011435e-01,-1.872070649445459201e-01,-1.891956073642907521e-01,-1.909000722955005724e-01,-1.928886147152453490e-01,-1.945930796464551693e-01,-1.965816220661999736e-01,-1.985701644859447779e-01,-2.002746294171546260e-01,-2.022631718368994025e-01,-2.042517142566441790e-01,-2.059561791878540271e-01,-2.079447216075988314e-01,-2.099332640273436357e-01,-2.116377289585534560e-01,-2.136262713782982325e-01,-2.156148137980430368e-01,-2.173192787292528294e-01,-2.193078211489976337e-01,-2.212963635687424380e-01,-2.230008284999522583e-01,-2.249893709196970626e-01,-2.269779133394418391e-01,-2.286823782706516872e-01,-2.306709206903965192e-01,-2.326594631101412958e-01,-2.343639280413511161e-01,-2.363524704610959204e-01,-2.363524704610959482e-01,-2.363524704610959204e-01,-2.363524704610959482e-01,-2.363524704610959204e-01
-1.480043715267199134e-01,-1.499929139464647176e-01,-2.143373588329657020e-01,-2.163259012527105341e-01,-2.183144436724553383e-01,-2.200189086036651587e-01,-2.220074510234099352e-01,-1.613560134878635755e-01,-1.630604784190733680e-01,-1.650490208388181723e-01,-1.670375632585630044e-01,-1.687420281897728247e-01,-1.707305706095176012e-01,-1.727191130292624055e-01,-1.744235779604722536e-01,-1.764121203802170301e-01,-1.784006627999618344e-01,-1.801051277311716547e-01,-1.820936701509164313e-01,-1.840822125706612356e-01,-1.857866775018710837e-01,-1.877752199216158879e-01,-1.894796848528257083e-01,-1.914682272725704848e-01,-1.934567696923152891e-01,-1.951612346235251372e-01,-1.971497770432699415e-01,-1.991383194630147457e-01,-2.008427843942245661e-01,-2.028313268139693704e-01,-2.048198692337141469e-01,-2.065243341649239950e-01,-2.085128765846687715e-01,-2.105014190044135480e-01,-2.122058839356233684e-01,-2.141944263553681727e-01,-2.161829687751129769e-01,-2.178874337063227973e-01,-2.198759761260675738e-01,-2.218645185458124058e-01,-2.235689834770221984e-01,-2.255575258967670027e-01,-2.275460683165118070e-01,-2.292505332477216273e-01,-2.312390756674664039e-01,-2.329435405986762797e-01,-2.055655726411184381e-01
-1.391979693821358277e-01,-1.409024343133456203e-01,-2.055309566883815886e-01,-2.075194991081263929e-01,-2.092239640393362132e-01,-2.112125064590810175e-01,-2.132010488788258218e-01,-1.522655338547445059e-01,-1.542540762744892824e-01,-1.562426186942340867e-01,-1.579470836254439070e-01,-1.599356260451887113e-01,-1.619241684649335156e-01,-1.636286333961433359e-01,-1.656171758158881124e-01,-1.676057182356329167e-01,-1.693101831668427648e-01,-1.712987255865875413e-01,-1.732872680063323734e-01,-1.749917329375421937e-01,-1.769802753572869702e-01,-1.786847402884967906e-01,-1.806732827082415949e-01,-1.826618251279863714e-01,-1.843662900591961917e-01,-1.863548324789410238e-01,-1.883433748986858280e-01,-1.900478398298956484e-01,-1.920363822496404804e-01,-1.940249246693852569e-01,-1.957293896005951050e-01,-1.977179320203398816e-01,-1.997064744400846581e-01,-2.014109393712945062e-01,-2.033994817910392827e-01,-2.053880242107840870e-01,-2.070924891419939073e-01,-2.090810315617387116e-01,-2.110695739814835159e-01,-2.127740389126933085e-01,-2.147625813324381405e-01,-2.167511237521829170e-01,-2.184555886833927096e-01,-2.204441311031375139e-01,-2.224326735228823182e-01,-2.241371384540921663e-01,-1.483949780734555024e-01
-1.303915672375517143e-01,-1.320960321687615346e-01,-1.340845745885063389e-01,-1.357890395197161593e-01,-1.377775819394609635e-01,-1.397661243592057401e-01,-1.414705892904155604e-01,-1.434591317101603924e-01,-1.454476741299051690e-01,-1.471521390611150171e-01,-1.491406814808597936e-01,-1.511292239006046256e-01,-1.528336888318144182e-01,-1.548222312515592503e-01,-1.568107736713040268e-01,-1.585152386025138471e-01,-2.348461345943000933e-01,-2.368346770140448698e-01,-2.385391419452546624e-01,-2.405276843649994944e-01,-1.681738732127028568e-01,-1.698783381439127049e-01,-1.718668805636575092e-01,-1.738554229834022857e-01,-1.755598879146121061e-01,-1.775484303343569104e-01,-1.792528952655667585e-01,-1.812414376853115350e-01,-1.832299801050563115e-01,-1.849344450362661596e-01,-1.869229874560109639e-01,-1.889115298757557682e-01,-1.906159948069655885e-01,-1.926045372267103928e-01,-1.945930796464551971e-01,-1.962975445776650174e-01,-1.982860869974098217e-01,-2.002746294171545982e-01,-2.019790943483644463e-01,-2.039676367681092506e-01,-2.059561791878540549e-01,-2.076606441190638752e-01,-2.096491865388086517e-01,-2.116377289585534283e-01,-2.133421938897632764e-01,-2.153307363095080529e-01,-1.018684119043372777e-01
-1.213010876044326447e-01,-1.232896300241774351e-01,-1.252781724439222255e-01,-1.269826373751320459e-01,-1.289711797948768501e-01,-1.306756447260866982e-01,-1.326641871458314748e-01,-1.346527295655762790e-01,-1.363571944967860994e-01,-1.383457369165309037e-01,-1.403342793362756802e-01,-1.420387442674855283e-01,-1.440272866872303048e-01,-1.460158291069751091e-01,-1.477202940381849294e-01,-1.497088364579297615e-01,-2.260397324497159799e-01,-2.277441973809258280e-01,-2.297327398006706045e-01,-2.317212822204154365e-01,-1.590833935795837872e-01,-1.610719359993286193e-01,-1.630604784190733958e-01,-1.647649433502831884e-01,-1.667534857700280204e-01,-1.687420281897727969e-01,-1.704464931209826450e-01,-1.724350355407274493e-01,-1.741395004719372419e-01,-1.761280428916820462e-01,-1.781165853114268505e-01,-1.798210502426366708e-01,-1.818095926623814751e-01,-1.837981350821262794e-01,-1.855026000133360997e-01,-1.874911424330809040e-01,-1.894796848528257083e-01,-1.911841497840355564e-01,-1.931726922037803329e-01,-1.951612346235251372e-01,-1.968656995547349575e-01,-1.988542419744797340e-01,-2.008427843942245661e-01,-2.025472493254343864e-01,-2.045357917451791907e-01,-2.065243341649239672e-01,-5.205719977403344689e-02
-1.124946854598485313e-01,-1.144832278795933356e-01,-1.161876928108031559e-01,-1.181762352305479602e-01,-1.201647776502927506e-01,-1.218692425815025848e-01,-1.238577850012473752e-01,-1.255622499324572094e-01,-1.275507923522019860e-01,-1.295393347719467902e-01,-1.312437997031566383e-01,-1.332323421229014149e-01,-1.352208845426462192e-01,-1.369253494738560395e-01,-1.389138918936008438e-01,-1.409024343133456203e-01,-2.169492528165968825e-01,-2.189377952363417146e-01,-2.209263376560864911e-01,-2.226308025872962837e-01,-1.502769914349996738e-01,-1.522655338547445059e-01,-1.539699987859542984e-01,-1.559585412056991305e-01,-1.579470836254439348e-01,-1.596515485566537551e-01,-1.616400909763985316e-01,-1.636286333961433359e-01,-1.653330983273531563e-01,-1.673216407470979605e-01,-1.690261056783077809e-01,-1.710146480980525574e-01,-1.730031905177973894e-01,-1.747076554490072098e-01,-1.766961978687520141e-01,-1.786847402884967906e-01,-1.803892052197066387e-01,-1.823777476394514152e-01,-1.843662900591962195e-01,-1.860707549904060398e-01,-1.880592974101508719e-01,-1.900478398298956761e-01,-1.917523047611054687e-01,-1.937408471808502730e-01,-1.957293896005950773e-01,-1.974338545318049254e-01,-1.246389980947185637e-02
-1.036882833152644456e-01,-1.053927482464742660e-01,-1.073812906662190564e-01,-1.093698330859638607e-01,-1.110742980171736671e-01,-1.130628404369184714e-01,-1.150513828566632757e-01,-1.167558477878730960e-01,-1.187443902076179003e-01,-1.204488551388277345e-01,-1.224373975585725249e-01,-1.244259399783173292e-01,-1.261304049095271496e-01,-1.281189473292719538e-01,-1.301074897490167304e-01,-1.318119546802265785e-01,-2.081428506720127691e-01,-2.101313930917576012e-01,-2.118358580229674493e-01,-4.340115511589360264e-01,-3.616577400066393611e-01,-3.633622049378492092e-01,-1.451635966413701850e-01,-1.471521390611149893e-01,-1.488566039923248374e-01,-1.508451464120696417e-01,-1.528336888318144182e-01,-1.545381537630242663e-01,-1.565266961827690706e-01,-1.585152386025138471e-01,-1.602197035337236675e-01,-1.622082459534684995e-01,-1.639127108846783198e-01,-1.659012533044230964e-01,-1.678897957241679006e-01,-1.695942606553777210e-01,-1.715828030751225253e-01,-1.735713454948673018e-01,-1.752758104260771499e-01,-1.772643528458219264e-01,-1.792528952655667307e-01,-1.809573601967765510e-01,-1.829459026165213553e-01,-1.849344450362661596e-01,-1.866389099674759799e-01,-1.532598050646168941e-01,0.000000000000000000e+00
-9.459780368214536217e-02,-9.658634610189018033e-02,-9.857488852163495685e-02,-1.002793534528447911e-01,-1.022678958725895954e-01,-1.042564382923343858e-01,-1.059609032235442061e-01,-1.079494456432889965e-01,-1.099379880630337869e-01,-1.116424529942436211e-01,-1.136309954139884115e-01,-1.153354603451982596e-01,-1.173240027649430500e-01,-1.193125451846878404e-01,-1.210170101158976608e-01,-1.230055525356424651e-01,-1.249940949553872693e-01,-1.266985598865970897e-01,-1.286871023063418940e-01,-3.508627954423104711e-01,-3.525672603735203192e-01,-3.545558027932650957e-01,-1.363571944967860994e-01,-1.380616594279959197e-01,-1.400502018477407240e-01,-1.420387442674855005e-01,-1.437432091986953486e-01,-1.457317516184401529e-01,-1.477202940381849294e-01,-1.494247589693947775e-01,-1.514133013891395818e-01,-1.534018438088843861e-01,-1.551063087400942342e-01,-1.570948511598390107e-01,-1.587993160910488311e-01,-1.607878585107936353e-01,-1.627764009305384119e-01,-1.644808658617482322e-01,-1.664694082814930365e-01,-1.684579507012378408e-01,-1.701624156324476889e-01,-1.721509580521924931e-01,-1.741395004719372697e-01,-1.758439654031470623e-01,-1.778325078228918943e-01,-1.123881564016479262e-01,0.000000000000000000e+00
-8.579140153756126264e-02,-8.777994395730605304e-02,-8.948440888851588726e-02,-9.147295130826069154e-02,-9.346149372800548194e-02,-9.516595865921530228e-02,-9.715450107896010656e-02,-9.914304349870489697e-02,-1.008475084299147173e-01,-1.028360508496595216e-01,-1.048245932694043259e-01,-1.065290582006141462e-01,-1.085176006203589366e-01,-1.102220655515687431e-01,-1.122106079713135612e-01,-1.141991503910583655e-01,-1.159036153222681997e-01,-1.178921577420129901e-01,-1.198807001617577805e-01,-3.417723158091914293e-01,-3.437608582289362058e-01,-3.457494006486809823e-01,-1.272667148636670298e-01,-1.292552572834118063e-01,-1.312437997031566383e-01,-1.329482646343664587e-01,-1.349368070541112630e-01,-1.369253494738560395e-01,-1.386298144050658598e-01,-1.406183568248106641e-01,-1.426068992445554684e-01,-1.443113641757652887e-01,-1.462999065955100930e-01,-1.482884490152548695e-01,-1.499929139464646899e-01,-1.519814563662095219e-01,-1.539699987859542984e-01,-1.556744637171641465e-01,-1.576630061369089508e-01,-1.593674710681187712e-01,-1.613560134878635755e-01,-1.633445559076083520e-01,-1.650490208388182001e-01,-1.670375632585629766e-01,-1.690261056783078086e-01,-6.935929431011653157e-02,0.000000000000000000e+00
-7.698499939297714922e-02,-7.868946432418698345e-02,-8.067800674393177385e-02,-8.266654916367657813e-02,-8.437101409488641235e-02,-8.635955651463120275e-02,-8.834809893437599315e-02,-9.005256386558582737e-02,-9.204110628533061778e-02,-9.402964870507542205e-02,-9.573411363628525628e-02,-9.772265605603004668e-02,-9.971119847577483708e-02,-1.014156634069846713e-01,-1.034042058267294756e-01,-1.051086707579392820e-01,-1.070972131776840863e-01,-1.090857555974288767e-01,-1.107902205286387110e-01,-1.127787629483835014e-01,-1.147673053681282918e-01,-1.164717702993381399e-01,-1.184603127190829303e-01,-1.204488551388277207e-01,-1.221533200700375688e-01,-1.241418624897823453e-01,-1.261304049095271496e-01,-1.278348698407369699e-01,-1.298234122604817742e-01,-1.318119546802265507e-01,-1.335164196114363988e-01,-1.355049620311811753e-01,-1.374935044509259519e-01,-1.391979693821358277e-01,-1.411865118018806042e-01,-1.431750542216254085e-01,-1.448795191528352289e-01,-1.468680615725800331e-01,-1.485725265037898535e-01,-1.505610689235346578e-01,-1.525496113432794620e-01,-1.542540762744893101e-01,-1.562426186942340867e-01,-1.582311611139788909e-01,-1.599356260451887113e-01,-3.036078158717503417e-02,0.000000000000000000e+00
-6.789451975985807963e-02,-6.988306217960287003e-02,-7.187160459934766044e-02,-7.357606953055749466e-02,-7.556461195030229894e-02,-7.755315437004710322e-02,-7.925761930125692356e-02,-8.124616172100171396e-02,-8.323470414074651824e-02,-8.493916907195633859e-02,-8.692771149170114287e-02,-8.891625391144594714e-02,-9.062071884265576749e-02,-9.260926126240057177e-02,-9.459780368214537605e-02,-9.630226861335518251e-02,-9.829081103310000067e-02,-9.999527596430982102e-02,-1.019838183840546253e-01,-1.039723608037994018e-01,-1.056768257350092222e-01,-1.076653681547540264e-01,-1.096539105744988168e-01,-1.113583755057086511e-01,-1.133469179254534553e-01,-1.153354603451982596e-01,-1.170399252764080800e-01,-1.190284676961528704e-01,-1.210170101158976608e-01,-1.227214750471074950e-01,-1.247100174668522854e-01,-1.266985598865970897e-01,-1.284030248178069100e-01,-1.303915672375517143e-01,-1.323801096572965186e-01,-1.340845745885063389e-01,-1.360731170082511432e-01,-1.380616594279959197e-01,-1.397661243592057678e-01,-1.417546667789505443e-01,-1.434591317101603924e-01,-1.454476741299051690e-01,-1.474362165496499733e-01,-1.491406814808597936e-01,-1.464064356537106981e-01,0.000000000000000000e+00,0.000000000000000000e+00
-5.908811761527398010e-02,-6.107666003501877744e-02,-6.278112496622859084e-02,-6.476966738597339512e-02,-6.675820980571819940e-02,-6.846267473692801975e-02,-7.045121715667281015e-02,-7.243975957641761443e-02,-7.414422450762743477e-02,-7.613276692737223905e-02,-7.812130934711704333e-02,-7.982577427832686368e-02,-8.181431669807166795e-02,-8.380285911781645836e-02,-8.550732404902627870e-02,-8.749586646877109686e-02,-8.948440888851587338e-02,-9.118887381972570760e-02,-9.317741623947051188e-02,-9.516595865921530228e-02,-9.687042359042513651e-02,-9.885896601016994079e-02,-1.005634309413797611e-01,-1.025519733611245654e-01,-1.045405157808693419e-01,-1.062449807120791762e-01,-1.082335231318239666e-01,-1.102220655515687708e-01,-1.119265304827785912e-01,-1.139150729025233955e-01,-1.159036153222681997e-01,-1.176080802534780201e-01,-1.195966226732228244e-01,-1.215851650929676148e-01,-1.232896300241774212e-01,-1.252781724439222255e-01,-1.272667148636670298e-01,-1.289711797948768501e-01,-1.309597222146216544e-01,-1.329482646343664309e-01,-1.346527295655762790e-01,-1.366412719853210833e-01,-1.386298144050658598e-01,-1.403342793362756802e-01,-1.067421163170153703e-01,0.000000000000000000e+00,0.000000000000000000e+00
-5.028171547068988056e-02,-5.198618040189970091e-02,-5.397472282164449825e-02,-5.596326524138929559e-02,-5.766773017259912287e-02,-5.965627259234392021e-02,-6.164481501208871755e-02,-6.334927994329854484e-02,-6.533782236304333524e-02,-6.732636478278813952e-02,-6.903082971399795986e-02,-7.101937213374276414e-02,-7.300791455348756842e-02,-7.471237948469738877e-02,-7.670092190444217917e-02,-7.868946432418698345e-02,-8.039392925539680379e-02,-8.238247167514160807e-02,-8.437101409488639847e-02,-8.607547902609623269e-02,-8.806402144584103697e-02,-8.976848637705085732e-02,-9.175702879679566160e-02,-9.374557121654045200e-02,-9.545003614775028622e-02,-3.425487339548007881e-01,-3.445372763745455647e-01,-3.462417413057553572e-01,-3.482302837255001893e-01,-3.502188261452449658e-01,-1.068131356891491163e-01,-1.088016781088939067e-01,-1.107902205286386971e-01,-1.124946854598485452e-01,-1.144832278795933356e-01,-1.164717702993381399e-01,-1.181762352305479602e-01,-1.201647776502927645e-01,-1.221533200700375549e-01,-1.238577850012473752e-01,-1.258463274209921656e-01,-1.278348698407369699e-01,-1.295393347719467902e-01,-1.315278771916915945e-01,-7.510298603143297780e-02,0.000000000000000000e+00,0.000000000000000000e+00
-4.119123583757080403e-02,-4.317977825731560138e-02,-4.516832067706039178e-02,-4.687278560827023294e-02,-4.886132802801502334e-02,-5.084987044775982068e-02,-5.255433537896964102e-02,-5.454287779871443836e-02,-5.653142021845923570e-02,-5.823588514966906299e-02,-6.022442756941386033e-02,-6.221296998915866461e-02,-6.391743492036848495e-02,-6.590597734011327535e-02,-6.789451975985807963e-02,-6.959898469106789998e-02,-7.158752711081270426e-02,-7.357606953055749466e-02,-7.528053446176732888e-02,-7.726907688151213316e-02,-7.925761930125692356e-02,-8.096208423246675778e-02,-8.295062665221156206e-02,-8.465509158342138241e-02,-8.664363400316617281e-02,-3.337423318102166192e-01,-3.354467967414264673e-01,-3.374353391611712993e-01,-3.394238815809160759e-01,-3.411283465121258685e-01,-9.800673354456503061e-02,-9.999527596430982102e-02,-1.016997408955196414e-01,-1.036882833152644318e-01,-1.056768257350092360e-01,-1.073812906662190564e-01,-1.093698330859638468e-01,-1.113583755057086511e-01,-1.130628404369184714e-01,-1.150513828566632757e-01,-1.170399252764080800e-01,-1.187443902076179003e-01,-1.207329326273627046e-01,-1.227214750471074950e-01,-4.277141686754658279e-02,0.000000000000000000e+00,0.000000000000000000e+00
-3.238483369298669756e-02,-3.437337611273149490e-02,-3.636191853247629224e-02,-3.806638346368611953e-02,-4.005492588343091687e-02,-4.175939081464074415e-02,-4.374793323438554149e-02,-4.573647565413033883e-02,-4.744094058534016611e-02,-4.942948300508497039e-02,-5.141802542482976079e-02,-5.312249035603958114e-02,-5.511103277578437848e-02,-5.709957519552917582e-02,-5.880404012673900310e-02,-6.079258254648380738e-02,-6.278112496622859084e-02,-6.448558989743842507e-02,-6.647413231718322935e-02,-6.846267473692801975e-02,-7.016713966813784009e-02,-7.215568208788264437e-02,-7.414422450762743477e-02,-7.584868943883726899e-02,-7.783723185858207327e-02,-3.249359296656325613e-01,-3.266403945968423539e-01,-3.286289370165871859e-01,-3.303334019477970340e-01,-3.323219443675418105e-01,-8.920033139998091720e-02,-9.090479633119073755e-02,-9.289333875093552795e-02,-9.488188117068033223e-02,-9.658634610189016645e-02,-9.857488852163497073e-02,-1.005634309413797473e-01,-1.022678958725895815e-01,-1.042564382923343858e-01,-1.062449807120791623e-01,-1.079494456432889826e-01,-1.099379880630338008e-01,-1.119265304827785912e-01,-1.136309954139884115e-01,-1.445244222921665198e-02,0.000000000000000000e+00,0.000000000000000000e+00
-2.357843154840259803e-02,-2.556697396814739190e-02,-2.727143889935721918e-02,-2.925998131910201652e-02,-3.124852373884681386e-02,-3.295298867005664462e-02,-3.494153108980143502e-02,-3.664599602101126924e-02,-3.863453844075605964e-02,-4.062308086050086392e-02,-4.232754579171069120e-02,-4.431608821145548160e-02,-4.630463063120027895e-02,-4.800909556241011317e-02,-4.999763798215491051e-02,-5.198618040189970091e-02,-5.369064533310952819e-02,-5.567918775285432553e-02,-5.766773017259912287e-02,-5.937219510380895016e-02,-6.136073752355374750e-02,-6.334927994329854484e-02,-6.505374487450836518e-02,-6.704228729425316946e-02,-6.903082971399795986e-02,-3.158454500325134640e-01,-3.178339924522582960e-01,-3.198225348720030725e-01,-3.215269998032128651e-01,-3.235155422229576971e-01,-8.010985176686183373e-02,-8.209839418660662413e-02,-8.408693660635142841e-02,-8.579140153756126264e-02,-8.777994395730606692e-02,-8.976848637705084344e-02,-9.147295130826069154e-02,-9.346149372800546806e-02,-9.545003614775027234e-02,-9.715450107896010656e-02,-9.914304349870491084e-02,-1.011315859184496874e-01,-1.028360508496595216e-01,-9.499728765039766598e-02,0.000000000000000000e+00,0.000000000000000000e+00,0.000000000000000000e+00
-1.477202940381849329e-02,-1.647649433502831884e-02,-1.846503675477311618e-02,-2.045357917451791352e-02,-2.215804410572774080e-02,-2.414658652547253814e-02,-2.613512894521733548e-02,-2.783959387642716277e-02,-2.982813629617196011e-02,-3.153260122738178739e-02,-3.352114364712658473e-02,-3.550968606687137513e-02,-3.721415099808120935e-02,-3.920269341782600669e-02,-4.119123583757080403e-02,-4.289570076878063132e-02,-4.488424318852542866e-02,-4.687278560827022600e-02,-4.857725053948004634e-02,-5.056579295922484368e-02,-5.255433537896964102e-02,-5.425880031017946831e-02,-5.624734272992426565e-02,-5.823588514966906299e-02,-5.994035008087889027e-02,-3.070390478879293505e-01,-3.090275903076741826e-01,-3.107320552388840307e-01,-3.127205976586288072e-01,-3.147091400783735837e-01,-7.130344962227773420e-02,-7.329199204202253848e-02,-7.499645697323235882e-02,-7.698499939297714922e-02,-7.897354181272195350e-02,-8.067800674393178773e-02,-8.266654916367657813e-02,-8.465509158342136853e-02,-8.635955651463120275e-02,-8.834809893437600703e-02,-9.033664135412079743e-02,-9.204110628533061778e-02,-9.402964870507540818e-02,-6.601250639831390821e-02,0.000000000000000000e+00,0.000000000000000000e+00,0.000000000000000000e+00
-5.681549770699420229e-03,-7.670092190444217570e-03,-9.658634610189014910e-03,-1.136309954139884046e-02,-1.335164196114363780e-02,-1.534018438088843514e-02,-1.704464931209826242e-02,-1.903319173184305976e-02,-2.102173415158785710e-02,-2.272619908279768092e-02,-2.471474150254247826e-02,-2.641920643375230554e-02,-2.840774885349710635e-02,-3.039629127324190022e-02,-3.210075620445172750e-02,-3.408929862419652485e-02,-3.607784104394132219e-02,-3.778230597515114253e-02,-3.977084839489594681e-02,-4.175939081464074415e-02,-4.346385574585057143e-02,-4.545239816559536877e-02,-4.744094058534016611e-02,-4.914540551654999340e-02,-5.113394793629479074e-02,-5.312249035603958808e-02,-5.482695528724940842e-02,-5.681549770699420576e-02,-5.880404012673901004e-02,-6.050850505794883039e-02,-6.249704747769363467e-02,-6.448558989743842507e-02,-6.619005482864824541e-02,-6.817859724839304969e-02,-6.988306217960288391e-02,-7.187160459934766044e-02,-7.386014701909247859e-02,-7.556461195030229894e-02,-7.755315437004710322e-02,-7.954169678979189362e-02,-8.124616172100171396e-02,-8.323470414074653212e-02,-8.522324656049132252e-02,-4.346385574585057143e-02,0.000000000000000000e+00,0.000000000000000000e+00,0.000000000000000000e+00
0.000000000000000000e+00,0.000000000000000000e+00,-5.681549770699420663e-04,-2.556697396814739190e-03,-4.545239816559536530e-03,-6.249704747769362946e-03,-8.238247167514159419e-03,-1.022678958725895676e-02,-1.193125451846878404e-02,-1.391979693821358138e-02,-1.590833935795837872e-02,-1.761280428916820254e-02,-1.960134670891300335e-02,-2.130581164012282716e-02,-2.329435405986762450e-02,-2.528289647961242184e-02,-2.698736141082224566e-02,-2.897590383056704647e-02,-3.096444625031184381e-02,-3.266891118152166762e-02,-3.465745360126646496e-02,-3.664599602101125536e-02,-3.835046095222108958e-02,-4.033900337196588692e-02,-4.232754579171069120e-02,-4.403201072292051155e-02,-4.602055314266531583e-02,-4.800909556241011317e-02,-4.971356049361992657e-02,-5.170210291336472391e-02,-5.369064533310952125e-02,-5.539511026431935548e-02,-5.738365268406414588e-02,-5.937219510380894322e-02,-6.107666003501878438e-02,-6.306520245476357478e-02,-6.476966738597339512e-02,-6.675820980571818553e-02,-6.874675222546298980e-02,-7.045121715667282403e-02,-7.243975957641761443e-02,-7.442830199616240483e-02,-7.613276692737223905e-02,-2.197161825387666800e-02,0.000000000000000000e+00,0.000000000000000000e+00,0.000000000000000000e+00
0.000000000000000000e+00,0.000000000000000000e+00,0.000000000000000000e+00,0.000000000000000000e+00,0.000000000000000000e+00,0.000000000000000000e+00,0.000000000000000000e+00,-1.136309954139884133e-03,-3.124852373884681473e-03,-5.113394793629478380e-03,-6.817859724839305663e-03,-8.806402144584103003e-03,-1.079494456432890034e-02,-1.249940949553872416e-02,-1.448795191528352150e-02,-1.619241684649334878e-02,-1.818095926623814612e-02,-2.016950168598294346e-02,-2.187396661719277074e-02,-2.386250903693756809e-02,-2.585105145668236543e-02,-2.755551638789218924e-02,-2.954405880763698311e-02,-3.153260122738178739e-02,-3.323706615859160773e-02,-3.522560857833641201e-02,-3.721415099808120241e-02,-3.891861592929103664e-02,-4.090715834903582704e-02,-4.289570076878063132e-02,-4.460016569999045166e-02,-4.658870811973525594e-02,-4.857725053948004634e-02,-5.028171547068988056e-02,-5.227025789043467097e-02,-5.425880031017946831e-02,-5.596326524138929559e-02,-5.795180766113409293e-02,-5.965627259234391327e-02,-6.164481501208871755e-02,-6.363335743183351489e-02,-6.533782236304334912e-02,-6.732636478278813952e-02,-4.332181700158308120e-03,0.000000000000000000e+00,0.000000000000000000e+00,0.000000000000000000e+00
0.000000000000000000e+00,0.000000000000000000e+00,0.000000000000000000e+00,0.000000000000000000e+00,0.000000000000000000e+00,0.000000000000000000e+00,0.000000000000000000e+00,0.000000000000000000e+00,0.000000000000000000e+00,0.000000000000000000e+00,0.000000000000000000e+00,0.000000000000000000e+00,-1.704464931209826199e-03,-3.693007350954623756e-03,-5.681549770699421097e-03,-7.386014701909246645e-03,-9.374557121654044853e-03,-1.107902205286387040e-02,-1.306756447260866774e-02,-1.505610689235346508e-02,-1.676057182356329237e-02,-1.874911424330808971e-02,-2.073765666305288358e-02,-2.244212159426271433e-02,-2.443066401400750820e-02,-2.641920643375230554e-02,-2.812367136496213282e-02,-3.011221378470693016e-02,-3.210075620445172750e-02,-3.380522113566155479e-02,-3.579376355540635213e-02,-3.778230597515114947e-02,-3.948677090636097675e-02,-4.147531332610577409e-02,-4.346385574585057143e-02,-4.516832067706039178e-02,-4.715686309680519606e-02,-4.914540551654999340e-02,-5.084987044775982068e-02,-5.283841286750461108e-02,-5.454287779871443836e-02,-5.653142021845923570e-02,-4.937621847598465397e-02,0.000000000000000000e+00,0.000000000000000000e+00,0.000000000000000000e+00,0.000000000000000000e+00
0.000000000000000000e+00,0.000000000000000000e+00,0.000000000000000000e+00,0.000000000000000000e+00,0.000000000000000000e+00,0.000000000000000000e+00,0.000000000000000000e+00,0.000000000000000000e+00,0.000000000000000000e+00,0.000000000000000000e+00,0.000000000000000000e+00,0.000000000000000000e+00,0.000000000000000000e+00,0.000000000000000000e+00,0.000000000000000000e+00,0.000000000000000000e+00,-5.681549770699420663e-04,-2.272619908279768265e-03,-4.261162328024565606e-03,-5.965627259234392021e-03,-7.954169678979189362e-03,-9.942712098723986702e-03,-1.164717702993381225e-02,-1.363571944967860959e-02,-1.562426186942340520e-02,-1.732872680063323248e-02,-1.931726922037802982e-02,-2.130581164012283063e-02,-2.301027657133265444e-02,-2.499881899107745178e-02,-2.698736141082225259e-02,-2.869182634203207294e-02,-3.068036876177687028e-02,-3.266891118152166762e-02,-3.437337611273149490e-02,-3.636191853247629224e-02,-3.835046095222109652e-02,-4.005492588343091687e-02,-4.204346830317572115e-02,-4.403201072292051155e-02,-4.573647565413033189e-02,-4.772501807387513617e-02,-3.089342687817810129e-02,0.000000000000000000e+00,0.000000000000000000e+00,0.000000000000000000e+00,0.000000000000000000e+00
