-1.223538372611662345e-01,-1.223538372611662345e-01,-1.223538372611662345e-01,-1.223538372611662345e-01,-1.223538372611662345e-01,-1.223538372611662345e-01,-1.223538372611662345e-01,-1.223538372611662345e-01,-1.223538372611662345e-01,-1.223538372611662345e-01,-1.223538372611662345e-01,-1.223538372611662345e-01,-1.223538372611662345e-01,-1.223538372611662345e-01,-1.223538372611662345e-01,-6.882403345940601991e-02,-9.558893536028623128e-03,-1.387778780781445676e-17,-1.387778780781445676e-17,-1.387778780781445676e-17,-1.387778780781445676e-17,-1.387778780781445676e-17,-1.387778780781445676e-17,-3.676497513857179822e-03,-8.382414331594326140e-03,-1.991742528132116330e-02,-3.727968479051159412e-02,-5.672835663881596602e-02,-7.172846649535316588e-02,-8.832785277041824146e-02,-1.008463268051018602e-01,-1.147297005418049520e-01,-1.223538372611662345e-01,-1.223538372611662345e-01,-1.223538372611662345e-01,-1.223538372611662345e-01,-1.223538372611662345e-01,-1.223538372611662345e-01,-1.223538372611662345e-01,-1.223538372611662345e-01,-1.223538372611662345e-01,-1.223538372611662345e-01,-1.223538372611662345e-01,-1.223538372611662345e-01,-1.223538372611662345e-01,-1.223538372611662345e-01,-1.223538372611662345e-01
-1.223538372611662345e-01,-1.223538372611662345e-01,-1.223538372611662345e-01,-1.223538372611662345e-01,-1.223538372611662345e-01,-1.223538372611662345e-01,-1.223538372611662345e-01,-1.223538372611662345e-01,-1.223538372611662345e-01,-1.223538372611662345e-01,-1.223538372611662345e-01,-1.223538372611662345e-01,-1.223538372611662345e-01,-1.223538372611662345e-01,-1.223538372611662345e-01,-6.117691863058312418e-02,-1.387778780781445676e-17,-1.387778780781445676e-17,-1.387778780781445676e-17,-1.387778780781445676e-17,-1.387778780781445676e-17,0.000000000000000000e+00,-1.387778780781445676e-17,-4.411797016628596357e-03,-8.970653933811467695e-03,-1.367657075154864177e-02,-1.838248756928580196e-02,-2.294134448646868718e-02,-2.764726130420584738e-02,-3.235317812194300757e-02,-3.691203503912589279e-02,-4.161795185686305298e-02,-4.869980519293040655e-02,-6.440304519899277269e-02,-7.645276580065961392e-02,-8.938484580565217441e-02,-9.905403426709649684e-02,-1.091552111864190350e-01,-1.163427638260097763e-01,-1.223538372611662345e-01,-1.223538372611662345e-01,-1.223538372611662345e-01,-1.223538372611662345e-01,-1.223538372611662345e-01,-1.223538372611662345e-01,-1.223538372611662345e-01,-1.223538372611662345e-01
-1.223538372611662345e-01,-1.223538372611662345e-01,-1.223538372611662345e-01,-1.223538372611662345e-01,-1.223538372611662345e-01,-1.223538372611662345e-01,-1.223538372611662345e-01,-1.223538372611662345e-01,-1.223538372611662345e-01,-1.223538372611662345e-01,-1.223538372611662345e-01,-1.223538372611662345e-01,-1.223538372611662345e-01,-1.223538372611662345e-01,-1.127949437251376252e-01,-5.161802509455451493e-02,-2.775557561562891351e-17,-1.387778780781445676e-17,-1.387778780781445676e-17,-1.387778780781445676e-17,-2.775557561562891351e-17,-1.387778780781445676e-17,-2.941198011085777164e-04,-5.000036618845724035e-03,-9.705953436582898108e-03,-1.426481035376578332e-02,-1.897072717150294352e-02,-2.367664398924011759e-02,-2.838256080697726391e-02,-3.294141772416014913e-02,-3.764733454189732320e-02,-4.235325135963448340e-02,-4.691210827681735474e-02,-5.161802509455450105e-02,-5.632394191229167513e-02,-6.088279882947456034e-02,-6.558871564721170666e-02,-7.029463246494888073e-02,-7.485348938213175207e-02,-8.089673217053446053e-02,-9.021665336816235559e-02,-9.930219784928184801e-02,-1.061404832250561758e-01,-1.125559713867369110e-01,-1.168942384530883560e-01,-1.204972060166683706e-01,-1.223538372611662345e-01
-1.223538372611662345e-01,-1.223538372611662345e-01,-1.223538372611662345e-01,-1.223538372611662345e-01,-1.223538372611662345e-01,-1.223538372611662345e-01,-1.223538372611662345e-01,-1.223538372611662345e-01,-1.223538372611662345e-01,-1.223538372611662345e-01,-1.223538372611662345e-01,-1.223538372611662345e-01,-1.223538372611662345e-01,-1.223538372611662345e-01,-1.051478288963147434e-01,-4.397091026573161920e-02,-2.775557561562891351e-17,-1.387778780781445676e-17,-1.387778780781445676e-17,-1.387778780781445676e-17,-1.387778780781445676e-17,-1.387778780781445676e-17,-1.029419303880022007e-03,-5.735336121617182203e-03,-1.029419303880005354e-02,-1.500010985653722762e-02,-1.970602667427437393e-02,-2.426488359145724527e-02,-2.897080040919441934e-02,-3.367671722693157954e-02,-3.823557414411446476e-02,-4.294149096185163883e-02,-4.764740777958877127e-02,-5.220626469677164261e-02,-5.691218151450881668e-02,-6.161809833224598382e-02,-6.632401514998313707e-02,-7.088287206716602229e-02,-7.558878888490319636e-02,-8.029470570264035656e-02,-8.485356261982321402e-02,-8.955947943756038809e-02,-9.426539625529754829e-02,-9.882425317248041963e-02,-1.035301699902175798e-01,-1.082360868079547400e-01,-1.130936591481385145e-01
-1.223538372611662345e-01,-1.223538372611662345e-01,-1.223538372611662345e-01,-1.223538372611662345e-01,-1.223538372611662345e-01,-1.223538372611662345e-01,-1.223538372611662345e-01,-1.223538372611662345e-01,-1.223538372611662345e-01,-1.223538372611662345e-01,-1.223538372611662345e-01,-1.223538372611662345e-01,-1.223538372611662345e-01,-1.223538372611662345e-01,-9.558893536028612026e-02,-3.441201672970302383e-02,-1.387778780781445676e-17,-1.387778780781445676e-17,-1.387778780781445676e-17,-1.387778780781445676e-17,-1.387778780781445676e-17,-1.387778780781445676e-17,-1.617658906097163563e-03,-6.323575723834337636e-03,-1.102949254157149783e-02,-1.558834945875436917e-02,-2.029426627649151549e-02,-2.500018309422868956e-02,-2.970609991196583588e-02,-3.426495682914872110e-02,-3.897087364688589517e-02,-4.367679046462305537e-02,-4.823564738180594058e-02,-5.294156419954307302e-02,-5.764748101728026097e-02,-6.220633793446313231e-02,-6.691225475220029251e-02,-7.161817156993743883e-02,-7.617702848712032404e-02,-8.088294530485748424e-02,-8.558886212259465831e-02,-9.014771903977752965e-02,-9.485363585751468984e-02,-9.955955267525185004e-02,-1.041184095924347353e-01,-1.088243264101718955e-01,-1.135302432279090556e-01
-1.223538372611662345e-01,-1.223538372611662345e-01,-1.223538372611662345e-01,-1.223538372611662345e-01,-1.223538372611662345e-01,-1.223538372611662345e-01,-1.223538372611662345e-01,-1.223538372611662345e-01,-1.223538372611662345e-01,-1.223538372611662345e-01,-1.223538372611662345e-01,-1.223538372611662345e-01,-1.223538372611662345e-01,-1.223538372611662345e-01,-8.794182053146323841e-02,-2.676490190088012810e-02,-1.387778780781445676e-17,-1.387778780781445676e-17,0.000000000000000000e+00,-1.387778780781445676e-17,-1.387778780781445676e-17,-1.387778780781445676e-17,-2.352958408868593976e-03,-7.058875226605754172e-03,-1.161773214378862551e-02,-1.632364896152578571e-02,-2.102956577926295978e-02,-2.558842269644583112e-02,-3.029433951418299131e-02,-3.500025633192016539e-02,-3.955911324910303672e-02,-4.426503006684021080e-02,-4.897094688457737099e-02,-5.352980380176024233e-02,-5.823572061949740253e-02,-6.294163743723456272e-02,-6.750049435441743406e-02,-7.220641117215459426e-02,-7.691232798989175445e-02,-8.161824480762892853e-02,-8.617710172481179987e-02,-9.088301854254896006e-02,-9.558893536028612026e-02,-1.001477922774690055e-01,-1.048537090952061657e-01,-1.095596259129433259e-01,-1.141184828301261972e-01
-1.223538372611662345e-01,-1.223538372611662345e-01,-1.223538372611662345e-01,-1.223538372611662345e-01,-1.223538372611662345e-01,-1.223538372611662345e-01,-1.223538372611662345e-01,-1.223538372611662345e-01,-1.223538372611662345e-01,-1.223538372611662345e-01,-1.223538372611662345e-01,-1.223538372611662345e-01,-1.223538372611662345e-01,-1.223538372611662345e-01,-7.838292699543462916e-02,-1.720600836485151885e-02,-1.387778780781445676e-17,-1.387778780781445676e-17,-1.387778780781445676e-17,-1.387778780781445676e-17,-1.387778780781445676e-17,-1.387778780781445676e-17,-2.941198011085735531e-03,-7.647114828822895727e-03,-1.235303164656005592e-02,-1.691188856374294114e-02,-2.161780538148010133e-02,-2.632372219921726153e-02,-3.088257911640013287e-02,-3.558849593413730694e-02,-4.029441275187448102e-02,-4.500032956961162733e-02,-4.955918648679448479e-02,-5.426510330453167275e-02,-5.897102012226883294e-02,-6.352987703945170428e-02,-6.823579385718886448e-02,-7.294171067492602467e-02,-7.750056759210890989e-02,-8.220648440984607008e-02,-8.691240122758323028e-02,-9.147125814476610162e-02,-9.617717496250327569e-02,-1.008830917802404359e-01,-1.054419486974233072e-01,-1.101478655151604674e-01,-1.148537823328976276e-01
-1.223538372611662345e-01,-1.223538372611662345e-01,-1.223538372611662345e-01,-1.223538372611662345e-01,-1.223538372611662345e-01,-1.223538372611662345e-01,-1.223538372611662345e-01,-1.223538372611662345e-01,-1.223538372611662345e-01,-1.223538372611662345e-01,-1.223538372611662345e-01,-1.223538372611662345e-01,-1.223538372611662345e-01,-1.223538372611662345e-01,-7.073581216661173343e-02,-9.558893536028623128e-03,-1.387778780781445676e-17,-1.387778780781445676e-17,-1.387778780781445676e-17,-1.387778780781445676e-17,-1.387778780781445676e-17,-1.387778780781445676e-17,-3.676497513857165944e-03,-8.235354431040051160e-03,-1.294127124877721136e-02,-1.764718806651437155e-02,-2.235310488425153175e-02,-2.691196180143441696e-02,-3.161787861917157716e-02,-3.632379543690873736e-02,-4.088265235409162257e-02,-4.558856917182878277e-02,-5.029448598956592908e-02,-5.485334290674881430e-02,-5.955925972448597450e-02,-6.426517654222313469e-02,-6.882403345940600603e-02,-7.352995027714318010e-02,-7.823586709488034030e-02,-8.279472401206322552e-02,-8.750064082980037183e-02,-9.220655764753753203e-02,-9.691247446527470610e-02,-1.014713313824575774e-01,-1.061772482001947376e-01,-1.108831650179318978e-01,-1.154420219351147830e-01
-1.223538372611662345e-01,-1.223538372611662345e-01,-1.223538372611662345e-01,-1.223538372611662345e-01,-1.223538372611662345e-01,-1.223538372611662345e-01,-1.223538372611662345e-01,-1.223538372611662345e-01,-1.223538372611662345e-01,-1.223538372611662345e-01,-1.223538372611662345e-01,-1.223538372611662345e-01,-1.223538372611662345e-01,-1.223538372611662345e-01,-6.117691863058312418e-02,-1.911778707205727401e-03,-1.387778780781445676e-17,-1.387778780781445676e-17,-1.387778780781445676e-17,-1.387778780781445676e-17,-1.387778780781445676e-17,-1.387778780781445676e-17,-4.264737116074321377e-03,-8.970653933811467695e-03,-1.367657075154862789e-02,-1.823542766873151311e-02,-2.294134448646868718e-02,-2.764726130420584738e-02,-3.220611822138870484e-02,-3.691203503912589279e-02,-4.161795185686305298e-02,-4.617680877404592432e-02,-5.088272559178308452e-02,-5.558864240952024471e-02,-6.014749932670312299e-02,-6.485341614444029013e-02,-6.955933296217743644e-02,-7.426524977991461052e-02,-7.882410669709749573e-02,-8.353002351483465593e-02,-8.823594033257181612e-02,-9.279479724975468746e-02,-9.750071406749184766e-02,-1.022066308852290079e-01,-1.067654878024118792e-01,-1.114714046201490394e-01,-1.161773214378862135e-01
-1.223538372611662345e-01,-1.223538372611662345e-01,-1.223538372611662345e-01,-1.223538372611662345e-01,-1.223538372611662345e-01,-1.223538372611662345e-01,-1.223538372611662345e-01,-1.223538372611662345e-01,-1.223538372611662345e-01,-1.223538372611662345e-01,-1.223538372611662345e-01,-1.223538372611662345e-01,-1.223538372611662345e-01,-1.127949437251376252e-01,-5.352980380176024233e-02,-1.387778780781445676e-17,-1.387778780781445676e-17,0.000000000000000000e+00,-1.387778780781445676e-17,-1.387778780781445676e-17,-1.387778780781445676e-17,-2.941198011086054720e-04,-5.000036618845751790e-03,-9.558893536028623128e-03,-1.426481035376578332e-02,-1.897072717150294352e-02,-2.352958408868581486e-02,-2.823550090642298893e-02,-3.294141772416014913e-02,-3.764733454189732320e-02,-4.220619145908020842e-02,-4.691210827681736861e-02,-5.161802509455450105e-02,-5.617688201173738627e-02,-6.088279882947455340e-02,-6.558871564721170666e-02,-7.014757256439457800e-02,-7.485348938213175207e-02,-7.955940619986892615e-02,-8.411826311705179748e-02,-8.882417993478895768e-02,-9.353009675252611788e-02,-9.808895366970898921e-02,-1.027948704874461494e-01,-1.075007873051833096e-01,-1.122067041229204837e-01,-1.167655610401033550e-01
-1.223538372611662345e-01,-1.223538372611662345e-01,-1.223538372611662345e-01,-1.223538372611662345e-01,-1.223538372611662345e-01,-1.223538372611662345e-01,-1.223538372611662345e-01,-1.223538372611662345e-01,-1.223538372611662345e-01,-1.223538372611662345e-01,-1.223538372611662345e-01,-1.223538372611662345e-01,-1.223538372611662345e-01,-1.051478288963147434e-01,-4.397091026573161920e-02,-1.387778780781445676e-17,-1.387778780781445676e-17,-1.387778780781445676e-17,-1.387778780781445676e-17,-1.387778780781445676e-17,-1.387778780781445676e-17,-1.029419303880022007e-03,-5.588276221062893345e-03,-1.029419303880005354e-02,-1.500010985653721374e-02,-1.955896677372008508e-02,-2.426488359145725915e-02,-2.897080040919443322e-02,-3.352965732637729068e-02,-3.823557414411447863e-02,-4.294149096185163883e-02,-4.750034787903449629e-02,-5.220626469677165649e-02,-5.691218151450881668e-02,-6.147103843169170190e-02,-6.617695524942886209e-02,-7.088287206716602229e-02,-7.544172898434889363e-02,-8.014764580208606770e-02,-8.485356261982322790e-02,-8.955947943756038809e-02,-9.411833635474325943e-02,-9.882425317248041963e-02,-1.035301699902175798e-01,-1.080890269074004650e-01,-1.127949437251376252e-01,-1.175008605428747854e-01
-1.223538372611662345e-01,-1.223538372611662345e-01,-1.223538372611662345e-01,-1.223538372611662345e-01,-1.223538372611662345e-01,-1.223538372611662345e-01,-1.223538372611662345e-01,-1.223538372611662345e-01,-1.223538372611662345e-01,-1.223538372611662345e-01,-1.223538372611662345e-01,-1.223538372611662345e-01,-1.223538372611662345e-01,-9.750071406749184766e-02,-3.632379543690873736e-02,-1.387778780781445676e-17,-1.387778780781445676e-17,-1.387778780781445676e-17,-1.387778780781445676e-17,0.000000000000000000e+00,-1.387778780781445676e-17,-1.617658906097163563e-03,-6.323575723834323759e-03,-1.088243264101719510e-02,-1.558834945875435529e-02,-2.029426627649151549e-02,-2.485312319367440070e-02,-2.955904001141156090e-02,-3.426495682914872110e-02,-3.882381374633160631e-02,-4.352973056406876651e-02,-4.823564738180592670e-02,-5.294156419954308690e-02,-5.750042111672597211e-02,-6.220633793446313925e-02,-6.691225475220029251e-02,-7.147111166938316384e-02,-7.617702848712032404e-02,-8.088294530485749811e-02,-8.544180222204036945e-02,-9.014771903977752965e-02,-9.485363585751468984e-02,-9.941249277469757506e-02,-1.041184095924347353e-01,-1.088243264101718955e-01,-1.133831833273547668e-01,-1.180891001450919270e-01
-1.223538372611662345e-01,-1.223538372611662345e-01,-1.223538372611662345e-01,-1.223538372611662345e-01,-1.223538372611662345e-01,-1.223538372611662345e-01,-1.223538372611662345e-01,-1.223538372611662345e-01,-1.223538372611662345e-01,-1.223538372611662345e-01,-1.223538372611662345e-01,-1.223538372611662345e-01,-1.223538372611662345e-01,-8.794182053146323841e-02,-2.676490190088012810e-02,-1.387778780781445676e-17,-1.387778780781445676e-17,-1.387778780781445676e-17,-1.387778780781445676e-17,-1.387778780781445676e-17,-1.387778780781445676e-17,-2.205898508314291240e-03,-6.911815326051465314e-03,-1.161773214378862551e-02,-1.632364896152579958e-02,-2.088250587870867092e-02,-2.558842269644583112e-02,-3.029433951418299131e-02,-3.485319643136587653e-02,-3.955911324910305060e-02,-4.426503006684021080e-02,-4.882388698402308214e-02,-5.352980380176022845e-02,-5.823572061949740253e-02,-6.279457753668027387e-02,-6.750049435441743406e-02,-7.220641117215459426e-02,-7.676526808933747947e-02,-8.147118490707463967e-02,-8.617710172481179987e-02,-9.073595864199468508e-02,-9.544187545973184528e-02,-1.001477922774690055e-01,-1.048537090952061657e-01,-1.094125660123890370e-01,-1.141184828301261972e-01,-1.188243996478633574e-01
-1.223538372611662345e-01,-1.223538372611662345e-01,-1.223538372611662345e-01,-1.223538372611662345e-01,-1.223538372611662345e-01,-1.223538372611662345e-01,-1.223538372611662345e-01,-1.223538372611662345e-01,-1.223538372611662345e-01,-1.223538372611662345e-01,-1.223538372611662345e-01,-1.223538372611662345e-01,-1.223538372611662345e-01,-8.029470570264034268e-02,-1.911778707205723238e-02,-1.387778780781445676e-17,-1.387778780781445676e-17,0.000000000000000000e+00,-2.775557561562891351e-17,-1.387778780781445676e-17,-1.387778780781445676e-17,-2.941198011085735531e-03,-7.647114828822895727e-03,-1.220597174600578094e-02,-1.691188856374294114e-02,-2.161780538148010133e-02,-2.617666229866297267e-02,-3.088257911640013287e-02,-3.558849593413730694e-02,-4.014735285132019216e-02,-4.485326966905735235e-02,-4.955918648679449867e-02,-5.411804340397737001e-02,-5.882396022171454408e-02,-6.352987703945170428e-02,-6.823579385718886448e-02,-7.279465077437174969e-02,-7.750056759210890989e-02,-8.220648440984607008e-02,-8.676534132702895530e-02,-9.147125814476611549e-02,-9.617717496250327569e-02,-1.007360318796861470e-01,-1.054419486974233072e-01,-1.101478655151604674e-01,-1.147067224323433526e-01,-1.194126392500805128e-01
-1.223538372611662345e-01,-1.223538372611662345e-01,-1.223538372611662345e-01,-1.223538372611662345e-01,-1.223538372611662345e-01,-1.223538372611662345e-01,-1.223538372611662345e-01,-1.223538372611662345e-01,-1.223538372611662345e-01,-1.223538372611662345e-01,-1.223538372611662345e-01,-1.223538372611662345e-01,-1.223538372611662345e-01,-7.073581216661173343e-02,-9.558893536028623128e-03,-1.387778780781445676e-17,-1.387778780781445676e-17,-1.387778780781445676e-17,-1.387778780781445676e-17,-1.387778780781445676e-17,-1.387778780781445676e-17,-3.529437613302890964e-03,-8.235354431040051160e-03,-1.294127124877719748e-02,-1.750012816596008269e-02,-2.220604498369725677e-02,-2.691196180143441696e-02,-1.500334182663768390e-01,-1.545922751835597242e-01,-1.592981920012968844e-01,-4.558856917182878277e-02,-5.014742608901164023e-02,-5.485334290674881430e-02,-5.955925972448598837e-02,-6.411811664166884583e-02,-6.882403345940601991e-02,-7.352995027714318010e-02,-7.808880719432605144e-02,-8.279472401206322552e-02,-8.750064082980038571e-02,-9.205949774698325705e-02,-9.676541456472040337e-02,-1.014713313824575774e-01,-1.060301882996404488e-01,-1.107361051173776090e-01,-1.154420219351147830e-01,-1.201479387528519432e-01
-1.223538372611662345e-01,-1.223538372611662345e-01,-1.223538372611662345e-01,-1.223538372611662345e-01,-1.223538372611662345e-01,-1.223538372611662345e-01,-1.223538372611662345e-01,-1.223538372611662345e-01,-1.223538372611662345e-01,-1.223538372611662345e-01,-1.223538372611662345e-01,-1.223538372611662345e-01,-1.223538372611662345e-01,-6.308869733778885158e-02,-1.911778707205727401e-03,-1.387778780781445676e-17,-1.387778780781445676e-17,-1.387778780781445676e-17,-2.775557561562891351e-17,-1.387778780781445676e-17,-1.387778780781445676e-17,-4.264737116074321377e-03,-8.970653933811481573e-03,-1.352951085099435291e-02,-1.823542766873149923e-02,-2.294134448646868718e-02,-2.750020140365154464e-02,-1.506216578685939944e-01,-1.553275746863311546e-01,-1.598864316035140398e-01,-4.617680877404592432e-02,-5.088272559178308452e-02,-5.544158250896595586e-02,-6.014749932670312993e-02,-6.485341614444027625e-02,-6.941227306162314759e-02,-7.411818987936032166e-02,-7.882410669709748186e-02,-8.353002351483465593e-02,-8.808888043201752727e-02,-9.279479724975467358e-02,-9.750071406749184766e-02,-1.020595709846747190e-01,-1.067654878024118792e-01,-1.114714046201490394e-01,-1.160302615373319246e-01,-1.207361783550690848e-01
-1.223538372611662345e-01,-1.223538372611662345e-01,-1.223538372611662345e-01,-1.223538372611662345e-01,-1.223538372611662345e-01,-1.223538372611662345e-01,-1.223538372611662345e-01,-1.223538372611662345e-01,-1.223538372611662345e-01,-1.223538372611662345e-01,-1.223538372611662345e-01,-1.223538372611662345e-01,-1.147067224323433388e-01,-5.352980380176022845e-02,-1.387778780781445676e-17,-1.387778780781445676e-17,0.000000000000000000e+00,-1.387778780781445676e-17,-1.387778780781445676e-17,-1.387778780781445676e-17,-2.941198011085915942e-04,-4.852976718291462932e-03,-9.558893536028623128e-03,-1.426481035376578332e-02,-1.882366727094865466e-02,-2.352958408868582874e-02,-2.823550090642298893e-02,-1.512098974708111221e-01,-1.559158142885482823e-01,-1.606217311062854702e-01,-4.691210827681735474e-02,-5.147096519400021220e-02,-5.617688201173738627e-02,-6.088279882947456034e-02,-6.544165574665741780e-02,-7.014757256439457800e-02,-7.485348938213175207e-02,-7.941234629931462341e-02,-8.411826311705179748e-02,-8.882417993478895768e-02,-9.338303685197182902e-02,-9.808895366970898921e-02,-1.027948704874461494e-01,-1.073537274046290346e-01,-1.120596442223661948e-01,-1.167655610401033550e-01,-1.213244179572862264e-01
-1.223538372611662345e-01,-1.223538372611662345e-01,-1.223538372611662345e-01,-1.223538372611662345e-01,-1.223538372611662345e-01,-1.223538372611662345e-01,-1.223538372611662345e-01,-1.223538372611662345e-01,-1.223538372611662345e-01,-1.223538372611662345e-01,-1.223538372611662345e-01,-1.223538372611662345e-01,-1.051478288963147295e-01,-4.588268897293734661e-02,-1.387778780781445676e-17,-1.387778780781445676e-17,-1.387778780781445676e-17,-2.775557561562891351e-17,-1.387778780781445676e-17,-1.387778780781445676e-17,-8.823594033257470270e-04,-5.588276221062879467e-03,-1.029419303880003966e-02,-1.485304995598292488e-02,-1.955896677372008508e-02,-2.426488359145725915e-02,-2.882374050864013049e-02,-3.352965732637730456e-02,-3.823557414411446476e-02,-4.279443106129733609e-02,-4.750034787903449629e-02,-5.220626469677165649e-02,-5.676512161395452782e-02,-6.147103843169170190e-02,-6.617695524942884822e-02,-7.073581216661173343e-02,-7.544172898434889363e-02,-8.014764580208605382e-02,-8.470650271926893904e-02,-8.941241953700609923e-02,-9.411833635474325943e-02,-9.882425317248041963e-02,-1.033831100896633048e-01,-1.080890269074004650e-01,-1.127949437251376252e-01,-1.173538006423204966e-01,-1.220597174600576568e-01
-1.223538372611662345e-01,-1.223538372611662345e-01,-1.223538372611662345e-01,-1.223538372611662345e-01,-1.223538372611662345e-01,-1.223538372611662345e-01,-1.223538372611662345e-01,-1.223538372611662345e-01,-1.223538372611662345e-01,-1.223538372611662345e-01,-1.223538372611662345e-01,-1.223538372611662345e-01,-9.750071406749184766e-02,-3.632379543690873736e-02,-1.387778780781445676e-17,-1.387778780781445676e-17,-1.387778780781445676e-17,-1.387778780781445676e-17,-1.387778780781445676e-17,-1.387778780781445676e-17,-1.617658906097177440e-03,-6.176515823280034900e-03,-1.088243264101719510e-02,-1.558834945875435529e-02,-2.014720637593724051e-02,-2.485312319367440070e-02,-2.955904001141157478e-02,-3.411789692859443224e-02,-3.882381374633160631e-02,-4.352973056406876651e-02,-4.808858748125165172e-02,-5.279450429898879804e-02,-5.750042111672597211e-02,-6.220633793446313231e-02,-6.676519485164600365e-02,-7.147111166938316384e-02,-7.617702848712032404e-02,-8.073588540430320926e-02,-8.544180222204036945e-02,-9.014771903977752965e-02,-9.470657595696040099e-02,-9.941249277469757506e-02,-1.041184095924347353e-01,-1.086772665096176066e-01,-1.133831833273547668e-01,-1.180891001450919270e-01,-1.223538372611662345e-01
-1.223538372611662345e-01,-1.223538372611662345e-01,-1.223538372611662345e-01,-1.223538372611662345e-01,-1.223538372611662345e-01,-1.223538372611662345e-01,-1.223538372611662345e-01,-1.223538372611662345e-01,-1.223538372611662345e-01,-1.223538372611662345e-01,-1.223538372611662345e-01,-1.223538372611662345e-01,-8.794182053146323841e-02,-2.867668060808584163e-02,0.000000000000000000e+00,-1.387778780781445676e-17,-1.387778780781445676e-17,-1.387778780781445676e-17,-1.387778780781445676e-17,-2.775557561562891351e-17,-2.205898508314291240e-03,-6.911815326051465314e-03,-1.147067224323435053e-02,-1.617658906097151073e-02,-2.088250587870865704e-02,-2.558842269644584499e-02,-3.014727961362871633e-02,-3.485319643136587653e-02,-3.955911324910303672e-02,-4.411797016628592194e-02,-4.882388698402306826e-02,-5.352980380176022845e-02,-5.808866071894311367e-02,-6.279457753668027387e-02,-6.750049435441743406e-02,-7.205935127160031928e-02,-7.676526808933747947e-02,-8.147118490707463967e-02,-8.603004182425751101e-02,-9.073595864199468508e-02,-9.544187545973184528e-02,-1.000007323769147166e-01,-1.047066491946518768e-01,-1.094125660123890370e-01,-1.141184828301261972e-01,-1.186773397473090824e-01,-1.223538372611662345e-01
-1.223538372611662345e-01,-1.223538372611662345e-01,-1.223538372611662345e-01,-1.223538372611662345e-01,-1.223538372611662345e-01,-1.223538372611662345e-01,-1.223538372611662345e-01,-1.223538372611662345e-01,-1.223538372611662345e-01,-1.223538372611662345e-01,-1.223538372611662345e-01,-1.223538372611662345e-01,-8.029470570264034268e-02,-1.911778707205723238e-02,-1.387778780781445676e-17,-1.387778780781445676e-17,-1.387778780781445676e-17,-1.387778780781445676e-17,-1.387778780781445676e-17,-1.387778780781445676e-17,-2.941198011085735531e-03,-7.500054928268592991e-03,-1.220597174600576706e-02,-1.691188856374294114e-02,-2.147074548092582635e-02,-2.617666229866298655e-02,-3.088257911640014675e-02,-3.544143603358301808e-02,-4.014735285132019216e-02,-4.485326966905735235e-02,-4.941212658624020981e-02,-5.411804340397738389e-02,-5.882396022171454408e-02,-6.338281713889741542e-02,-6.808873395663458949e-02,-7.279465077437174969e-02,-7.750056759210890989e-02,-8.205942450929178122e-02,-8.676534132702894142e-02,-9.147125814476610162e-02,-9.603011506194898683e-02,-1.007360318796861470e-01,-1.054419486974233072e-01,-1.100008056146061786e-01,-1.147067224323433388e-01,-1.194126392500805128e-01,-1.223538372611662345e-01
-1.223538372611662345e-01,-1.223538372611662345e-01,-1.223538372611662345e-01,-1.223538372611662345e-01,-1.223538372611662345e-01,-1.223538372611662345e-01,-1.223538372611662345e-01,-1.223538372611662345e-01,-1.223538372611662345e-01,-1.223538372611662345e-01,-1.223538372611662345e-01,-1.223538372611662345e-01,-7.073581216661173343e-02,-1.147067224323435053e-02,-1.387778780781445676e-17,-1.387778780781445676e-17,-1.387778780781445676e-17,-1.387778780781445676e-17,-1.387778780781445676e-17,-1.387778780781445676e-17,-3.529437613302877086e-03,-8.235354431040037282e-03,-1.279421134822290862e-02,-1.750012816596008269e-02,-2.220604498369724289e-02,-2.676490190088012810e-02,-3.147081871861728830e-02,-3.617673553635446237e-02,-4.088265235409162257e-02,-4.544150927127449391e-02,-5.014742608901164023e-02,-5.485334290674881430e-02,-5.941219982393168564e-02,-6.411811664166885971e-02,-6.882403345940600603e-02,-7.338289037658889125e-02,-7.808880719432605144e-02,-8.279472401206322552e-02,-8.735358092924608298e-02,-9.205949774698325705e-02,-9.676541456472040337e-02,-1.013242714819032886e-01,-1.060301882996404488e-01,-1.107361051173776090e-01,-1.152949620345604942e-01,-1.200008788522976544e-01,-1.223538372611662345e-01
-1.223538372611662345e-01,-1.223538372611662345e-01,-1.223538372611662345e-01,-1.223538372611662345e-01,-1.223538372611662345e-01,-1.223538372611662345e-01,-1.223538372611662345e-01,-1.223538372611662345e-01,-1.223538372611662345e-01,-1.223538372611662345e-01,-1.223538372611662345e-01,-1.223538372611662345e-01,-6.308869733778885158e-02,-1.911778707205727401e-03,-1.387778780781445676e-17,-1.387778780781445676e-17,-1.387778780781445676e-17,-1.387778780781445676e-17,0.000000000000000000e+00,-1.387778780781445676e-17,-4.117677215520018641e-03,-8.823594033257192715e-03,-1.352951085099433903e-02,-1.823542766873151311e-02,-2.279428458591439832e-02,-2.750020140365155852e-02,-3.220611822138871871e-02,-3.676497513857160393e-02,-4.147089195630875025e-02,-4.617680877404592432e-02,-5.073566569122879566e-02,-5.544158250896595586e-02,-6.014749932670312993e-02,-6.470635624388600127e-02,-6.941227306162316146e-02,-7.411818987936032166e-02,-7.867704679654320687e-02,-8.338296361428036707e-02,-8.808888043201751339e-02,-9.279479724975468746e-02,-9.735365416693755880e-02,-1.020595709846747190e-01,-1.067654878024118792e-01,-1.113243447195947644e-01,-1.160302615373319246e-01,-1.207361783550690848e-01,-1.223538372611662345e-01
-1.223538372611662345e-01,-1.223538372611662345e-01,-1.223538372611662345e-01,-1.223538372611662345e-01,-1.223538372611662345e-01,-1.223538372611662345e-01,-1.223538372611662345e-01,-1.223538372611662345e-01,-1.223538372611662345e-01,-1.223538372611662345e-01,-1.223538372611662345e-01,-1.147067224323433388e-01,-5.544158250896595586e-02,-1.387778780781445676e-17,-1.387778780781445676e-17,-2.775557561562891351e-17,-2.775557561562891351e-17,-1.387778780781445676e-17,0.000000000000000000e+00,-1.470599005542888582e-04,-4.852976718291462932e-03,-9.558893536028623128e-03,-1.411775045321149447e-02,-1.882366727094865466e-02,-2.352958408868582874e-02,-2.808844100586870007e-02,-3.279435782360586027e-02,-3.750027464134303434e-02,-4.205913155852590568e-02,-4.676504837626306588e-02,-5.147096519400021220e-02,-5.617688201173740015e-02,-6.073573892892026455e-02,-6.544165574665743168e-02,-7.014757256439457800e-02,-7.470642948157746321e-02,-7.941234629931463729e-02,-8.411826311705179748e-02,-8.867712003423466882e-02,-9.338303685197182902e-02,-9.808895366970898921e-02,-1.026478105868918744e-01,-1.073537274046290346e-01,-1.120596442223661948e-01,-1.166185011395490662e-01,-1.213244179572862264e-01,-1.223538372611662345e-01
-1.223538372611662345e-01,-1.223538372611662345e-01,-1.223538372611662345e-01,-1.223538372611662345e-01,-1.223538372611662345e-01,-1.223538372611662345e-01,-1.223538372611662345e-01,-1.223538372611662345e-01,-1.223538372611662345e-01,-1.223538372611662345e-01,-1.223538372611662345e-01,-1.070596076035204569e-01,-4.588268897293734661e-02,-1.387778780781445676e-17,-1.387778780781445676e-17,-1.387778780781445676e-17,-1.387778780781445676e-17,-2.775557561562891351e-17,-2.775557561562891351e-17,-8.823594033257470270e-04,-5.441216320508604487e-03,-1.014713313824576468e-02,-1.485304995598292488e-02,-1.941190687316579622e-02,-2.411782369090298417e-02,-2.882374050864013049e-02,-3.352965732637729068e-02,-3.808851424356017590e-02,-4.279443106129734997e-02,-4.750034787903451017e-02,-5.205920479621736763e-02,-5.676512161395454170e-02,-6.147103843169170884e-02,-6.602989534887457324e-02,-7.073581216661173343e-02,-7.544172898434889363e-02,-8.000058590153177884e-02,-8.470650271926893904e-02,-8.941241953700609923e-02,-9.397127645418897057e-02,-9.867719327192614465e-02,-1.033831100896633048e-01,-1.080890269074004650e-01,-1.126478838245833364e-01,-1.173538006423204966e-01,-1.220597174600576568e-01,-1.223538372611662345e-01
-1.223538372611662345e-01,-1.223538372611662345e-01,-1.223538372611662345e-01,-1.223538372611662345e-01,-1.223538372611662345e-01,-1.223538372611662345e-01,-1.223538372611662345e-01,-1.223538372611662345e-01,-1.223538372611662345e-01,-1.223538372611662345e-01,-1.223538372611662345e-01,-9.750071406749184766e-02,-3.823557414411446476e-02,-1.387778780781445676e-17,-1.387778780781445676e-17,-1.387778780781445676e-17,-1.387778780781445676e-17,-1.387778780781445676e-17,-2.775557561562891351e-17,-1.470599005542874704e-03,-6.176515823280034900e-03,-1.088243264101719510e-02,-1.544128955820006643e-02,-2.014720637593722663e-02,-2.485312319367441458e-02,-2.941198011085728592e-02,-3.411789692859445999e-02,-3.882381374633160631e-02,-4.338267066351447765e-02,-4.808858748125163785e-02,-5.279450429898879804e-02,-5.735336121617169713e-02,-6.205927803390884345e-02,-6.676519485164600365e-02,-7.132405176882887499e-02,-7.602996858656603518e-02,-8.073588540430320926e-02,-8.544180222204036945e-02,-9.000065913922325467e-02,-9.470657595696040099e-02,-9.941249277469757506e-02,-1.039713496918804464e-01,-1.086772665096176066e-01,-1.133831833273547668e-01,-1.179420402445376381e-01,-1.223538372611662345e-01,-1.223538372611662345e-01
-1.223538372611662345e-01,-1.223538372611662345e-01,-1.223538372611662345e-01,-1.223538372611662345e-01,-1.223538372611662345e-01,-1.223538372611662345e-01,-1.223538372611662345e-01,-1.223538372611662345e-01,-1.223538372611662345e-01,-1.223538372611662345e-01,-1.223538372611662345e-01,-8.985359923866895193e-02,-2.867668060808585551e-02,-1.387778780781445676e-17,-1.387778780781445676e-17,-1.387778780781445676e-17,-1.387778780781445676e-17,-1.387778780781445676e-17,-1.387778780781445676e-17,-2.205898508314291240e-03,-6.764755425497176455e-03,-1.147067224323435053e-02,-1.617658906097148297e-02,-2.073544597815438206e-02,-2.544136279589154226e-02,-3.014727961362871633e-02,-3.470613653081158767e-02,-3.941205334854876174e-02,-4.411797016628592194e-02,-4.882388698402308214e-02,-5.338274390120593960e-02,-5.808866071894311367e-02,-6.279457753668027387e-02,-6.735343445386314520e-02,-7.205935127160031928e-02,-7.676526808933747947e-02,-8.132412500652036469e-02,-8.603004182425751101e-02,-9.073595864199468508e-02,-9.529481555917754254e-02,-1.000007323769147166e-01,-1.047066491946518768e-01,-1.092655061118347481e-01,-1.139714229295719083e-01,-1.186773397473090824e-01,-1.223538372611662345e-01,-1.223538372611662345e-01
-1.223538372611662345e-01,-1.223538372611662345e-01,-1.223538372611662345e-01,-1.223538372611662345e-01,-1.223538372611662345e-01,-1.223538372611662345e-01,-1.223538372611662345e-01,-1.223538372611662345e-01,-1.223538372611662345e-01,-1.223538372611662345e-01,-1.223538372611662345e-01,-8.029470570264034268e-02,-2.102956577926295978e-02,-1.387778780781445676e-17,-1.387778780781445676e-17,-1.387778780781445676e-17,-1.387778780781445676e-17,0.000000000000000000e+00,-1.387778780781445676e-17,-2.794138110531460550e-03,-7.500054928268606869e-03,-1.220597174600578094e-02,-1.676482866318863840e-02,-2.147074548092579860e-02,-2.617666229866298655e-02,-3.073551921584585789e-02,-3.544143603358301808e-02,-4.014735285132019216e-02,-4.470620976850306350e-02,-4.941212658624020981e-02,-5.411804340397737001e-02,-5.867690032116025523e-02,-6.338281713889742930e-02,-6.808873395663457562e-02,-7.264759087381744695e-02,-7.735350769155462103e-02,-8.205942450929179510e-02,-8.661828142647465256e-02,-9.132419824421182664e-02,-9.603011506194897295e-02,-1.007360318796861470e-01,-1.052948887968690184e-01,-1.100008056146061786e-01,-1.147067224323433388e-01,-1.192655793495262240e-01,-1.223538372611662345e-01,-1.223538372611662345e-01
-1.223538372611662345e-01,-1.223538372611662345e-01,-1.223538372611662345e-01,-1.223538372611662345e-01,-1.223538372611662345e-01,-1.223538372611662345e-01,-1.223538372611662345e-01,-1.223538372611662345e-01,-1.223538372611662345e-01,-1.223538372611662345e-01,-1.223538372611662345e-01,-7.264759087381746083e-02,-1.147067224323435053e-02,-1.387778780781445676e-17,-1.387778780781445676e-17,-1.387778780781445676e-17,-1.387778780781445676e-17,-1.387778780781445676e-17,-1.387778780781445676e-17,-3.529437613302890964e-03,-8.088294530485762301e-03,-1.279421134822292250e-02,-1.750012816596006882e-02,-2.205898508314295403e-02,-2.676490190088012810e-02,-3.147081871861730218e-02,-3.602967563580015964e-02,-4.073559245353733371e-02,-4.544150927127450779e-02,-5.000036618845736525e-02,-5.470628300619452544e-02,-5.941219982393168564e-02,-6.411811664166885971e-02,-6.867697355885171717e-02,-7.338289037658889125e-02,-7.808880719432605144e-02,-8.264766411150893666e-02,-8.735358092924608298e-02,-9.205949774698325705e-02,-9.661835466416612839e-02,-1.013242714819032886e-01,-1.060301882996404488e-01,-1.105890452168233340e-01,-1.152949620345604942e-01,-1.200008788522976544e-01,-1.223538372611662345e-01,-1.223538372611662345e-01
-1.223538372611662345e-01,-1.223538372611662345e-01,-1.223538372611662345e-01,-1.223538372611662345e-01,-1.223538372611662345e-01,-1.223538372611662345e-01,-1.223538372611662345e-01,-1.223538372611662345e-01,-1.223538372611662345e-01,-1.223538372611662345e-01,-1.223538372611662345e-01,-6.308869733778885158e-02,-3.823557414411454802e-03,-1.387778780781445676e-17,-1.387778780781445676e-17,-1.387778780781445676e-17,-1.387778780781445676e-17,-1.387778780781445676e-17,-1.387778780781445676e-17,-4.117677215520032519e-03,-8.823594033257178837e-03,-1.338245095044006405e-02,-1.808836776817722425e-02,-2.279428458591438444e-02,-2.750020140365155852e-02,-3.205905832083442986e-02,-3.676497513857160393e-02,-4.147089195630876413e-02,-4.602974887349163546e-02,-5.073566569122878178e-02,-5.544158250896595586e-02,-6.000043942614884107e-02,-6.470635624388598739e-02,-6.941227306162314759e-02,-7.397112997880603280e-02,-7.867704679654319300e-02,-8.338296361428035319e-02,-8.794182053146323841e-02,-9.264773734920039860e-02,-9.735365416693755880e-02,-1.019125110841204440e-01,-1.066184279018576042e-01,-1.113243447195947644e-01,-1.160302615373319246e-01,-1.205891184545147959e-01,-1.223538372611662345e-01,-1.223538372611662345e-01
-1.223538372611662345e-01,-1.223538372611662345e-01,-1.223538372611662345e-01,-1.223538372611662345e-01,-1.223538372611662345e-01,-1.223538372611662345e-01,-1.223538372611662345e-01,-1.223538372611662345e-01,-1.223538372611662345e-01,-1.223538372611662345e-01,-1.166185011395490662e-01,-5.544158250896595586e-02,-1.387778780781445676e-17,0.000000000000000000e+00,-2.775557561562891351e-17,-2.775557561562891351e-17,-1.387778780781445676e-17,-1.387778780781445676e-17,-1.470599005543027360e-04,-4.852976718291449054e-03,-9.411833635474334270e-03,-1.411775045321149447e-02,-1.882366727094865466e-02,-2.338252418813155376e-02,-2.808844100586870007e-02,-3.279435782360586027e-02,-3.735321474078874548e-02,-4.205913155852590568e-02,-4.676504837626306588e-02,-5.132390529344593721e-02,-5.602982211118311129e-02,-6.073573892892026455e-02,-6.544165574665741780e-02,-7.000051266384030302e-02,-7.470642948157746321e-02,-7.941234629931463729e-02,-8.397120321649750863e-02,-8.867712003423466882e-02,-9.338303685197182902e-02,-9.794189376915470036e-02,-1.026478105868918744e-01,-1.073537274046290346e-01,-1.119125843218119060e-01,-1.166185011395490662e-01,-1.213244179572862264e-01,-1.223538372611662345e-01,-1.223538372611662345e-01
-1.223538372611662345e-01,-1.223538372611662345e-01,-1.223538372611662345e-01,-1.223538372611662345e-01,-1.223538372611662345e-01,-1.223538372611662345e-01,-1.223538372611662345e-01,-1.223538372611662345e-01,-1.223538372611662345e-01,-1.223538372611662345e-01,-1.070596076035204569e-01,-4.588268897293734661e-02,-1.387778780781445676e-17,-1.387778780781445676e-17,-1.387778780781445676e-17,-2.775557561562891351e-17,-1.387778780781445676e-17,-1.387778780781445676e-17,-7.352995027714304133e-04,-5.441216320508590609e-03,-1.014713313824576468e-02,-1.470599005542864990e-02,-1.941190687316579622e-02,-2.411782369090297029e-02,-2.867668060808585551e-02,-3.338259742582300182e-02,-3.808851424356017590e-02,-4.279443106129733609e-02,-4.735328797848020743e-02,-2.116178018876291866e-01,-2.163237187053663746e-01,-2.208825756225492598e-01,-2.255884924402864200e-01,-7.073581216661173343e-02,-7.529466908379461865e-02,-8.000058590153177884e-02,-8.470650271926893904e-02,-8.926535963645182425e-02,-9.397127645418897057e-02,-9.867719327192613077e-02,-1.032360501891090160e-01,-1.079419670068461762e-01,-1.126478838245833364e-01,-1.173538006423204966e-01,-1.219126575595033818e-01,-1.223538372611662345e-01,-1.223538372611662345e-01
-1.223538372611662345e-01,-1.223538372611662345e-01,-1.223538372611662345e-01,-1.223538372611662345e-01,-1.223538372611662345e-01,-1.223538372611662345e-01,-1.223538372611662345e-01,-1.223538372611662345e-01,-1.223538372611662345e-01,-1.223538372611662345e-01,-9.941249277469757506e-02,-3.823557414411445088e-02,-1.387778780781445676e-17,-1.387778780781445676e-17,0.000000000000000000e+00,-1.387778780781445676e-17,0.000000000000000000e+00,0.000000000000000000e+00,-1.470599005542874704e-03,-6.176515823280034900e-03,-1.073537274046290624e-02,-1.544128955820008031e-02,-2.014720637593722663e-02,-2.470606329312012572e-02,-2.941198011085727204e-02,-3.411789692859444612e-02,-3.867675384577733133e-02,-4.338267066351449153e-02,-4.808858748125165172e-02,-2.122060414898463421e-01,-2.169119583075835300e-01,-2.216178751253206902e-01,-2.261767320425035477e-01,-7.132405176882887499e-02,-7.602996858656604906e-02,-8.058882550374892040e-02,-8.529474232148608059e-02,-9.000065913922325467e-02,-9.470657595696041486e-02,-9.926543287414328620e-02,-1.039713496918804464e-01,-1.086772665096176066e-01,-1.132361234268004779e-01,-1.179420402445376381e-01,-1.223538372611662345e-01,-1.223538372611662345e-01,-1.223538372611662345e-01
-1.223538372611662345e-01,-1.223538372611662345e-01,-1.223538372611662345e-01,-1.223538372611662345e-01,-1.223538372611662345e-01,-1.223538372611662345e-01,-1.223538372611662345e-01,-1.223538372611662345e-01,-1.223538372611662345e-01,-1.223538372611662345e-01,-8.985359923866895193e-02,-1.422789158527256459e-01,-1.136022352446398043e-01,-1.136022352446398043e-01,-1.387778780781445676e-17,-1.387778780781445676e-17,-1.387778780781445676e-17,-1.387778780781445676e-17,-2.058838607760016259e-03,-6.764755425497176455e-03,-1.147067224323432277e-02,-1.602952916041720799e-02,-2.073544597815436819e-02,-2.544136279589155614e-02,-3.000021971307441360e-02,-3.470613653081158767e-02,-3.941205334854874787e-02,-4.397091026573163308e-02,-4.867682708346877940e-02,-2.129413409926178002e-01,-2.176472578103549604e-01,-2.222061147275378179e-01,-2.269120315452750059e-01,-7.205935127160030540e-02,-7.661820818878319062e-02,-8.132412500652035081e-02,-8.603004182425751101e-02,-9.058889874144038235e-02,-9.529481555917754254e-02,-1.000007323769147166e-01,-1.045595892940975880e-01,-1.092655061118347481e-01,-1.139714229295719083e-01,-1.185302798467547936e-01,-1.223538372611662345e-01,-1.223538372611662345e-01,-1.223538372611662345e-01
-1.223538372611662345e-01,-1.223538372611662345e-01,-1.223538372611662345e-01,-1.223538372611662345e-01,-1.223538372611662345e-01,-1.223538372611662345e-01,-1.223538372611662345e-01,-1.223538372611662345e-01,-1.223538372611662345e-01,-1.223538372611662345e-01,-1.042041498854106435e-01,-1.566294664994672958e-01,-1.355999007202043916e-01,-1.136022352446398043e-01,-1.387778780781445676e-17,-1.387778780781445676e-17,-1.387778780781445676e-17,-1.387778780781445676e-17,-2.794138110531460550e-03,-7.352995027714345766e-03,-1.205891184545147821e-02,-1.676482866318863840e-02,-2.147074548092581248e-02,-2.602960239810869769e-02,-3.073551921584587177e-02,-3.544143603358303196e-02,-4.000029295076590330e-02,-4.470620976850306350e-02,-4.941212658624020981e-02,-2.135295805948349557e-01,-2.182354974125720881e-01,-2.229414142303092761e-01,-2.275002711474921335e-01,-7.264759087381746083e-02,-7.735350769155463491e-02,-8.191236460873749237e-02,-8.661828142647465256e-02,-9.132419824421181276e-02,-9.588305516139469797e-02,-1.005889719791318582e-01,-1.052948887968690184e-01,-1.100008056146061786e-01,-1.145596625317890638e-01,-1.192655793495262240e-01,-2.900876192741821957e-01,-2.900876192741821957e-01,-2.900876192741821957e-01
-1.223538372611662345e-01,-1.223538372611662345e-01,-1.223538372611662345e-01,-1.223538372611662345e-01,-1.223538372611662345e-01,-1.223538372611662345e-01,-1.223538372611662345e-01,-1.223538372611662345e-01,-1.223538372611662345e-01,-1.223538372611662345e-01,-9.464525634938203424e-02,-1.489823516706444417e-01,-1.355999007202043916e-01,-1.136022352446398043e-01,-1.387778780781445676e-17,-1.387778780781445676e-17,-1.387778780781445676e-17,-1.387778780781445676e-17,-3.382377712748588228e-03,-8.088294530485762301e-03,-1.279421134822290862e-02,-1.735306826540579384e-02,-2.205898508314295403e-02,-2.676490190088012810e-02,-3.132375881806299944e-02,-3.602967563580015964e-02,-4.073559245353733371e-02,-4.529444937072020505e-02,-5.000036618845736525e-02,-5.470628300619452544e-02,-5.926513992337741066e-02,-6.397105674111455698e-02,-6.867697355885171717e-02,-7.338289037658889125e-02,-7.794174729377176258e-02,-8.264766411150892278e-02,-8.735358092924608298e-02,-9.191243784642896819e-02,-9.661835466416612839e-02,-1.013242714819032886e-01,-1.058831283990861738e-01,-1.105890452168233340e-01,-1.152949620345604942e-01,-1.198538189517433655e-01,-2.900876192741821957e-01,-2.900876192741821957e-01,-2.900876192741821957e-01
-1.223538372611662345e-01,-1.223538372611662345e-01,-1.223538372611662345e-01,-1.223538372611662345e-01,-1.223538372611662345e-01,-1.223538372611662345e-01,-1.223538372611662345e-01,-1.223538372611662345e-01,-1.223538372611662345e-01,-1.223538372611662345e-01,-8.699814152055913852e-02,-2.582122288997604209e-02,-2.199766547556458729e-02,-1.387778780781445676e-17,-1.387778780781445676e-17,-1.387778780781445676e-17,-1.387778780781445676e-17,-1.387778780781445676e-17,-4.117677215520018641e-03,-8.676534132702903857e-03,-1.338245095044006405e-02,-1.808836776817722425e-02,-2.264722468536010946e-02,-2.735314150309726966e-02,-3.205905832083442986e-02,-3.676497513857160393e-02,-4.132383205575447527e-02,-4.602974887349163546e-02,-5.073566569122879566e-02,-5.529452260841166700e-02,-6.000043942614883413e-02,-6.470635624388598739e-02,-6.926521316106887260e-02,-7.397112997880603280e-02,-7.867704679654319300e-02,-8.323590371372607821e-02,-8.794182053146323841e-02,-9.264773734920039860e-02,-9.720659426638326994e-02,-1.019125110841204440e-01,-1.066184279018576042e-01,-1.111772848190404755e-01,-1.158832016367776357e-01,-1.205891184545147959e-01,-2.900876192741821957e-01,-2.900876192741821957e-01,-2.900876192741821957e-01
-1.223538372611662345e-01,-1.223538372611662345e-01,-1.223538372611662345e-01,-1.223538372611662345e-01,-1.223538372611662345e-01,-1.223538372611662345e-01,-1.223538372611662345e-01,-1.223538372611662345e-01,-1.223538372611662345e-01,-1.166185011395490662e-01,-5.544158250896595586e-02,-1.387778780781445676e-17,-1.387778780781445676e-17,0.000000000000000000e+00,-1.387778780781445676e-17,0.000000000000000000e+00,-1.387778780781445676e-17,-1.387778780781445676e-17,-4.705916817737174074e-03,-9.411833635474334270e-03,-1.411775045321149447e-02,-1.867660737039437968e-02,-2.338252418813153988e-02,-2.808844100586871395e-02,-3.264729792305157141e-02,-3.735321474078874548e-02,-4.205913155852590568e-02,-4.661798847570879090e-02,-5.132390529344593721e-02,-5.602982211118311129e-02,-6.058867902836598263e-02,-6.529459584610314282e-02,-7.000051266384030302e-02,-7.455936958102318823e-02,-7.926528639876034843e-02,-8.397120321649750863e-02,-8.867712003423466882e-02,-9.323597695141754016e-02,-9.794189376915471423e-02,-1.026478105868918744e-01,-1.072066675040747458e-01,-1.119125843218119060e-01,-1.166185011395490662e-01,-1.211773580567319375e-01,-1.223538372611662345e-01,-1.223538372611662345e-01,-1.223538372611662345e-01
-1.223538372611662345e-01,-1.223538372611662345e-01,-1.223538372611662345e-01,-1.223538372611662345e-01,-1.223538372611662345e-01,-1.223538372611662345e-01,-1.223538372611662345e-01,-1.223538372611662345e-01,-1.223538372611662345e-01,-1.089713863107261843e-01,-4.779446768014307401e-02,-1.387778780781445676e-17,-1.387778780781445676e-17,-1.387778780781445676e-17,-1.387778780781445676e-17,-2.775557561562891351e-17,-1.387778780781445676e-17,-7.352995027714442910e-04,-5.441216320508604487e-03,-1.000007323769147582e-02,-1.470599005542863602e-02,-1.941190687316579622e-02,-2.397076379034868143e-02,-2.867668060808585551e-02,-3.338259742582300182e-02,-3.794145434300590092e-02,-4.264737116074306111e-02,-4.735328797848020743e-02,-5.205920479621736763e-02,-5.661806171340023897e-02,-6.132397853113741998e-02,-6.602989534887457324e-02,-7.058875226605744457e-02,-7.529466908379461865e-02,-8.000058590153177884e-02,-8.455944281871465018e-02,-8.926535963645181038e-02,-9.397127645418897057e-02,-9.853013337137184191e-02,-1.032360501891090160e-01,-1.079419670068461762e-01,-1.125008239240290475e-01,-1.172067407417662077e-01,-1.219126575595033818e-01,-1.223538372611662345e-01,-1.223538372611662345e-01,-1.223538372611662345e-01
-1.223538372611662345e-01,-1.223538372611662345e-01,-1.223538372611662345e-01,-1.223538372611662345e-01,-1.223538372611662345e-01,-1.223538372611662345e-01,-1.223538372611662345e-01,-1.223538372611662345e-01,-1.223538372611662345e-01,-9.941249277469757506e-02,-3.823557414411446476e-02,-1.387778780781445676e-17,-1.387778780781445676e-17,-1.387778780781445676e-17,-1.387778780781445676e-17,-1.387778780781445676e-17,-2.775557561562891351e-17,-1.323539104988599724e-03,-6.029455922725759920e-03,-1.073537274046289236e-02,-1.529422965764577758e-02,-2.000014647538295165e-02,-2.470606329312012572e-02,-2.941198011085728592e-02,-3.397083702804017113e-02,-3.867675384577731745e-02,-4.338267066351449153e-02,-4.794152758069736286e-02,-5.264744439843450918e-02,-5.735336121617168326e-02,-6.191221813335456153e-02,-6.661813495109171479e-02,-7.132405176882887499e-02,-7.588290868601174632e-02,-8.058882550374893428e-02,-8.529474232148608059e-02,-8.985359923866895193e-02,-9.455951605640611213e-02,-9.926543287414328620e-02,-1.039713496918804464e-01,-1.085302066090633177e-01,-1.132361234268004779e-01,-1.179420402445376381e-01,-1.223538372611662345e-01,-1.223538372611662345e-01,-1.223538372611662345e-01,-1.223538372611662345e-01
-1.223538372611662345e-01,-1.223538372611662345e-01,-1.223538372611662345e-01,-1.223538372611662345e-01,-1.223538372611662345e-01,-1.223538372611662345e-01,-1.223538372611662345e-01,-1.223538372611662345e-01,-1.223538372611662345e-01,-9.176537794587467933e-02,-3.058845931529156903e-02,-1.387778780781445676e-17,-1.387778780781445676e-17,-1.387778780781445676e-17,-1.387778780781445676e-17,-1.387778780781445676e-17,-1.387778780781445676e-17,-2.058838607760016259e-03,-6.764755425497176455e-03,-1.132361234268004779e-02,-1.602952916041723574e-02,-2.073544597815436819e-02,-2.529430289533726728e-02,-3.000021971307442747e-02,-3.470613653081158767e-02,-3.926499344799447289e-02,-4.397091026573164696e-02,-4.867682708346879328e-02,-5.323568400065166462e-02,-5.794160081838882481e-02,-6.264751763612598501e-02,-6.735343445386314520e-02,-7.191229137104601654e-02,-7.661820818878319062e-02,-8.132412500652035081e-02,-8.588298192370322215e-02,-9.058889874144038235e-02,-9.529481555917754254e-02,-9.985367247636042776e-02,-1.045595892940975880e-01,-1.092655061118347481e-01,-1.138243630290176334e-01,-1.185302798467547936e-01,-1.223538372611662345e-01,-1.223538372611662345e-01,-1.223538372611662345e-01,-1.223538372611662345e-01
-1.223538372611662345e-01,-1.223538372611662345e-01,-1.223538372611662345e-01,-1.223538372611662345e-01,-1.223538372611662345e-01,-1.223538372611662345e-01,-1.223538372611662345e-01,-1.223538372611662345e-01,-1.223538372611662345e-01,-8.220648440984607008e-02,-2.102956577926294590e-02,-1.387778780781445676e-17,-1.387778780781445676e-17,-1.387778780781445676e-17,-1.387778780781445676e-17,-1.387778780781445676e-17,-1.387778780781445676e-17,-2.647078209977157814e-03,-7.352995027714345766e-03,-1.205891184545147821e-02,-1.661776876263436342e-02,-2.132368558037152362e-02,-2.602960239810871157e-02,-3.058845931529155515e-02,-3.529437613302872923e-02,-4.000029295076590330e-02,-4.470620976850306350e-02,-4.926506668568593483e-02,-5.397098350342309503e-02,-5.867690032116025523e-02,-6.323575723834312656e-02,-6.794167405608028676e-02,-7.264759087381744695e-02,-7.720644779100033217e-02,-8.191236460873749237e-02,-8.661828142647465256e-02,-9.117713834365753778e-02,-9.588305516139469797e-02,-1.005889719791318582e-01,-1.051478288963147434e-01,-1.098537457140519036e-01,-1.145596625317890638e-01,-1.192655793495262240e-01,-1.223538372611662345e-01,-1.223538372611662345e-01,-1.223538372611662345e-01,-1.223538372611662345e-01
-1.223538372611662345e-01,-1.223538372611662345e-01,-1.223538372611662345e-01,-1.223538372611662345e-01,-1.223538372611662345e-01,-1.223538372611662345e-01,-1.223538372611662345e-01,-1.223538372611662345e-01,-1.223538372611662345e-01,-7.455936958102318823e-02,-1.338245095044006405e-02,-1.387778780781445676e-17,-1.387778780781445676e-17,-1.387778780781445676e-17,-1.387778780781445676e-17,-1.387778780781445676e-17,-1.387778780781445676e-17,-3.382377712748588228e-03,-8.088294530485748424e-03,-1.264715144766863364e-02,-1.735306826540579384e-02,-2.205898508314296791e-02,-2.661784200032582537e-02,-3.132375881806301332e-02,-3.602967563580017352e-02,-4.058853255298304485e-02,-4.529444937072020505e-02,-5.000036618845736525e-02,-5.455922310564023658e-02,-5.926513992337741066e-02,-6.397105674111455698e-02,-6.852991365829744219e-02,-7.323583047603460239e-02,-7.794174729377176258e-02,-8.250060421095464780e-02,-8.720652102869180800e-02,-9.191243784642896819e-02,-9.661835466416612839e-02,-1.011772115813489997e-01,-1.058831283990861738e-01,-1.105890452168233340e-01,-1.151479021340062053e-01,-1.198538189517433655e-01,-1.223538372611662345e-01,-1.223538372611662345e-01,-1.223538372611662345e-01,-1.223538372611662345e-01
-1.223538372611662345e-01,-1.223538372611662345e-01,-1.223538372611662345e-01,-1.223538372611662345e-01,-1.223538372611662345e-01,-1.223538372611662345e-01,-1.223538372611662345e-01,-1.223538372611662345e-01,-1.223538372611662345e-01,-6.500047604499456511e-02,-3.823557414411468680e-03,-1.387778780781445676e-17,-1.387778780781445676e-17,-1.387778780781445676e-17,-1.387778780781445676e-17,-1.387778780781445676e-17,-1.387778780781445676e-17,-3.970617314965743661e-03,-8.676534132702903857e-03,-1.338245095044006405e-02,-1.794130786762293539e-02,-2.264722468536010946e-02,-2.735314150309726966e-02,-3.191199842028015488e-02,-3.661791523801731507e-02,-4.132383205575447527e-02,-4.602974887349163546e-02,-5.058860579067450680e-02,-5.529452260841166700e-02,-6.000043942614884107e-02,-6.455929634333171241e-02,-6.926521316106887260e-02,-7.397112997880603280e-02,-7.852998689598891802e-02,-8.323590371372607821e-02,-8.794182053146323841e-02,-9.250067744864610975e-02,-9.720659426638326994e-02,-1.019125110841204440e-01,-1.064713680013033154e-01,-1.111772848190404755e-01,-1.158832016367776357e-01,-1.204420585539605071e-01,-1.223538372611662345e-01,-1.223538372611662345e-01,-1.223538372611662345e-01,-1.223538372611662345e-01
-1.223538372611662345e-01,-1.223538372611662345e-01,-1.223538372611662345e-01,-1.223538372611662345e-01,-1.223538372611662345e-01,-1.223538372611662345e-01,-1.223538372611662345e-01,-1.223538372611662345e-01,-1.166185011395490662e-01,-5.735336121617166938e-02,-1.387778780781445676e-17,-1.387778780781445676e-17,-1.387778780781445676e-17,-2.775557561562891351e-17,-2.775557561562891351e-17,-1.387778780781445676e-17,-1.387778780781445676e-17,-4.705916817737174074e-03,-9.264773734920059289e-03,-1.397069055265720561e-02,-1.867660737039436580e-02,-2.338252418813155376e-02,-2.794138110531441122e-02,-3.264729792305157141e-02,-3.735321474078874548e-02,-4.191207165797163070e-02,-4.661798847570879090e-02,-5.132390529344593721e-02,-5.588276221062882243e-02,-6.058867902836598957e-02,-6.529459584610314282e-02,-6.985345276328601416e-02,-7.455936958102318823e-02,-7.926528639876034843e-02,-8.382414331594321977e-02,-8.853006013368037996e-02,-9.323597695141754016e-02,-9.794189376915470036e-02,-1.025007506863375856e-01,-1.072066675040747458e-01,-1.119125843218119060e-01,-1.164714412389947773e-01,-1.211773580567319375e-01,-1.223538372611662345e-01,-1.223538372611662345e-01,-1.223538372611662345e-01,-1.223538372611662345e-01
-1.223538372611662345e-01,-1.223538372611662345e-01,-1.223538372611662345e-01,-1.223538372611662345e-01,-1.223538372611662345e-01,-1.223538372611662345e-01,-1.223538372611662345e-01,-1.223538372611662345e-01,-1.206810308923612213e-01,-1.037139948659104444e-01,-7.264759087381746083e-02,-5.735336121617166938e-02,-3.823557414411446476e-02,-2.294134448646868718e-02,-3.823557414411468680e-03,-1.387778780781445676e-17,-7.352995027714442910e-04,-5.294156419954329507e-03,-1.000007323769147582e-02,-1.470599005542863602e-02,-1.926484697261150736e-02,-2.397076379034866755e-02,-2.867668060808585551e-02,-3.323553752526871297e-02,-3.794145434300588704e-02,-4.264737116074306111e-02,-4.720622807792593245e-02,-5.191214489566306489e-02,-5.661806171340025284e-02,-6.132397853113742692e-02,-6.588283544832028438e-02,-7.058875226605744457e-02,-7.529466908379461865e-02,-7.985352600097748998e-02,-8.455944281871465018e-02,-8.926535963645181038e-02,-9.382421655363468171e-02,-9.853013337137185579e-02,-1.032360501891090160e-01,-1.077949071062918873e-01,-1.125008239240290475e-01,-1.172067407417662077e-01,-1.217655976589490929e-01,-1.223538372611662345e-01,-1.223538372611662345e-01,-1.223538372611662345e-01,-1.223538372611662345e-01
-1.223538372611662345e-01,-1.223538372611662345e-01,-1.223538372611662345e-01,-1.223538372611662345e-01,-1.223538372611662345e-01,-1.223538372611662345e-01,-1.223538372611662345e-01,-1.223538372611662345e-01,-1.223538372611662345e-01,-1.223538372611662345e-01,-1.223538372611662345e-01,-1.223538372611662345e-01,-1.223538372611662345e-01,-1.223538372611662345e-01,-1.223538372611662345e-01,-1.108831650179318978e-01,-9.209626272212181886e-02,-7.873219425925105652e-02,-6.297840241237312453e-02,-5.209596977135592943e-02,-3.919146349771730764e-02,-3.067118050935335738e-02,-2.926492021030298318e-02,-3.397083702804015726e-02,-3.867675384577733133e-02,-4.323561076296020267e-02,-4.794152758069734899e-02,-5.264744439843452306e-02,-5.720630131561739440e-02,-6.191221813335456153e-02,-6.661813495109171479e-02,-7.117699186827458613e-02,-7.588290868601174632e-02,-8.058882550374892040e-02,-8.514768242093179174e-02,-8.985359923866895193e-02,-9.455951605640611213e-02,-9.911837297358899734e-02,-1.038242897913261575e-01,-1.085302066090633177e-01,-1.132361234268004779e-01,-1.177949803439833631e-01,-1.223538372611662345e-01,-1.223538372611662345e-01,-1.223538372611662345e-01,-1.223538372611662345e-01,-1.223538372611662345e-01
