-1.894955894791239617e-02,-1.894955894791239617e-02,-1.894955894791239617e-02,-1.894955894791239617e-02,-1.894955894791239617e-02,-1.894955894791239617e-02,-1.894955894791239617e-02,-1.894955894791239617e-02,-1.894955894791239617e-02,-1.894955894791239617e-02,-1.894955894791239617e-02,-1.894955894791239617e-02,-8.290432039711675277e-03,-3.469446951953614189e-18,-3.469446951953614189e-18,-3.469446951953614189e-18,-3.469446951953614189e-18,-3.469446951953614189e-18,-3.469446951953614189e-18,-3.469446951953614189e-18,-3.469446951953614189e-18,-3.469446951953614189e-18,-3.469446951953614189e-18,-3.469446951953614189e-18,-3.469446951953614189e-18,-1.875216770887165596e-03,-3.947824780815085283e-03,-6.020432790743003235e-03,-8.093040800670921187e-03,-1.016564881059883914e-02,-1.233695244004713414e-02,-1.440956044997505209e-02,-1.648216845990296830e-02,-1.855477646983088799e-02,-1.894955894791239617e-02,-1.894955894791239617e-02,-1.894955894791239617e-02,-1.894955894791239617e-02,-1.894955894791239617e-02,-1.894955894791239617e-02,-1.894955894791239617e-02,-1.894955894791239617e-02,-1.894955894791239617e-02,-1.894955894791239617e-02,-1.894955894791239617e-02,-1.894955894791239617e-02,-1.894955894791239617e-02
-1.894955894791239617e-02,-1.894955894791239617e-02,-1.894955894791239617e-02,-1.894955894791239617e-02,-1.894955894791239617e-02,-1.894955894791239617e-02,-1.894955894791239617e-02,-1.894955894791239617e-02,-1.894955894791239617e-02,-1.894955894791239617e-02,-1.894955894791239617e-02,-1.006695319107846209e-02,-3.469446951953614189e-18,-3.469446951953614189e-18,-3.469446951953614189e-18,-3.469446951953614189e-18,-3.469446951953614189e-18,-3.469446951953614189e-18,-3.469446951953614189e-18,-3.469446951953614189e-18,0.000000000000000000e+00,-3.469446951953614189e-18,-3.469446951953614189e-18,-3.469446951953614189e-18,-3.469446951953614189e-18,-3.469446951953614189e-18,-1.579129912326036195e-03,-3.651737922253952412e-03,-5.724345932181872099e-03,-7.796953942109790051e-03,-9.968257571558085048e-03,-1.204086558148600300e-02,-1.411347359141392095e-02,-1.618608160134183890e-02,-1.825868961126975859e-02,-1.894955894791239617e-02,-1.894955894791239617e-02,-1.894955894791239617e-02,-1.894955894791239617e-02,-1.894955894791239617e-02,-1.894955894791239617e-02,-1.894955894791239617e-02,-1.894955894791239617e-02,-1.894955894791239617e-02,-1.894955894791239617e-02,-1.894955894791239617e-02,-1.894955894791239617e-02
-1.894955894791239617e-02,-1.894955894791239617e-02,-1.894955894791239617e-02,-1.894955894791239617e-02,-1.894955894791239617e-02,-1.894955894791239617e-02,-1.894955894791239617e-02,-1.894955894791239617e-02,-1.894955894791239617e-02,-1.894955894791239617e-02,-1.184347434244524891e-02,-3.469446951953614189e-18,-3.469446951953614189e-18,-3.469446951953614189e-18,-3.469446951953614189e-18,-6.938893903907228378e-18,-3.469446951953614189e-18,-3.469446951953614189e-18,-3.469446951953614189e-18,-3.469446951953614189e-18,-3.469446951953614189e-18,-3.469446951953614189e-18,-3.469446951953614189e-18,-3.469446951953614189e-18,-3.469446951953614189e-18,-3.469446951953614189e-18,-3.469446951953614189e-18,-1.283043053764903324e-03,-3.355651063692823011e-03,-5.428259073620740963e-03,-7.500867083548658915e-03,-9.672170712996953912e-03,-1.174477872292487186e-02,-1.381738673285278982e-02,-1.588999474278070950e-02,-1.796260275270862572e-02,-1.894955894791239617e-02,-1.894955894791239617e-02,-1.894955894791239617e-02,-1.894955894791239617e-02,-1.894955894791239617e-02,-1.894955894791239617e-02,-1.894955894791239617e-02,-1.894955894791239617e-02,-1.894955894791239617e-02,-1.894955894791239617e-02,-1.894955894791239617e-02
-1.894955894791239617e-02,-1.894955894791239617e-02,-1.894955894791239617e-02,-1.894955894791239617e-02,-1.894955894791239617e-02,-1.894955894791239617e-02,-1.894955894791239617e-02,-1.894955894791239617e-02,-1.894955894791239617e-02,-1.361999549381203573e-02,-3.469446951953614189e-18,-3.469446951953614189e-18,-3.469446951953614189e-18,-3.469446951953614189e-18,-3.469446951953614189e-18,-3.469446951953614189e-18,-3.469446951953614189e-18,-3.469446951953614189e-18,-3.469446951953614189e-18,-3.469446951953614189e-18,-3.469446951953614189e-18,-3.469446951953614189e-18,-3.469446951953614189e-18,-3.469446951953614189e-18,-3.469446951953614189e-18,-3.469446951953614189e-18,-3.469446951953614189e-18,-3.469446951953614189e-18,-9.869561952037739228e-04,-3.059564205131690140e-03,-5.132172215059609827e-03,-7.303475844507904824e-03,-9.376083854435822776e-03,-1.144869186436374073e-02,-1.352129987429165868e-02,-1.559390788421957663e-02,-1.766651589414749285e-02,-1.894955894791239617e-02,-1.894955894791239617e-02,-1.894955894791239617e-02,-1.894955894791239617e-02,-1.894955894791239617e-02,-1.894955894791239617e-02,-1.894955894791239617e-02,-1.894955894791239617e-02,-1.894955894791239617e-02,-1.894955894791239617e-02
-1.894955894791239617e-02,-1.894955894791239617e-02,-1.894955894791239617e-02,-1.894955894791239617e-02,-1.894955894791239617e-02,-1.894955894791239617e-02,-1.894955894791239617e-02,-1.894955894791239617e-02,-1.539651664517882254e-02,-1.184347434244528013e-03,-3.469446951953614189e-18,-3.469446951953614189e-18,-3.469446951953614189e-18,-3.469446951953614189e-18,-3.469446951953614189e-18,-3.469446951953614189e-18,-3.469446951953614189e-18,-3.469446951953614189e-18,-3.469446951953614189e-18,-3.469446951953614189e-18,-3.469446951953614189e-18,-3.469446951953614189e-18,-3.469446951953614189e-18,-2.988631965191671513e-01,-2.988631965191671513e-01,-2.988631965191671513e-01,-2.988631965191671513e-01,-3.469446951953614189e-18,-3.469446951953614189e-18,-6.908693366426445215e-04,-2.763477346570560739e-03,-4.934780976018855736e-03,-7.007388985946773688e-03,-9.079996995874691640e-03,-1.115260500580260959e-02,-1.322521301573052754e-02,-1.529782102565844550e-02,-1.737042903558636345e-02,-1.894955894791239617e-02,-1.894955894791239617e-02,-1.894955894791239617e-02,-1.894955894791239617e-02,-1.894955894791239617e-02,-1.894955894791239617e-02,-1.894955894791239617e-02,-1.894955894791239617e-02,-1.894955894791239617e-02
-1.894955894791239617e-02,-1.894955894791239617e-02,-1.894955894791239617e-02,-1.894955894791239617e-02,-1.894955894791239617e-02,-1.894955894791239617e-02,-1.894955894791239617e-02,-1.717303779654560936e-02,-2.960868585611314829e-03,-3.469446951953614189e-18,-3.469446951953614189e-18,-3.469446951953614189e-18,-3.469446951953614189e-18,-3.469446951953614189e-18,-3.469446951953614189e-18,-6.938893903907228378e-18,-3.469446951953614189e-18,-3.469446951953614189e-18,-3.469446951953614189e-18,-3.469446951953614189e-18,-3.469446951953614189e-18,-3.469446951953614189e-18,-3.469446951953614189e-18,-2.988631965191671513e-01,-2.988631965191671513e-01,-2.988631965191671513e-01,-2.988631965191671513e-01,-3.469446951953614189e-18,-3.469446951953614189e-18,-3.469446951953614189e-18,-3.947824780815116508e-04,-2.566086107529806648e-03,-4.638694117457724600e-03,-6.711302127385642552e-03,-8.783910137313562239e-03,-1.085651814724147846e-02,-1.292912615716939641e-02,-1.500173416709731436e-02,-1.717303779654560936e-02,-1.894955894791239617e-02,-1.894955894791239617e-02,-1.894955894791239617e-02,-1.894955894791239617e-02,-1.894955894791239617e-02,-1.894955894791239617e-02,-1.894955894791239617e-02,-1.894955894791239617e-02
-1.894955894791239617e-02,-1.894955894791239617e-02,-1.894955894791239617e-02,-1.894955894791239617e-02,-1.894955894791239617e-02,-1.894955894791239617e-02,-1.894955894791239617e-02,-4.737389736978101645e-03,-3.469446951953614189e-18,-3.469446951953614189e-18,-3.469446951953614189e-18,-3.469446951953614189e-18,-3.469446951953614189e-18,-3.469446951953614189e-18,-3.469446951953614189e-18,-3.469446951953614189e-18,-3.469446951953614189e-18,-3.469446951953614189e-18,-3.469446951953614189e-18,-3.469446951953614189e-18,-3.469446951953614189e-18,-3.469446951953614189e-18,-3.469446951953614189e-18,-2.988631965191671513e-01,-2.988631965191671513e-01,-2.988631965191671513e-01,-2.988631965191671513e-01,-3.469446951953614189e-18,-3.469446951953614189e-18,-3.469446951953614189e-18,-3.469446951953614189e-18,-1.973912390407575601e-04,-2.269999248968673777e-03,-4.342607258896593464e-03,-6.415215268824511416e-03,-8.487823278752429368e-03,-1.056043128868034732e-02,-1.263303929860826527e-02,-1.470564730853618322e-02,-1.687695093798447649e-02,-1.894955894791239617e-02,-1.894955894791239617e-02,-1.894955894791239617e-02,-1.894955894791239617e-02,-1.894955894791239617e-02,-1.894955894791239617e-02,-1.894955894791239617e-02
-1.894955894791239617e-02,-1.894955894791239617e-02,-1.894955894791239617e-02,-1.894955894791239617e-02,-1.894955894791239617e-02,-1.894955894791239617e-02,-7.120148731248804319e-03,-4.263650763280321665e-04,-3.469446951953614189e-18,-3.469446951953614189e-18,-3.469446951953614189e-18,-3.469446951953614189e-18,-3.469446951953614189e-18,-3.469446951953614189e-18,-3.469446951953614189e-18,-3.469446951953614189e-18,-3.469446951953614189e-18,-3.469446951953614189e-18,-3.469446951953614189e-18,-3.469446951953614189e-18,-3.469446951953614189e-18,-3.469446951953614189e-18,-3.469446951953614189e-18,-2.988631965191671513e-01,-2.988631965191671513e-01,-2.988631965191671513e-01,-2.988631965191671513e-01,-3.469446951953614189e-18,-6.938893903907228378e-18,-3.469446951953614189e-18,-3.469446951953614189e-18,-3.469446951953614189e-18,-3.469446951953614189e-18,-1.973912390407544376e-03,-4.046520400335462328e-03,-6.119128410263380280e-03,-8.191736420191298232e-03,-1.026434443011921618e-02,-1.233695244004713414e-02,-1.450825606949542913e-02,-1.658086407942334708e-02,-1.865347208935126677e-02,-1.894955894791239617e-02,-1.894955894791239617e-02,-1.894955894791239617e-02,-1.894955894791239617e-02,-1.894955894791239617e-02
-1.894955894791239617e-02,-1.894955894791239617e-02,-1.894955894791239617e-02,-1.894955894791239617e-02,-1.894955894791239617e-02,-9.409640365072750173e-03,-1.492277767148105644e-03,-9.948518447654049190e-04,-4.974259223827041942e-04,-3.469446951953614189e-18,-3.469446951953614189e-18,-3.469446951953614189e-18,-3.469446951953614189e-18,-3.469446951953614189e-18,-3.469446951953614189e-18,0.000000000000000000e+00,-3.469446951953614189e-18,-3.469446951953614189e-18,-3.469446951953614189e-18,-3.469446951953614189e-18,-3.469446951953614189e-18,-3.469446951953614189e-18,-3.469446951953614189e-18,-3.469446951953614189e-18,-3.469446951953614189e-18,-3.469446951953614189e-18,-3.469446951953614189e-18,-3.469446951953614189e-18,-3.469446951953614189e-18,-3.469446951953614189e-18,-3.469446951953614189e-18,-3.469446951953614189e-18,-3.469446951953614189e-18,-3.469446951953614189e-18,-1.677825531846414975e-03,-3.750433541774331192e-03,-5.823041551702249144e-03,-7.895649561630167096e-03,-9.968257571558085048e-03,-1.213956120100638005e-02,-1.421216921093429800e-02,-1.628477722086221768e-02,-1.835738523079013390e-02,-1.894955894791239617e-02,-1.894955894791239617e-02,-1.894955894791239617e-02,-1.894955894791239617e-02
-1.894955894791239617e-02,-1.894955894791239617e-02,-1.894955894791239617e-02,-1.894955894791239617e-02,-1.100258766413163627e-02,-2.558190457968175652e-03,-2.060764535585474927e-03,-1.563338613202777672e-03,-1.065912690820076947e-03,-5.684867684373762220e-04,-4.737389736978597776e-05,-3.469446951953614189e-18,-3.469446951953614189e-18,-3.469446951953614189e-18,-3.469446951953614189e-18,-3.469446951953614189e-18,-3.469446951953614189e-18,-3.469446951953614189e-18,-3.469446951953614189e-18,-3.469446951953614189e-18,-3.469446951953614189e-18,-3.469446951953614189e-18,-3.469446951953614189e-18,-3.469446951953614189e-18,-3.469446951953614189e-18,-3.469446951953614189e-18,-3.469446951953614189e-18,-3.469446951953614189e-18,-3.469446951953614189e-18,-3.469446951953614189e-18,-3.469446951953614189e-18,-3.469446951953614189e-18,-3.469446951953614189e-18,-3.469446951953614189e-18,-3.469446951953614189e-18,-1.381738673285282104e-03,-3.454346683213201791e-03,-5.526954693141118008e-03,-7.599562703069035960e-03,-9.770866332517330957e-03,-1.184347434244524891e-02,-1.391608235237316686e-02,-1.598869036230108481e-02,-1.806129837222900103e-02,-1.894955894791239617e-02,-1.894955894791239617e-02,-1.894955894791239617e-02
-1.894955894791239617e-02,-1.894955894791239617e-02,-1.894955894791239617e-02,-1.292567181048618306e-02,-3.624103148788247394e-03,-3.126677226405548404e-03,-2.629251304022847679e-03,-2.131825381640150424e-03,-1.634399459257446230e-03,-1.136973536874748975e-03,-6.158606658071587303e-04,-1.184347434244545361e-04,-3.469446951953614189e-18,-3.469446951953614189e-18,-3.469446951953614189e-18,-3.469446951953614189e-18,-3.469446951953614189e-18,-3.469446951953614189e-18,-3.469446951953614189e-18,-3.469446951953614189e-18,-3.469446951953614189e-18,-3.469446951953614189e-18,-3.469446951953614189e-18,-3.469446951953614189e-18,-3.469446951953614189e-18,-3.469446951953614189e-18,-3.469446951953614189e-18,-3.469446951953614189e-18,-3.469446951953614189e-18,-3.469446951953614189e-18,-3.469446951953614189e-18,-3.469446951953614189e-18,-3.469446951953614189e-18,-3.469446951953614189e-18,-3.469446951953614189e-18,-3.469446951953614189e-18,-1.085651814724152703e-03,-3.158259824652068920e-03,-5.230867834579986872e-03,-7.402171464028281869e-03,-9.474779473956199821e-03,-1.154738748388411777e-02,-1.361999549381203573e-02,-1.569260350373995194e-02,-1.776521151366787163e-02,-1.894955894791239617e-02,-1.894955894791239617e-02
-1.894955894791239617e-02,-1.894955894791239617e-02,-1.465629949877599383e-02,-4.690015839608320872e-03,-4.192589917225621882e-03,-3.695163994842921157e-03,-3.197738072460220432e-03,-2.700312150077519707e-03,-2.202886227694818982e-03,-1.705460305312118258e-03,-1.184347434244528013e-03,-6.869215118618272886e-04,-1.894955894791265638e-04,-3.469446951953614189e-18,-3.469446951953614189e-18,-3.469446951953614189e-18,-3.469446951953614189e-18,-3.469446951953614189e-18,-3.469446951953614189e-18,-3.469446951953614189e-18,-3.469446951953614189e-18,-3.469446951953614189e-18,-3.469446951953614189e-18,-3.469446951953614189e-18,-3.469446951953614189e-18,-3.469446951953614189e-18,-3.469446951953614189e-18,0.000000000000000000e+00,-3.469446951953614189e-18,-3.469446951953614189e-18,-6.938893903907228378e-18,-3.469446951953614189e-18,-3.469446951953614189e-18,-3.469446951953614189e-18,-3.469446951953614189e-18,-3.469446951953614189e-18,-3.469446951953614189e-18,-7.895649561630198321e-04,-2.862172966090939519e-03,-4.934780976018855736e-03,-7.106084605467150733e-03,-9.178692615395068685e-03,-1.125130062532298664e-02,-1.332390863525090459e-02,-1.539651664517882254e-02,-1.746912465510674223e-02,-1.894955894791239617e-02
-1.894955894791239617e-02,-1.617744573463380381e-02,-6.191176212513254881e-03,-5.258502608045691890e-03,-4.761076685662992899e-03,-4.263650763280290440e-03,-3.766224840897591450e-03,-3.268798918514892460e-03,-2.771372996132191735e-03,-2.273947073749491010e-03,-1.752834202681900766e-03,-1.255408280299200041e-03,-7.579823579164993164e-04,-2.605564355337985916e-04,-3.469446951953614189e-18,-3.469446951953614189e-18,-3.469446951953614189e-18,-3.469446951953614189e-18,-3.469446951953614189e-18,-3.469446951953614189e-18,-3.469446951953614189e-18,-3.469446951953614189e-18,-3.469446951953614189e-18,-3.469446951953614189e-18,-3.469446951953614189e-18,-3.469446951953614189e-18,-3.469446951953614189e-18,-3.469446951953614189e-18,-3.469446951953614189e-18,-3.469446951953614189e-18,-3.469446951953614189e-18,-3.469446951953614189e-18,-3.469446951953614189e-18,-3.469446951953614189e-18,-3.469446951953614189e-18,-3.469446951953614189e-18,-3.469446951953614189e-18,-3.469446951953614189e-18,-4.934780976018869614e-04,-2.566086107529806648e-03,-4.737389736978101645e-03,-6.809997746906019597e-03,-8.882605756833937549e-03,-1.095521376676185550e-02,-1.302782177668977345e-02,-1.510042978661769141e-02,-1.717303779654560936e-02
-1.749873334096285413e-02,-8.358532017180736115e-03,-6.348102247550656621e-03,-5.826989376483062907e-03,-5.329563454100363917e-03,-4.832137531717664927e-03,-4.334711609334962468e-03,-3.837285686952263478e-03,-3.339859764569564488e-03,-2.842433842186863763e-03,-2.345007919804163038e-03,-1.823895048736572794e-03,-1.326469126353872069e-03,-8.290432039711713441e-04,-3.316172815884706193e-04,-3.469446951953614189e-18,-3.469446951953614189e-18,-3.469446951953614189e-18,-3.469446951953614189e-18,-3.469446951953614189e-18,-3.469446951953614189e-18,-3.469446951953614189e-18,-3.469446951953614189e-18,-3.469446951953614189e-18,-3.469446951953614189e-18,-3.469446951953614189e-18,-3.469446951953614189e-18,-3.469446951953614189e-18,-3.469446951953614189e-18,-3.469446951953614189e-18,-3.469446951953614189e-18,-3.469446951953614189e-18,-3.469446951953614189e-18,-3.469446951953614189e-18,-3.469446951953614189e-18,-3.469446951953614189e-18,-3.469446951953614189e-18,-3.469446951953614189e-18,-3.469446951953614189e-18,-1.973912390407575601e-04,-2.368694868489052557e-03,-4.441302878416970509e-03,-6.513910888344888461e-03,-8.586518898272804678e-03,-1.065912690820072437e-02,-1.273173491812864232e-02,-1.480434292805656027e-02
-1.032602919231945249e-02,-7.414014938370724894e-03,-6.916589015988027639e-03,-6.395476144920435660e-03,-5.898050222537736670e-03,-5.400624300155035945e-03,-4.903198377772335220e-03,-4.405772455389636230e-03,-3.908346533006935505e-03,-3.410920610624234781e-03,-2.913494688241535790e-03,-2.392381817173942077e-03,-1.894955894791241352e-03,-1.397529972408544097e-03,-9.001040500258433719e-04,-4.026781276431426471e-04,-3.469446951953614189e-18,-3.469446951953614189e-18,-3.469446951953614189e-18,-3.469446951953614189e-18,-3.469446951953614189e-18,-3.469446951953614189e-18,-3.469446951953614189e-18,-3.469446951953614189e-18,-3.469446951953614189e-18,-4.348105527200898934e-02,-4.348105527200898934e-02,-4.348105527200898934e-02,-4.348105527200898934e-02,-3.469446951953614189e-18,-3.469446951953614189e-18,-3.469446951953614189e-18,-3.469446951953614189e-18,-3.469446951953614189e-18,-3.469446951953614189e-18,-8.435603021731588602e-02,-8.435603021731588602e-02,-8.435603021731588602e-02,-8.435603021731588602e-02,-3.469446951953614189e-18,-3.469446951953614189e-18,-2.072608009927919687e-03,-4.145216019855839373e-03,-6.217824029783757325e-03,-8.290432039711675277e-03,-1.036304004963959323e-02,-1.243564805956751118e-02
-8.479927629190798372e-03,-7.982501706808097647e-03,-7.485075784425396922e-03,-6.987649862042697932e-03,-6.466536990975105953e-03,-5.969111068592406963e-03,-5.471685146209704503e-03,-4.974259223827007248e-03,-4.476833301444306523e-03,-3.979407379061604064e-03,-3.481981456678906808e-03,-2.960868585611314829e-03,-2.463442663228614105e-03,-1.966016740845913380e-03,-1.468590818463212655e-03,-9.711648960805153996e-04,-4.737389736978146748e-04,-3.469446951953614189e-18,-3.469446951953614189e-18,-3.469446951953614189e-18,-3.469446951953614189e-18,-3.469446951953614189e-18,-3.469446951953614189e-18,-3.469446951953614189e-18,-3.469446951953614189e-18,-4.348105527200898934e-02,-4.348105527200898934e-02,-4.348105527200898934e-02,-4.348105527200898934e-02,-3.469446951953614189e-18,-3.469446951953614189e-18,-3.469446951953614189e-18,-3.469446951953614189e-18,-3.469446951953614189e-18,-3.469446951953614189e-18,-8.435603021731588602e-02,-8.435603021731588602e-02,-8.435603021731588602e-02,-8.435603021731588602e-02,-3.469446951953614189e-18,-3.469446951953614189e-18,-3.469446951953614189e-18,-1.776521151366790285e-03,-3.849129161294706503e-03,-5.921737171222626189e-03,-7.994345181150544141e-03,-1.006695319107846209e-02
-9.048414397628171124e-03,-8.550988475245470399e-03,-8.053562552862769675e-03,-7.556136630480068950e-03,-7.035023759412480440e-03,-6.537597837029777981e-03,-6.040171914647077256e-03,-5.542745992264376531e-03,-5.045320069881679276e-03,-4.547894147498978551e-03,-4.050468225116277826e-03,-3.529355354048687582e-03,-3.031929431665986857e-03,-2.534503509283286132e-03,-2.037077586900585408e-03,-1.539651664517888152e-03,-1.042225742135183958e-03,-5.447998197524867026e-04,-4.737389736978597776e-05,-3.469446951953614189e-18,-3.469446951953614189e-18,-3.469446951953614189e-18,-3.469446951953614189e-18,-3.469446951953614189e-18,-3.469446951953614189e-18,-4.348105527200898934e-02,-4.348105527200898934e-02,-4.348105527200898934e-02,-4.348105527200898934e-02,-3.469446951953614189e-18,-3.469446951953614189e-18,-3.469446951953614189e-18,-3.469446951953614189e-18,-3.469446951953614189e-18,-3.469446951953614189e-18,-8.435603021731588602e-02,-8.435603021731588602e-02,-8.435603021731588602e-02,-8.435603021731588602e-02,-3.469446951953614189e-18,-3.469446951953614189e-18,-3.469446951953614189e-18,-3.469446951953614189e-18,-1.480434292805660884e-03,-3.553042302733577101e-03,-5.625650312661493319e-03,-7.698258322589413005e-03
-9.616901166065542142e-03,-9.119475243682841417e-03,-8.622049321300140692e-03,-8.124623398917441702e-03,-7.603510527849849723e-03,-7.106084605467150733e-03,-6.608658683084450008e-03,-6.111232760701749284e-03,-5.613806838319048559e-03,-5.116380915936351303e-03,-4.618954993553650579e-03,-4.097842122486058600e-03,-3.600416200103357875e-03,-3.102990277720658885e-03,-2.605564355337958160e-03,-2.108138432955257435e-03,-1.610712510572556710e-03,-1.113286588189859455e-03,-6.158606658071552609e-04,-9.474779473956501663e-05,-3.469446951953614189e-18,-3.469446951953614189e-18,-3.469446951953614189e-18,-3.469446951953614189e-18,-3.469446951953614189e-18,-4.348105527200898934e-02,-4.348105527200898934e-02,-4.348105527200898934e-02,-4.348105527200898934e-02,-3.469446951953614189e-18,-3.469446951953614189e-18,-3.469446951953614189e-18,-3.469446951953614189e-18,-3.469446951953614189e-18,-3.469446951953614189e-18,-8.435603021731588602e-02,-8.435603021731588602e-02,-8.435603021731588602e-02,-8.435603021731588602e-02,-3.469446951953614189e-18,-3.469446951953614189e-18,-3.469446951953614189e-18,-3.469446951953614189e-18,-3.469446951953614189e-18,-1.184347434244528013e-03,-3.256955444172444231e-03,-5.329563454100362183e-03
-1.018538793450291489e-02,-9.687962012120212435e-03,-9.190536089737513445e-03,-8.693110167354814455e-03,-8.171997296287222476e-03,-7.674571373904523486e-03,-7.177145451521822761e-03,-6.679719529139122036e-03,-6.182293606756419577e-03,-5.684867684373720587e-03,-5.187441761991021597e-03,-4.666328890923429618e-03,-4.168902968540732362e-03,-3.671477046158029903e-03,-3.174051123775330913e-03,-2.676625201392630188e-03,-2.179199279009929463e-03,-1.681773356627228738e-03,-1.184347434244528013e-03,-6.632345631769377692e-04,-1.658086407942335749e-04,-3.469446951953614189e-18,-3.469446951953614189e-18,-3.469446951953614189e-18,-3.469446951953614189e-18,-3.469446951953614189e-18,-3.469446951953614189e-18,-3.469446951953614189e-18,-3.469446951953614189e-18,-3.469446951953614189e-18,-3.469446951953614189e-18,-3.469446951953614189e-18,-3.469446951953614189e-18,-3.469446951953614189e-18,-3.469446951953614189e-18,-3.469446951953614189e-18,-3.469446951953614189e-18,-3.469446951953614189e-18,-3.469446951953614189e-18,-3.469446951953614189e-18,-3.469446951953614189e-18,-3.469446951953614189e-18,-3.469446951953614189e-18,-3.469446951953614189e-18,-3.469446951953614189e-18,-8.882605756833986121e-04,-2.960868585611314829e-03
-1.075387470294028765e-02,-1.025644878055758519e-02,-9.759022858174886197e-03,-9.261596935792185473e-03,-8.740484064724595228e-03,-8.243058142341894504e-03,-7.745632219959193779e-03,-7.248206297576494789e-03,-6.750780375193794064e-03,-6.253354452811093339e-03,-5.755928530428392614e-03,-5.258502608045691890e-03,-4.737389736978101645e-03,-4.239963814595402655e-03,-3.742537892212701930e-03,-3.245111969830002940e-03,-2.747686047447298746e-03,-2.250260125064598021e-03,-1.752834202681900766e-03,-1.231721331614307052e-03,-7.342954092316063275e-04,-2.368694868489090721e-04,-3.469446951953614189e-18,-3.469446951953614189e-18,-3.469446951953614189e-18,-3.469446951953614189e-18,-3.469446951953614189e-18,-6.938893903907228378e-18,-3.469446951953614189e-18,-3.469446951953614189e-18,-3.469446951953614189e-18,-3.469446951953614189e-18,-3.469446951953614189e-18,-3.469446951953614189e-18,-3.469446951953614189e-18,-3.469446951953614189e-18,-3.469446951953614189e-18,-3.469446951953614189e-18,-3.469446951953614189e-18,-3.469446951953614189e-18,-3.469446951953614189e-18,-3.469446951953614189e-18,-3.469446951953614189e-18,-3.469446951953614189e-18,-3.469446951953614189e-18,-3.469446951953614189e-18,-5.921737171222657414e-04
-1.132236147137765866e-02,-1.082493554899495794e-02,-1.032750962661225722e-02,-9.830083704229558225e-03,-9.332657781846855766e-03,-8.811544910779265521e-03,-8.314118988396564797e-03,-7.816693066013864072e-03,-7.319267143631165082e-03,-6.821841221248464357e-03,-6.324415298865763632e-03,-5.826989376483062907e-03,-5.305876505415472663e-03,-4.808450583032773673e-03,-4.311024660650072948e-03,-3.813598738267372223e-03,-3.316172815884674968e-03,-2.818746893501974243e-03,-2.321320971119270049e-03,-1.800208100051679805e-03,-1.302782177668982549e-03,-8.053562552862783552e-04,-3.079303329035776304e-04,-3.469446951953614189e-18,-3.469446951953614189e-18,-3.469446951953614189e-18,-3.469446951953614189e-18,0.000000000000000000e+00,-3.469446951953614189e-18,-3.469446951953614189e-18,-3.469446951953614189e-18,0.000000000000000000e+00,-3.469446951953614189e-18,-3.469446951953614189e-18,-3.469446951953614189e-18,-3.469446951953614189e-18,-3.469446951953614189e-18,-3.469446951953614189e-18,-3.469446951953614189e-18,-3.469446951953614189e-18,-3.469446951953614189e-18,-3.469446951953614189e-18,-3.469446951953614189e-18,-3.469446951953614189e-18,-3.469446951953614189e-18,-3.469446951953614189e-18,-3.469446951953614189e-18
-1.189084823981502968e-02,-1.139342231743233069e-02,-1.089599639504962997e-02,-1.039857047266692924e-02,-9.901144550284228518e-03,-9.380031679216636539e-03,-8.882605756833937549e-03,-8.385179834451236824e-03,-7.887753912068536100e-03,-7.390327989685835375e-03,-6.892902067303136385e-03,-6.395476144920433925e-03,-5.874363273852843681e-03,-5.376937351470146426e-03,-4.879511429087445701e-03,-4.382085506704744976e-03,-3.884659584322044251e-03,-3.387233661939343526e-03,-2.889807739556642802e-03,-2.392381817173942077e-03,-1.871268946106351833e-03,-1.373843023723651108e-03,-8.764171013409503830e-04,-3.789911789582496582e-04,-3.469446951953614189e-18,-3.469446951953614189e-18,-3.469446951953614189e-18,-3.469446951953614189e-18,-3.469446951953614189e-18,-3.469446951953614189e-18,-3.469446951953614189e-18,-3.469446951953614189e-18,-3.469446951953614189e-18,-3.469446951953614189e-18,-3.469446951953614189e-18,-3.469446951953614189e-18,-3.469446951953614189e-18,-3.469446951953614189e-18,-3.469446951953614189e-18,-3.469446951953614189e-18,-3.469446951953614189e-18,-3.469446951953614189e-18,-3.469446951953614189e-18,-3.469446951953614189e-18,-3.469446951953614189e-18,-3.469446951953614189e-18,-3.469446951953614189e-18
-1.245933500825240070e-02,-1.196190908586969998e-02,-1.146448316348700099e-02,-1.096705724110430026e-02,-1.046963131872160127e-02,-9.948518447654009292e-03,-9.451092525271308567e-03,-8.953666602888609577e-03,-8.456240680505907117e-03,-7.958814758123208127e-03,-7.461388835740507403e-03,-6.963962913357806678e-03,-6.442850042290218168e-03,-5.945424119907515709e-03,-5.447998197524814984e-03,-4.950572275142117729e-03,-4.453146352759415269e-03,-3.955720430376716279e-03,-3.458294507994015554e-03,-2.960868585611314829e-03,-2.439755714543728055e-03,-1.942329792161023860e-03,-1.444903869778323136e-03,-9.474779473956224107e-04,-4.500520250129216859e-04,-3.469446951953614189e-18,-3.469446951953614189e-18,-3.469446951953614189e-18,-3.469446951953614189e-18,-3.469446951953614189e-18,-3.469446951953614189e-18,-3.469446951953614189e-18,-3.469446951953614189e-18,-3.469446951953614189e-18,-3.469446951953614189e-18,-3.469446951953614189e-18,-3.469446951953614189e-18,-3.469446951953614189e-18,-3.469446951953614189e-18,-3.469446951953614189e-18,0.000000000000000000e+00,-3.469446951953614189e-18,-3.469446951953614189e-18,-3.469446951953614189e-18,-3.469446951953614189e-18,-3.469446951953614189e-18,-3.469446951953614189e-18
-1.302782177668977345e-02,-1.253039585430707273e-02,-1.203296993192437200e-02,-1.153554400954167128e-02,-1.103811808715897229e-02,-1.051700521609138204e-02,-1.001957929370868132e-02,-9.522153371325980595e-03,-9.024727448943279870e-03,-8.527301526560580880e-03,-8.029875604177878420e-03,-7.532449681795179430e-03,-7.035023759412478705e-03,-6.513910888344888461e-03,-6.016484965962187736e-03,-5.519059043579487012e-03,-5.021633121196786287e-03,-4.524207198814089032e-03,-4.026781276431388307e-03,-3.529355354048687582e-03,-3.008242482981097338e-03,-2.510816560598396613e-03,-2.013390638215695888e-03,-1.515964715832995163e-03,-1.018538793450294438e-03,-5.211128710675937137e-04,-2.368694868489298888e-05,-3.469446951953614189e-18,-3.469446951953614189e-18,-3.469446951953614189e-18,-3.469446951953614189e-18,-3.469446951953614189e-18,-3.469446951953614189e-18,-3.469446951953614189e-18,-3.469446951953614189e-18,-3.469446951953614189e-18,-3.469446951953614189e-18,-3.469446951953614189e-18,-3.469446951953614189e-18,-3.469446951953614189e-18,-3.469446951953614189e-18,-3.469446951953614189e-18,-3.469446951953614189e-18,-3.469446951953614189e-18,-3.469446951953614189e-18,-3.469446951953614189e-18,-3.469446951953614189e-18
-1.359630854512714621e-02,-1.309888262274444548e-02,-1.260145670036174476e-02,-1.210403077797904403e-02,-1.160660485559634331e-02,-1.108549198452875306e-02,-1.058806606214605407e-02,-1.009064013976335335e-02,-9.593214217380652623e-03,-9.095788294997951898e-03,-8.598362372615251173e-03,-8.100936450232552183e-03,-7.603510527849851458e-03,-7.082397656782259479e-03,-6.584971734399558754e-03,-6.087545812016858029e-03,-5.590119889634159039e-03,-5.092693967251458315e-03,-4.595268044868761059e-03,-4.097842122486060334e-03,-3.576729251418466621e-03,-3.079303329035769365e-03,-2.581877406653068641e-03,-2.084451484270367916e-03,-1.587025561887663722e-03,-1.089599639504966466e-03,-5.921737171222657414e-04,-9.474779473956501663e-05,-3.469446951953614189e-18,-3.469446951953614189e-18,-3.469446951953614189e-18,-3.469446951953614189e-18,-3.469446951953614189e-18,-3.469446951953614189e-18,-3.469446951953614189e-18,-3.469446951953614189e-18,-3.469446951953614189e-18,-3.469446951953614189e-18,-3.469446951953614189e-18,-3.469446951953614189e-18,-3.469446951953614189e-18,-3.469446951953614189e-18,-3.469446951953614189e-18,-3.469446951953614189e-18,-3.469446951953614189e-18,-6.938893903907228378e-18,-3.469446951953614189e-18
-1.416479531356451722e-02,-1.543536088182614341e-01,-1.538561828958787125e-01,-1.533587569734960188e-01,-1.217509162403371606e-02,-1.165397875296612408e-02,-1.115655283058342509e-02,-1.065912690820072437e-02,-1.016170098581802364e-02,-9.664275063435322916e-03,-9.166849141052622191e-03,-8.669423218669923201e-03,-8.171997296287222476e-03,-7.650884425219632232e-03,-7.153458502836931507e-03,-6.656032580454230782e-03,-6.158606658071530057e-03,-5.661180735688831067e-03,-5.163754813306130342e-03,-4.666328890923429618e-03,-4.145216019855841108e-03,-3.647790097473140383e-03,-3.150364175090437924e-03,-2.652938252707740668e-03,-2.155512330325036474e-03,-1.658086407942339219e-03,-1.160660485559638494e-03,-6.632345631769377692e-04,-1.421216921093440555e-04,-3.469446951953614189e-18,-3.469446951953614189e-18,-3.469446951953614189e-18,-3.469446951953614189e-18,-3.469446951953614189e-18,-3.469446951953614189e-18,-3.469446951953614189e-18,-6.938893903907228378e-18,-3.469446951953614189e-18,-3.469446951953614189e-18,-3.469446951953614189e-18,-3.469446951953614189e-18,-3.469446951953614189e-18,-3.469446951953614189e-18,-3.469446951953614189e-18,0.000000000000000000e+00,-3.469446951953614189e-18,-3.469446951953614189e-18
-1.473328208200188824e-02,-1.549220955866988103e-01,-1.544246696643160888e-01,-1.539272437419333950e-01,-1.274357839247108708e-02,-1.224615247008838809e-02,-1.172503959902079611e-02,-1.122761367663809712e-02,-1.073018775425539639e-02,-1.023276183187269567e-02,-9.735335909489994943e-03,-9.237909987107295953e-03,-8.740484064724595228e-03,-8.219371193657003249e-03,-7.721945271274302525e-03,-7.224519348891603535e-03,-6.727093426508901075e-03,-6.229667504126203820e-03,-5.732241581743501360e-03,-5.234815659360802370e-03,-4.713702788293212126e-03,-4.216276865910511401e-03,-3.718850943527812411e-03,-3.221425021145109951e-03,-2.723999098762409227e-03,-2.226573176379708502e-03,-1.729147253997011247e-03,-1.231721331614307052e-03,-7.106084605467168080e-04,-2.131825381640195527e-04,-3.469446951953614189e-18,-3.469446951953614189e-18,-3.469446951953614189e-18,-3.469446951953614189e-18,-3.469446951953614189e-18,-3.469446951953614189e-18,-3.469446951953614189e-18,-3.469446951953614189e-18,-3.469446951953614189e-18,-3.469446951953614189e-18,-3.469446951953614189e-18,-3.469446951953614189e-18,-3.469446951953614189e-18,-3.469446951953614189e-18,-3.469446951953614189e-18,-3.469446951953614189e-18,-3.469446951953614189e-18
-1.530176885043926099e-02,-1.554905823551361588e-01,-1.549931564327534650e-01,-1.544957305103707712e-01,-1.331206516090845809e-02,-1.281463923852575910e-02,-1.229352636745816713e-02,-1.179610044507546814e-02,-1.129867452269276741e-02,-1.080124860031006669e-02,-1.030382267792736770e-02,-9.806396755544666971e-03,-9.308970833161966246e-03,-8.787857962094376002e-03,-8.290432039711675277e-03,-7.793006117328974552e-03,-7.295580194946275562e-03,-6.798154272563573103e-03,-6.300728350180872378e-03,-5.803302427798173388e-03,-5.305876505415472663e-03,-4.784763634347882419e-03,-4.287337711965183429e-03,-3.789911789582482704e-03,-3.292485867199781979e-03,-2.795059944817081254e-03,-2.297634022434380530e-03,-1.800208100051679805e-03,-1.279095228984089561e-03,-7.816693066013888358e-04,-2.842433842186915804e-04,-3.469446951953614189e-18,-3.469446951953614189e-18,-3.469446951953614189e-18,-3.469446951953614189e-18,-3.469446951953614189e-18,0.000000000000000000e+00,-3.469446951953614189e-18,-3.469446951953614189e-18,-3.469446951953614189e-18,-3.469446951953614189e-18,-3.469446951953614189e-18,-3.469446951953614189e-18,-3.469446951953614189e-18,-3.469446951953614189e-18,-3.469446951953614189e-18,-3.469446951953614189e-18
-1.587025561887663375e-02,-1.537282969649393302e-02,-1.487540377411123230e-02,-1.437797785172853157e-02,-1.388055192934583085e-02,-1.338312600696313012e-02,-1.286201313589553988e-02,-1.236458721351283915e-02,-1.186716129113013843e-02,-1.136973536874743944e-02,-1.087230944636473871e-02,-1.037488352398203799e-02,-9.877457601599338999e-03,-9.380031679216638274e-03,-8.858918808149048030e-03,-8.361492885766345570e-03,-7.864066963383646580e-03,-7.366641041000945855e-03,-6.869215118618246865e-03,-6.371789196235546140e-03,-5.874363273852845416e-03,-5.353250402785253437e-03,-4.855824480402554447e-03,-4.358398558019853722e-03,-3.860972635637156467e-03,-3.363546713254454007e-03,-2.866120790871753282e-03,-2.368694868489056027e-03,-1.847581997421462313e-03,-1.350156075038761588e-03,-8.527301526560608635e-04,-3.553042302733601387e-04,-3.469446951953614189e-18,-3.469446951953614189e-18,-3.469446951953614189e-18,-3.469446951953614189e-18,-3.469446951953614189e-18,-3.469446951953614189e-18,-3.469446951953614189e-18,-3.469446951953614189e-18,0.000000000000000000e+00,-3.469446951953614189e-18,-3.469446951953614189e-18,-3.469446951953614189e-18,-3.469446951953614189e-18,-3.469446951953614189e-18,-3.469446951953614189e-18
-1.643874238731400303e-02,-1.594131646493130230e-02,-1.544389054254860331e-02,-1.494646462016590432e-02,-1.444903869778320187e-02,-1.395161277540050287e-02,-1.343049990433291263e-02,-1.293307398195021191e-02,-1.243564805956751118e-02,-1.193822213718481046e-02,-1.144079621480210973e-02,-1.094337029241940901e-02,-1.044594437003671002e-02,-9.948518447654009292e-03,-9.427405576586419048e-03,-8.929979654203718323e-03,-8.432553731821017598e-03,-7.935127809438316873e-03,-7.437701887055617883e-03,-6.940275964672915424e-03,-6.442850042290216434e-03,-5.921737171222626189e-03,-5.424311248839925464e-03,-4.926885326457224740e-03,-4.429459404074525750e-03,-3.932033481691826760e-03,-3.434607559309124300e-03,-2.937181636926425310e-03,-2.439755714543724585e-03,-1.918642843476134341e-03,-1.421216921093433616e-03,-9.237909987107328913e-04,-4.263650763280321665e-04,-3.469446951953614189e-18,-1.416023653285427564e-01,-1.416023653285427564e-01,-1.416023653285427564e-01,-1.416023653285427564e-01,-1.416023653285427564e-01,-3.469446951953614189e-18,-3.469446951953614189e-18,-3.469446951953614189e-18,-3.469446951953614189e-18,-3.469446951953614189e-18,-3.469446951953614189e-18,-3.469446951953614189e-18,-3.469446951953614189e-18
-1.700722915575137578e-02,-1.650980323336867506e-02,-1.601237731098597433e-02,-1.551495138860327534e-02,-1.501752546622057462e-02,-1.452009954383787563e-02,-1.402267362145517490e-02,-1.350156075038758292e-02,-1.300413482800488393e-02,-1.250670890562218321e-02,-1.200928298323948248e-02,-1.151185706085678176e-02,-1.101443113847408103e-02,-1.051700521609138031e-02,-9.995892345023790065e-03,-9.498466422641089341e-03,-9.001040500258388616e-03,-8.503614577875689626e-03,-8.006188655492990636e-03,-7.508762733110288176e-03,-7.011336810727589186e-03,-6.490223939659997207e-03,-5.992798017277296482e-03,-5.495372094894595758e-03,-4.997946172511896767e-03,-4.500520250129197777e-03,-4.003094327746497053e-03,-3.505668405363796328e-03,-3.008242482981097338e-03,-2.487129611913507093e-03,-1.989703689530806369e-03,-1.492277767148105644e-03,-9.948518447654049190e-04,-4.974259223827041942e-04,-1.416023653285427564e-01,-1.416023653285427564e-01,-1.416023653285427564e-01,-1.416023653285427564e-01,-1.416023653285427564e-01,-3.469446951953614189e-18,-3.469446951953614189e-18,-3.469446951953614189e-18,-3.469446951953614189e-18,-3.469446951953614189e-18,-3.469446951953614189e-18,-3.469446951953614189e-18,-3.469446951953614189e-18
-1.757571592418874853e-02,-1.707829000180604781e-02,-1.658086407942334708e-02,-1.608343815704064636e-02,-1.558601223465794564e-02,-1.508858631227524665e-02,-1.459116038989254592e-02,-1.407004751882495394e-02,-1.357262159644225322e-02,-1.307519567405955423e-02,-1.257776975167685350e-02,-1.208034382929415451e-02,-1.158291790691145379e-02,-1.108549198452875306e-02,-1.056437911346116282e-02,-1.006695319107846209e-02,-9.569527268695761368e-03,-9.072101346313060644e-03,-8.574675423930359919e-03,-8.077249501547659194e-03,-7.579823579164960204e-03,-7.082397656782261214e-03,-6.561284785714669235e-03,-6.063858863331968510e-03,-5.566432940949267785e-03,-5.069007018566568795e-03,-4.571581096183869805e-03,-4.074155173801167346e-03,-3.576729251418468356e-03,-3.055616380350879846e-03,-2.558190457968175652e-03,-2.060764535585474927e-03,-1.563338613202777672e-03,-1.065912690820076947e-03,-1.421708520969801326e-01,-1.416734261745974388e-01,-1.416023653285427564e-01,-1.416023653285427564e-01,-1.416023653285427564e-01,-3.469446951953614189e-18,-3.469446951953614189e-18,-3.469446951953614189e-18,-3.469446951953614189e-18,-3.469446951953614189e-18,-3.469446951953614189e-18,-3.469446951953614189e-18,-3.469446951953614189e-18
-1.814420269262611782e-02,-1.764677677024342056e-02,-1.714935084786071984e-02,-1.665192492547801911e-02,-1.615449900309531839e-02,-1.565707308071261766e-02,-1.515964715832991694e-02,-1.463853428726232669e-02,-1.414110836487962597e-02,-1.364368244249692524e-02,-1.314625652011422625e-02,-1.264883059773152553e-02,-1.215140467534882480e-02,-1.165397875296612581e-02,-1.113286588189853384e-02,-1.063543995951583485e-02,-1.013801403713313412e-02,-9.640588114750433396e-03,-9.143162192367732671e-03,-8.645736269985031947e-03,-8.148310347602331222e-03,-7.650884425219632232e-03,-7.129771554152040253e-03,-6.632345631769339528e-03,-6.134919709386638803e-03,-5.637493787003938078e-03,-5.140067864621240823e-03,-4.642641942238538363e-03,-4.145216019855841108e-03,-3.624103148788249129e-03,-3.126677226405548404e-03,-2.629251304022847679e-03,-2.131825381640150424e-03,-1.634399459257446230e-03,-1.427393388654175088e-01,-1.422419129430348150e-01,-1.417208000719672178e-01,-1.416023653285427564e-01,-1.416023653285427564e-01,-3.469446951953614189e-18,-3.469446951953614189e-18,-3.469446951953614189e-18,-3.469446951953614189e-18,-3.469446951953614189e-18,-3.469446951953614189e-18,-3.469446951953614189e-18,-4.145216019855839373e-03
-1.871268946106349057e-02,-1.821526353868078985e-02,-1.771783761629808912e-02,-1.722041169391538840e-02,-1.672298577153269114e-02,-1.622555984914999042e-02,-1.572813392676728969e-02,-1.520702105569969945e-02,-1.470959513331699872e-02,-1.421216921093429800e-02,-1.371474328855159727e-02,-1.321731736616889655e-02,-1.271989144378619582e-02,-1.222246552140349857e-02,-1.170135265033590485e-02,-1.120392672795320586e-02,-1.070650080557050514e-02,-1.020907488318780615e-02,-9.711648960805105424e-03,-9.214223038422404699e-03,-8.716797116039703974e-03,-8.219371193657004984e-03,-7.698258322589411271e-03,-7.200832400206712280e-03,-6.703406477824013290e-03,-6.205980555441310831e-03,-5.708554633058611841e-03,-5.211128710675909381e-03,-4.713702788293212126e-03,-4.192589917225620147e-03,-3.695163994842921157e-03,-3.197738072460220432e-03,-2.700312150077519707e-03,-2.202886227694818982e-03,-1.433078256338548850e-01,-1.428103997114721635e-01,-1.423129737890894697e-01,-1.417918609180218725e-01,-1.416023653285427564e-01,-3.469446951953614189e-18,-3.469446951953614189e-18,-3.469446951953614189e-18,-3.469446951953614189e-18,-3.469446951953614189e-18,-3.469446951953614189e-18,-2.368694868489052557e-03,-1.658086407942334708e-02
-1.894955894791239617e-02,-1.878375030711816260e-02,-1.828632438473546187e-02,-1.778889846235276115e-02,-1.729147253997006042e-02,-1.679404661758736317e-02,-1.629662069520466244e-02,-1.577550782413707220e-02,-1.527808190175436974e-02,-1.478065597937167075e-02,-1.428323005698897002e-02,-1.378580413460626930e-02,-1.328837821222356858e-02,-1.279095228984086785e-02,-1.229352636745816886e-02,-1.177241349639057688e-02,-1.127498757400787789e-02,-1.077756165162517717e-02,-1.028013572924247644e-02,-9.782709806859775717e-03,-9.285283884477074992e-03,-8.787857962094376002e-03,-8.266745091026785758e-03,-7.769319168644083298e-03,-7.271893246261384308e-03,-6.774467323878683583e-03,-6.277041401495982859e-03,-5.779615479113282134e-03,-5.282189556730581409e-03,-4.761076685662994634e-03,-4.263650763280293909e-03,-3.766224840897593185e-03,-3.268798918514888990e-03,-2.771372996132191735e-03,-2.273947073749491010e-03,-1.776521151366790285e-03,-1.279095228984089561e-03,-7.579823579164993164e-04,-2.605564355337985916e-04,-3.469446951953614189e-18,-3.469446951953614189e-18,-3.469446951953614189e-18,-3.469446951953614189e-18,-3.469446951953614189e-18,-5.921737171222657414e-04,-1.480434292805656027e-02,-1.894955894791239617e-02
-1.894955894791239617e-02,-1.894955894791239617e-02,-1.885481115317283463e-02,-1.835738523079013390e-02,-1.785995930840743318e-02,-1.736253338602473245e-02,-1.686510746364203173e-02,-1.636768154125933100e-02,-1.584656867019174076e-02,-1.534914274780904177e-02,-1.485171682542634104e-02,-1.435429090304364205e-02,-1.385686498066094133e-02,-1.335943905827824060e-02,-1.286201313589553988e-02,-1.234090026482794963e-02,-1.184347434244524891e-02,-1.134604842006254818e-02,-1.084862249767984746e-02,-1.035119657529714847e-02,-9.853770652914447745e-03,-9.356344730531747020e-03,-8.835231859464156776e-03,-8.337805937081456051e-03,-7.840380014698755326e-03,-7.342954092316054601e-03,-6.845528169933355611e-03,-6.348102247550654886e-03,-5.850676325167954162e-03,-5.353250402785253437e-03,-4.832137531717664927e-03,-4.334711609334962468e-03,-3.837285686952261743e-03,-3.339859764569562753e-03,-2.842433842186863763e-03,-2.345007919804163038e-03,-1.847581997421462313e-03,-1.326469126353872069e-03,-8.290432039711713441e-04,-3.316172815884706193e-04,-3.469446951953614189e-18,-3.469446951953614189e-18,-3.469446951953614189e-18,-3.469446951953614189e-18,-1.302782177668977345e-02,-1.894955894791239617e-02,-1.894955894791239617e-02
-1.894955894791239617e-02,-1.894955894791239617e-02,-1.894955894791239617e-02,-1.892587199922750665e-02,-1.842844607684480593e-02,-1.793102015446210520e-02,-1.743359423207940448e-02,-1.693616830969670375e-02,-1.641505543862911351e-02,-1.591762951624641279e-02,-1.542020359386371206e-02,-1.492277767148101307e-02,-1.442535174909831235e-02,-1.392792582671561162e-02,-1.343049990433291263e-02,-1.290938703326532065e-02,-1.241196111088261993e-02,-1.191453518849992094e-02,-1.141710926611722021e-02,-1.091968334373451949e-02,-1.042225742135181876e-02,-9.924831498969119772e-03,-9.427405576586419048e-03,-8.906292705518827069e-03,-8.408866783136126344e-03,-7.911440860753427354e-03,-7.414014938370726629e-03,-6.916589015988025904e-03,-6.419163093605326914e-03,-5.921737171222624455e-03,-5.400624300155035945e-03,-4.903198377772335220e-03,-4.405772455389634495e-03,-3.908346533006935505e-03,-3.410920610624234781e-03,-2.913494688241532321e-03,-2.416068765858835066e-03,-1.894955894791244821e-03,-1.397529972408540627e-03,-9.001040500258433719e-04,-4.026781276431426471e-04,-3.469446951953614189e-18,-3.469446951953614189e-18,-1.125130062532298664e-02,-1.894955894791239617e-02,-1.894955894791239617e-02,-1.894955894791239617e-02
-1.894955894791239617e-02,-1.894955894791239617e-02,-1.894955894791239617e-02,-1.894955894791239617e-02,-1.894955894791239617e-02,-1.849950692289947796e-02,-1.800208100051677723e-02,-1.750465507813407651e-02,-1.698354220706648626e-02,-1.648611628468378554e-02,-1.598869036230108481e-02,-1.549126443991838409e-02,-1.499383851753568336e-02,-1.449641259515298264e-02,-1.399898667277028365e-02,-1.347787380170269167e-02,-1.298044787931999268e-02,-1.248302195693729195e-02,-1.198559603455459296e-02,-1.148817011217189224e-02,-1.099074418978919152e-02,-1.049331826740649079e-02,-9.995892345023790065e-03,-9.474779473956199821e-03,-8.977353551573499096e-03,-8.479927629190798372e-03,-7.982501706808097647e-03,-7.485075784425398657e-03,-6.987649862042697932e-03,-6.490223939659997207e-03,-5.969111068592405228e-03,-5.471685146209706238e-03,-4.974259223827007248e-03,-4.476833301444306523e-03,-3.979407379061609268e-03,-3.481981456678906808e-03,-2.984555534296207818e-03,-2.487129611913503624e-03,-1.966016740845916849e-03,-1.468590818463212655e-03,-9.711648960805153996e-04,-4.737389736978146748e-04,-9.474779473956199821e-03,-1.894955894791239617e-02,-1.894955894791239617e-02,-1.894955894791239617e-02,-1.894955894791239617e-02
-1.894955894791239617e-02,-1.894955894791239617e-02,-1.894955894791239617e-02,-1.894955894791239617e-02,-1.894955894791239617e-02,-1.894955894791239617e-02,-1.857056776895414998e-02,-1.807314184657144926e-02,-1.755202897550385555e-02,-1.705460305312115829e-02,-1.655717713073845757e-02,-1.605975120835575684e-02,-1.556232528597305612e-02,-1.506489936359035539e-02,-1.456747344120765467e-02,-1.407004751882495394e-02,-1.354893464775736370e-02,-1.305150872537466297e-02,-1.255408280299196398e-02,-1.205665688060926326e-02,-1.155923095822656427e-02,-1.106180503584386354e-02,-1.056437911346116282e-02,-1.004326624239357257e-02,-9.545840320010871849e-03,-9.048414397628171124e-03,-8.550988475245470399e-03,-8.053562552862769675e-03,-7.556136630480068950e-03,-7.058710708097368225e-03,-6.537597837029777981e-03,-6.040171914647077256e-03,-5.542745992264378266e-03,-5.045320069881679276e-03,-4.547894147498978551e-03,-4.050468225116277826e-03,-3.553042302733577101e-03,-3.055616380350876377e-03,-2.534503509283286132e-03,-2.037077586900585408e-03,-1.539651664517884683e-03,-8.876684019662715169e-03,-1.894955894791239617e-02,-1.894955894791239617e-02,-1.894955894791239617e-02,-1.894955894791239617e-02,-1.894955894791239617e-02
-1.894955894791239617e-02,-1.894955894791239617e-02,-1.894955894791239617e-02,-1.894955894791239617e-02,-1.894955894791239617e-02,-1.894955894791239617e-02,-1.894955894791239617e-02,-1.864162861500881854e-02,-1.812051574394122830e-02,-1.762308982155852757e-02,-1.712566389917582685e-02,-1.662823797679312959e-02,-1.613081205441042887e-02,-1.563338613202772814e-02,-1.513596020964502742e-02,-1.463853428726232669e-02,-1.411742141619473645e-02,-1.361999549381203573e-02,-1.312256957142933500e-02,-1.262514364904663428e-02,-1.212771772666393355e-02,-1.163029180428123456e-02,-1.113286588189853557e-02,-1.061175301083094359e-02,-1.011432708844824287e-02,-9.616901166065543877e-03,-9.119475243682843152e-03,-8.622049321300142427e-03,-8.124623398917441702e-03,-7.627197476534740977e-03,-7.106084605467150733e-03,-6.608658683084450008e-03,-6.111232760701749284e-03,-5.613806838319048559e-03,-5.116380915936347834e-03,-4.618954993553650579e-03,-4.121529071170949854e-03,-3.624103148788250864e-03,-3.102990277720658885e-03,-2.605564355337958160e-03,-7.897376734971772033e-03,-1.894955894791239617e-02,-1.894955894791239617e-02,-1.894955894791239617e-02,-1.894955894791239617e-02,-1.894955894791239617e-02,-1.894955894791239617e-02
-1.894955894791239617e-02,-1.894955894791239617e-02,-1.894955894791239617e-02,-1.894955894791239617e-02,-1.894955894791239617e-02,-1.894955894791239617e-02,-1.894955894791239617e-02,-1.894955894791239617e-02,-1.868900251237860105e-02,-1.819157658999590033e-02,-1.769415066761319960e-02,-1.719672474523049888e-02,-1.669929882284779815e-02,-1.620187290046509743e-02,-1.570444697808240017e-02,-1.520702105569969945e-02,-1.468590818463210920e-02,-1.418848226224940848e-02,-1.369105633986670775e-02,-1.319363041748400703e-02,-1.269620449510130630e-02,-1.219877857271860558e-02,-1.170135265033590485e-02,-1.118023977926831461e-02,-1.068281385688561562e-02,-1.018538793450291316e-02,-9.687962012120214170e-03,-9.190536089737513445e-03,-8.693110167354814455e-03,-8.195684244972113730e-03,-7.698258322589411271e-03,-7.177145451521822761e-03,-6.679719529139122036e-03,-6.182293606756421311e-03,-5.684867684373720587e-03,-5.187441761991021597e-03,-4.690015839608322606e-03,-4.192589917225621882e-03,-3.671477046158029903e-03,-7.117928079809597228e-03,-1.894955894791239617e-02,-1.894955894791239617e-02,-1.894955894791239617e-02,-1.894955894791239617e-02,-1.894955894791239617e-02,-1.894955894791239617e-02,-1.894955894791239617e-02
-1.894955894791239617e-02,-1.894955894791239617e-02,-1.894955894791239617e-02,-1.894955894791239617e-02,-1.894955894791239617e-02,-1.894955894791239617e-02,-1.894955894791239617e-02,-1.894955894791239617e-02,-1.894955894791239617e-02,-1.876006335843327308e-02,-1.826263743605057235e-02,-1.776521151366787163e-02,-1.726778559128517090e-02,-1.677035966890247018e-02,-1.627293374651976945e-02,-1.577550782413707220e-02,-1.525439495306948022e-02,-1.475696903068677950e-02,-1.425954310830407877e-02,-1.376211718592137978e-02,-1.326469126353867906e-02,-1.276726534115597833e-02,-1.226983941877327761e-02,-1.174872654770568736e-02,-1.125130062532298664e-02,-1.075387470294028591e-02,-1.025644878055758692e-02,-9.759022858174886197e-03,-9.261596935792185473e-03,-8.764171013409484748e-03,-8.266745091026785758e-03,-7.745632219959193779e-03,-7.248206297576493054e-03,-6.750780375193794064e-03,-6.253354452811091604e-03,-5.755928530428390880e-03,-5.258502608045691890e-03,-4.761076685662992899e-03,-6.538338054176182079e-03,-1.752390072394054837e-02,-1.894955894791239617e-02,-1.894955894791239617e-02,-1.894955894791239617e-02,-1.894955894791239617e-02,-1.894955894791239617e-02,-1.894955894791239617e-02,-1.894955894791239617e-02
-1.894955894791239617e-02,-1.894955894791239617e-02,-1.894955894791239617e-02,-1.894955894791239617e-02,-1.894955894791239617e-02,-1.894955894791239617e-02,-1.894955894791239617e-02,-1.894955894791239617e-02,-1.894955894791239617e-02,-1.894955894791239617e-02,-1.883112420448794511e-02,-1.833369828210524438e-02,-1.783627235972254366e-02,-1.733884643733984293e-02,-1.684142051495714221e-02,-1.634399459257444148e-02,-1.582288172150685124e-02,-1.532545579912415051e-02,-1.482802987674144979e-02,-1.433060395435875080e-02,-1.383317803197605007e-02,-1.333575210959334935e-02,-1.283832618721064862e-02,-1.234090026482794963e-02,-1.181978739376035939e-02,-1.132236147137765866e-02,-1.082493554899495794e-02,-1.032750962661225895e-02,-9.830083704229556490e-03,-9.332657781846857500e-03,-8.835231859464156776e-03,-8.314118988396564797e-03,-7.816693066013864072e-03,-7.319267143631165082e-03,-6.821841221248464357e-03,-6.324415298865765367e-03,-5.826989376483064642e-03,-6.180813172463616584e-03,-1.629810112949746717e-02,-1.894955894791239617e-02,-1.894955894791239617e-02,-1.894955894791239617e-02,-1.894955894791239617e-02,-1.894955894791239617e-02,-1.894955894791239617e-02,-1.894955894791239617e-02,-1.894955894791239617e-02
-1.894955894791239617e-02,-1.894955894791239617e-02,-1.894955894791239617e-02,-1.894955894791239617e-02,-1.894955894791239617e-02,-1.894955894791239617e-02,-1.894955894791239617e-02,-1.894955894791239617e-02,-1.894955894791239617e-02,-1.894955894791239617e-02,-1.894955894791239617e-02,-1.890218505054261366e-02,-1.840475912815991641e-02,-1.790733320577721568e-02,-1.740990728339451496e-02,-1.691248136101181423e-02,-1.641505543862911351e-02,-1.589394256756152327e-02,-1.539651664517882254e-02,-1.489909072279612182e-02,-1.440166480041342109e-02,-1.390423887803072037e-02,-1.340681295564802138e-02,-1.290938703326532065e-02,-1.238827416219773041e-02,-1.189084823981502968e-02,-1.139342231743233069e-02,-1.089599639504962997e-02,-1.039857047266692924e-02,-9.901144550284228518e-03,-9.403718627901527793e-03,-8.882605756833937549e-03,-8.385179834451236824e-03,-7.887753912068536100e-03,-7.390327989685835375e-03,-6.892902067303136385e-03,-6.395476144920435660e-03,-1.527882211890077210e-02,-1.894955894791239617e-02,-1.894955894791239617e-02,-1.894955894791239617e-02,-1.894955894791239617e-02,-1.894955894791239617e-02,-1.894955894791239617e-02,-1.894955894791239617e-02,-1.894955894791239617e-02,-1.894955894791239617e-02
-1.894955894791239617e-02,-1.894955894791239617e-02,-1.894955894791239617e-02,-1.894955894791239617e-02,-1.894955894791239617e-02,-1.894955894791239617e-02,-1.894955894791239617e-02,-1.894955894791239617e-02,-1.894955894791239617e-02,-1.894955894791239617e-02,-1.894955894791239617e-02,-1.894955894791239617e-02,-1.894955894791239617e-02,-1.847581997421458497e-02,-1.797839405183188771e-02,-1.748096812944918699e-02,-1.698354220706648626e-02,-1.646242933599889602e-02,-1.596500341361619529e-02,-1.546757749123349457e-02,-1.497015156885079384e-02,-1.447272564646809312e-02,-1.397529972408539239e-02,-1.347787380170269167e-02,-1.295676093063510143e-02,-1.245933500825240070e-02,-1.196190908586970171e-02,-1.146448316348700272e-02,-1.096705724110430026e-02,-1.046963131872160127e-02,-9.972205396338900546e-03,-9.474779473956199821e-03,-8.953666602888609577e-03,-8.456240680505907117e-03,-7.958814758123208127e-03,-7.461388835740507403e-03,-1.445496043495442598e-02,-1.894955894791239617e-02,-1.894955894791239617e-02,-1.894955894791239617e-02,-1.894955894791239617e-02,-1.894955894791239617e-02,-1.894955894791239617e-02,-1.894955894791239617e-02,-1.894955894791239617e-02,-1.894955894791239617e-02,-1.894955894791239617e-02
-1.894955894791239617e-02,-1.894955894791239617e-02,-1.894955894791239617e-02,-1.894955894791239617e-02,-1.894955894791239617e-02,-1.894955894791239617e-02,-1.894955894791239617e-02,-1.894955894791239617e-02,-1.894955894791239617e-02,-1.894955894791239617e-02,-1.894955894791239617e-02,-1.894955894791239617e-02,-1.894955894791239617e-02,-1.894955894791239617e-02,-1.854688082026925700e-02,-1.804945489788655627e-02,-1.755202897550385555e-02,-1.703091610443626530e-02,-1.653349018205356458e-02,-1.603606425967086385e-02,-1.553863833728816660e-02,-1.504121241490546587e-02,-1.454378649252276515e-02,-1.404636057014006442e-02,-1.352524769907247418e-02,-1.302782177668977345e-02,-1.253039585430707273e-02,-1.203296993192437200e-02,-1.153554400954167301e-02,-1.103811808715897229e-02,-1.054069216477627330e-02,-1.004326624239357257e-02,-9.522153371325980595e-03,-9.024727448943281605e-03,-8.527301526560580880e-03,-1.383095738053684125e-02,-1.894955894791239617e-02,-1.894955894791239617e-02,-1.894955894791239617e-02,-1.894955894791239617e-02,-1.894955894791239617e-02,-1.894955894791239617e-02,-1.894955894791239617e-02,-1.894955894791239617e-02,-1.894955894791239617e-02,-1.894955894791239617e-02,-1.894955894791239617e-02
-1.894955894791239617e-02,-1.894955894791239617e-02,-1.894955894791239617e-02,-1.894955894791239617e-02,-1.894955894791239617e-02,-1.894955894791239617e-02,-1.894955894791239617e-02,-1.894955894791239617e-02,-1.894955894791239617e-02,-1.894955894791239617e-02,-1.894955894791239617e-02,-1.894955894791239617e-02,-1.894955894791239617e-02,-1.894955894791239617e-02,-1.894955894791239617e-02,-1.861794166632392902e-02,-1.812051574394122830e-02,-1.759940287287363805e-02,-1.710197695049093733e-02,-1.660455102810823660e-02,-1.610712510572553935e-02,-1.560969918334283689e-02,-1.511227326096013616e-02,-1.461484733857743717e-02,-1.411742141619473645e-02,-1.359630854512714447e-02,-1.309888262274444548e-02,-1.260145670036174476e-02,-1.210403077797904403e-02,-1.160660485559634331e-02,-1.110917893321364258e-02,-1.061175301083094359e-02,-1.009064013976335161e-02,-9.593214217380652623e-03,-1.340681295564802138e-02,-1.894955894791239617e-02,-1.894955894791239617e-02,-1.894955894791239617e-02,-1.894955894791239617e-02,-1.894955894791239617e-02,-1.894955894791239617e-02,-1.894955894791239617e-02,-1.894955894791239617e-02,-1.894955894791239617e-02,-1.894955894791239617e-02,-1.894955894791239617e-02,-1.894955894791239617e-02
