2.223904855914190376e-02,2.223904855914190376e-02,2.223904855914190376e-02,2.223904855914190376e-02,2.223904855914190376e-02,2.223904855914190376e-02,2.223904855914190376e-02,2.223904855914190376e-02,1.790243409010923437e-02,1.156430525075378968e-02,1.779123884731352231e-02,2.223904855914190376e-02,2.223904855914190376e-02,2.223904855914190376e-02,2.223904855914190376e-02,2.223904855914190376e-02,2.223904855914190376e-02,2.223904855914190376e-02,2.223904855914190376e-02,2.223904855914190376e-02,2.223904855914190376e-02,2.223904855914190376e-02,2.223904855914190376e-02,2.223904855914190376e-02,2.223904855914190376e-02,2.223904855914190376e-02,2.223904855914190376e-02,2.223904855914190376e-02,2.223904855914190376e-02,2.223904855914190376e-02,2.223904855914190376e-02,2.223904855914190376e-02,2.223904855914190376e-02,2.223904855914190376e-02,2.223904855914190376e-02,2.223904855914190376e-02,2.223904855914190376e-02,2.223904855914190376e-02,2.223904855914190376e-02,2.223904855914190376e-02,2.223904855914190376e-02,2.223904855914190376e-02,2.223904855914190376e-02,2.223904855914190376e-02,2.223904855914190376e-02,2.223904855914190376e-02,2.223904855914190376e-02
2.223904855914190376e-02,2.223904855914190376e-02,2.223904855914190376e-02,2.223904855914190376e-02,2.223904855914190376e-02,2.223904855914190376e-02,2.223904855914190376e-02,2.223904855914190376e-02,1.751325074032424045e-03,-1.334342913548516862e-03,4.892590683011219244e-03,1.156430525075378968e-02,1.779123884731352231e-02,2.223904855914190376e-02,2.223904855914190376e-02,2.223904855914190376e-02,2.223904855914190376e-02,2.223904855914190376e-02,2.223904855914190376e-02,2.223904855914190376e-02,2.223904855914190376e-02,2.223904855914190376e-02,2.223904855914190376e-02,2.223904855914190376e-02,2.223904855914190376e-02,2.223904855914190376e-02,2.223904855914190376e-02,2.223904855914190376e-02,2.223904855914190376e-02,2.223904855914190376e-02,2.223904855914190376e-02,2.223904855914190376e-02,2.223904855914190376e-02,2.223904855914190376e-02,2.223904855914190376e-02,2.223904855914190376e-02,2.223904855914190376e-02,2.223904855914190376e-02,2.223904855914190376e-02,2.223904855914190376e-02,2.223904855914190376e-02,2.223904855914190376e-02,2.223904855914190376e-02,2.223904855914190376e-02,2.223904855914190376e-02,2.223904855914190376e-02,2.223904855914190376e-02
2.223904855914190376e-02,2.223904855914190376e-02,2.223904855914190376e-02,2.223904855914190376e-02,2.223904855914190376e-02,2.223904855914190376e-02,2.223904855914190376e-02,-3.545365228024950632e-02,-6.592114880627392148e-02,-5.969421520971417844e-02,-7.561276510108249499e-03,-1.334342913548513393e-03,5.337371654194057041e-03,1.156430525075378968e-02,1.779123884731352231e-02,2.223904855914190376e-02,2.223904855914190376e-02,2.223904855914190376e-02,2.223904855914190376e-02,2.223904855914190376e-02,2.223904855914190376e-02,2.223904855914190376e-02,2.223904855914190376e-02,2.223904855914190376e-02,2.223904855914190376e-02,2.223904855914190376e-02,2.223904855914190376e-02,2.223904855914190376e-02,2.223904855914190376e-02,2.223904855914190376e-02,2.223904855914190376e-02,2.223904855914190376e-02,2.223904855914190376e-02,2.223904855914190376e-02,2.223904855914190376e-02,2.223904855914190376e-02,2.223904855914190376e-02,2.223904855914190376e-02,2.223904855914190376e-02,2.223904855914190376e-02,2.223904855914190376e-02,2.223904855914190376e-02,2.223904855914190376e-02,2.223904855914190376e-02,2.223904855914190376e-02,2.223904855914190376e-02,2.223904855914190376e-02
2.223904855914190376e-02,2.223904855914190376e-02,2.223904855914190376e-02,2.223904855914190376e-02,2.223904855914190376e-02,2.223904855914190376e-02,2.223904855914190376e-02,-6.765857447495687849e-02,-7.881979697057620027e-02,-7.214808240283362983e-02,-2.045992467441055257e-02,-1.378821010666798214e-02,-7.561276510108246030e-03,-1.334342913548513393e-03,5.337371654194057041e-03,1.156430525075378968e-02,1.823601981849636011e-02,2.223904855914190376e-02,2.223904855914190376e-02,2.223904855914190376e-02,2.223904855914190376e-02,2.223904855914190376e-02,2.223904855914190376e-02,2.223904855914190376e-02,2.223904855914190376e-02,2.223904855914190376e-02,2.223904855914190376e-02,2.223904855914190376e-02,2.223904855914190376e-02,2.223904855914190376e-02,2.223904855914190376e-02,2.223904855914190376e-02,2.223904855914190376e-02,2.223904855914190376e-02,2.223904855914190376e-02,2.223904855914190376e-02,2.223904855914190376e-02,2.223904855914190376e-02,2.223904855914190376e-02,2.223904855914190376e-02,2.223904855914190376e-02,2.223904855914190376e-02,2.223904855914190376e-02,2.223904855914190376e-02,2.223904855914190376e-02,2.223904855914190376e-02,2.223904855914190376e-02
2.223904855914190376e-02,2.223904855914190376e-02,2.223904855914190376e-02,2.223904855914190376e-02,2.223904855914190376e-02,2.223904855914190376e-02,-5.281774032796227036e-04,-9.794537873143827067e-02,-9.127366416369570024e-02,-8.504673056713593637e-02,-3.291379186753001784e-02,-2.668685827097028174e-02,-2.045992467441055257e-02,-1.378821010666798214e-02,-7.561276510108246030e-03,-8.895619423656755953e-04,5.337371654194057041e-03,1.200908622193662748e-02,1.823601981849636011e-02,2.223904855914190376e-02,2.223904855914190376e-02,2.223904855914190376e-02,2.223904855914190376e-02,2.223904855914190376e-02,2.223904855914190376e-02,2.223904855914190376e-02,2.223904855914190376e-02,2.223904855914190376e-02,2.223904855914190376e-02,2.223904855914190376e-02,2.223904855914190376e-02,2.223904855914190376e-02,2.223904855914190376e-02,2.223904855914190376e-02,2.223904855914190376e-02,2.223904855914190376e-02,2.223904855914190376e-02,2.223904855914190376e-02,2.223904855914190376e-02,2.223904855914190376e-02,2.223904855914190376e-02,2.223904855914190376e-02,2.223904855914190376e-02,2.223904855914190376e-02,2.223904855914190376e-02,2.223904855914190376e-02,2.223904855914190376e-02
2.223904855914190376e-02,2.223904855914190376e-02,2.223904855914190376e-02,2.223904855914190376e-02,2.223904855914190376e-02,2.223904855914190376e-02,-4.521476560180538035e-02,-6.493802179269436703e-02,-5.871108819613463786e-02,-5.203937362839206743e-02,-4.581244003183233132e-02,-3.958550643527258828e-02,-3.291379186753001784e-02,-2.668685827097028868e-02,-2.001514370322771130e-02,-1.378821010666798214e-02,-7.116495538925404762e-03,-8.895619423656755953e-04,5.337371654194057041e-03,1.200908622193662748e-02,1.823601981849636011e-02,2.223904855914190376e-02,2.223904855914190376e-02,2.223904855914190376e-02,2.223904855914190376e-02,2.223904855914190376e-02,2.223904855914190376e-02,2.223904855914190376e-02,2.223904855914190376e-02,2.223904855914190376e-02,2.223904855914190376e-02,2.223904855914190376e-02,2.223904855914190376e-02,2.223904855914190376e-02,2.223904855914190376e-02,2.223904855914190376e-02,2.223904855914190376e-02,2.223904855914190376e-02,2.223904855914190376e-02,2.223904855914190376e-02,2.223904855914190376e-02,2.223904855914190376e-02,2.223904855914190376e-02,2.223904855914190376e-02,2.223904855914190376e-02,2.223904855914190376e-02,2.223904855914190376e-02
2.223904855914190376e-02,2.223904855914190376e-02,2.223904855914190376e-02,2.223904855914190376e-02,2.223904855914190376e-02,-9.409897421586918553e-03,-8.406360355355638192e-02,-7.783666995699664581e-02,-7.116495538925407538e-02,-6.493802179269436703e-02,-5.826630722495178966e-02,-5.203937362839206743e-02,-4.581244003183233132e-02,-3.914072546408975395e-02,-3.291379186753002478e-02,-2.624207729978744047e-02,-2.001514370322771130e-02,-1.378821010666798214e-02,-7.116495538925411701e-03,-8.895619423656755953e-04,5.782152625376894839e-03,1.200908622193662748e-02,1.823601981849636011e-02,2.223904855914190376e-02,2.223904855914190376e-02,2.223904855914190376e-02,2.223904855914190376e-02,2.223904855914190376e-02,2.223904855914190376e-02,2.223904855914190376e-02,2.223904855914190376e-02,2.223904855914190376e-02,2.223904855914190376e-02,2.223904855914190376e-02,2.223904855914190376e-02,2.223904855914190376e-02,2.223904855914190376e-02,2.223904855914190376e-02,2.223904855914190376e-02,2.223904855914190376e-02,2.223904855914190376e-02,2.223904855914190376e-02,2.223904855914190376e-02,2.223904855914190376e-02,2.223904855914190376e-02,2.223904855914190376e-02,2.223904855914190376e-02
2.223904855914190376e-02,2.223904855914190376e-02,2.223904855914190376e-02,2.223904855914190376e-02,2.223904855914190376e-02,-6.791249453747957854e-02,-9.696225171785868846e-02,-9.029053715011614578e-02,-8.406360355355638192e-02,-7.739188898581381149e-02,-7.116495538925407538e-02,-6.493802179269436703e-02,-5.826630722495178966e-02,-5.203937362839205355e-02,-4.536765906064949699e-02,-3.914072546408974701e-02,-3.291379186753001090e-02,-2.624207729978744047e-02,-2.001514370322771130e-02,-1.334342913548514781e-02,-7.116495538925411701e-03,-8.895619423656755953e-04,5.782152625376894839e-03,1.200908622193662921e-02,1.868080078967920138e-02,2.223904855914190376e-02,2.223904855914190376e-02,2.223904855914190376e-02,2.223904855914190376e-02,2.223904855914190376e-02,2.223904855914190376e-02,2.223904855914190376e-02,2.223904855914190376e-02,2.223904855914190376e-02,2.223904855914190376e-02,2.223904855914190376e-02,2.223904855914190376e-02,2.223904855914190376e-02,2.223904855914190376e-02,2.223904855914190376e-02,2.223904855914190376e-02,2.223904855914190376e-02,2.223904855914190376e-02,2.223904855914190376e-02,2.223904855914190376e-02,2.223904855914190376e-02,2.223904855914190376e-02
2.223904855914190376e-02,2.223904855914190376e-02,2.223904855914190376e-02,2.223904855914190376e-02,-1.841671208803939697e-02,-1.160878334787207589e-01,-1.094161189109781607e-01,-1.031891853144184246e-01,-9.651747074667585413e-02,-9.029053715011611803e-02,-8.406360355355638192e-02,-7.739188898581381149e-02,-7.116495538925410314e-02,-6.449324082151153270e-02,-5.826630722495178966e-02,-5.203937362839206743e-02,-4.536765906064949699e-02,-3.914072546408976089e-02,-3.246901089634717658e-02,-2.624207729978744741e-02,-2.001514370322771130e-02,-1.334342913548514087e-02,-7.116495538925404762e-03,-4.447809711828343282e-04,5.782152625376894839e-03,1.200908622193662748e-02,1.868080078967919791e-02,2.223904855914190376e-02,2.223904855914190376e-02,2.223904855914190376e-02,2.223904855914190376e-02,2.223904855914190376e-02,2.223904855914190376e-02,2.223904855914190376e-02,2.223904855914190376e-02,2.223904855914190376e-02,2.223904855914190376e-02,2.223904855914190376e-02,2.223904855914190376e-02,2.223904855914190376e-02,2.223904855914190376e-02,2.223904855914190376e-02,2.223904855914190376e-02,2.223904855914190376e-02,2.223904855914190376e-02,2.223904855914190376e-02,2.223904855914190376e-02
2.223904855914190376e-02,2.223904855914190376e-02,2.223904855914190376e-02,2.223904855914190376e-02,-9.092990979619147707e-02,-1.285417006718402311e-01,-1.223147670752804950e-01,-1.156430525075378968e-01,-1.094161189109781607e-01,-1.031891853144184246e-01,-9.651747074667585413e-02,-9.029053715011611803e-02,-8.361882258237354759e-02,-7.739188898581381149e-02,-7.116495538925410314e-02,-6.449324082151150495e-02,-5.826630722495178966e-02,-5.159459265720923310e-02,-4.536765906064949699e-02,-3.914072546408976089e-02,-3.246901089634717658e-02,-2.624207729978744047e-02,-1.957036273204487697e-02,-1.334342913548514087e-02,-7.116495538925404762e-03,-4.447809711828412671e-04,5.782152625376894839e-03,1.245386719311946701e-02,1.868080078967919791e-02,2.223904855914190376e-02,2.223904855914190376e-02,2.223904855914190376e-02,2.223904855914190376e-02,2.223904855914190376e-02,2.223904855914190376e-02,2.223904855914190376e-02,2.223904855914190376e-02,2.223904855914190376e-02,2.223904855914190376e-02,2.223904855914190376e-02,2.223904855914190376e-02,2.223904855914190376e-02,2.223904855914190376e-02,2.223904855914190376e-02,2.223904855914190376e-02,2.223904855914190376e-02,2.223904855914190376e-02
2.223904855914190376e-02,2.223904855914190376e-02,2.223904855914190376e-02,-2.742352675449185456e-02,-1.476672824327022460e-01,-1.414403488361425099e-01,-1.347686342683999394e-01,-1.285417006718402033e-01,-1.223147670752804950e-01,-1.156430525075379245e-01,-1.094161189109781607e-01,-1.692492153577510317e-01,-1.630222817611912955e-01,-1.567953481646315594e-01,-1.501236335968889890e-01,-7.739188898581381149e-02,-7.072017441807124105e-02,-6.449324082151153270e-02,-5.826630722495178966e-02,-5.159459265720923310e-02,-4.536765906064949699e-02,-3.869594449290691962e-02,-3.246901089634717658e-02,-2.624207729978744741e-02,-1.957036273204487697e-02,-1.334342913548514087e-02,-6.671714567742570434e-03,-4.447809711828377977e-04,5.782152625376894839e-03,1.245386719311946701e-02,1.868080078967919791e-02,2.223904855914190376e-02,2.223904855914190376e-02,2.223904855914190376e-02,2.223904855914190376e-02,2.223904855914190376e-02,2.223904855914190376e-02,2.223904855914190376e-02,2.223904855914190376e-02,2.223904855914190376e-02,2.223904855914190376e-02,2.223904855914190376e-02,2.223904855914190376e-02,2.223904855914190376e-02,2.223904855914190376e-02,2.223904855914190376e-02,2.223904855914190376e-02
2.223904855914190376e-02,2.223904855914190376e-02,2.223904855914190376e-02,-1.195348860053877249e-01,-1.605659305970045247e-01,-1.538942160292619543e-01,-1.476672824327022460e-01,-1.414403488361425099e-01,-1.347686342683999394e-01,-1.285417006718402033e-01,-1.218699861040976329e-01,-1.821478635220533659e-01,-1.759209299254936021e-01,-1.692492153577510317e-01,-1.630222817611912955e-01,-8.984575617893328370e-02,-8.361882258237354759e-02,-7.739188898581381149e-02,-7.072017441807124105e-02,-6.449324082151153270e-02,-5.782152625376895533e-02,-5.159459265720923310e-02,-4.492287808946666267e-02,-3.869594449290691268e-02,-3.246901089634717658e-02,-2.579729632860460614e-02,-1.957036273204488391e-02,-1.289864816430230654e-02,-6.671714567742570434e-03,-4.447809711828377977e-04,6.226933596559732637e-03,1.245386719311946701e-02,1.912558176086203571e-02,2.223904855914190376e-02,2.223904855914190376e-02,2.223904855914190376e-02,2.223904855914190376e-02,2.223904855914190376e-02,2.223904855914190376e-02,2.223904855914190376e-02,2.223904855914190376e-02,2.223904855914190376e-02,2.223904855914190376e-02,2.223904855914190376e-02,2.223904855914190376e-02,2.223904855914190376e-02,2.223904855914190376e-02
2.223904855914190376e-02,2.223904855914190376e-02,-3.630524677279916429e-02,-1.796915123578665952e-01,-1.730197977901239692e-01,-1.667928641935642886e-01,-1.605659305970045247e-01,-1.538942160292619821e-01,-1.476672824327022460e-01,-1.409955678649596755e-01,-1.347686342683999394e-01,-1.950465116863556447e-01,-1.883747971186130743e-01,-1.821478635220533382e-01,-1.754761489543107678e-01,-1.027444043432355902e-01,-9.607268977549304756e-02,-8.984575617893328370e-02,-8.361882258237354759e-02,-7.694710801463097716e-02,-7.072017441807124105e-02,-6.404845985032867062e-02,-5.782152625376895533e-02,-5.159459265720923310e-02,-4.492287808946666267e-02,-3.869594449290691962e-02,-3.202422992516434225e-02,-2.579729632860460614e-02,-1.957036273204487697e-02,-1.289864816430230654e-02,-6.671714567742570434e-03,0.000000000000000000e+00,6.226933596559732637e-03,1.245386719311946701e-02,1.912558176086203571e-02,2.223904855914190376e-02,2.223904855914190376e-02,2.223904855914190376e-02,2.223904855914190376e-02,2.223904855914190376e-02,2.223904855914190376e-02,2.223904855914190376e-02,2.223904855914190376e-02,2.223904855914190376e-02,2.223904855914190376e-02,2.223904855914190376e-02,2.223904855914190376e-02
2.223904855914190376e-02,2.223904855914190376e-02,-1.435530584492610007e-01,-1.921453795509860396e-01,-1.859184459544262757e-01,-1.796915123578665952e-01,-1.730197977901239692e-01,-1.667928641935642886e-01,-1.601211496258216904e-01,-1.538942160292619821e-01,-1.476672824327022460e-01,-2.075003788794751169e-01,-2.012734452829153808e-01,-1.946017307151728104e-01,-1.883747971186130743e-01,-1.151982715363550902e-01,-1.089713379397953263e-01,-1.027444043432355902e-01,-9.607268977549301980e-02,-8.984575617893328370e-02,-8.317404161119071326e-02,-7.694710801463097716e-02,-7.072017441807124105e-02,-6.404845985032867062e-02,-5.782152625376896921e-02,-5.114981168602639877e-02,-4.492287808946664879e-02,-3.869594449290691268e-02,-3.202422992516433531e-02,-2.579729632860461308e-02,-1.912558176086203571e-02,-1.289864816430230654e-02,-6.671714567742570434e-03,0.000000000000000000e+00,6.226933596559732637e-03,1.289864816430230307e-02,1.912558176086203571e-02,2.223904855914190376e-02,2.223904855914190376e-02,2.223904855914190376e-02,2.223904855914190376e-02,2.223904855914190376e-02,2.223904855914190376e-02,2.223904855914190376e-02,2.223904855914190376e-02,2.223904855914190376e-02,2.223904855914190376e-02
2.223904855914190376e-02,-5.281774032796201362e-02,-2.112709613118480823e-01,-2.050440277152883461e-01,-1.983723131475457757e-01,-1.921453795509860396e-01,-1.859184459544262757e-01,-1.792467313866837331e-01,-1.730197977901240247e-01,-1.663480832223814265e-01,-1.601211496258216904e-01,-1.538942160292619821e-01,-1.472225014615193839e-01,-1.409955678649596755e-01,-1.343238532972171051e-01,-1.280969197006573967e-01,-1.218699861040976329e-01,-1.151982715363550624e-01,-1.089713379397953263e-01,-1.022996233720527559e-01,-9.607268977549301980e-02,-8.984575617893328370e-02,-8.317404161119071326e-02,-7.694710801463097716e-02,-7.027539344688840672e-02,-6.404845985032867062e-02,-5.782152625376895533e-02,-5.114981168602638489e-02,-4.492287808946664879e-02,-3.825116352172407835e-02,-3.202422992516434225e-02,-2.579729632860460614e-02,-1.912558176086203571e-02,-1.289864816430229960e-02,-6.226933596559732637e-03,0.000000000000000000e+00,6.226933596559732637e-03,1.289864816430230307e-02,1.912558176086203571e-02,2.223904855914190376e-02,2.223904855914190376e-02,2.223904855914190376e-02,2.223904855914190376e-02,2.223904855914190376e-02,2.223904855914190376e-02,2.223904855914190376e-02,2.223904855914190376e-02
2.223904855914190376e-02,-1.672376451647471229e-01,-2.241696094761503610e-01,-2.174978949084078184e-01,-2.112709613118480823e-01,-2.050440277152883461e-01,-1.983723131475458035e-01,-1.921453795509860396e-01,-1.854736649832434969e-01,-1.792467313866837053e-01,-1.730197977901239970e-01,-1.663480832223814265e-01,-1.601211496258217182e-01,-1.534494350580791200e-01,-1.472225014615193839e-01,-1.409955678649596755e-01,-1.343238532972171051e-01,-1.280969197006573690e-01,-1.214252051329148263e-01,-1.151982715363550902e-01,-1.089713379397953263e-01,-1.022996233720527559e-01,-9.607268977549301980e-02,-8.940097520775044937e-02,-8.317404161119071326e-02,-7.694710801463097716e-02,-7.027539344688840672e-02,-6.404845985032869837e-02,-5.737674528258612100e-02,-5.114981168602638489e-02,-4.492287808946664879e-02,-3.825116352172407835e-02,-3.202422992516434225e-02,-2.535251535742177181e-02,-1.912558176086203571e-02,-1.289864816430230654e-02,-6.226933596559732637e-03,0.000000000000000000e+00,6.671714567742570434e-03,1.289864816430230481e-02,1.912558176086203571e-02,2.223904855914190376e-02,2.223904855914190376e-02,2.223904855914190376e-02,2.223904855914190376e-02,2.223904855914190376e-02,2.223904855914190376e-02
-5.782152625376895533e-02,-2.339547908421728273e-01,-2.339547908421728273e-01,-2.303965430727100971e-01,-2.241696094761503888e-01,-2.174978949084077628e-01,-2.112709613118480545e-01,-2.045992467441055118e-01,-1.983723131475457757e-01,-1.921453795509860396e-01,-1.854736649832434692e-01,-1.792467313866837053e-01,-1.725750168189411626e-01,-1.663480832223814265e-01,-1.601211496258217182e-01,-1.534494350580791200e-01,-1.472225014615193839e-01,-1.405507868937768412e-01,-1.343238532972171051e-01,-1.280969197006573690e-01,-1.214252051329147986e-01,-1.151982715363550624e-01,-1.085265569686124920e-01,-1.022996233720527559e-01,-9.607268977549301980e-02,-8.940097520775044937e-02,-8.317404161119071326e-02,-7.650232704344814283e-02,-7.027539344688840672e-02,-6.404845985032867062e-02,-5.737674528258612100e-02,-5.114981168602638489e-02,-4.447809711828380058e-02,-3.825116352172407141e-02,-3.202422992516433531e-02,-2.535251535742177181e-02,-1.912558176086204265e-02,-1.245386719311946527e-02,-6.226933596559732637e-03,4.447809711828377977e-04,6.671714567742570434e-03,1.289864816430230481e-02,1.957036273204487697e-02,2.223904855914190376e-02,2.223904855914190376e-02,2.223904855914190376e-02,2.223904855914190376e-02
-1.699063309918441289e-01,-2.339547908421728273e-01,-2.339547908421728273e-01,-2.339547908421728273e-01,-2.339547908421728273e-01,-2.303965430727101527e-01,-2.237248285049675267e-01,-2.174978949084078184e-01,-2.112709613118480545e-01,-2.045992467441055118e-01,-1.983723131475457480e-01,-1.917005985798032053e-01,-1.854736649832434692e-01,-1.792467313866837053e-01,-3.934765125916282469e-01,-3.872495789950685663e-01,-3.805778644273259959e-01,-3.743509308307662597e-01,-1.472225014615193839e-01,-1.405507868937768134e-01,-1.343238532972171051e-01,-1.276521387294745347e-01,-1.214252051329147986e-01,-1.151982715363550624e-01,-1.085265569686124920e-01,-1.022996233720527559e-01,-9.562790880431018548e-02,-8.940097520775044937e-02,-8.317404161119071326e-02,-7.650232704344814283e-02,-7.027539344688840672e-02,-6.360367887914583629e-02,-5.737674528258612100e-02,-5.070503071484355057e-02,-4.447809711828381446e-02,-3.825116352172407835e-02,-3.157944895398150792e-02,-2.535251535742176487e-02,-1.868080078967920138e-02,-1.245386719311946527e-02,-6.226933596559732637e-03,4.447809711828377977e-04,6.671714567742570434e-03,1.334342913548514260e-02,1.957036273204487697e-02,2.223904855914190376e-02,2.223904855914190376e-02
-2.339547908421728273e-01,-2.339547908421728273e-01,-2.339547908421728273e-01,-2.339547908421728273e-01,-2.339547908421728273e-01,-2.339547908421728273e-01,-2.339547908421728273e-01,-2.303965430727100971e-01,-2.237248285049675545e-01,-2.174978949084078184e-01,-2.108261803406652202e-01,-2.045992467441055118e-01,-1.983723131475457757e-01,-1.917005985798031775e-01,-4.063751607559305534e-01,-3.997034461881879830e-01,-3.934765125916282469e-01,-3.872495789950685663e-01,-1.596763686546388838e-01,-1.534494350580791477e-01,-1.467777204903365773e-01,-1.405507868937768412e-01,-1.343238532972171051e-01,-1.276521387294745347e-01,-1.214252051329147986e-01,-1.147534905651722281e-01,-1.085265569686124920e-01,-1.022996233720527559e-01,-9.562790880431018548e-02,-8.940097520775044937e-02,-8.272926064000787894e-02,-7.650232704344814283e-02,-6.983061247570557240e-02,-6.360367887914583629e-02,-5.737674528258612100e-02,-5.070503071484355057e-02,-4.447809711828381446e-02,-3.780638255054123709e-02,-3.157944895398149404e-02,-2.535251535742177181e-02,-1.868080078967920138e-02,-1.245386719311947221e-02,-5.782152625376894839e-03,4.447809711828343282e-04,6.671714567742570434e-03,1.334342913548514260e-02,1.957036273204487697e-02
-2.339547908421728273e-01,-2.339547908421728273e-01,-2.339547908421728273e-01,-2.339547908421728273e-01,-2.339547908421728273e-01,-2.339547908421728828e-01,-2.339547908421728273e-01,-2.339547908421728273e-01,-2.339547908421728273e-01,-2.299517621015272628e-01,-2.237248285049675267e-01,-2.174978949084078184e-01,-2.108261803406652202e-01,-2.045992467441054841e-01,-4.188290279490500256e-01,-4.126020943524903450e-01,-4.063751607559305534e-01,-3.997034461881879830e-01,-1.725750168189411349e-01,-1.659033022511985922e-01,-1.596763686546388561e-01,-1.530046540868962857e-01,-1.467777204903365773e-01,-1.405507868937768412e-01,-1.338790723260342708e-01,-1.276521387294745347e-01,-1.209804241617319642e-01,-1.147534905651722281e-01,-1.085265569686124920e-01,-1.018548424008699216e-01,-9.562790880431018548e-02,-8.895619423656761504e-02,-8.272926064000787894e-02,-7.650232704344814283e-02,-6.983061247570557240e-02,-6.360367887914583629e-02,-5.693196431140328667e-02,-5.070503071484355057e-02,-4.447809711828381446e-02,-3.780638255054123709e-02,-3.157944895398150098e-02,-2.490773438623893055e-02,-1.868080078967920138e-02,-1.245386719311946527e-02,-5.782152625376894839e-03,4.447809711828343282e-04,7.116495538925408232e-03
-2.339547908421728273e-01,-2.339547908421728273e-01,-2.339547908421727718e-01,-2.339547908421728273e-01,-2.339547908421728273e-01,-2.339547908421728273e-01,-2.339547908421728273e-01,-2.339547908421728828e-01,-2.339547908421728273e-01,-2.339547908421728273e-01,-2.339547908421728273e-01,-2.299517621015272628e-01,-2.237248285049675267e-01,-2.170531139372249563e-01,-4.317276761133523322e-01,-4.255007425167926516e-01,-4.188290279490500256e-01,-4.126020943524903450e-01,-1.850288840120606071e-01,-1.788019504155008710e-01,-1.721302358477583005e-01,-1.659033022511985922e-01,-1.596763686546388561e-01,-1.530046540868962857e-01,-1.467777204903365773e-01,-1.401060059225939791e-01,-1.338790723260342430e-01,-1.276521387294745624e-01,-1.209804241617319642e-01,-1.147534905651722281e-01,-1.080817759974296577e-01,-1.018548424008699216e-01,-9.562790880431018548e-02,-8.895619423656761504e-02,-8.272926064000787894e-02,-7.605754607226530850e-02,-6.983061247570557240e-02,-6.360367887914583629e-02,-5.693196431140328667e-02,-5.070503071484353669e-02,-4.403331614710098013e-02,-3.780638255054123709e-02,-3.157944895398150098e-02,-2.490773438623893749e-02,-1.868080078967920832e-02,-1.200908622193663094e-02,-5.782152625376891369e-03
-2.339547908421728273e-01,-2.339547908421728273e-01,-2.339547908421728273e-01,-2.339547908421728273e-01,-2.339547908421728273e-01,-2.339547908421728273e-01,-2.339547908421728273e-01,-2.339547908421728273e-01,-2.339547908421728273e-01,-2.339547908421728273e-01,-2.339547908421728273e-01,-2.339547908421728273e-01,-2.339547908421728273e-01,-2.299517621015272628e-01,-2.232800475337846924e-01,-2.170531139372249563e-01,-2.108261803406652479e-01,-2.041544657729227052e-01,-1.979275321763629136e-01,-1.912558176086203710e-01,-1.850288840120606348e-01,-1.788019504155008987e-01,-1.721302358477583005e-01,-1.659033022511985922e-01,-1.592315876834560218e-01,-1.530046540868963134e-01,-1.467777204903365773e-01,-1.401060059225939791e-01,-1.338790723260342430e-01,-1.272073577582917003e-01,-1.209804241617319642e-01,-1.147534905651722281e-01,-1.080817759974296577e-01,-1.018548424008699216e-01,-9.518312783312735115e-02,-8.895619423656761504e-02,-8.272926064000787894e-02,-7.605754607226528075e-02,-6.983061247570557240e-02,-6.315889790796300196e-02,-5.693196431140327279e-02,-5.070503071484355057e-02,-4.403331614710096625e-02,-3.780638255054123709e-02,-3.113466798279866665e-02,-2.490773438623893055e-02,-1.868080078967920832e-02
-2.339547908421728273e-01,-2.339547908421728273e-01,-2.339547908421728273e-01,-2.339547908421728273e-01,-2.339547908421728273e-01,-2.339547908421728273e-01,-2.339547908421728273e-01,-2.339547908421728273e-01,-2.339547908421728273e-01,-2.339547908421728273e-01,-2.339547908421727718e-01,-2.339547908421728273e-01,-2.339547908421728273e-01,-2.339547908421728273e-01,-2.339547908421728273e-01,-2.299517621015272628e-01,-2.232800475337846924e-01,-2.170531139372249563e-01,-2.103813993694823858e-01,-2.041544657729226775e-01,-1.979275321763629414e-01,-1.912558176086203710e-01,-1.850288840120606071e-01,-1.783571694443180367e-01,-1.721302358477583005e-01,-1.659033022511985922e-01,-1.592315876834560218e-01,-1.530046540868963134e-01,-1.463329395191537430e-01,-1.401060059225939791e-01,-1.338790723260342708e-01,-1.272073577582917003e-01,-1.209804241617319642e-01,-1.143087095939893938e-01,-1.080817759974296577e-01,-1.018548424008699216e-01,-9.518312783312735115e-02,-8.895619423656761504e-02,-8.228447966882504461e-02,-7.605754607226530850e-02,-6.983061247570557240e-02,-6.315889790796300196e-02,-5.693196431140328667e-02,-5.026024974366071624e-02,-4.403331614710098013e-02,-3.780638255054124403e-02,-3.113466798279866665e-02
-2.339547908421728273e-01,-2.339547908421728273e-01,-2.339547908421728273e-01,-2.339547908421728273e-01,-2.339547908421728273e-01,-2.339547908421728273e-01,-2.339547908421728273e-01,-2.339547908421728273e-01,-2.339547908421728273e-01,-2.339547908421728828e-01,-2.339547908421728273e-01,-2.339547908421728273e-01,-2.339547908421728273e-01,-2.339547908421728273e-01,-2.339547908421728273e-01,-2.339547908421728273e-01,-2.339547908421728273e-01,-2.295069811303444285e-01,-2.232800475337846924e-01,-2.170531139372249840e-01,-2.103813993694823858e-01,-2.041544657729226775e-01,-1.974827512051801071e-01,-1.912558176086203710e-01,-1.850288840120606348e-01,-1.783571694443180367e-01,-1.721302358477583283e-01,-1.654585212800157301e-01,-1.592315876834560218e-01,-1.530046540868963134e-01,-1.463329395191537430e-01,-1.401060059225940069e-01,-1.334342913548514364e-01,-1.272073577582916726e-01,-1.209804241617319642e-01,-1.143087095939893938e-01,-1.080817759974296577e-01,-1.014100614296870873e-01,-9.518312783312732339e-02,-8.895619423656761504e-02,-8.228447966882504461e-02,-7.605754607226530850e-02,-6.938583150452273807e-02,-6.315889790796300196e-02,-5.693196431140328667e-02,-5.026024974366071624e-02,-4.403331614710096625e-02
-2.339547908421728273e-01,-2.339547908421728273e-01,-2.339547908421728273e-01,-2.339547908421728273e-01,-2.339547908421728273e-01,-2.339547908421728273e-01,-2.339547908421728273e-01,-2.339547908421728273e-01,-2.339547908421728273e-01,-2.339547908421728273e-01,-2.339547908421728273e-01,-2.339547908421728273e-01,-2.339547908421728273e-01,-2.339547908421728273e-01,-2.339547908421728273e-01,-2.339547908421728273e-01,-2.339547908421728273e-01,-2.339547908421728828e-01,-2.339547908421728273e-01,-2.295069811303444285e-01,-2.232800475337847201e-01,-2.166083329660421219e-01,-2.103813993694823858e-01,-2.041544657729226497e-01,-1.974827512051800793e-01,-1.912558176086203710e-01,-1.845841030408777728e-01,-1.783571694443180367e-01,-1.721302358477583005e-01,-1.654585212800157579e-01,-1.592315876834560218e-01,-1.525598731157134513e-01,-1.463329395191537430e-01,-1.401060059225939791e-01,-1.334342913548514087e-01,-1.272073577582917003e-01,-1.205356431905491299e-01,-1.143087095939893938e-01,-1.076369950262468234e-01,-1.014100614296870873e-01,-9.518312783312735115e-02,-8.851141326538478071e-02,-8.228447966882504461e-02,-7.561276510108244642e-02,-6.938583150452273807e-02,-6.315889790796300196e-02,-5.648718334022043847e-02
-2.179426758795906804e-01,-2.339547908421728273e-01,-2.339547908421728273e-01,-2.339547908421728273e-01,-2.339547908421728273e-01,-2.339547908421728273e-01,-2.339547908421728273e-01,-2.339547908421728273e-01,-2.339547908421728273e-01,-2.339547908421728273e-01,-2.339547908421728273e-01,-2.339547908421728273e-01,-2.339547908421728273e-01,-2.339547908421728273e-01,-2.339547908421728273e-01,-2.339547908421728273e-01,-2.339547908421728273e-01,-2.339547908421728273e-01,-2.339547908421728273e-01,-2.339547908421728273e-01,-2.339547908421728273e-01,-2.295069811303444285e-01,-2.232800475337846924e-01,-2.166083329660421219e-01,-2.103813993694823858e-01,-2.037096848017398709e-01,-1.974827512051800793e-01,-1.912558176086203710e-01,-1.845841030408777728e-01,-1.783571694443180367e-01,-1.716854548765754662e-01,-1.654585212800157579e-01,-1.587868067122731874e-01,-1.525598731157134513e-01,-1.463329395191537430e-01,-1.396612249514111448e-01,-1.334342913548514087e-01,-1.267625767871088660e-01,-1.205356431905491299e-01,-1.143087095939893938e-01,-1.076369950262468234e-01,-1.014100614296870873e-01,-9.473834686194451682e-02,-8.851141326538478071e-02,-8.228447966882504461e-02,-7.561276510108244642e-02,-6.938583150452273807e-02
-1.018548424008699216e-01,-1.578972447699074910e-01,-2.179426758795906804e-01,-2.339547908421728273e-01,-2.339547908421728273e-01,-2.339547908421728273e-01,-2.339547908421728273e-01,-2.339547908421728273e-01,-2.339547908421728273e-01,-2.339547908421728273e-01,-2.339547908421728273e-01,-2.339547908421728273e-01,-2.339547908421728273e-01,-2.339547908421727718e-01,-2.339547908421728273e-01,-2.339547908421728273e-01,-2.339547908421728273e-01,-2.339547908421728273e-01,-2.339547908421728273e-01,-2.339547908421728273e-01,-2.339547908421727718e-01,-2.339547908421728273e-01,-2.339547908421728273e-01,-2.295069811303444840e-01,-2.228352665626018581e-01,-2.166083329660421219e-01,-2.099366183982995515e-01,-2.037096848017398709e-01,-1.974827512051800793e-01,-1.908110366374375366e-01,-1.845841030408778005e-01,-1.779123884731352023e-01,-1.716854548765754662e-01,-1.654585212800157301e-01,-1.587868067122731874e-01,-1.525598731157134513e-01,-1.458881585479708809e-01,-1.396612249514111725e-01,-1.334342913548514364e-01,-1.267625767871088660e-01,-1.205356431905491299e-01,-1.138639286228065595e-01,-1.076369950262468234e-01,-1.014100614296870873e-01,-9.473834686194451682e-02,-8.851141326538478071e-02,-8.183969869764221028e-02
1.423299107785081820e-02,-4.581244003183231744e-02,-1.018548424008699216e-01,-1.619002735105530555e-01,-2.179426758795906804e-01,-2.339547908421728273e-01,-2.339547908421728273e-01,-2.339547908421728273e-01,-2.339547908421728273e-01,-2.339547908421728273e-01,-2.339547908421728273e-01,-2.339547908421728273e-01,-2.339547908421728273e-01,-2.339547908421728273e-01,-2.339547908421728273e-01,-2.339547908421728273e-01,-2.339547908421728273e-01,-2.339547908421728273e-01,-2.339547908421728828e-01,-2.339547908421728273e-01,-2.339547908421728273e-01,-2.339547908421728273e-01,-2.339547908421728273e-01,-2.339547908421728273e-01,-2.339547908421728273e-01,-2.290622001591615942e-01,-2.228352665626018581e-01,-2.166083329660421219e-01,-2.099366183982995515e-01,-2.037096848017398154e-01,-1.970379702339972450e-01,-1.908110366374375366e-01,-1.845841030408778283e-01,-1.779123884731352023e-01,-1.716854548765754662e-01,-1.650137403088329235e-01,-1.587868067122731874e-01,-1.525598731157134236e-01,-1.458881585479708809e-01,-1.396612249514111725e-01,-1.329895103836685744e-01,-1.267625767871088660e-01,-1.205356431905491299e-01,-1.138639286228065595e-01,-1.076369950262468234e-01,-1.009652804585042529e-01,-9.473834686194451682e-02
2.223904855914190376e-02,2.223904855914190376e-02,1.022996233720527628e-02,-4.581244003183233132e-02,-1.018548424008699216e-01,-1.619002735105530555e-01,-2.179426758795906527e-01,-2.339547908421728273e-01,-2.339547908421728273e-01,-2.339547908421728273e-01,-2.339547908421728273e-01,-2.339547908421728273e-01,-2.339547908421728273e-01,-2.339547908421728273e-01,-2.339547908421728273e-01,-2.339547908421728273e-01,-2.339547908421728273e-01,-2.339547908421728273e-01,-2.339547908421728273e-01,-2.339547908421728273e-01,-2.339547908421728273e-01,-2.339547908421728273e-01,-2.339547908421728273e-01,-2.339547908421728273e-01,-2.339547908421728273e-01,-2.339547908421728273e-01,-2.339547908421728273e-01,-2.290622001591615942e-01,-2.228352665626018581e-01,-2.161635519948592599e-01,-2.099366183982995515e-01,-2.037096848017398154e-01,-1.970379702339972727e-01,-1.908110366374375089e-01,-1.841393220696949384e-01,-1.779123884731352023e-01,-1.716854548765754940e-01,-1.650137403088329235e-01,-1.587868067122731597e-01,-1.521150921445306170e-01,-1.458881585479708531e-01,-1.396612249514111725e-01,-1.329895103836686021e-01,-1.267625767871088660e-01,-1.200908622193662956e-01,-1.138639286228065595e-01,-1.076369950262468234e-01
2.223904855914190376e-02,2.223904855914190376e-02,2.223904855914190376e-02,2.223904855914190376e-02,1.022996233720527628e-02,-4.581244003183233132e-02,-1.058578711415154583e-01,-1.619002735105530555e-01,-2.219457046202361894e-01,-2.339547908421728273e-01,-2.339547908421728273e-01,-2.339547908421728273e-01,-2.339547908421728273e-01,-2.339547908421728273e-01,-2.339547908421728273e-01,-2.339547908421728273e-01,-2.339547908421728273e-01,-2.339547908421728273e-01,-2.339547908421728273e-01,-2.339547908421728273e-01,-2.339547908421728273e-01,-2.339547908421728273e-01,-2.339547908421728273e-01,-2.339547908421728273e-01,-2.339547908421728273e-01,-2.339547908421728273e-01,-2.339547908421728273e-01,-2.339547908421728273e-01,-2.339547908421728273e-01,-2.290622001591615942e-01,-2.228352665626018581e-01,-2.161635519948592599e-01,-2.099366183982995515e-01,-2.032649038305569811e-01,-1.970379702339972450e-01,-1.908110366374375366e-01,-1.841393220696949384e-01,-1.779123884731352023e-01,-1.712406739053926319e-01,-1.650137403088328958e-01,-1.587868067122731874e-01,-1.521150921445305892e-01,-1.458881585479708809e-01,-1.392164439802283382e-01,-1.329895103836685744e-01,-1.267625767871088660e-01,-8.450838452473924400e-02
2.223904855914190376e-02,2.223904855914190376e-02,2.223904855914190376e-02,2.223904855914190376e-02,2.223904855914190376e-02,2.223904855914190376e-02,1.022996233720527455e-02,-4.981546877247786803e-02,-1.058578711415154583e-01,-1.619002735105530555e-01,-2.219457046202362172e-01,-2.339547908421728273e-01,-2.339547908421728273e-01,-2.339547908421728273e-01,-2.339547908421728273e-01,-2.339547908421728273e-01,-2.339547908421728273e-01,-2.339547908421728273e-01,-2.339547908421728273e-01,-2.339547908421728273e-01,-2.339547908421728273e-01,-2.339547908421728273e-01,-2.339547908421728273e-01,-2.339547908421728273e-01,-2.339547908421728273e-01,-2.339547908421728273e-01,-2.339547908421727718e-01,-2.339547908421728273e-01,-2.339547908421728273e-01,-2.339547908421728273e-01,-2.339547908421728273e-01,-2.290622001591615942e-01,-2.223904855914190237e-01,-2.161635519948593154e-01,-2.099366183982995515e-01,-2.032649038305569811e-01,-1.970379702339972727e-01,-1.903662556662546745e-01,-1.841393220696949384e-01,-1.779123884731352023e-01,-1.712406739053926319e-01,-1.650137403088329235e-01,-1.583420257410903254e-01,-1.521150921445306170e-01,-1.458881585479708809e-01,-1.392164439802283105e-01,-2.626987611048637455e-02
2.223904855914190376e-02,2.223904855914190376e-02,2.223904855914190376e-02,2.223904855914190376e-02,2.223904855914190376e-02,2.223904855914190376e-02,2.223904855914190376e-02,2.223904855914190376e-02,1.022996233720527455e-02,-4.981546877247786803e-02,-1.058578711415154583e-01,-1.659033022511986200e-01,-2.219457046202361894e-01,-2.339547908421728273e-01,-2.339547908421728273e-01,-2.339547908421728273e-01,-2.339547908421728273e-01,-2.339547908421728273e-01,-2.339547908421728273e-01,-2.339547908421728273e-01,-2.339547908421728273e-01,-2.339547908421728273e-01,-2.339547908421728273e-01,-2.339547908421728273e-01,-2.339547908421728273e-01,-2.339547908421728273e-01,-2.339547908421728273e-01,-2.339547908421728273e-01,-2.339547908421728273e-01,-2.339547908421728273e-01,-2.339547908421728273e-01,-2.339547908421728273e-01,-2.339547908421728273e-01,-2.290622001591615942e-01,-2.223904855914190237e-01,-2.161635519948592599e-01,-2.094918374271167172e-01,-2.032649038305569811e-01,-1.970379702339972727e-01,-1.903662556662546745e-01,-1.841393220696949384e-01,-1.774676075019523680e-01,-1.712406739053926319e-01,-1.645689593376500615e-01,-1.583420257410903531e-01,-1.085265569686124920e-01,2.223904855914190376e-02
2.223904855914190376e-02,2.223904855914190376e-02,2.223904855914190376e-02,2.223904855914190376e-02,2.223904855914190376e-02,2.223904855914190376e-02,2.223904855914190376e-02,2.223904855914190376e-02,2.223904855914190376e-02,2.223904855914190376e-02,6.226933596559732637e-03,-4.981546877247786803e-02,-1.058578711415154583e-01,-1.659033022511986200e-01,-2.219457046202362172e-01,-2.339547908421728273e-01,-2.339547908421728273e-01,-2.339547908421728273e-01,-2.339547908421728273e-01,-2.339547908421728273e-01,-2.339547908421728273e-01,-2.339547908421728273e-01,-2.339547908421728273e-01,-2.339547908421728273e-01,-2.339547908421728273e-01,-2.339547908421728273e-01,-2.339547908421728273e-01,-2.339547908421728273e-01,-2.339547908421728273e-01,-2.339547908421728273e-01,-2.339547908421728273e-01,-2.339547908421728273e-01,-2.339547908421728273e-01,-2.339547908421728273e-01,-2.339547908421728273e-01,-2.286174191879787598e-01,-2.223904855914190237e-01,-2.157187710236764533e-01,-2.094918374271167172e-01,-2.032649038305569811e-01,-1.965931892628144106e-01,-1.903662556662546745e-01,-1.836945410985121041e-01,-1.774676075019523680e-01,-1.712406739053926319e-01,-3.613845390860558754e-02,2.223904855914190376e-02
2.223904855914190376e-02,2.223904855914190376e-02,2.223904855914190376e-02,2.223904855914190376e-02,2.223904855914190376e-02,2.223904855914190376e-02,2.223904855914190376e-02,2.223904855914190376e-02,2.223904855914190376e-02,2.223904855914190376e-02,2.223904855914190376e-02,2.223904855914190376e-02,6.226933596559732637e-03,-4.981546877247786803e-02,-1.098608998821610228e-01,-1.659033022511986200e-01,-2.219457046202361894e-01,-2.339547908421728273e-01,-2.339547908421728273e-01,-2.339547908421728273e-01,-2.339547908421728273e-01,-2.339547908421728273e-01,-2.339547908421728273e-01,-2.339547908421728273e-01,-2.339547908421728273e-01,-2.339547908421728273e-01,-2.339547908421728273e-01,-2.339547908421728273e-01,-2.339547908421728273e-01,-2.339547908421728273e-01,-2.339547908421728273e-01,-2.339547908421728273e-01,-2.339547908421728273e-01,-2.339547908421728273e-01,-2.339547908421728273e-01,-2.339547908421728273e-01,-2.339547908421728273e-01,-2.286174191879787598e-01,-2.223904855914189960e-01,-2.157187710236764255e-01,-2.094918374271167172e-01,-2.028201228593741468e-01,-1.965931892628144384e-01,-1.903662556662546745e-01,-1.322111436840986143e-01,2.223904855914190376e-02,2.223904855914190376e-02
2.223904855914190376e-02,2.223904855914190376e-02,2.223904855914190376e-02,2.223904855914190376e-02,2.223904855914190376e-02,2.223904855914190376e-02,2.223904855914190376e-02,2.223904855914190376e-02,2.223904855914190376e-02,2.223904855914190376e-02,2.223904855914190376e-02,2.223904855914190376e-02,2.223904855914190376e-02,2.223904855914190376e-02,6.226933596559732637e-03,-4.981546877247786803e-02,-1.098608998821609950e-01,-1.659033022511986200e-01,-2.259487333608817539e-01,-2.339547908421728273e-01,-2.339547908421728273e-01,-2.339547908421728273e-01,-2.339547908421728273e-01,-2.339547908421728273e-01,-2.339547908421728273e-01,-2.339547908421728273e-01,-2.339547908421728273e-01,-2.339547908421728273e-01,-2.339547908421728273e-01,-2.339547908421728273e-01,-2.339547908421728273e-01,-2.339547908421728273e-01,-2.339547908421728273e-01,-2.339547908421728273e-01,-2.339547908421728273e-01,-2.339547908421728273e-01,-2.339547908421728273e-01,-2.339547908421728273e-01,-2.339547908421728273e-01,-2.286174191879787598e-01,-2.219457046202361894e-01,-2.157187710236764533e-01,-2.094918374271167449e-01,-2.028201228593741468e-01,-4.614602576021945707e-02,2.223904855914190376e-02,2.223904855914190376e-02
2.223904855914190376e-02,2.223904855914190376e-02,2.223904855914190376e-02,2.223904855914190376e-02,2.223904855914190376e-02,2.223904855914190376e-02,2.223904855914190376e-02,2.223904855914190376e-02,2.223904855914190376e-02,2.223904855914190376e-02,2.223904855914190376e-02,2.223904855914190376e-02,2.223904855914190376e-02,2.223904855914190376e-02,2.223904855914190376e-02,2.223904855914190376e-02,6.226933596559732637e-03,-5.381849751312340474e-02,-1.098608998821609950e-01,-1.699063309918441289e-01,-2.259487333608817261e-01,-2.339547908421728273e-01,-2.339547908421728273e-01,-2.339547908421728273e-01,-2.339547908421728273e-01,-2.339547908421728273e-01,-2.339547908421728273e-01,-2.339547908421727718e-01,-2.339547908421728273e-01,-2.339547908421728273e-01,-2.339547908421728273e-01,-2.339547908421728273e-01,-2.339547908421728273e-01,-2.339547908421728273e-01,-2.339547908421728273e-01,-2.339547908421728273e-01,-2.339547908421728273e-01,-2.339547908421728273e-01,-2.339547908421728273e-01,-2.339547908421728273e-01,-2.339547908421728273e-01,-2.286174191879787598e-01,-2.219457046202361894e-01,-1.562293161279718345e-01,2.223904855914190376e-02,2.223904855914190376e-02,2.223904855914190376e-02
2.223904855914190376e-02,2.223904855914190376e-02,2.223904855914190376e-02,2.223904855914190376e-02,2.223904855914190376e-02,2.223904855914190376e-02,2.223904855914190376e-02,2.223904855914190376e-02,2.223904855914190376e-02,2.223904855914190376e-02,2.223904855914190376e-02,2.223904855914190376e-02,2.223904855914190376e-02,2.223904855914190376e-02,2.223904855914190376e-02,2.223904855914190376e-02,2.223904855914190376e-02,2.223904855914190376e-02,2.223904855914188988e-03,-5.381849751312340474e-02,-1.098608998821609950e-01,-1.699063309918441289e-01,-2.259487333608817261e-01,-2.339547908421728273e-01,-2.339547908421728273e-01,-2.339547908421728273e-01,-2.339547908421728273e-01,-2.339547908421728273e-01,-2.339547908421728273e-01,-2.339547908421728273e-01,-2.339547908421728273e-01,-2.339547908421728273e-01,-2.339547908421728273e-01,-2.339547908421728273e-01,-2.339547908421728273e-01,-2.339547908421728273e-01,-2.339547908421728273e-01,-2.339547908421728273e-01,-2.339547908421728273e-01,-2.339547908421728273e-01,-2.339547908421728273e-01,-2.339547908421728273e-01,-2.339547908421728273e-01,-4.818923834659061961e-02,2.223904855914190376e-02,2.223904855914190376e-02,2.223904855914190376e-02
2.223904855914190376e-02,2.223904855914190376e-02,2.223904855914190376e-02,2.223904855914190376e-02,2.223904855914190376e-02,2.223904855914190376e-02,2.223904855914190376e-02,2.223904855914190376e-02,2.223904855914190376e-02,2.223904855914190376e-02,2.223904855914190376e-02,2.223904855914190376e-02,2.223904855914190376e-02,2.223904855914190376e-02,2.223904855914190376e-02,2.223904855914190376e-02,2.223904855914190376e-02,2.223904855914190376e-02,2.223904855914190376e-02,2.223904855914190376e-02,2.223904855914188988e-03,-5.381849751312340474e-02,-1.138639286228065317e-01,-1.699063309918441567e-01,-2.259487333608817261e-01,-2.339547908421728828e-01,-2.339547908421728273e-01,-2.339547908421728828e-01,-2.339547908421728273e-01,-2.339547908421728273e-01,-2.339547908421728273e-01,-2.339547908421728273e-01,-2.339547908421728273e-01,-2.339547908421728273e-01,-2.339547908421728273e-01,-2.339547908421728273e-01,-2.339547908421728273e-01,-2.339547908421728273e-01,-2.339547908421728273e-01,-2.339547908421728273e-01,-2.339547908421728273e-01,-2.339547908421728273e-01,-1.619002735105530555e-01,2.223904855914190376e-02,2.223904855914190376e-02,2.223904855914190376e-02,2.223904855914190376e-02
2.223904855914190376e-02,2.223904855914190376e-02,2.223904855914190376e-02,2.223904855914190376e-02,2.223904855914190376e-02,2.223904855914190376e-02,2.223904855914190376e-02,2.223904855914190376e-02,2.223904855914190376e-02,2.223904855914190376e-02,2.223904855914190376e-02,2.223904855914190376e-02,2.223904855914190376e-02,2.223904855914190376e-02,2.223904855914190376e-02,2.223904855914190376e-02,2.223904855914190376e-02,2.223904855914190376e-02,2.223904855914190376e-02,2.223904855914190376e-02,2.223904855914190376e-02,2.223904855914190376e-02,2.223904855914188988e-03,-5.381849751312340474e-02,-1.138639286228065317e-01,-1.699063309918441289e-01,-2.299517621015272628e-01,-2.339547908421728273e-01,-2.339547908421728273e-01,-2.339547908421728273e-01,-2.339547908421728273e-01,-2.339547908421727718e-01,-2.339547908421728273e-01,-2.339547908421728273e-01,-2.339547908421728273e-01,-2.339547908421728273e-01,-2.339547908421728828e-01,-2.339547908421728273e-01,-2.339547908421728273e-01,-2.339547908421728273e-01,-2.339547908421728828e-01,-2.339547908421728273e-01,-4.981546877247786803e-02,2.223904855914190376e-02,2.223904855914190376e-02,2.223904855914190376e-02,2.223904855914190376e-02
2.223904855914190376e-02,2.223904855914190376e-02,2.223904855914190376e-02,2.223904855914190376e-02,2.223904855914190376e-02,2.223904855914190376e-02,2.223904855914190376e-02,2.223904855914190376e-02,2.223904855914190376e-02,2.223904855914190376e-02,2.223904855914190376e-02,2.223904855914190376e-02,2.223904855914190376e-02,2.223904855914190376e-02,2.223904855914190376e-02,2.223904855914190376e-02,2.223904855914190376e-02,2.223904855914190376e-02,2.223904855914190376e-02,2.223904855914190376e-02,2.223904855914190376e-02,2.223904855914190376e-02,2.223904855914190376e-02,2.223904855914190376e-02,2.223904855914188988e-03,-5.782152625376895533e-02,-1.138639286228065595e-01,-1.699063309918441289e-01,-2.299517621015272628e-01,-2.339547908421728273e-01,-2.339547908421728273e-01,-2.339547908421728273e-01,-2.339547908421728273e-01,-2.339547908421728273e-01,-2.339547908421728273e-01,-2.339547908421728273e-01,-2.339547908421728273e-01,-2.339547908421728273e-01,-2.339547908421728273e-01,-2.339547908421728273e-01,-2.339547908421728273e-01,-1.619002735105530555e-01,2.223904855914190376e-02,2.223904855914190376e-02,2.223904855914190376e-02,2.223904855914190376e-02,2.223904855914190376e-02
2.223904855914190376e-02,2.223904855914190376e-02,2.223904855914190376e-02,2.223904855914190376e-02,2.223904855914190376e-02,2.223904855914190376e-02,2.223904855914190376e-02,2.223904855914190376e-02,2.223904855914190376e-02,2.223904855914190376e-02,2.223904855914190376e-02,2.223904855914190376e-02,2.223904855914190376e-02,2.223904855914190376e-02,2.223904855914190376e-02,2.223904855914190376e-02,2.223904855914190376e-02,2.223904855914190376e-02,2.223904855914190376e-02,2.223904855914190376e-02,2.223904855914190376e-02,2.223904855914190376e-02,2.223904855914190376e-02,2.223904855914190376e-02,2.223904855914190376e-02,2.223904855914190376e-02,2.223904855914188988e-03,-5.782152625376895533e-02,-1.138639286228065317e-01,-1.739093597324896656e-01,-2.299517621015272628e-01,-2.339547908421728273e-01,-2.339547908421728273e-01,-2.339547908421728273e-01,-2.339547908421728273e-01,-2.339547908421728273e-01,-2.339547908421728273e-01,-2.339547908421728828e-01,-2.339547908421728273e-01,-2.339547908421727718e-01,-2.339547908421728273e-01,-4.981546877247786803e-02,2.223904855914190376e-02,2.223904855914190376e-02,2.223904855914190376e-02,2.223904855914190376e-02,2.223904855914190376e-02
2.223904855914190376e-02,2.223904855914190376e-02,2.223904855914190376e-02,2.223904855914190376e-02,2.223904855914190376e-02,2.223904855914190376e-02,2.223904855914190376e-02,2.223904855914190376e-02,2.223904855914190376e-02,2.223904855914190376e-02,2.223904855914190376e-02,2.223904855914190376e-02,2.223904855914190376e-02,2.223904855914190376e-02,2.223904855914190376e-02,2.223904855914190376e-02,2.223904855914190376e-02,2.223904855914190376e-02,2.223904855914190376e-02,2.223904855914190376e-02,2.223904855914190376e-02,2.223904855914190376e-02,2.223904855914190376e-02,2.223904855914190376e-02,2.223904855914190376e-02,2.223904855914190376e-02,2.223904855914190376e-02,2.223904855914190376e-02,-1.779123884731351191e-03,-5.782152625376895533e-02,-1.138639286228065317e-01,-1.739093597324896934e-01,-2.299517621015272628e-01,-2.339547908421728273e-01,-2.339547908421728273e-01,-2.339547908421728273e-01,-2.339547908421728273e-01,-2.339547908421728273e-01,-2.339547908421728828e-01,-2.339547908421728273e-01,-1.619002735105530555e-01,2.223904855914190376e-02,2.223904855914190376e-02,2.223904855914190376e-02,2.223904855914190376e-02,2.223904855914190376e-02,2.223904855914190376e-02
2.223904855914190376e-02,2.223904855914190376e-02,2.223904855914190376e-02,2.223904855914190376e-02,2.223904855914190376e-02,2.223904855914190376e-02,2.223904855914190376e-02,2.223904855914190376e-02,2.223904855914190376e-02,2.223904855914190376e-02,2.223904855914190376e-02,2.223904855914190376e-02,2.223904855914190376e-02,2.223904855914190376e-02,2.223904855914190376e-02,2.223904855914190376e-02,2.223904855914190376e-02,2.223904855914190376e-02,2.223904855914190376e-02,2.223904855914190376e-02,2.223904855914190376e-02,2.223904855914190376e-02,2.223904855914190376e-02,2.223904855914190376e-02,2.223904855914190376e-02,2.223904855914190376e-02,2.223904855914190376e-02,2.223904855914190376e-02,2.223904855914190376e-02,2.223904855914190376e-02,-1.779123884731354660e-03,-5.782152625376895533e-02,-1.178669573634520962e-01,-1.739093597324896934e-01,-2.339547908421728273e-01,-2.339547908421728273e-01,-2.339547908421728273e-01,-2.339547908421728273e-01,-2.339547908421728273e-01,-2.339547908421728273e-01,-4.981546877247786803e-02,2.223904855914190376e-02,2.223904855914190376e-02,2.223904855914190376e-02,2.223904855914190376e-02,2.223904855914190376e-02,2.223904855914190376e-02
2.223904855914190376e-02,2.223904855914190376e-02,2.223904855914190376e-02,2.223904855914190376e-02,2.223904855914190376e-02,2.223904855914190376e-02,2.223904855914190376e-02,2.223904855914190376e-02,2.223904855914190376e-02,2.223904855914190376e-02,2.223904855914190376e-02,2.223904855914190376e-02,2.223904855914190376e-02,2.223904855914190376e-02,2.223904855914190376e-02,2.223904855914190376e-02,2.223904855914190376e-02,2.223904855914190376e-02,2.223904855914190376e-02,2.223904855914190376e-02,2.223904855914190376e-02,2.223904855914190376e-02,2.223904855914190376e-02,2.223904855914190376e-02,2.223904855914190376e-02,2.223904855914190376e-02,2.223904855914190376e-02,2.223904855914190376e-02,2.223904855914190376e-02,2.223904855914190376e-02,2.223904855914190376e-02,2.223904855914190376e-02,-1.779123884731354660e-03,-6.182455499441449204e-02,-1.178669573634520962e-01,-1.739093597324896934e-01,-2.339547908421728273e-01,-2.339547908421728273e-01,-2.339547908421728273e-01,-1.619002735105530555e-01,2.223904855914190376e-02,2.223904855914190376e-02,2.223904855914190376e-02,2.223904855914190376e-02,2.223904855914190376e-02,2.223904855914190376e-02,2.223904855914190376e-02
2.223904855914190376e-02,2.223904855914190376e-02,2.223904855914190376e-02,2.223904855914190376e-02,2.223904855914190376e-02,2.223904855914190376e-02,2.223904855914190376e-02,2.223904855914190376e-02,-1.376845483442177553e-01,-1.376845483442177553e-01,-1.376845483442177553e-01,2.223904855914190376e-02,2.223904855914190376e-02,2.223904855914190376e-02,2.223904855914190376e-02,2.223904855914190376e-02,2.223904855914190376e-02,2.223904855914190376e-02,2.223904855914190376e-02,2.223904855914190376e-02,2.223904855914190376e-02,2.223904855914190376e-02,2.223904855914190376e-02,2.223904855914190376e-02,2.223904855914190376e-02,2.223904855914190376e-02,2.223904855914190376e-02,2.223904855914190376e-02,2.223904855914190376e-02,2.223904855914190376e-02,2.223904855914190376e-02,2.223904855914190376e-02,2.223904855914190376e-02,2.223904855914190376e-02,-1.779123884731351191e-03,-6.182455499441449204e-02,-1.178669573634520962e-01,-1.779123884731352301e-01,-2.339547908421728273e-01,-4.180941129118678073e-02,2.223904855914190376e-02,2.223904855914190376e-02,2.223904855914190376e-02,2.223904855914190376e-02,2.223904855914190376e-02,2.223904855914190376e-02,2.223904855914190376e-02
2.223904855914190376e-02,2.223904855914190376e-02,2.223904855914190376e-02,2.223904855914190376e-02,2.223904855914190376e-02,2.223904855914190376e-02,2.223904855914190376e-02,2.223904855914190376e-02,-1.376845483442177553e-01,-1.376845483442177553e-01,-1.376845483442177553e-01,2.223904855914190376e-02,2.223904855914190376e-02,2.223904855914190376e-02,2.223904855914190376e-02,2.223904855914190376e-02,2.223904855914190376e-02,2.223904855914190376e-02,2.223904855914190376e-02,2.223904855914190376e-02,2.223904855914190376e-02,2.223904855914190376e-02,2.223904855914190376e-02,2.223904855914190376e-02,2.223904855914190376e-02,2.223904855914190376e-02,2.223904855914190376e-02,2.223904855914190376e-02,2.223904855914190376e-02,2.223904855914190376e-02,2.223904855914190376e-02,2.223904855914190376e-02,2.223904855914190376e-02,2.223904855914190376e-02,2.223904855914190376e-02,2.223904855914190376e-02,-5.782152625376894839e-03,-6.182455499441449204e-02,-7.408383051264147423e-02,2.223904855914190376e-02,2.223904855914190376e-02,2.223904855914190376e-02,2.223904855914190376e-02,2.223904855914190376e-02,2.223904855914190376e-02,2.223904855914190376e-02,2.223904855914190376e-02
2.223904855914190376e-02,2.223904855914190376e-02,2.223904855914190376e-02,2.223904855914190376e-02,2.223904855914190376e-02,2.223904855914190376e-02,2.223904855914190376e-02,2.223904855914190376e-02,-1.376845483442177553e-01,-1.376845483442177553e-01,-1.376845483442177553e-01,2.223904855914190376e-02,2.223904855914190376e-02,2.223904855914190376e-02,2.223904855914190376e-02,2.223904855914190376e-02,2.223904855914190376e-02,2.223904855914190376e-02,2.223904855914190376e-02,2.223904855914190376e-02,2.223904855914190376e-02,2.223904855914190376e-02,2.223904855914190376e-02,2.223904855914190376e-02,2.223904855914190376e-02,2.223904855914190376e-02,2.223904855914190376e-02,2.223904855914190376e-02,2.223904855914190376e-02,2.223904855914190376e-02,2.223904855914190376e-02,2.223904855914190376e-02,2.223904855914190376e-02,2.223904855914190376e-02,2.223904855914190376e-02,2.223904855914190376e-02,2.223904855914190376e-02,2.223904855914190376e-02,1.523374826301220411e-02,2.223904855914190376e-02,2.223904855914190376e-02,2.223904855914190376e-02,2.223904855914190376e-02,2.223904855914190376e-02,2.223904855914190376e-02,2.223904855914190376e-02,2.223904855914190376e-02
