0.000000000000000000e+00,0.000000000000000000e+00,0.000000000000000000e+00,0.000000000000000000e+00,0.000000000000000000e+00,0.000000000000000000e+00,0.000000000000000000e+00,0.000000000000000000e+00,0.000000000000000000e+00,0.000000000000000000e+00,0.000000000000000000e+00,0.000000000000000000e+00,0.000000000000000000e+00,0.000000000000000000e+00,0.000000000000000000e+00,0.000000000000000000e+00,0.000000000000000000e+00,0.000000000000000000e+00,0.000000000000000000e+00,0.000000000000000000e+00,0.000000000000000000e+00,0.000000000000000000e+00,0.000000000000000000e+00,0.000000000000000000e+00,0.000000000000000000e+00,0.000000000000000000e+00,0.000000000000000000e+00,0.000000000000000000e+00,0.000000000000000000e+00,0.000000000000000000e+00,0.000000000000000000e+00,0.000000000000000000e+00,0.000000000000000000e+00,0.000000000000000000e+00,0.000000000000000000e+00,0.000000000000000000e+00,0.000000000000000000e+00,0.000000000000000000e+00,0.000000000000000000e+00,0.000000000000000000e+00,0.000000000000000000e+00,0.000000000000000000e+00,0.000000000000000000e+00,0.000000000000000000e+00,0.000000000000000000e+00,0.000000000000000000e+00,0.000000000000000000e+00
0.000000000000000000e+00,0.000000000000000000e+00,0.000000000000000000e+00,0.000000000000000000e+00,0.000000000000000000e+00,0.000000000000000000e+00,0.000000000000000000e+00,0.000000000000000000e+00,0.000000000000000000e+00,0.000000000000000000e+00,0.000000000000000000e+00,0.000000000000000000e+00,0.000000000000000000e+00,0.000000000000000000e+00,0.000000000000000000e+00,0.000000000000000000e+00,0.000000000000000000e+00,0.000000000000000000e+00,0.000000000000000000e+00,0.000000000000000000e+00,0.000000000000000000e+00,0.000000000000000000e+00,0.000000000000000000e+00,0.000000000000000000e+00,0.000000000000000000e+00,0.000000000000000000e+00,0.000000000000000000e+00,0.000000000000000000e+00,0.000000000000000000e+00,0.000000000000000000e+00,0.000000000000000000e+00,0.000000000000000000e+00,0.000000000000000000e+00,0.000000000000000000e+00,0.000000000000000000e+00,0.000000000000000000e+00,0.000000000000000000e+00,0.000000000000000000e+00,0.000000000000000000e+00,0.000000000000000000e+00,0.000000000000000000e+00,0.000000000000000000e+00,0.000000000000000000e+00,0.000000000000000000e+00,0.000000000000000000e+00,0.000000000000000000e+00,0.000000000000000000e+00
0.000000000000000000e+00,0.000000000000000000e+00,0.000000000000000000e+00,0.000000000000000000e+00,0.000000000000000000e+00,0.000000000000000000e+00,0.000000000000000000e+00,0.000000000000000000e+00,0.000000000000000000e+00,0.000000000000000000e+00,0.000000000000000000e+00,0.000000000000000000e+00,0.000000000000000000e+00,0.000000000000000000e+00,0.000000000000000000e+00,0.000000000000000000e+00,0.000000000000000000e+00,0.000000000000000000e+00,0.000000000000000000e+00,0.000000000000000000e+00,0.000000000000000000e+00,0.000000000000000000e+00,0.000000000000000000e+00,0.000000000000000000e+00,0.000000000000000000e+00,0.000000000000000000e+00,0.000000000000000000e+00,0.000000000000000000e+00,0.000000000000000000e+00,0.000000000000000000e+00,0.000000000000000000e+00,0.000000000000000000e+00,0.000000000000000000e+00,0.000000000000000000e+00,0.000000000000000000e+00,0.000000000000000000e+00,0.000000000000000000e+00,0.000000000000000000e+00,0.000000000000000000e+00,0.000000000000000000e+00,0.000000000000000000e+00,0.000000000000000000e+00,0.000000000000000000e+00,0.000000000000000000e+00,0.000000000000000000e+00,0.000000000000000000e+00,0.000000000000000000e+00
0.000000000000000000e+00,0.000000000000000000e+00,0.000000000000000000e+00,0.000000000000000000e+00,0.000000000000000000e+00,0.000000000000000000e+00,0.000000000000000000e+00,0.000000000000000000e+00,0.000000000000000000e+00,0.000000000000000000e+00,0.000000000000000000e+00,0.000000000000000000e+00,0.000000000000000000e+00,0.000000000000000000e+00,0.000000000000000000e+00,0.000000000000000000e+00,0.000000000000000000e+00,0.000000000000000000e+00,0.000000000000000000e+00,0.000000000000000000e+00,0.000000000000000000e+00,0.000000000000000000e+00,0.000000000000000000e+00,0.000000000000000000e+00,0.000000000000000000e+00,0.000000000000000000e+00,0.000000000000000000e+00,0.000000000000000000e+00,0.000000000000000000e+00,0.000000000000000000e+00,0.000000000000000000e+00,0.000000000000000000e+00,0.000000000000000000e+00,0.000000000000000000e+00,0.000000000000000000e+00,0.000000000000000000e+00,0.000000000000000000e+00,0.000000000000000000e+00,0.000000000000000000e+00,0.000000000000000000e+00,0.000000000000000000e+00,0.000000000000000000e+00,0.000000000000000000e+00,0.000000000000000000e+00,0.000000000000000000e+00,0.000000000000000000e+00,0.000000000000000000e+00
0.000000000000000000e+00,0.000000000000000000e+00,0.000000000000000000e+00,0.000000000000000000e+00,0.000000000000000000e+00,0.000000000000000000e+00,0.000000000000000000e+00,0.000000000000000000e+00,0.000000000000000000e+00,0.000000000000000000e+00,0.000000000000000000e+00,0.000000000000000000e+00,0.000000000000000000e+00,0.000000000000000000e+00,0.000000000000000000e+00,0.000000000000000000e+00,0.000000000000000000e+00,0.000000000000000000e+00,0.000000000000000000e+00,0.000000000000000000e+00,0.000000000000000000e+00,0.000000000000000000e+00,0.000000000000000000e+00,0.000000000000000000e+00,0.000000000000000000e+00,0.000000000000000000e+00,0.000000000000000000e+00,0.000000000000000000e+00,0.000000000000000000e+00,0.000000000000000000e+00,0.000000000000000000e+00,0.000000000000000000e+00,0.000000000000000000e+00,0.000000000000000000e+00,0.000000000000000000e+00,0.000000000000000000e+00,0.000000000000000000e+00,0.000000000000000000e+00,0.000000000000000000e+00,0.000000000000000000e+00,0.000000000000000000e+00,0.000000000000000000e+00,0.000000000000000000e+00,0.000000000000000000e+00,0.000000000000000000e+00,0.000000000000000000e+00,0.000000000000000000e+00
0.000000000000000000e+00,0.000000000000000000e+00,0.000000000000000000e+00,0.000000000000000000e+00,0.000000000000000000e+00,0.000000000000000000e+00,0.000000000000000000e+00,0.000000000000000000e+00,0.000000000000000000e+00,0.000000000000000000e+00,0.000000000000000000e+00,0.000000000000000000e+00,0.000000000000000000e+00,0.000000000000000000e+00,0.000000000000000000e+00,0.000000000000000000e+00,0.000000000000000000e+00,0.000000000000000000e+00,0.000000000000000000e+00,0.000000000000000000e+00,0.000000000000000000e+00,0.000000000000000000e+00,0.000000000000000000e+00,0.000000000000000000e+00,0.000000000000000000e+00,0.000000000000000000e+00,0.000000000000000000e+00,0.000000000000000000e+00,0.000000000000000000e+00,0.000000000000000000e+00,0.000000000000000000e+00,0.000000000000000000e+00,0.000000000000000000e+00,0.000000000000000000e+00,0.000000000000000000e+00,0.000000000000000000e+00,0.000000000000000000e+00,0.000000000000000000e+00,0.000000000000000000e+00,0.000000000000000000e+00,0.000000000000000000e+00,0.000000000000000000e+00,0.000000000000000000e+00,0.000000000000000000e+00,0.000000000000000000e+00,0.000000000000000000e+00,0.000000000000000000e+00
0.000000000000000000e+00,0.000000000000000000e+00,0.000000000000000000e+00,0.000000000000000000e+00,0.000000000000000000e+00,0.000000000000000000e+00,0.000000000000000000e+00,0.000000000000000000e+00,0.000000000000000000e+00,0.000000000000000000e+00,0.000000000000000000e+00,0.000000000000000000e+00,0.000000000000000000e+00,0.000000000000000000e+00,0.000000000000000000e+00,0.000000000000000000e+00,0.000000000000000000e+00,0.000000000000000000e+00,0.000000000000000000e+00,0.000000000000000000e+00,0.000000000000000000e+00,0.000000000000000000e+00,0.000000000000000000e+00,0.000000000000000000e+00,0.000000000000000000e+00,0.000000000000000000e+00,0.000000000000000000e+00,0.000000000000000000e+00,0.000000000000000000e+00,0.000000000000000000e+00,0.000000000000000000e+00,0.000000000000000000e+00,0.000000000000000000e+00,0.000000000000000000e+00,0.000000000000000000e+00,0.000000000000000000e+00,0.000000000000000000e+00,0.000000000000000000e+00,0.000000000000000000e+00,0.000000000000000000e+00,0.000000000000000000e+00,0.000000000000000000e+00,0.000000000000000000e+00,0.000000000000000000e+00,0.000000000000000000e+00,0.000000000000000000e+00,0.000000000000000000e+00
0.000000000000000000e+00,0.000000000000000000e+00,0.000000000000000000e+00,0.000000000000000000e+00,0.000000000000000000e+00,0.000000000000000000e+00,0.000000000000000000e+00,0.000000000000000000e+00,0.000000000000000000e+00,0.000000000000000000e+00,0.000000000000000000e+00,0.000000000000000000e+00,0.000000000000000000e+00,0.000000000000000000e+00,0.000000000000000000e+00,0.000000000000000000e+00,0.000000000000000000e+00,0.000000000000000000e+00,0.000000000000000000e+00,0.000000000000000000e+00,0.000000000000000000e+00,0.000000000000000000e+00,0.000000000000000000e+00,0.000000000000000000e+00,0.000000000000000000e+00,0.000000000000000000e+00,0.000000000000000000e+00,0.000000000000000000e+00,0.000000000000000000e+00,0.000000000000000000e+00,0.000000000000000000e+00,0.000000000000000000e+00,0.000000000000000000e+00,0.000000000000000000e+00,0.000000000000000000e+00,0.000000000000000000e+00,0.000000000000000000e+00,0.000000000000000000e+00,0.000000000000000000e+00,-2.113800455191616485e-03,-2.113800455191616485e-03,-2.113800455191616485e-03,-2.113800455191616485e-03,0.000000000000000000e+00,0.000000000000000000e+00,0.000000000000000000e+00,0.000000000000000000e+00
0.000000000000000000e+00,0.000000000000000000e+00,0.000000000000000000e+00,0.000000000000000000e+00,0.000000000000000000e+00,0.000000000000000000e+00,0.000000000000000000e+00,0.000000000000000000e+00,0.000000000000000000e+00,0.000000000000000000e+00,0.000000000000000000e+00,0.000000000000000000e+00,0.000000000000000000e+00,0.000000000000000000e+00,0.000000000000000000e+00,0.000000000000000000e+00,0.000000000000000000e+00,0.000000000000000000e+00,0.000000000000000000e+00,0.000000000000000000e+00,0.000000000000000000e+00,0.000000000000000000e+00,0.000000000000000000e+00,0.000000000000000000e+00,0.000000000000000000e+00,0.000000000000000000e+00,0.000000000000000000e+00,0.000000000000000000e+00,0.000000000000000000e+00,0.000000000000000000e+00,0.000000000000000000e+00,0.000000000000000000e+00,0.000000000000000000e+00,0.000000000000000000e+00,0.000000000000000000e+00,0.000000000000000000e+00,0.000000000000000000e+00,0.000000000000000000e+00,0.000000000000000000e+00,-2.113800455191616485e-03,-2.113800455191616485e-03,-2.113800455191616485e-03,-2.113800455191616485e-03,0.000000000000000000e+00,0.000000000000000000e+00,0.000000000000000000e+00,0.000000000000000000e+00
0.000000000000000000e+00,0.000000000000000000e+00,0.000000000000000000e+00,0.000000000000000000e+00,0.000000000000000000e+00,0.000000000000000000e+00,0.000000000000000000e+00,0.000000000000000000e+00,0.000000000000000000e+00,0.000000000000000000e+00,0.000000000000000000e+00,0.000000000000000000e+00,0.000000000000000000e+00,0.000000000000000000e+00,0.000000000000000000e+00,0.000000000000000000e+00,0.000000000000000000e+00,0.000000000000000000e+00,0.000000000000000000e+00,0.000000000000000000e+00,0.000000000000000000e+00,0.000000000000000000e+00,0.000000000000000000e+00,0.000000000000000000e+00,0.000000000000000000e+00,0.000000000000000000e+00,0.000000000000000000e+00,0.000000000000000000e+00,0.000000000000000000e+00,0.000000000000000000e+00,0.000000000000000000e+00,0.000000000000000000e+00,-2.285708512789967894e-01,-2.285708512789967894e-01,-2.285708512789967894e-01,-2.285708512789967894e-01,0.000000000000000000e+00,0.000000000000000000e+00,0.000000000000000000e+00,-2.113800455191616485e-03,-2.113800455191616485e-03,-2.113800455191616485e-03,-2.113800455191616485e-03,0.000000000000000000e+00,0.000000000000000000e+00,0.000000000000000000e+00,0.000000000000000000e+00
0.000000000000000000e+00,0.000000000000000000e+00,0.000000000000000000e+00,0.000000000000000000e+00,0.000000000000000000e+00,0.000000000000000000e+00,0.000000000000000000e+00,0.000000000000000000e+00,0.000000000000000000e+00,0.000000000000000000e+00,0.000000000000000000e+00,0.000000000000000000e+00,0.000000000000000000e+00,0.000000000000000000e+00,0.000000000000000000e+00,0.000000000000000000e+00,0.000000000000000000e+00,0.000000000000000000e+00,0.000000000000000000e+00,0.000000000000000000e+00,0.000000000000000000e+00,0.000000000000000000e+00,0.000000000000000000e+00,0.000000000000000000e+00,0.000000000000000000e+00,0.000000000000000000e+00,0.000000000000000000e+00,0.000000000000000000e+00,0.000000000000000000e+00,0.000000000000000000e+00,0.000000000000000000e+00,0.000000000000000000e+00,-2.285708512789967894e-01,-2.285708512789967894e-01,-2.285708512789967894e-01,-2.285708512789967894e-01,0.000000000000000000e+00,0.000000000000000000e+00,0.000000000000000000e+00,-2.113800455191616485e-03,-2.113800455191616485e-03,-2.113800455191616485e-03,-2.113800455191616485e-03,0.000000000000000000e+00,0.000000000000000000e+00,0.000000000000000000e+00,0.000000000000000000e+00
0.000000000000000000e+00,0.000000000000000000e+00,0.000000000000000000e+00,0.000000000000000000e+00,0.000000000000000000e+00,0.000000000000000000e+00,0.000000000000000000e+00,0.000000000000000000e+00,0.000000000000000000e+00,0.000000000000000000e+00,0.000000000000000000e+00,0.000000000000000000e+00,0.000000000000000000e+00,0.000000000000000000e+00,0.000000000000000000e+00,0.000000000000000000e+00,0.000000000000000000e+00,0.000000000000000000e+00,0.000000000000000000e+00,0.000000000000000000e+00,0.000000000000000000e+00,0.000000000000000000e+00,0.000000000000000000e+00,0.000000000000000000e+00,0.000000000000000000e+00,0.000000000000000000e+00,0.000000000000000000e+00,0.000000000000000000e+00,0.000000000000000000e+00,0.000000000000000000e+00,0.000000000000000000e+00,0.000000000000000000e+00,-2.285708512789967894e-01,-2.285708512789967894e-01,-2.285708512789967894e-01,-2.285708512789967894e-01,0.000000000000000000e+00,0.000000000000000000e+00,0.000000000000000000e+00,0.000000000000000000e+00,0.000000000000000000e+00,0.000000000000000000e+00,0.000000000000000000e+00,0.000000000000000000e+00,0.000000000000000000e+00,0.000000000000000000e+00,0.000000000000000000e+00
0.000000000000000000e+00,0.000000000000000000e+00,0.000000000000000000e+00,0.000000000000000000e+00,0.000000000000000000e+00,0.000000000000000000e+00,0.000000000000000000e+00,0.000000000000000000e+00,0.000000000000000000e+00,0.000000000000000000e+00,0.000000000000000000e+00,0.000000000000000000e+00,0.000000000000000000e+00,0.000000000000000000e+00,0.000000000000000000e+00,0.000000000000000000e+00,0.000000000000000000e+00,0.000000000000000000e+00,0.000000000000000000e+00,0.000000000000000000e+00,0.000000000000000000e+00,0.000000000000000000e+00,0.000000000000000000e+00,0.000000000000000000e+00,0.000000000000000000e+00,0.000000000000000000e+00,0.000000000000000000e+00,0.000000000000000000e+00,0.000000000000000000e+00,0.000000000000000000e+00,0.000000000000000000e+00,0.000000000000000000e+00,-2.285708512789967894e-01,-2.285708512789967894e-01,-2.285708512789967894e-01,-2.285708512789967894e-01,0.000000000000000000e+00,0.000000000000000000e+00,0.000000000000000000e+00,0.000000000000000000e+00,0.000000000000000000e+00,0.000000000000000000e+00,0.000000000000000000e+00,0.000000000000000000e+00,0.000000000000000000e+00,0.000000000000000000e+00,0.000000000000000000e+00
0.000000000000000000e+00,0.000000000000000000e+00,0.000000000000000000e+00,0.000000000000000000e+00,0.000000000000000000e+00,0.000000000000000000e+00,0.000000000000000000e+00,0.000000000000000000e+00,0.000000000000000000e+00,0.000000000000000000e+00,0.000000000000000000e+00,0.000000000000000000e+00,0.000000000000000000e+00,0.000000000000000000e+00,0.000000000000000000e+00,0.000000000000000000e+00,0.000000000000000000e+00,0.000000000000000000e+00,0.000000000000000000e+00,0.000000000000000000e+00,0.000000000000000000e+00,0.000000000000000000e+00,0.000000000000000000e+00,0.000000000000000000e+00,0.000000000000000000e+00,0.000000000000000000e+00,0.000000000000000000e+00,0.000000000000000000e+00,0.000000000000000000e+00,0.000000000000000000e+00,0.000000000000000000e+00,0.000000000000000000e+00,0.000000000000000000e+00,0.000000000000000000e+00,0.000000000000000000e+00,0.000000000000000000e+00,0.000000000000000000e+00,0.000000000000000000e+00,0.000000000000000000e+00,0.000000000000000000e+00,0.000000000000000000e+00,0.000000000000000000e+00,0.000000000000000000e+00,0.000000000000000000e+00,0.000000000000000000e+00,0.000000000000000000e+00,0.000000000000000000e+00
0.000000000000000000e+00,0.000000000000000000e+00,0.000000000000000000e+00,0.000000000000000000e+00,0.000000000000000000e+00,0.000000000000000000e+00,0.000000000000000000e+00,0.000000000000000000e+00,0.000000000000000000e+00,0.000000000000000000e+00,0.000000000000000000e+00,0.000000000000000000e+00,0.000000000000000000e+00,0.000000000000000000e+00,0.000000000000000000e+00,0.000000000000000000e+00,0.000000000000000000e+00,0.000000000000000000e+00,0.000000000000000000e+00,0.000000000000000000e+00,0.000000000000000000e+00,0.000000000000000000e+00,0.000000000000000000e+00,0.000000000000000000e+00,0.000000000000000000e+00,0.000000000000000000e+00,0.000000000000000000e+00,0.000000000000000000e+00,0.000000000000000000e+00,0.000000000000000000e+00,0.000000000000000000e+00,0.000000000000000000e+00,0.000000000000000000e+00,0.000000000000000000e+00,0.000000000000000000e+00,0.000000000000000000e+00,0.000000000000000000e+00,0.000000000000000000e+00,0.000000000000000000e+00,0.000000000000000000e+00,0.000000000000000000e+00,0.000000000000000000e+00,0.000000000000000000e+00,0.000000000000000000e+00,0.000000000000000000e+00,0.000000000000000000e+00,0.000000000000000000e+00
0.000000000000000000e+00,0.000000000000000000e+00,0.000000000000000000e+00,0.000000000000000000e+00,0.000000000000000000e+00,0.000000000000000000e+00,0.000000000000000000e+00,0.000000000000000000e+00,0.000000000000000000e+00,0.000000000000000000e+00,0.000000000000000000e+00,0.000000000000000000e+00,0.000000000000000000e+00,0.000000000000000000e+00,0.000000000000000000e+00,0.000000000000000000e+00,0.000000000000000000e+00,0.000000000000000000e+00,0.000000000000000000e+00,0.000000000000000000e+00,0.000000000000000000e+00,0.000000000000000000e+00,0.000000000000000000e+00,0.000000000000000000e+00,0.000000000000000000e+00,0.000000000000000000e+00,0.000000000000000000e+00,0.000000000000000000e+00,0.000000000000000000e+00,0.000000000000000000e+00,0.000000000000000000e+00,0.000000000000000000e+00,0.000000000000000000e+00,0.000000000000000000e+00,0.000000000000000000e+00,0.000000000000000000e+00,0.000000000000000000e+00,0.000000000000000000e+00,0.000000000000000000e+00,0.000000000000000000e+00,0.000000000000000000e+00,0.000000000000000000e+00,0.000000000000000000e+00,0.000000000000000000e+00,0.000000000000000000e+00,0.000000000000000000e+00,0.000000000000000000e+00
0.000000000000000000e+00,0.000000000000000000e+00,0.000000000000000000e+00,0.000000000000000000e+00,0.000000000000000000e+00,0.000000000000000000e+00,0.000000000000000000e+00,0.000000000000000000e+00,0.000000000000000000e+00,0.000000000000000000e+00,0.000000000000000000e+00,0.000000000000000000e+00,0.000000000000000000e+00,0.000000000000000000e+00,0.000000000000000000e+00,0.000000000000000000e+00,0.000000000000000000e+00,0.000000000000000000e+00,0.000000000000000000e+00,0.000000000000000000e+00,0.000000000000000000e+00,0.000000000000000000e+00,0.000000000000000000e+00,0.000000000000000000e+00,0.000000000000000000e+00,0.000000000000000000e+00,0.000000000000000000e+00,0.000000000000000000e+00,0.000000000000000000e+00,0.000000000000000000e+00,0.000000000000000000e+00,0.000000000000000000e+00,0.000000000000000000e+00,0.000000000000000000e+00,0.000000000000000000e+00,0.000000000000000000e+00,0.000000000000000000e+00,0.000000000000000000e+00,0.000000000000000000e+00,0.000000000000000000e+00,0.000000000000000000e+00,-4.856702557046730859e-03,-9.713405114093461717e-03,-1.457010767114019258e-02,-1.821263458892524029e-02,-2.306933714597197288e-02,-9.599576147912678922e-03
0.000000000000000000e+00,0.000000000000000000e+00,0.000000000000000000e+00,0.000000000000000000e+00,0.000000000000000000e+00,0.000000000000000000e+00,0.000000000000000000e+00,0.000000000000000000e+00,0.000000000000000000e+00,0.000000000000000000e+00,0.000000000000000000e+00,0.000000000000000000e+00,0.000000000000000000e+00,0.000000000000000000e+00,0.000000000000000000e+00,0.000000000000000000e+00,0.000000000000000000e+00,0.000000000000000000e+00,0.000000000000000000e+00,0.000000000000000000e+00,0.000000000000000000e+00,0.000000000000000000e+00,0.000000000000000000e+00,0.000000000000000000e+00,0.000000000000000000e+00,0.000000000000000000e+00,0.000000000000000000e+00,0.000000000000000000e+00,0.000000000000000000e+00,0.000000000000000000e+00,0.000000000000000000e+00,0.000000000000000000e+00,-3.642526917785048144e-03,-7.285053835570096288e-03,-1.214175639261682801e-02,-1.699845894966355714e-02,-2.064098586744860658e-02,-2.549768842449533918e-02,-3.035439098154206830e-02,-3.521109353858879742e-02,-3.885362045637384687e-02,-4.371032301342057946e-02,-4.856702557046730512e-02,-5.220955248825236150e-02,-5.706625504529908716e-02,-6.192295760234581975e-02,-3.073382086881134428e-02
0.000000000000000000e+00,0.000000000000000000e+00,0.000000000000000000e+00,0.000000000000000000e+00,0.000000000000000000e+00,0.000000000000000000e+00,0.000000000000000000e+00,0.000000000000000000e+00,0.000000000000000000e+00,0.000000000000000000e+00,0.000000000000000000e+00,0.000000000000000000e+00,0.000000000000000000e+00,0.000000000000000000e+00,0.000000000000000000e+00,0.000000000000000000e+00,0.000000000000000000e+00,0.000000000000000000e+00,0.000000000000000000e+00,0.000000000000000000e+00,0.000000000000000000e+00,0.000000000000000000e+00,0.000000000000000000e+00,-1.214175639261682715e-03,-6.070878196308414007e-03,-9.713405114093461717e-03,-1.457010767114019084e-02,-1.942681022818692343e-02,-2.428351278523365603e-02,-2.792603970301870200e-02,-3.278274226006543113e-02,-3.763944481711216372e-02,-4.128197173489721317e-02,-4.613867429194393882e-02,-5.099537684899067141e-02,-5.585207940603741095e-02,-5.949460632382246039e-02,-6.435130888086919299e-02,-6.920801143791591170e-02,-7.285053835570094727e-02,-7.770724091274769374e-02,-8.256394346979442633e-02,-8.620647038757947578e-02,-9.106317294462620837e-02,-9.591987550167294097e-02,-1.007765780587196597e-01,-5.873574654928390149e-02
0.000000000000000000e+00,0.000000000000000000e+00,0.000000000000000000e+00,0.000000000000000000e+00,0.000000000000000000e+00,0.000000000000000000e+00,0.000000000000000000e+00,0.000000000000000000e+00,0.000000000000000000e+00,0.000000000000000000e+00,0.000000000000000000e+00,0.000000000000000000e+00,0.000000000000000000e+00,0.000000000000000000e+00,0.000000000000000000e+00,-3.642526917785048144e-03,-8.499229474831778569e-03,-1.335593203187850943e-02,-1.699845894966355714e-02,-2.185516150671028973e-02,-2.671186406375701886e-02,-3.035439098154206830e-02,-3.521109353858879742e-02,-4.006779609563553002e-02,-4.492449865268226261e-02,-4.856702557046730512e-02,-5.342372812751403771e-02,-5.828043068456077724e-02,-6.192295760234581975e-02,-6.677966015939254540e-02,-7.163636271643927800e-02,-7.527888963422432744e-02,-8.013559219127106004e-02,-8.499229474831779263e-02,-8.984899730536452522e-02,-9.349152422314957467e-02,-9.834822678019630726e-02,-1.032049293372430399e-01,-1.068474562550280893e-01,-1.117041588120748219e-01,-1.165608613691215406e-01,-1.214175639261682732e-01,-1.250600908439533088e-01,-1.299167934010000414e-01,-1.347734959580467740e-01,-1.384160228758318234e-01,-9.849999873510401072e-02
0.000000000000000000e+00,0.000000000000000000e+00,0.000000000000000000e+00,0.000000000000000000e+00,0.000000000000000000e+00,0.000000000000000000e+00,-2.428351278523365429e-03,-6.070878196308414007e-03,-1.092758075335514487e-02,-1.578428331040187399e-02,-1.942681022818692343e-02,-2.428351278523365603e-02,-2.914021534228038515e-02,-3.399691789932711428e-02,-3.763944481711216372e-02,-4.249614737415889631e-02,-4.735284993120562891e-02,-5.099537684899067141e-02,-5.585207940603740401e-02,-6.070878196308414354e-02,-6.556548452013086226e-02,-6.920801143791591170e-02,-7.406471399496264429e-02,-7.892141655200937689e-02,-8.256394346979442633e-02,-8.742064602684115893e-02,-9.227734858388789152e-02,-9.591987550167294097e-02,-1.007765780587196597e-01,-1.056332806157663923e-01,-1.104899831728131249e-01,-1.141325100905981743e-01,-1.189892126476449069e-01,-1.238459152046916256e-01,-1.274884421224766751e-01,-1.323451446795234077e-01,-1.372018472365701403e-01,-1.408443741543551897e-01,-1.457010767114019223e-01,-1.505577792684486549e-01,-1.554144818254953875e-01,-1.554144818254953875e-01,-1.554144818254953875e-01,-1.554144818254953875e-01,-1.554144818254953875e-01,-1.554144818254953875e-01,-1.262742664832149919e-01
-1.335593203187850943e-02,-1.821263458892524029e-02,-2.306933714597197288e-02,-2.671186406375701886e-02,-3.156856662080374798e-02,-3.642526917785048057e-02,-4.006779609563553002e-02,-4.492449865268226261e-02,-4.978120120972899521e-02,-5.463790376677571392e-02,-5.828043068456077030e-02,-6.313713324160749596e-02,-6.799383579865422855e-02,-7.163636271643927800e-02,-7.649306527348601059e-02,-8.134976783053274318e-02,-8.499229474831779263e-02,-8.984899730536452522e-02,-9.470569986241124394e-02,-9.956240241945797653e-02,-1.032049293372430399e-01,-1.080616318942897724e-01,-1.129183344513364912e-01,-1.165608613691215406e-01,-1.214175639261682593e-01,-1.262742664832149919e-01,-1.311309690402617245e-01,-1.347734959580467740e-01,-1.396301985150935066e-01,-1.444869010721402391e-01,-1.481294279899252886e-01,-1.529861305469720212e-01,-1.554144818254953875e-01,-1.554144818254953875e-01,-1.554144818254953875e-01,-1.554144818254953875e-01,-1.554144818254953875e-01,-1.554144818254953875e-01,-1.554144818254953875e-01,-1.554144818254953875e-01,-1.554144818254953875e-01,-1.547206671744887074e-01,-1.537955809731464951e-01,-1.531017663221398151e-01,-1.521766801207975750e-01,-1.512515939194553349e-01,-1.409311009857310282e-01
-5.220955248825235456e-02,-5.706625504529908716e-02,-6.070878196308413660e-02,-6.556548452013086226e-02,-7.042218707717759485e-02,-7.527888963422432744e-02,-7.892141655200937689e-02,-8.377811910905610948e-02,-8.863482166610284207e-02,-9.227734858388789152e-02,-9.713405114093462411e-02,-1.019907536979813567e-01,-1.056332806157663784e-01,-1.104899831728131110e-01,-1.153466857298598436e-01,-1.202033882869065901e-01,-1.238459152046916256e-01,-1.287026177617383582e-01,-1.335593203187850908e-01,-1.372018472365701403e-01,-1.420585497936168728e-01,-1.469152523506636054e-01,-1.505577792684486549e-01,-1.554144818254953875e-01,-1.554144818254953875e-01,-1.554144818254953875e-01,-1.554144818254953875e-01,-1.554144818254953875e-01,-1.554144818254953875e-01,-1.554144818254953875e-01,-1.554144818254953875e-01,-1.554144818254953875e-01,-1.549519387248242674e-01,-1.542581240738176152e-01,-1.533330378724753751e-01,-1.524079516711331350e-01,-1.517141370201264550e-01,-1.507890508187842149e-01,-1.498639646174420026e-01,-1.491701499664353225e-01,-1.482450637650930825e-01,-1.473199775637508424e-01,-1.463948913624086301e-01,-1.457010767114019500e-01,-1.447759905100597377e-01,-1.438509043087174699e-01,-1.431570896577107899e-01
-9.106317294462620837e-02,-9.591987550167294097e-02,-9.956240241945797653e-02,-1.044191049765047230e-01,-1.092758075335514556e-01,-1.129183344513364912e-01,-1.177750370083832238e-01,-1.226317395654299564e-01,-1.262742664832149919e-01,-1.311309690402617245e-01,-1.359876715973084571e-01,-1.408443741543551897e-01,-1.444869010721402391e-01,-1.493436036291869440e-01,-1.542003061862337043e-01,-1.554144818254953875e-01,-1.554144818254953875e-01,-1.554144818254953875e-01,-1.554144818254953875e-01,-1.554144818254953875e-01,-1.554144818254953875e-01,-1.554144818254953875e-01,-1.554144818254953875e-01,-1.554144818254953875e-01,-1.544893956241531474e-01,-1.537955809731464951e-01,-1.528704947718042551e-01,-1.519454085704619872e-01,-1.510203223691197749e-01,-1.503265077181130949e-01,-1.494014215167708826e-01,-1.484763353154286425e-01,-1.477825206644219624e-01,-1.468574344630797224e-01,-1.459323482617374823e-01,-1.452385336107308300e-01,-1.443134474093885622e-01,-1.433883612080463499e-01,-1.424632750067041098e-01,-1.417694603556974298e-01,-1.408443741543552175e-01,-1.399192879530129774e-01,-1.392254733020062973e-01,-1.383003871006640850e-01,-1.373753008993218450e-01,-1.366814862483151372e-01,-1.357564000469729248e-01
-1.299167934010000414e-01,-1.335593203187850908e-01,-1.384160228758318234e-01,-1.432727254328785560e-01,-1.469152523506636054e-01,-1.517719549077103380e-01,-1.554144818254953875e-01,-1.554144818254953875e-01,-1.554144818254953875e-01,-1.554144818254953875e-01,-1.554144818254953875e-01,-1.554144818254953875e-01,-1.554144818254953875e-01,-1.554144818254953597e-01,-1.554144818254953875e-01,-1.549519387248242674e-01,-1.540268525234820551e-01,-1.531017663221398151e-01,-1.524079516711331073e-01,-1.514828654697908950e-01,-1.505577792684486549e-01,-1.498639646174420026e-01,-1.489388784160997625e-01,-1.480137922147575225e-01,-1.473199775637508424e-01,-1.463948913624086023e-01,-1.454698051610663900e-01,-1.445447189597241500e-01,-1.438509043087174699e-01,-1.429258181073752576e-01,-1.420007319060330175e-01,-1.413069172550263375e-01,-1.403818310536840974e-01,-1.394567448523418574e-01,-1.385316586509996450e-01,-1.378378439999929650e-01,-1.369127577986506972e-01,-1.359876715973084849e-01,-1.352938569463017771e-01,-1.343687707449595647e-01,-1.334436845436173247e-01,-1.327498698926106446e-01,-1.318247836912684323e-01,-1.308996974899261923e-01,-1.299746112885839522e-01,-1.292807966375772721e-01,-1.283557104362350321e-01
-1.457010767114019223e-01,-1.554144818254953597e-01,-1.554144818254953875e-01,-1.554144818254953875e-01,-1.554144818254953875e-01,-1.554144818254953875e-01,-1.551832102751598275e-01,-1.544893956241531474e-01,-1.535643094228109073e-01,-1.526392232214686950e-01,-1.519454085704620150e-01,-1.510203223691197749e-01,-1.500952361677775349e-01,-1.491701499664353225e-01,-1.484763353154286147e-01,-1.475512491140864024e-01,-1.466261629127441901e-01,-1.459323482617374823e-01,-1.450072620603952700e-01,-1.440821758590530299e-01,-1.433883612080463499e-01,-1.424632750067041098e-01,-1.415381888053618975e-01,-1.406131026040196574e-01,-1.399192879530129774e-01,-1.389942017516707373e-01,-1.380691155503284973e-01,-1.373753008993218172e-01,-1.364502146979796049e-01,-1.355251284966373648e-01,-1.348313138456306848e-01,-1.339062276442884447e-01,-1.329811414429462046e-01,-1.320560552416039923e-01,-1.313622405905972845e-01,-1.304371543892550722e-01,-1.295120681879128322e-01,-1.288182535369061521e-01,-1.278931673355639398e-01,-1.269680811342216997e-01,-1.260429949328794597e-01,-1.253491802818727796e-01,-1.244240940805305395e-01,-1.234990078791882995e-01,-1.228051932281816333e-01,-1.218801070268393932e-01,-1.209550208254971532e-01
-1.243951851367385980e-01,-1.521766801207975750e-01,-1.512515939194553349e-01,-1.505577792684486549e-01,-1.496326930671064148e-01,-1.487076068657642025e-01,-1.480137922147575225e-01,-1.470887060134152824e-01,-1.461636198120730423e-01,-1.454698051610663900e-01,-1.445447189597241500e-01,-1.436196327583819099e-01,-1.426945465570396976e-01,-1.420007319060330175e-01,-1.410756457046907775e-01,-1.401505595033485374e-01,-1.394567448523418574e-01,-1.385316586509996173e-01,-1.376065724496574050e-01,-1.366814862483151372e-01,-1.359876715973084849e-01,-1.350625853959662448e-01,-1.341374991946239770e-01,-1.334436845436173247e-01,-1.325185983422750846e-01,-1.315935121409328445e-01,-1.308996974899261923e-01,-1.299746112885839244e-01,-1.290495250872417121e-01,-1.281244388858994998e-01,-1.274306242348927920e-01,-1.265055380335505797e-01,-1.255804518322083396e-01,-1.248866371812016596e-01,-1.239615509798594334e-01,-1.230364647785171794e-01,-1.221113785771749533e-01,-1.214175639261682732e-01,-1.204924777248260331e-01,-1.195673915234838069e-01,-1.188735768724771269e-01,-1.179484906711348868e-01,-1.170234044697926468e-01,-1.163295898187859667e-01,-1.154045036174437266e-01,-1.144794174161015143e-01,-1.135543312147592743e-01
-1.001694902390888320e-01,-1.447759905100597100e-01,-1.440821758590530299e-01,-1.431570896577107899e-01,-1.422320034563685498e-01,-1.415381888053618975e-01,-1.406131026040196574e-01,-1.396880164026774174e-01,-1.387629302013351773e-01,-1.380691155503284973e-01,-1.371440293489862849e-01,-1.362189431476440449e-01,-1.355251284966373648e-01,-1.346000422952951248e-01,-1.336749560939528847e-01,-1.329811414429462046e-01,-1.320560552416039646e-01,-1.311309690402617245e-01,-1.302058828389194844e-01,-1.295120681879128322e-01,-1.285869819865705921e-01,-1.276618957852283798e-01,-1.269680811342216720e-01,-1.260429949328794597e-01,-1.251179087315372196e-01,-1.241928225301949795e-01,-1.234990078791882995e-01,-1.225739216778460733e-01,-1.216488354765038332e-01,-1.209550208254971670e-01,-1.200299346241549131e-01,-1.191048484228126869e-01,-1.184110337718060069e-01,-1.174859475704637668e-01,-1.165608613691215267e-01,-1.156357751677793144e-01,-1.149419605167726344e-01,-1.140168743154303943e-01,-1.130917881140881681e-01,-1.123979734630814742e-01,-1.114728872617392480e-01,-1.105478010603970079e-01,-1.096227148590547817e-01,-1.089289002080481017e-01,-1.080038140067058616e-01,-1.070787278053636216e-01,-1.063849131543569415e-01
-7.779396774412353222e-02,-1.376065724496574050e-01,-1.366814862483151372e-01,-1.357564000469729248e-01,-1.348313138456306848e-01,-1.341374991946239770e-01,-1.332124129932817647e-01,-1.322873267919395246e-01,-1.315935121409328445e-01,-1.306684259395906045e-01,-1.297433397382483922e-01,-1.290495250872417121e-01,-1.281244388858994721e-01,-1.271993526845572320e-01,-1.262742664832150197e-01,-1.255804518322083396e-01,-1.246553656308660996e-01,-1.237302794295238595e-01,-1.230364647785171794e-01,-1.221113785771749533e-01,-1.211862923758327271e-01,-1.204924777248260331e-01,-1.195673915234837931e-01,-1.186423053221415669e-01,-1.177172191207993268e-01,-1.170234044697926606e-01,-1.160983182684504206e-01,-1.151732320671081944e-01,-1.144794174161015143e-01,-1.135543312147592743e-01,-1.126292450134170481e-01,-1.117041588120748080e-01,-1.110103441610681141e-01,-1.100852579597258879e-01,-1.091601717583836617e-01,-1.084663571073769817e-01,-1.075412709060347416e-01,-1.066161847046925154e-01,-1.059223700536858354e-01,-1.049972838523435953e-01,-1.040721976510013691e-01,-1.031471114496591290e-01,-1.024532967986524490e-01,-1.015282105973102089e-01,-1.006031243959679827e-01,-9.990930974496131656e-02,-9.898422354361907649e-02
-6.146764173762268857e-02,-1.302058828389195122e-01,-1.292807966375772721e-01,-1.283557104362350321e-01,-1.276618957852283798e-01,-1.267368095838861397e-01,-1.258117233825438996e-01,-1.251179087315372196e-01,-1.241928225301949795e-01,-1.232677363288527395e-01,-1.223426501275105133e-01,-1.216488354765038193e-01,-1.207237492751615932e-01,-1.197986630738193670e-01,-1.191048484228127008e-01,-1.181797622214704468e-01,-1.172546760201282068e-01,-1.165608613691215267e-01,-1.156357751677792867e-01,-1.147106889664370605e-01,-1.137856027650948343e-01,-1.130917881140881404e-01,-1.121667019127459142e-01,-1.112416157114036880e-01,-1.105478010603970079e-01,-1.096227148590547817e-01,-1.086976286577125417e-01,-1.077725424563703155e-01,-1.070787278053636216e-01,-1.061536416040213954e-01,-1.052285554026791692e-01,-1.045347407516724753e-01,-1.036096545503302491e-01,-1.026845683489880090e-01,-1.019907536979813290e-01,-1.010656674966391166e-01,-1.001405812952968766e-01,-9.921549509395463651e-02,-9.852168044294795646e-02,-9.759659424160571639e-02,-9.667150804026349020e-02,-9.597769338925682403e-02,-9.505260718791457009e-02,-9.412752098657234390e-02,-9.343370633556566385e-02,-9.250862013422343766e-02,-9.158353393288121147e-02
-4.253228355389883364e-02,-1.228051932281816194e-01,-1.218801070268393932e-01,-1.211862923758326993e-01,-1.202612061744904870e-01,-1.193361199731482469e-01,-1.186423053221415808e-01,-1.177172191207993407e-01,-1.167921329194571006e-01,-1.158670467181148606e-01,-1.151732320671081805e-01,-1.142481458657659543e-01,-1.133230596644237143e-01,-1.126292450134170342e-01,-1.117041588120748080e-01,-1.107790726107325679e-01,-1.098539864093903279e-01,-1.091601717583836617e-01,-1.082350855570414216e-01,-1.073099993556991955e-01,-1.066161847046925154e-01,-1.056910985033502892e-01,-1.047660123020080492e-01,-1.040721976510013552e-01,-1.031471114496591290e-01,-1.022220252483168890e-01,-1.012969390469746628e-01,-1.006031243959679966e-01,-9.967803819462575654e-02,-9.875295199328351647e-02,-9.805913734227683642e-02,-9.713405114093459636e-02,-9.620896493959237017e-02,-9.528387873825014398e-02,-9.459006408724346393e-02,-9.366497788590122386e-02,-9.273989168455898380e-02,-9.204607703355233150e-02,-9.112099083221009144e-02,-9.019590463086785137e-02,-8.950208997986117132e-02,-8.857700377851894513e-02,-8.765191757717671894e-02,-8.672683137583447888e-02,-8.603301672482779883e-02,-8.510793052348555876e-02,-8.418284432214333257e-02
-2.544709777285943109e-02,-1.154045036174437405e-01,-1.147106889664370744e-01,-1.137856027650948482e-01,-1.128605165637525942e-01,-1.119354303624103819e-01,-1.112416157114037019e-01,-1.103165295100614479e-01,-3.921785804243425044e-01,-3.914847657733358521e-01,-3.905596795719936121e-01,-1.068474562550280754e-01,-1.059223700536858354e-01,-1.052285554026791553e-01,-1.043034692013369291e-01,-1.033783829999946891e-01,-1.026845683489880090e-01,-1.017594821476457828e-01,-1.008343959463035566e-01,-1.001405812952968766e-01,-9.921549509395463651e-02,-9.829040889261239644e-02,-9.736532269127017025e-02,-9.667150804026347632e-02,-9.574642183892125014e-02,-9.482133563757902395e-02,-9.412752098657234390e-02,-9.320243478523010383e-02,-9.227734858388787764e-02,-9.158353393288121147e-02,-9.065844773153897140e-02,-8.973336153019673134e-02,-8.880827532885450515e-02,-8.811446067784783898e-02,-8.718937447650559891e-02,-8.626428827516335884e-02,-8.557047362415667879e-02,-8.464538742281445260e-02,-8.372030122147221254e-02,-8.279521502012995859e-02,-8.210140036912330630e-02,-8.117631416778106623e-02,-8.025122796643884004e-02,-7.955741331543215999e-02,-7.863232711408993381e-02,-7.770724091274769374e-02,-7.701342626174102757e-02
-1.361611252600601271e-02,-1.080038140067058616e-01,-1.073099993556991816e-01,-1.063849131543569415e-01,-1.054598269530147292e-01,-1.047660123020080492e-01,-1.038409261006657952e-01,-1.029158398993235690e-01,-3.850091623639402272e-01,-3.840840761625979871e-01,-3.831589899612557470e-01,-9.944676664429019652e-02,-9.875295199328351647e-02,-9.782786579194127641e-02,-9.690277959059905022e-02,-9.620896493959237017e-02,-9.528387873825013010e-02,-9.435879253690790391e-02,-9.343370633556566385e-02,-9.273989168455898380e-02,-9.181480548321677149e-02,-9.088971928187453142e-02,-9.019590463086785137e-02,-8.927081842952561130e-02,-8.834573222818339899e-02,-8.765191757717670507e-02,-8.672683137583447888e-02,-8.580174517449225269e-02,-8.487665897314999874e-02,-8.418284432214333257e-02,-8.325775812080109251e-02,-8.233267191945888019e-02,-8.163885726845218627e-02,-8.071377106710996008e-02,-7.978868486576770613e-02,-7.886359866442549382e-02,-7.816978401341881377e-02,-7.724469781207657371e-02,-7.631961161073434752e-02,-7.562579695972766747e-02,-7.470071075838544128e-02,-7.377562455704320121e-02,-7.308180990603652116e-02,-7.215672370469428110e-02,-7.123163750335205491e-02,-7.030655130200981484e-02,-6.961273665100314867e-02
0.000000000000000000e+00,-1.008343959463035427e-01,-9.990930974496130268e-02,-9.898422354361907649e-02,-9.829040889261239644e-02,-9.736532269127017025e-02,-9.644023648992793019e-02,-9.551515028858569012e-02,-3.776084727532023066e-01,-3.766833865518600666e-01,-3.757583003505178820e-01,-9.227734858388787764e-02,-9.135226238254565145e-02,-9.042717618120339751e-02,-8.950208997986118520e-02,-8.880827532885450515e-02,-8.788318912751227896e-02,-8.695810292617003889e-02,-8.626428827516335884e-02,-8.533920207382111878e-02,-8.441411587247889259e-02,-8.372030122147221254e-02,-8.279521502012997247e-02,-8.187012881878773241e-02,-8.094504261744550622e-02,-8.025122796643884004e-02,-7.932614176509661386e-02,-7.840105556375437379e-02,-7.770724091274770762e-02,-7.678215471140546755e-02,-7.585706851006321361e-02,-7.516325385905654743e-02,-7.423816765771432125e-02,-7.331308145637208118e-02,-7.238799525502984111e-02,-7.169418060402317494e-02,-7.076909440268094875e-02,-6.984400820133870869e-02,-6.915019355033202864e-02,-6.822510734898978857e-02,-6.730002114764757626e-02,-6.637493494630532231e-02,-6.568112029529865614e-02,-6.475603409395641608e-02,-6.383094789261417601e-02,-6.313713324160749596e-02,-6.221204704026526977e-02
0.000000000000000000e+00,-8.175449304361996627e-02,-9.250862013422343766e-02,-9.158353393288119759e-02,-9.088971928187453142e-02,-8.996463308053229135e-02,-8.903954687919006517e-02,-8.834573222818339899e-02,-8.742064602684115893e-02,-8.649555982549891886e-02,-8.580174517449223881e-02,-8.487665897314999874e-02,-8.395157277180777255e-02,-8.302648657046554637e-02,-8.233267191945885244e-02,-8.140758571811662625e-02,-8.048249951677440006e-02,-7.978868486576772001e-02,-7.886359866442549382e-02,-7.793851246308325376e-02,-7.701342626174101369e-02,-7.631961161073433364e-02,-7.539452540939212133e-02,-7.446943920804986738e-02,-7.377562455704320121e-02,-7.285053835570096115e-02,-7.192545215435873496e-02,-7.123163750335205491e-02,-7.030655130200982872e-02,-6.938146510066758865e-02,-6.845637889932534859e-02,-6.776256424831868241e-02,-6.683747804697644235e-02,-6.591239184563420228e-02,-6.521857719462752223e-02,-6.429349099328529604e-02,-6.336840479194305598e-02,-6.267459014093637593e-02,-6.174950393959414974e-02,-6.082441773825192355e-02,-5.989933153690968348e-02,-5.920551688590300343e-02,-5.828043068456076337e-02,-5.735534448321853718e-02,-5.666152983221185019e-02,-5.573644363086961706e-02,-5.481135742952739087e-02
0.000000000000000000e+00,-6.452476254362085606e-02,-8.510793052348557264e-02,-8.441411587247887871e-02,-8.348902967113665252e-02,-8.256394346979442633e-02,-8.187012881878774628e-02,-8.094504261744550622e-02,-8.001995641610328003e-02,-7.909487021476105384e-02,-7.840105556375437379e-02,-7.747596936241213372e-02,-7.655088316106989366e-02,-7.585706851006322748e-02,-7.493198230872100130e-02,-7.400689610737876123e-02,-7.331308145637208118e-02,-7.238799525502984111e-02,-7.146290905368761492e-02,-7.053782285234538874e-02,-6.984400820133870869e-02,-6.891892199999646862e-02,-6.799383579865424243e-02,-6.730002114764756238e-02,-6.637493494630532231e-02,-6.544984874496309613e-02,-6.452476254362085606e-02,-6.383094789261417601e-02,-6.290586169127194982e-02,-6.198077548992970975e-02,-6.128696083892302970e-02,-6.036187463758079658e-02,-5.943678843623856345e-02,-5.874297378523188340e-02,-5.781788758388965027e-02,-5.689280138254741020e-02,-5.596771518120517708e-02,-5.527390053019851091e-02,-5.434881432885627084e-02,-5.342372812751403077e-02,-5.272991347650736460e-02,-5.180482727516512453e-02,-5.087974107382288447e-02,-5.018592642281621830e-02,-4.926084022147398517e-02,-4.833575402013175204e-02,-4.741066781878951197e-02
0.000000000000000000e+00,-5.160246466862151299e-02,-7.793851246308325376e-02,-7.701342626174102757e-02,-7.608834006039877362e-02,-7.516325385905654743e-02,-7.446943920804986738e-02,-7.354435300670764120e-02,-7.261926680536541501e-02,-7.192545215435873496e-02,-7.100036595301649489e-02,-7.007527975167426870e-02,-6.938146510066758865e-02,-6.845637889932534859e-02,-6.753129269798310852e-02,-6.660620649664088233e-02,-6.591239184563420228e-02,-6.498730564429197609e-02,-6.406221944294973603e-02,-6.336840479194305598e-02,-6.244331859060082285e-02,-6.151823238925858972e-02,-6.082441773825191661e-02,-5.989933153690967654e-02,-5.897424533556744342e-02,-5.804915913422520335e-02,-5.735534448321853718e-02,-5.643025828187629711e-02,-5.550517208053406398e-02,-5.481135742952739087e-02,-5.388627122818515774e-02,-5.296118502684291768e-02,-5.203609882550068455e-02,-5.134228417449400450e-02,-5.041719797315177137e-02,-4.949211177180953825e-02,-4.879829712080285820e-02,-4.787321091946062507e-02,-4.694812471811839194e-02,-4.625431006711171883e-02,-4.532922386576948570e-02,-4.440413766442725257e-02,-4.347905146308501945e-02,-4.278523681207833940e-02,-4.186015061073611321e-02,-4.093506440939387314e-02,-4.024124975838720003e-02
0.000000000000000000e+00,-3.796467043477154413e-02,-7.053782285234538874e-02,-6.961273665100314867e-02,-6.868765044966090860e-02,-6.799383579865422855e-02,-6.706874959731200236e-02,-6.614366339596977618e-02,-6.544984874496309613e-02,-6.452476254362085606e-02,-6.359967634227861599e-02,-6.267459014093637593e-02,-6.198077548992971669e-02,-6.105568928858747663e-02,-6.013060308724523656e-02,-5.943678843623856345e-02,-5.851170223489632338e-02,-5.758661603355409719e-02,-5.689280138254741714e-02,-5.596771518120517708e-02,-5.504262897986295089e-02,-5.411754277852070388e-02,-5.342372812751403771e-02,-5.249864192617179764e-02,-5.157355572482957146e-02,-5.087974107382289141e-02,-4.995465487248065828e-02,-4.902956867113841821e-02,-4.833575402013175204e-02,-4.741066781878951197e-02,-4.648558161744728578e-02,-4.556049541610504572e-02,-4.486668076509837955e-02,-4.394159456375613948e-02,-4.301650836241389941e-02,-4.232269371140722630e-02,-4.139760751006499317e-02,-4.047252130872275311e-02,-3.954743510738052692e-02,-3.885362045637384687e-02,-3.792853425503161374e-02,-3.700344805368938061e-02,-3.630963340268270056e-02,-3.538454720134046744e-02,-3.445946099999823431e-02,-3.376564634899155426e-02,-3.284056014764932113e-02
0.000000000000000000e+00,-2.602527664869833113e-02,-6.313713324160749596e-02,-6.221204704026526977e-02,-6.151823238925858972e-02,-6.059314618791635659e-02,-5.966805998657413040e-02,-5.897424533556744342e-02,-5.804915913422520335e-02,-5.712407293288297716e-02,-5.619898673154073709e-02,-5.550517208053406398e-02,-5.458008587919182392e-02,-5.365499967784960467e-02,-5.296118502684291074e-02,-5.203609882550069149e-02,-5.111101262415845142e-02,-5.018592642281621830e-02,-4.949211177180953825e-02,-4.856702557046730512e-02,-4.764193936912507199e-02,-4.694812471811839194e-02,-4.602303851677616575e-02,-4.509795231543393262e-02,-4.440413766442725257e-02,-4.347905146308501945e-02,-4.255396526174278632e-02,-4.162887906040055319e-02,-4.093506440939387314e-02,-4.000997820805164001e-02,-3.908489200670940689e-02,-3.839107735570273378e-02,-3.746599115436050065e-02,-3.654090495301826058e-02,-3.584709030201158747e-02,-3.492200410066935434e-02,-3.399691789932711428e-02,-3.307183169798488115e-02,-3.237801704697820804e-02,-3.145293084563596797e-02,-3.052784464429373831e-02,-2.983402999328705826e-02,-2.890894379194482861e-02,-2.798385759060258854e-02,-2.705877138926035541e-02,-2.636495673825368230e-02,-2.543987053691144917e-02
0.000000000000000000e+00,-1.593605526530958438e-02,-5.573644363086962400e-02,-5.504262897986295089e-02,-5.411754277852070388e-02,-5.319245657717847769e-02,-5.226737037583624457e-02,-5.157355572482956452e-02,-5.064846952348733139e-02,-4.972338332214509826e-02,-4.902956867113841821e-02,-4.810448246979619202e-02,-4.717939626845395196e-02,-4.648558161744727885e-02,-4.556049541610504572e-02,-4.463540921476281259e-02,-4.371032301342057946e-02,-4.301650836241389941e-02,-4.209142216107166629e-02,-4.116633595972943316e-02,-4.047252130872276005e-02,-3.954743510738052692e-02,-3.862234890603828685e-02,-3.769726270469606066e-02,-3.700344805368938061e-02,-3.607836185234714749e-02,-3.515327565100491436e-02,-3.445946099999823431e-02,-3.353437479865599424e-02,-3.260928859731376112e-02,-3.191547394630709494e-02,-3.099038774496485488e-02,-3.006530154362261828e-02,-2.914021534228038515e-02,-2.844640069127370857e-02,-2.752131448993147544e-02,-2.659622828858923885e-02,-2.590241363758256227e-02,-2.497732743624032914e-02,-2.405224123489809601e-02,-2.312715503355586288e-02,-2.243334038254918283e-02,-2.150825418120694971e-02,-2.058316797986471658e-02,-1.988935332885804000e-02,-1.896426712751580340e-02,-1.803918092617357027e-02
0.000000000000000000e+00,-9.236407541526370918e-03,-4.833575402013174510e-02,-4.764193936912507199e-02,-4.671685316778283886e-02,-4.579176696644060574e-02,-4.509795231543392569e-02,-4.417286611409169256e-02,-4.324777991274945943e-02,-4.255396526174278632e-02,-4.162887906040055319e-02,-4.070379285905831312e-02,-3.977870665771608000e-02,-3.908489200670940689e-02,-3.815980580536717376e-02,-3.723471960402494063e-02,-3.654090495301826752e-02,-3.561581875167602745e-02,-3.469073255033379433e-02,-3.399691789932711428e-02,-3.307183169798488115e-02,-3.214674549664264802e-02,-3.122165929530041489e-02,-3.052784464429373831e-02,-2.960275844295150172e-02,-2.867767224160926859e-02,-2.798385759060258854e-02,-2.705877138926035541e-02,-2.613368518791812228e-02,-2.520859898657588916e-02,-2.451478433556921604e-02,-2.358969813422697598e-02,-2.266461193288474285e-02,-2.197079728187806627e-02,-2.104571108053583314e-02,-2.012062487919360002e-02,-1.942681022818691997e-02,-1.850172402684468684e-02,-1.757663782550245371e-02,-1.665155162416021711e-02,-1.595773697315354400e-02,-1.503265077181130741e-02,-1.410756457046907601e-02,-1.341374991946239943e-02,-1.248866371812016457e-02,-1.156357751677792971e-02,-1.063849131543569658e-02
0.000000000000000000e+00,-2.616259413171007076e-03,-4.116633595972943316e-02,-4.024124975838720003e-02,-3.931616355704496690e-02,-3.862234890603828685e-02,-3.769726270469605373e-02,-3.677217650335382060e-02,-3.584709030201158747e-02,-3.515327565100491436e-02,-3.422818944966267429e-02,-3.330310324832044117e-02,-3.260928859731376805e-02,-3.168420239597153493e-02,-3.075911619462929486e-02,-3.006530154362261828e-02,-2.914021534228038515e-02,-2.821512914093815202e-02,-2.729004293959591543e-02,-2.659622828858923885e-02,-2.567114208724700225e-02,-2.474605588590477259e-02,-2.405224123489809601e-02,-2.312715503355585941e-02,-2.220206883221362629e-02,-2.127698263087139316e-02,-2.058316797986471311e-02,-1.965808177852248345e-02,-1.873299557718024685e-02,-1.803918092617357027e-02,-1.711409472483133368e-02,-1.618900852348910402e-02,-1.549519387248242570e-02,-1.457010767114019084e-02,-1.364502146979795771e-02,-1.271993526845572285e-02,-1.202612061744904801e-02,-1.110103441610681314e-02,-1.017594821476457828e-02,-9.482133563757903436e-03,-8.557047362415666839e-03,-7.631961161073433711e-03,-6.706874959731199716e-03,-6.013060308724524003e-03,-5.087974107382289141e-03,-4.162887906040055146e-03,-3.469073255033378999e-03
0.000000000000000000e+00,0.000000000000000000e+00,-3.165529345217958646e-02,-3.284056014764932807e-02,-3.191547394630708800e-02,-3.122165929530041142e-02,-3.029657309395817830e-02,-2.937148689261594170e-02,-2.867767224160926859e-02,-2.775258604026703199e-02,-2.682749983892480233e-02,-2.613368518791812228e-02,-2.520859898657588569e-02,-2.428351278523365256e-02,-2.335842658389141943e-02,-2.266461193288474285e-02,-2.173952573154250972e-02,-2.081443953020027660e-02,-2.012062487919360002e-02,-1.919553867785136342e-02,-1.827045247650913029e-02,-1.757663782550245371e-02,-1.665155162416022058e-02,-1.572646542281798399e-02,-1.480137922147575086e-02,-1.410756457046907601e-02,-1.318247836912683942e-02,-1.225739216778460802e-02,-1.156357751677793144e-02,-1.063849131543569485e-02,-9.713405114093461717e-03,-8.788318912751228590e-03,-8.094504261744552009e-03,-7.169418060402317147e-03,-6.244331859060082285e-03,-5.550517208053406572e-03,-4.625431006711171709e-03,-3.700344805368937715e-03,-3.006530154362262001e-03,-2.081443953020027573e-03,-1.156357751677792927e-03,-2.312715503355586072e-04,0.000000000000000000e+00,0.000000000000000000e+00,0.000000000000000000e+00,0.000000000000000000e+00,0.000000000000000000e+00
0.000000000000000000e+00,0.000000000000000000e+00,-2.142152734983111470e-02,-2.543987053691144917e-02,-2.474605588590477259e-02,-2.382096968456253600e-02,-2.289588348322030287e-02,-2.220206883221362976e-02,-2.127698263087138969e-02,-2.035189642952915656e-02,-1.942681022818692343e-02,-1.873299557718024685e-02,-1.780790937583801026e-02,-1.688282317449577713e-02,-1.618900852348910402e-02,-1.526392232214686742e-02,-1.433883612080463256e-02,-1.364502146979795771e-02,-1.271993526845572459e-02,-1.179484906711348799e-02,-1.086976286577125486e-02,-1.017594821476457828e-02,-9.250862013422345154e-03,-8.325775812080110291e-03,-7.631961161073434578e-03,-6.706874959731199716e-03,-5.781788758388965721e-03,-4.856702557046730859e-03,-4.162887906040055146e-03,-3.237801704697820283e-03,-2.312715503355585855e-03,-1.618900852348910359e-03,-6.938146510066758215e-04,0.000000000000000000e+00,0.000000000000000000e+00,0.000000000000000000e+00,0.000000000000000000e+00,0.000000000000000000e+00,0.000000000000000000e+00,0.000000000000000000e+00,0.000000000000000000e+00,0.000000000000000000e+00,0.000000000000000000e+00,0.000000000000000000e+00,0.000000000000000000e+00,0.000000000000000000e+00,0.000000000000000000e+00
0.000000000000000000e+00,0.000000000000000000e+00,-1.363056699790198348e-02,-1.827045247650913029e-02,-1.734536627516689369e-02,-1.642028007382466057e-02,-1.572646542281798399e-02,-1.480137922147575086e-02,-1.387629302013351773e-02,-1.295120681879128113e-02,-1.225739216778460629e-02,-1.133230596644237143e-02,-1.040721976510013830e-02,-9.713405114093461717e-03,-8.788318912751226855e-03,-7.863232711408993728e-03,-6.938146510066758865e-03,-6.244331859060082285e-03,-5.319245657717848290e-03,-4.394159456375613428e-03,-3.700344805368937715e-03,-2.775258604026703286e-03,-1.850172402684468857e-03,-1.156357751677793144e-03,-2.312715503355586072e-04,0.000000000000000000e+00,0.000000000000000000e+00,0.000000000000000000e+00,0.000000000000000000e+00,0.000000000000000000e+00,0.000000000000000000e+00,0.000000000000000000e+00,0.000000000000000000e+00,0.000000000000000000e+00,0.000000000000000000e+00,0.000000000000000000e+00,0.000000000000000000e+00,0.000000000000000000e+00,0.000000000000000000e+00,0.000000000000000000e+00,0.000000000000000000e+00,0.000000000000000000e+00,0.000000000000000000e+00,0.000000000000000000e+00,0.000000000000000000e+00,0.000000000000000000e+00,0.000000000000000000e+00
0.000000000000000000e+00,0.000000000000000000e+00,-7.003191633598634253e-03,-1.086976286577125313e-02,-9.944676664429021734e-03,-9.019590463086785137e-03,-8.325775812080110291e-03,-7.400689610737875429e-03,-6.475603409395640567e-03,-5.781788758388965721e-03,-4.856702557046730859e-03,-3.931616355704495996e-03,-3.006530154362262001e-03,-2.312715503355586288e-03,-1.387629302013351643e-03,-4.625431006711172143e-04,0.000000000000000000e+00,0.000000000000000000e+00,0.000000000000000000e+00,0.000000000000000000e+00,0.000000000000000000e+00,0.000000000000000000e+00,0.000000000000000000e+00,0.000000000000000000e+00,0.000000000000000000e+00,0.000000000000000000e+00,0.000000000000000000e+00,0.000000000000000000e+00,0.000000000000000000e+00,0.000000000000000000e+00,0.000000000000000000e+00,0.000000000000000000e+00,0.000000000000000000e+00,0.000000000000000000e+00,0.000000000000000000e+00,0.000000000000000000e+00,0.000000000000000000e+00,0.000000000000000000e+00,0.000000000000000000e+00,0.000000000000000000e+00,0.000000000000000000e+00,0.000000000000000000e+00,0.000000000000000000e+00,0.000000000000000000e+00,0.000000000000000000e+00,0.000000000000000000e+00,0.000000000000000000e+00
0.000000000000000000e+00,0.000000000000000000e+00,-2.059762245176068821e-03,-3.469073255033378999e-03,-2.543987053691144570e-03,-1.850172402684468857e-03,-9.250862013422344286e-04,0.000000000000000000e+00,0.000000000000000000e+00,0.000000000000000000e+00,0.000000000000000000e+00,0.000000000000000000e+00,0.000000000000000000e+00,0.000000000000000000e+00,0.000000000000000000e+00,0.000000000000000000e+00,0.000000000000000000e+00,0.000000000000000000e+00,0.000000000000000000e+00,0.000000000000000000e+00,0.000000000000000000e+00,0.000000000000000000e+00,0.000000000000000000e+00,0.000000000000000000e+00,0.000000000000000000e+00,0.000000000000000000e+00,0.000000000000000000e+00,0.000000000000000000e+00,0.000000000000000000e+00,0.000000000000000000e+00,0.000000000000000000e+00,0.000000000000000000e+00,0.000000000000000000e+00,0.000000000000000000e+00,0.000000000000000000e+00,0.000000000000000000e+00,0.000000000000000000e+00,0.000000000000000000e+00,0.000000000000000000e+00,0.000000000000000000e+00,0.000000000000000000e+00,0.000000000000000000e+00,0.000000000000000000e+00,0.000000000000000000e+00,0.000000000000000000e+00,0.000000000000000000e+00,0.000000000000000000e+00
