6.624167355536694952e-03,6.624167355536694952e-03,6.624167355536694952e-03,6.624167355536694952e-03,6.624167355536694952e-03,6.624167355536694952e-03,6.624167355536694952e-03,6.624167355536694952e-03,6.624167355536694952e-03,6.624167355536694952e-03,6.624167355536694952e-03,6.624167355536694952e-03,6.624167355536694952e-03,6.624167355536694952e-03,6.624167355536694952e-03,6.624167355536694952e-03,-2.952155665488342094e-03,-1.248745062293741756e-02,-1.354672062798945725e-02,-1.187575949325948149e-02,-1.020479835852950226e-02,-8.533837223799526500e-03,-6.803198905686333973e-03,-5.132237770956358212e-03,-3.461276636226382451e-03,-1.790315501496404955e-03,-5.967718338321329613e-05,1.611283951346763332e-03,3.282245086076740828e-03,4.953206220806718324e-03,6.624167355536694952e-03,6.624167355536694952e-03,6.624167355536694952e-03,6.624167355536694952e-03,6.624167355536694952e-03,6.624167355536694952e-03,6.624167355536694952e-03,6.624167355536694952e-03,6.624167355536694952e-03,6.624167355536694952e-03,6.624167355536694952e-03,6.624167355536694952e-03,6.624167355536694952e-03,6.624167355536694952e-03,6.624167355536694952e-03,6.624167355536694952e-03,6.624167355536694952e-03
6.624167355536694952e-03,6.624167355536694952e-03,6.624167355536694952e-03,6.624167355536694952e-03,6.624167355536694952e-03,6.624167355536694952e-03,6.624167355536694952e-03,6.624167355536694952e-03,6.624167355536694952e-03,6.624167355536694952e-03,6.624167355536694952e-03,6.624167355536694952e-03,6.624167355536694952e-03,6.624167355536694952e-03,-2.935371457661812948e-03,-1.461345028096440110e-02,-1.784347783158083192e-02,-1.611283951346763679e-02,-1.444187837873766103e-02,-1.277091724400768527e-02,-1.109995610927770604e-02,-9.428994974547730279e-03,-7.698356656434537752e-03,-6.027395521704558522e-03,-4.356434386974582761e-03,-2.685473252244606999e-03,-9.548349341314162075e-04,7.161262005985621557e-04,2.387087335328538784e-03,4.058048470058515413e-03,5.729009604788492908e-03,6.624167355536694952e-03,6.624167355536694952e-03,6.624167355536694952e-03,6.624167355536694952e-03,6.624167355536694952e-03,6.624167355536694952e-03,6.624167355536694952e-03,6.624167355536694952e-03,6.624167355536694952e-03,6.624167355536694952e-03,6.624167355536694952e-03,6.624167355536694952e-03,6.624167355536694952e-03,6.624167355536694952e-03,6.624167355536694952e-03,6.624167355536694952e-03
6.624167355536694952e-03,6.624167355536694952e-03,6.624167355536694952e-03,6.624167355536694952e-03,6.624167355536694952e-03,6.624167355536694952e-03,6.624167355536694952e-03,6.624167355536694952e-03,6.624167355536694952e-03,6.624167355536694952e-03,6.624167355536694952e-03,6.624167355536694952e-03,-2.405736455135793102e-03,-1.615759740100505132e-02,-2.208055785178898375e-02,-2.040959671705900452e-02,-1.873863558232903223e-02,-1.706767444759905300e-02,-1.533703612948586134e-02,-1.366607499475588558e-02,-1.199511386002590982e-02,-1.032415272529592712e-02,-8.593514407182738929e-03,-6.922553272452762300e-03,-5.251592137722784805e-03,-3.580631002992807309e-03,-1.909669868262829813e-03,-1.790315501496398884e-04,1.491929584580336740e-03,3.162890719310313369e-03,4.833851854040290864e-03,6.564490172153481656e-03,6.624167355536694952e-03,6.624167355536694952e-03,6.624167355536694952e-03,6.624167355536694952e-03,6.624167355536694952e-03,6.624167355536694952e-03,6.624167355536694952e-03,6.624167355536694952e-03,6.624167355536694952e-03,6.624167355536694952e-03,6.624167355536694952e-03,6.624167355536694952e-03,6.624167355536694952e-03,6.624167355536694952e-03,6.624167355536694952e-03
6.624167355536694952e-03,6.624167355536694952e-03,6.624167355536694952e-03,6.624167355536694952e-03,6.624167355536694952e-03,6.624167355536694952e-03,6.624167355536694952e-03,6.624167355536694952e-03,6.624167355536694952e-03,6.624167355536694952e-03,-1.325952418295773920e-03,-1.829665144289710152e-02,-2.637731505538035495e-02,-2.470635392065037919e-02,-2.297571560253718753e-02,-2.130475446780720830e-02,-1.963379333307722907e-02,-1.796283219834726025e-02,-1.623219388023406165e-02,-1.456123274550408589e-02,-1.289027161077411013e-02,-1.121931047604413437e-02,-9.548349341314155136e-03,-7.817711023200963477e-03,-6.146749888470986849e-03,-4.475788753741009353e-03,-2.804827619011033592e-03,-1.074189300897842800e-03,5.967718338321355634e-04,2.267732968562111324e-03,3.938694103292088820e-03,5.609655238022065449e-03,6.624167355536694952e-03,6.624167355536694952e-03,6.624167355536694952e-03,6.624167355536694952e-03,6.624167355536694952e-03,6.624167355536694952e-03,6.624167355536694952e-03,6.624167355536694952e-03,6.624167355536694952e-03,6.624167355536694952e-03,6.624167355536694952e-03,6.624167355536694952e-03,6.624167355536694952e-03,6.624167355536694952e-03,6.624167355536694952e-03
6.624167355536694952e-03,6.624167355536694952e-03,6.624167355536694952e-03,6.624167355536694952e-03,6.624167355536694952e-03,6.624167355536694952e-03,6.624167355536694952e-03,6.624167355536694952e-03,-5.370946504489213999e-04,-1.844024966541296315e-02,-3.061439507558851372e-02,-2.894343394085853102e-02,-2.727247280612855526e-02,-2.560151167139858644e-02,-2.387087335328539131e-02,-2.219991221855541208e-02,-2.052895108382542938e-02,-1.885798994909545709e-02,-1.718702881436548133e-02,-1.545639049625228967e-02,-1.378542936152231391e-02,-1.211446822679233468e-02,-1.044350709206235892e-02,-8.712868773949167256e-03,-7.041907639219188893e-03,-5.370946504489211397e-03,-3.699985369759235636e-03,-2.029024235029258140e-03,-2.983859169160664807e-04,1.372575217813910148e-03,3.043536352543886776e-03,4.714497487273863405e-03,6.445135805387054197e-03,6.624167355536694952e-03,6.624167355536694952e-03,6.624167355536694952e-03,6.624167355536694952e-03,6.624167355536694952e-03,6.624167355536694952e-03,6.624167355536694952e-03,6.624167355536694952e-03,6.624167355536694952e-03,6.624167355536694952e-03,6.624167355536694952e-03,6.624167355536694952e-03,6.624167355536694952e-03,6.624167355536694952e-03
6.624167355536694952e-03,6.624167355536694952e-03,6.624167355536694952e-03,6.624167355536694952e-03,6.624167355536694952e-03,6.624167355536694952e-03,1.849992684879617384e-03,-1.605316233008442436e-02,-3.156923000971992299e-02,-3.156923000971992299e-02,-3.150955282633671056e-02,-2.983859169160673133e-02,-2.816763055687676251e-02,-2.649666942214677981e-02,-2.476603110403359162e-02,-2.309506996930361586e-02,-2.142410883457363316e-02,-1.975314769984365740e-02,-1.808218656511368164e-02,-1.635154824700049345e-02,-1.468058711227051769e-02,-1.300962597754053846e-02,-1.133866484281055922e-02,-9.608026524697371035e-03,-7.937065389967391804e-03,-6.266104255237413441e-03,-4.595143120507435945e-03,-2.924181985777460184e-03,-1.193543667664268525e-03,4.774174670657081038e-04,2.148378601795684732e-03,3.819339736525661794e-03,5.549978054638853020e-03,6.624167355536694952e-03,6.624167355536694952e-03,6.624167355536694952e-03,6.624167355536694952e-03,6.624167355536694952e-03,6.624167355536694952e-03,6.624167355536694952e-03,6.624167355536694952e-03,6.624167355536694952e-03,6.624167355536694952e-03,6.624167355536694952e-03,6.624167355536694952e-03,6.624167355536694952e-03,6.624167355536694952e-03
6.624167355536694952e-03,6.624167355536694952e-03,6.624167355536694952e-03,6.624167355536694952e-03,4.237080020208156168e-03,-1.366607499475588558e-02,-3.156923000971992299e-02,-3.156923000971992299e-02,-3.156923000971992299e-02,-3.156923000971992299e-02,-3.156923000971992299e-02,-3.073374944235493858e-02,-2.906278830762496282e-02,-2.739182717289498706e-02,-2.572086603816501130e-02,-2.399022772005181617e-02,-2.231926658532183694e-02,-2.064830545059185771e-02,-1.897734431586188195e-02,-1.724670599774869376e-02,-1.557574486301871453e-02,-1.390478372828874223e-02,-1.223382259355876300e-02,-1.056286145882878377e-02,-8.832223140715595583e-03,-7.161262005985613750e-03,-5.490300871255639724e-03,-3.819339736525662228e-03,-2.088701418412472303e-03,-4.177402836824948076e-04,1.253220851047482688e-03,2.924181985777459750e-03,4.595143120507436812e-03,6.325781438620627604e-03,6.624167355536694952e-03,6.624167355536694952e-03,6.624167355536694952e-03,6.624167355536694952e-03,6.624167355536694952e-03,6.624167355536694952e-03,6.624167355536694952e-03,6.624167355536694952e-03,6.624167355536694952e-03,6.624167355536694952e-03,6.624167355536694952e-03,6.624167355536694952e-03,6.624167355536694952e-03
6.624167355536694952e-03,6.624167355536694952e-03,6.624167355536694952e-03,-1.127898765942734680e-02,-2.918214267439138768e-02,-3.156923000971992299e-02,-3.156923000971992299e-02,-3.156923000971992299e-02,-3.156923000971992299e-02,-3.156923000971992299e-02,-3.156923000971992299e-02,-3.156923000971992299e-02,-2.995794605837316313e-02,-2.828698492364318043e-02,-2.661602378891321161e-02,-2.488538547080002342e-02,-2.321442433607004072e-02,-2.154346320134006496e-02,-1.987250206661008919e-02,-1.820154093188010996e-02,-1.647090261376691830e-02,-1.479994147903694254e-02,-1.312898034430696331e-02,-1.145801920957698755e-02,-9.727380891463795892e-03,-8.056419756733816662e-03,-6.385458622003841768e-03,-4.714497487273864272e-03,-3.043536352543886776e-03,-1.312898034430696852e-03,3.580631002992806441e-04,2.029024235029257273e-03,3.699985369759234768e-03,5.430623687872425560e-03,6.624167355536694952e-03,6.624167355536694952e-03,6.624167355536694952e-03,6.624167355536694952e-03,6.624167355536694952e-03,6.624167355536694952e-03,6.624167355536694952e-03,6.624167355536694952e-03,6.624167355536694952e-03,6.624167355536694952e-03,6.624167355536694952e-03,6.624167355536694952e-03,6.624167355536694952e-03
6.624167355536694952e-03,-8.891900324098808012e-03,-2.679505533906284889e-02,-3.156923000971992299e-02,-3.156923000971992299e-02,-3.156923000971992299e-02,-3.156923000971992299e-02,-3.156923000971992299e-02,-3.156923000971992299e-02,-3.156923000971992299e-02,-3.156923000971992299e-02,-3.156923000971992299e-02,-3.085310380912136344e-02,-2.918214267439138768e-02,-2.751118153966140498e-02,-2.584022040493143615e-02,-2.410958208681824450e-02,-2.243862095208826180e-02,-2.076765981735828950e-02,-1.909669868262831374e-02,-1.736606036451511861e-02,-1.569509922978514285e-02,-1.402413809505516709e-02,-1.235317696032519133e-02,-1.068221582559521210e-02,-8.951577507482020440e-03,-7.280616372752043812e-03,-5.609655238022066316e-03,-3.938694103292088820e-03,-2.208055785178898896e-03,-5.370946504489213999e-04,1.133866484281056096e-03,2.804827619011032724e-03,4.475788753741010220e-03,6.206427071854201012e-03,6.624167355536694952e-03,6.624167355536694952e-03,6.624167355536694952e-03,6.624167355536694952e-03,6.624167355536694952e-03,6.624167355536694952e-03,6.624167355536694952e-03,6.624167355536694952e-03,6.624167355536694952e-03,6.624167355536694952e-03,6.624167355536694952e-03,6.624167355536694952e-03
-2.440796800373431011e-02,-3.156923000971992299e-02,-3.156923000971992299e-02,-3.156923000971992299e-02,-3.156923000971992299e-02,-3.156923000971992299e-02,-3.156923000971992299e-02,-3.156923000971992299e-02,-3.156923000971992299e-02,-3.156923000971992299e-02,-3.156923000971992299e-02,-3.156923000971992299e-02,-3.156923000971992299e-02,-3.007730042513958799e-02,-2.840633929040961222e-02,-2.673537815567963646e-02,-2.500473983756644827e-02,-2.333377870283646904e-02,-2.166281756810648981e-02,-1.999185643337651058e-02,-1.826121811526332239e-02,-1.659025698053334316e-02,-1.491929584580336740e-02,-1.324833471107339164e-02,-1.157737357634341588e-02,-9.846735258230224219e-03,-8.175774123500244989e-03,-6.504812988770270095e-03,-4.833851854040290864e-03,-3.103213535927100940e-03,-1.432252401197123444e-03,2.387087335328540519e-04,1.909669868262830680e-03,3.580631002992808176e-03,5.311269321105998101e-03,6.624167355536694952e-03,6.624167355536694952e-03,6.624167355536694952e-03,6.624167355536694952e-03,6.624167355536694952e-03,6.624167355536694952e-03,6.624167355536694952e-03,6.624167355536694952e-03,6.624167355536694952e-03,6.624167355536694952e-03,6.624167355536694952e-03,6.624167355536694952e-03
-3.156923000971992299e-02,-3.156923000971992299e-02,-3.156923000971992299e-02,-3.156923000971992299e-02,-3.156923000971992299e-02,-3.156923000971992299e-02,-3.156923000971992299e-02,-3.156923000971992299e-02,-3.156923000971992299e-02,-3.156923000971992299e-02,-3.156923000971992299e-02,-3.156923000971992299e-02,-3.156923000971992299e-02,-3.097245817588778830e-02,-2.930149704115781253e-02,-2.763053590642783677e-02,-2.589989758831464858e-02,-2.422893645358467282e-02,-2.255797531885469359e-02,-2.088701418412471436e-02,-1.921605304939473860e-02,-1.748541473128154347e-02,-1.581445359655157118e-02,-1.414349246182159195e-02,-1.247253132709161619e-02,-1.074189300897842453e-02,-9.070931874248448767e-03,-7.399970739518470404e-03,-5.729009604788492908e-03,-4.058048470058515413e-03,-2.327410151945325488e-03,-6.564490172153488595e-04,1.014512117514628636e-03,2.685473252244606132e-03,4.416111570357796057e-03,6.087072705087773553e-03,6.624167355536694952e-03,6.624167355536694952e-03,6.624167355536694952e-03,6.624167355536694952e-03,6.624167355536694952e-03,6.624167355536694952e-03,6.624167355536694952e-03,6.624167355536694952e-03,6.624167355536694952e-03,6.624167355536694952e-03,6.624167355536694952e-03
-3.156923000971992299e-02,-3.156923000971992299e-02,-3.156923000971992299e-02,-3.156923000971992299e-02,-3.156923000971992299e-02,-3.156923000971992299e-02,-3.156923000971992299e-02,-3.156923000971992299e-02,-3.156923000971992299e-02,-3.156923000971992299e-02,-3.156923000971992299e-02,-3.156923000971992299e-02,-3.156923000971992299e-02,-3.156923000971992299e-02,-3.019665479190601978e-02,-2.852569365717603708e-02,-2.685473252244606132e-02,-2.512409420433287313e-02,-2.345313306960289390e-02,-2.178217193487291467e-02,-2.011121080014293891e-02,-1.838057248202975072e-02,-1.670961134729977149e-02,-1.503865021256979573e-02,-1.336768907783981997e-02,-1.169672794310984074e-02,-9.966089624996649077e-03,-8.295128490266673316e-03,-6.624167355536693218e-03,-4.953206220806717457e-03,-3.222567902693527532e-03,-1.551606767963550036e-03,1.193543667664265923e-04,1.790315501496404088e-03,3.461276636226381150e-03,5.191914954339571509e-03,6.624167355536694952e-03,6.624167355536694952e-03,6.624167355536694952e-03,6.624167355536694952e-03,6.624167355536694952e-03,6.624167355536694952e-03,6.624167355536694952e-03,6.624167355536694952e-03,6.624167355536694952e-03,6.624167355536694952e-03,6.624167355536694952e-03
-3.156923000971992299e-02,-3.156923000971992299e-02,-3.156923000971992299e-02,-3.156923000971992299e-02,-3.156923000971992299e-02,-3.156923000971992299e-02,-3.156923000971992299e-02,-3.156923000971992299e-02,-3.156923000971992299e-02,-3.156923000971992299e-02,-3.156923000971992299e-02,-3.156923000971992299e-02,-3.156923000971992299e-02,-3.156923000971992299e-02,-3.109181254265422009e-02,-2.942085140792424433e-02,-2.774989027319426163e-02,-2.601925195508108038e-02,-2.434829082035109768e-02,-2.267732968562112192e-02,-2.100636855089113922e-02,-1.933540741616116346e-02,-1.760476909804797527e-02,-1.593380796331799257e-02,-1.426284682858802375e-02,-1.259188569385804105e-02,-1.086124737574484939e-02,-9.190286241014877094e-03,-7.519325106284896997e-03,-5.848363971554919501e-03,-4.177402836824942005e-03,-2.446764518711752080e-03,-7.758033839817754518e-04,8.951577507482020440e-04,2.566118885478178673e-03,4.296757203591369464e-03,5.967718338321346960e-03,6.624167355536694952e-03,6.624167355536694952e-03,6.624167355536694952e-03,6.624167355536694952e-03,6.624167355536694952e-03,6.624167355536694952e-03,6.624167355536694952e-03,6.624167355536694952e-03,6.624167355536694952e-03,6.624167355536694952e-03
-3.156923000971992299e-02,-3.156923000971992299e-02,-3.156923000971992299e-02,-3.156923000971992299e-02,-3.156923000971992299e-02,-3.156923000971992299e-02,-3.156923000971992299e-02,-3.156923000971992299e-02,-3.156923000971992299e-02,-3.156923000971992299e-02,-3.156923000971992299e-02,-3.156923000971992299e-02,-3.156923000971992299e-02,-3.156923000971992299e-02,-2.631251194730896414e-01,-2.618718986220421874e-01,-2.602009374873122116e-01,-2.584702991691990026e-01,-2.567993380344690268e-01,-2.357248743636932223e-02,-2.190152630163934300e-02,-2.023056516690936377e-02,-1.849992684879617905e-02,-1.682896571406619982e-02,-1.515800457933622405e-02,-1.348704344460624829e-02,-1.175640512649305316e-02,-1.008544399176307740e-02,-8.414482857033098173e-03,-6.743521722303121545e-03,-5.072560587573145784e-03,-3.341922269459954124e-03,-1.670961134729978363e-03,0.000000000000000000e+00,1.670961134729976628e-03,3.401599452843167420e-03,5.072560587573144916e-03,6.624167355536694952e-03,6.624167355536694952e-03,6.624167355536694952e-03,6.624167355536694952e-03,6.624167355536694952e-03,6.624167355536694952e-03,6.624167355536694952e-03,6.624167355536694952e-03,6.624167355536694952e-03,6.624167355536694952e-03
-3.156923000971992299e-02,-3.156923000971992299e-02,-3.156923000971992299e-02,-3.156923000971992299e-02,-3.156923000971992299e-02,-3.156923000971992299e-02,-3.156923000971992299e-02,-3.156923000971992299e-02,-3.156923000971992299e-02,-3.156923000971992299e-02,-3.156923000971992299e-02,-3.156923000971992299e-02,-3.156923000971992299e-02,-3.156923000971992299e-02,-2.631251194730896414e-01,-2.627670563727904085e-01,-2.610960952380603772e-01,-2.594251341033304015e-01,-2.576944957852172480e-01,-2.446764518711752601e-02,-2.279668405238754678e-02,-2.112572291765757102e-02,-1.939508459954437936e-02,-1.772412346481440359e-02,-1.605316233008442089e-02,-6.027047557819795176e-02,-5.859951444346797600e-02,-5.686887612535478087e-02,-9.309640607781301952e-03,-7.638679473051323589e-03,-5.967718338321346093e-03,-4.237080020208156168e-03,-2.566118885478178673e-03,-8.951577507482020440e-04,7.758033839817745844e-04,2.446764518711752080e-03,4.177402836824942872e-03,5.848363971554919501e-03,6.624167355536694952e-03,6.624167355536694952e-03,6.624167355536694952e-03,6.624167355536694952e-03,6.624167355536694952e-03,6.624167355536694952e-03,6.624167355536694952e-03,6.624167355536694952e-03,6.624167355536694952e-03
-3.156923000971992299e-02,-3.156923000971992299e-02,-3.156923000971992299e-02,-3.156923000971992299e-02,-3.156923000971992299e-02,-3.156923000971992299e-02,-3.156923000971992299e-02,-3.156923000971992299e-02,-3.156923000971992299e-02,-3.156923000971992299e-02,-3.156923000971992299e-02,-3.156923000971992299e-02,-3.156923000971992299e-02,-3.156923000971992299e-02,-2.631251194730896414e-01,-2.631251194730896414e-01,-2.619912529888085984e-01,-2.603202918540786226e-01,-2.585896535359654691e-01,-2.536280293786572285e-02,-2.369184180313574709e-02,-2.202088066840577132e-02,-2.034991953367579556e-02,-1.861928121556260043e-02,-1.694832008083262467e-02,-6.116563332894615901e-02,-5.949467219421616937e-02,-5.776403387610298812e-02,-1.020479835852950226e-02,-8.533837223799526500e-03,-6.862876089069548137e-03,-5.191914954339570641e-03,-3.461276636226382451e-03,-1.790315501496404955e-03,-1.193543667664274596e-04,1.551606767963550036e-03,3.282245086076740828e-03,4.953206220806718324e-03,6.624167355536694952e-03,6.624167355536694952e-03,6.624167355536694952e-03,6.624167355536694952e-03,6.624167355536694952e-03,6.624167355536694952e-03,6.624167355536694952e-03,6.624167355536694952e-03,6.624167355536694952e-03
-3.156923000971992299e-02,-3.156923000971992299e-02,-3.156923000971992299e-02,-3.156923000971992299e-02,-3.156923000971992299e-02,-3.156923000971992299e-02,-3.156923000971992299e-02,-3.156923000971992299e-02,-3.156923000971992299e-02,-3.156923000971992299e-02,-3.156923000971992299e-02,-3.156923000971992299e-02,-3.156923000971992299e-02,-3.156923000971992299e-02,-2.631251194730896414e-01,-2.631251194730896414e-01,-2.628864107395568195e-01,-2.612154496048268437e-01,-2.595444884700968680e-01,-2.625796068861393009e-02,-2.458699955388395086e-02,-2.291603841915397163e-02,-2.124507728442399587e-02,-1.951443896631080421e-02,-1.784347783158083192e-02,-6.206079107969435238e-02,-6.038982994496437662e-02,-5.871886881023440086e-02,-1.109995610927770604e-02,-9.428994974547730279e-03,-7.758033839817750181e-03,-6.087072705087772685e-03,-4.356434386974582761e-03,-2.685473252244606999e-03,-1.014512117514629504e-03,6.564490172153479922e-04,2.327410151945324621e-03,4.058048470058515413e-03,5.729009604788492908e-03,6.624167355536694952e-03,6.624167355536694952e-03,6.624167355536694952e-03,6.624167355536694952e-03,6.624167355536694952e-03,6.624167355536694952e-03,6.624167355536694952e-03,6.624167355536694952e-03
-2.901163643615363094e-02,-3.156923000971992299e-02,-3.156923000971992299e-02,-3.156923000971992299e-02,-3.156923000971992299e-02,-3.156923000971992299e-02,-3.156923000971992299e-02,-3.156923000971992299e-02,-3.156923000971992299e-02,-3.156923000971992299e-02,-3.156923000971992299e-02,-3.156923000971992299e-02,-3.156923000971992299e-02,-3.156923000971992299e-02,-2.631251194730896414e-01,-2.631251194730896414e-01,-2.631251194730896414e-01,-2.621106073555750648e-01,-2.604396462208450891e-01,-2.715311843936213040e-02,-2.548215730463215464e-02,-2.381119616990217541e-02,-2.214023503517219618e-02,-2.040959671705900452e-02,-1.873863558232903223e-02,-1.706767444759905300e-02,-1.539671331286907377e-02,-1.372575217813910148e-02,-1.199511386002590982e-02,-1.032415272529592712e-02,-8.653191590565954827e-03,-6.982230455835976464e-03,-5.251592137722784805e-03,-3.580631002992807309e-03,-1.909669868262829813e-03,-2.387087335328540519e-04,1.432252401197122577e-03,3.162890719310313369e-03,4.833851854040290864e-03,6.504812988770268360e-03,6.624167355536694952e-03,6.624167355536694952e-03,6.624167355536694952e-03,6.624167355536694952e-03,6.624167355536694952e-03,6.624167355536694952e-03,6.624167355536694952e-03
-2.645404286258734930e-02,-3.139872377148217319e-02,-3.156923000971992299e-02,-3.156923000971992299e-02,-3.156923000971992299e-02,-3.156923000971992299e-02,-3.156923000971992299e-02,-3.156923000971992299e-02,-3.156923000971992299e-02,-3.156923000971992299e-02,-3.156923000971992299e-02,-3.156923000971992299e-02,-3.156923000971992299e-02,-3.156923000971992299e-02,-3.156923000971992299e-02,-3.156923000971992299e-02,-3.156923000971992299e-02,-3.144987564295349813e-02,-2.977891450822351890e-02,-2.804827619011033071e-02,-2.637731505538035495e-02,-2.470635392065037919e-02,-2.303539278592040343e-02,-2.136443165119042073e-02,-1.963379333307722907e-02,-1.796283219834726025e-02,-1.629187106361727755e-02,-1.462090992888730179e-02,-1.289027161077411013e-02,-1.121931047604413437e-02,-9.548349341314155136e-03,-7.877388206584179375e-03,-6.206427071854199277e-03,-4.475788753741009353e-03,-2.804827619011033592e-03,-1.133866484281056096e-03,5.370946504489213999e-04,2.267732968562111324e-03,3.938694103292088820e-03,5.609655238022065449e-03,6.624167355536694952e-03,6.624167355536694952e-03,6.624167355536694952e-03,6.624167355536694952e-03,6.624167355536694952e-03,6.624167355536694952e-03,6.624167355536694952e-03
-2.389644928902104684e-02,-2.867062395967812441e-02,-3.156923000971992299e-02,-3.156923000971992299e-02,-3.156923000971992299e-02,-3.156923000971992299e-02,-3.156923000971992299e-02,-3.156923000971992299e-02,-3.156923000971992299e-02,-3.156923000971992299e-02,-3.156923000971992299e-02,-3.156923000971992299e-02,-3.156923000971992299e-02,-3.156923000971992299e-02,-3.156923000971992299e-02,-3.156923000971992299e-02,-3.156923000971992299e-02,-3.156923000971992299e-02,-3.067407225897172615e-02,-2.900311112424175039e-02,-2.727247280612855526e-02,-2.560151167139858644e-02,-2.393055053666860374e-02,-2.225958940193862451e-02,-2.052895108382542938e-02,-1.885798994909545709e-02,-1.718702881436548133e-02,-1.551606767963550210e-02,-1.384510654490552634e-02,-1.211446822679233468e-02,-1.044350709206235892e-02,-8.772545957332379685e-03,-7.101584822602403056e-03,-5.370946504489211397e-03,-3.699985369759235636e-03,-2.029024235029258140e-03,-3.580631002992806441e-04,1.312898034430695984e-03,3.043536352543886776e-03,4.714497487273863405e-03,6.385458622003840901e-03,6.624167355536694952e-03,6.624167355536694952e-03,6.624167355536694952e-03,6.624167355536694952e-03,6.624167355536694952e-03,6.624167355536694952e-03
-2.133885571545475826e-02,-2.611303038611183583e-02,-3.105771129500666319e-02,-3.156923000971992299e-02,-3.156923000971992299e-02,-3.156923000971992299e-02,-3.156923000971992299e-02,-3.156923000971992299e-02,-3.156923000971992299e-02,-3.156923000971992299e-02,-3.156923000971992299e-02,-3.156923000971992299e-02,-3.156923000971992299e-02,-3.156923000971992299e-02,-3.156923000971992299e-02,-3.156923000971992299e-02,-3.156923000971992299e-02,-3.156923000971992299e-02,-3.156923000971992299e-02,-2.989826887498995070e-02,-2.816763055687676251e-02,-2.649666942214677981e-02,-2.482570828741680405e-02,-2.315474715268682829e-02,-2.148378601795684559e-02,-1.975314769984365740e-02,-1.808218656511368164e-02,-1.641122543038370588e-02,-1.474026429565373011e-02,-1.300962597754053846e-02,-1.133866484281055922e-02,-9.667703708080583463e-03,-7.996742573350604233e-03,-6.325781438620625870e-03,-4.595143120507435945e-03,-2.924181985777460184e-03,-1.253220851047482688e-03,4.177402836824939403e-04,2.148378601795684732e-03,3.819339736525661794e-03,5.490300871255638857e-03,6.624167355536694952e-03,6.624167355536694952e-03,6.624167355536694952e-03,6.624167355536694952e-03,6.624167355536694952e-03,6.624167355536694952e-03
-1.878126214188846968e-02,-2.355543681254554378e-02,-2.850011772144037461e-02,-3.156923000971992299e-02,-3.156923000971992299e-02,-3.156923000971992299e-02,-3.156923000971992299e-02,-3.156923000971992299e-02,-3.156923000971992299e-02,-3.156923000971992299e-02,-3.156923000971992299e-02,-3.156923000971992299e-02,-3.156923000971992299e-02,-3.156923000971992299e-02,-3.156923000971992299e-02,-3.156923000971992299e-02,-3.156923000971992299e-02,-3.156923000971992299e-02,-3.156923000971992299e-02,-3.079342662573815101e-02,-2.906278830762496282e-02,-2.739182717289498706e-02,-2.572086603816501130e-02,-2.404990490343502860e-02,-2.237894376870505284e-02,-2.064830545059185771e-02,-1.897734431586188195e-02,-1.730638318113190618e-02,-1.563542204640193042e-02,-1.390478372828874223e-02,-1.223382259355876300e-02,-1.056286145882878377e-02,-8.891900324098808012e-03,-7.220939189368827914e-03,-5.490300871255639724e-03,-3.819339736525662228e-03,-2.148378601795684732e-03,-4.774174670657072364e-04,1.253220851047482688e-03,2.924181985777459750e-03,4.595143120507436812e-03,6.266104255237414308e-03,6.624167355536694952e-03,6.624167355536694952e-03,6.624167355536694952e-03,6.624167355536694952e-03,6.624167355536694952e-03
-1.622366856832217763e-02,-2.099784323897925520e-02,-2.577201790963632930e-02,-3.071669881853116360e-02,-3.156923000971992299e-02,-3.156923000971992299e-02,-3.156923000971992299e-02,-3.156923000971992299e-02,-3.156923000971992299e-02,-3.156923000971992299e-02,-3.156923000971992299e-02,-3.156923000971992299e-02,-3.156923000971992299e-02,-3.156923000971992299e-02,-3.156923000971992299e-02,-3.156923000971992299e-02,-3.156923000971992299e-02,-3.156923000971992299e-02,-3.156923000971992299e-02,-3.156923000971992299e-02,-3.001762324175637556e-02,-2.828698492364318043e-02,-2.661602378891321161e-02,-2.494506265418322891e-02,-2.327410151945325315e-02,-2.154346320134006496e-02,-1.987250206661008919e-02,-1.820154093188010996e-02,-1.653057979715013073e-02,-1.485961866242015497e-02,-1.312898034430696331e-02,-1.145801920957698755e-02,-9.787058074847008321e-03,-8.116096940117032560e-03,-6.385458622003841768e-03,-4.714497487273864272e-03,-3.043536352543886776e-03,-1.372575217813911015e-03,2.983859169160673480e-04,2.029024235029257273e-03,3.699985369759234768e-03,5.370946504489212264e-03,6.624167355536694952e-03,6.624167355536694952e-03,6.624167355536694952e-03,6.624167355536694952e-03,6.624167355536694952e-03
-1.366607499475588558e-02,-1.844024966541296315e-02,-2.321442433607003725e-02,-2.815910524496486808e-02,-3.156923000971992299e-02,-3.156923000971992299e-02,-3.156923000971992299e-02,-3.156923000971992299e-02,-3.156923000971992299e-02,-3.156923000971992299e-02,-3.156923000971992299e-02,-3.156923000971992299e-02,-3.156923000971992299e-02,-3.156923000971992299e-02,-3.156923000971992299e-02,-3.156923000971992299e-02,-3.156923000971992299e-02,-3.156923000971992299e-02,-3.156923000971992299e-02,-3.156923000971992299e-02,-3.091278099250457587e-02,-2.918214267439138768e-02,-2.751118153966140498e-02,-2.584022040493143615e-02,-2.416925927020146039e-02,-2.249829813547147769e-02,-2.076765981735828950e-02,-1.909669868262831374e-02,-1.742573754789833104e-02,-1.575477641316835181e-02,-1.402413809505516709e-02,-1.235317696032519133e-02,-1.068221582559521210e-02,-9.011254690865236339e-03,-7.340293556135256241e-03,-5.609655238022066316e-03,-3.938694103292088820e-03,-2.267732968562111324e-03,-5.967718338321346960e-04,1.133866484281056096e-03,2.804827619011032724e-03,4.475788753741010220e-03,6.146749888470986849e-03,6.624167355536694952e-03,6.624167355536694952e-03,6.624167355536694952e-03,6.624167355536694952e-03
-1.110848142118959353e-02,-1.588265609184667457e-02,-2.065683076250374867e-02,-2.543100543316082277e-02,-3.037568634205565707e-02,-3.156923000971992299e-02,-3.156923000971992299e-02,-3.156923000971992299e-02,-3.156923000971992299e-02,-3.156923000971992299e-02,-3.156923000971992299e-02,-3.156923000971992299e-02,-3.156923000971992299e-02,-3.156923000971992299e-02,-3.156923000971992299e-02,-3.156923000971992299e-02,-3.156923000971992299e-02,-3.156923000971992299e-02,-3.156923000971992299e-02,-3.156923000971992299e-02,-3.156923000971992299e-02,-3.013697760852280735e-02,-2.840633929040961222e-02,-2.673537815567963646e-02,-2.506441702094966070e-02,-2.339345588621968494e-02,-2.166281756810648981e-02,-1.999185643337651058e-02,-1.832089529864653829e-02,-1.664993416391655906e-02,-1.497897302918658330e-02,-1.324833471107339164e-02,-1.157737357634341588e-02,-9.906412441613436648e-03,-8.235451306883457417e-03,-6.504812988770270095e-03,-4.833851854040290864e-03,-3.162890719310313369e-03,-1.491929584580337607e-03,1.790315501496398884e-04,1.909669868262830680e-03,3.580631002992808176e-03,5.251592137722785672e-03,6.624167355536694952e-03,6.624167355536694952e-03,6.624167355536694952e-03,6.624167355536694952e-03
-8.550887847623301480e-03,-1.332506251828037905e-02,-1.809923718893745662e-02,-2.287341185959453418e-02,-2.781809276848936849e-02,-3.156923000971992299e-02,-3.156923000971992299e-02,-3.156923000971992299e-02,-3.156923000971992299e-02,-3.156923000971992299e-02,-3.156923000971992299e-02,-3.156923000971992299e-02,-3.156923000971992299e-02,-3.156923000971992299e-02,-3.156923000971992299e-02,-3.156923000971992299e-02,-3.156923000971992299e-02,-3.156923000971992299e-02,-3.156923000971992299e-02,-3.156923000971992299e-02,-3.156923000971992299e-02,-3.103213535927100072e-02,-2.930149704115781253e-02,-2.763053590642783677e-02,-2.595957477169786101e-02,-2.428861363696788525e-02,-2.255797531885469359e-02,-2.088701418412471436e-02,-1.921605304939473860e-02,-1.754509191466475937e-02,-1.587413077993478708e-02,-1.414349246182159195e-02,-1.247253132709161619e-02,-1.080157019236163696e-02,-9.130609057631661196e-03,-7.399970739518470404e-03,-5.729009604788492908e-03,-4.058048470058515413e-03,-2.387087335328539651e-03,-7.161262005985621557e-04,1.014512117514628636e-03,2.685473252244606132e-03,4.356434386974582761e-03,6.027395521704560256e-03,6.624167355536694952e-03,6.624167355536694952e-03,6.624167355536694952e-03
-5.993294274057010297e-03,-1.076746894471409047e-02,-1.554164361537116457e-02,-2.031581828602824560e-02,-2.526049919492307297e-02,-3.003467386558015054e-02,-3.156923000971992299e-02,-3.156923000971992299e-02,-3.156923000971992299e-02,-3.156923000971992299e-02,-3.156923000971992299e-02,-3.156923000971992299e-02,-3.156923000971992299e-02,-3.156923000971992299e-02,-3.156923000971992299e-02,-3.156923000971992299e-02,-3.156923000971992299e-02,-3.156923000971992299e-02,-3.156923000971992299e-02,-3.156923000971992299e-02,-3.156923000971992299e-02,-3.156923000971992299e-02,-3.019665479190601978e-02,-2.852569365717603708e-02,-2.685473252244606132e-02,-2.518377138771608556e-02,-2.351281025298610980e-02,-2.178217193487291467e-02,-2.011121080014293891e-02,-1.844024966541296315e-02,-1.676928853068298392e-02,-2.718775939309427958e-01,-2.702066327962128200e-01,-2.685356716614828443e-01,-2.668647105267528685e-01,-2.651937493920228928e-01,-6.624167355536693218e-03,-4.953206220806717457e-03,-3.282245086076741696e-03,-1.611283951346764200e-03,1.193543667664265923e-04,1.790315501496404088e-03,3.461276636226381150e-03,5.132237770956358212e-03,6.624167355536694952e-03,6.624167355536694952e-03,6.624167355536694952e-03
-3.435700700490719982e-03,-8.209875371147794948e-03,-1.298405004180487252e-02,-1.775822471246195008e-02,-2.253239938311903112e-02,-2.747708029201385502e-02,-3.156923000971992299e-02,-3.156923000971992299e-02,-3.156923000971992299e-02,-3.156923000971992299e-02,-3.156923000971992299e-02,-3.156923000971992299e-02,-3.156923000971992299e-02,-3.156923000971992299e-02,-3.156923000971992299e-02,-3.156923000971992299e-02,-3.156923000971992299e-02,-3.156923000971992299e-02,-3.156923000971992299e-02,-3.156923000971992299e-02,-3.156923000971992299e-02,-3.156923000971992299e-02,-3.115148972603743252e-02,-2.942085140792424433e-02,-2.774989027319426163e-02,-2.607892913846428587e-02,-2.440796800373431011e-02,-2.267732968562112192e-02,-2.100636855089113922e-02,-1.933540741616116346e-02,-1.766444628143119117e-02,-2.728324288650741947e-01,-2.711017905469609857e-01,-2.694308294122310099e-01,-2.677598682775010341e-01,-2.660889071427710584e-01,-7.519325106284896997e-03,-5.848363971554919501e-03,-4.177402836824942005e-03,-2.506441702094966244e-03,-8.354805673649896153e-04,8.951577507482020440e-04,2.566118885478178673e-03,4.237080020208156168e-03,5.908041154938132797e-03,6.624167355536694952e-03,6.624167355536694952e-03
-7.076008886866737985e-04,-5.652281797581505500e-03,-1.042645646823858394e-02,-1.520063113889566150e-02,-1.997480580955273907e-02,-2.491948671844756644e-02,-2.969366138910464401e-02,-3.156923000971992299e-02,-3.156923000971992299e-02,-3.156923000971992299e-02,-3.156923000971992299e-02,-3.156923000971992299e-02,-3.156923000971992299e-02,-3.156923000971992299e-02,-3.156923000971992299e-02,-3.156923000971992299e-02,-3.156923000971992299e-02,-3.156923000971992299e-02,-3.156923000971992299e-02,-3.156923000971992299e-02,-3.156923000971992299e-02,-3.156923000971992299e-02,-3.156923000971992299e-02,-3.031600915867244464e-02,-2.864504802394246194e-02,-2.697408688921248618e-02,-2.530312575448251736e-02,-2.363216461975253466e-02,-2.190152630163934300e-02,-2.023056516690936377e-02,-1.855960403217939148e-02,-2.737275866158224158e-01,-2.719969482977092068e-01,-2.703259871629792310e-01,-2.686550260282492553e-01,-2.669840648935192795e-01,-8.474160040416314071e-03,-6.743521722303121545e-03,-5.072560587573145784e-03,-3.401599452843166553e-03,-1.730638318113190792e-03,0.000000000000000000e+00,1.670961134729976628e-03,3.341922269459954124e-03,5.012883404189930753e-03,6.624167355536694952e-03,6.624167355536694952e-03
1.849992684879617384e-03,-3.094688224015213450e-03,-7.868862894672291886e-03,-1.264303756532936945e-02,-1.741721223598644702e-02,-2.236189314488127786e-02,-2.713606781553835542e-02,-3.156923000971992299e-02,-3.156923000971992299e-02,-3.156923000971992299e-02,-3.156923000971992299e-02,-3.156923000971992299e-02,-3.156923000971992299e-02,-3.156923000971992299e-02,-3.156923000971992299e-02,-3.156923000971992299e-02,-3.156923000971992299e-02,-3.156923000971992299e-02,-3.156923000971992299e-02,-3.156923000971992299e-02,-3.156923000971992299e-02,-3.156923000971992299e-02,-3.156923000971992299e-02,-3.121116690942064495e-02,-2.954020577469066225e-02,-2.786924463996068649e-02,-2.619828350523071767e-02,-2.452732237050073844e-02,-2.279668405238754678e-02,-2.112572291765757102e-02,-1.945476178292758832e-02,-2.746227443665705814e-01,-2.728921060484574279e-01,-2.712211449137274522e-01,-2.695501837789974764e-01,-2.678792226442675006e-01,-9.369317791164514381e-03,-7.638679473051323589e-03,-5.967718338321346093e-03,-4.296757203591370332e-03,-2.625796068861392836e-03,-8.951577507482020440e-04,7.758033839817745844e-04,2.446764518711752080e-03,4.117725653441728709e-03,5.788686788171706205e-03,6.624167355536694952e-03
4.407586258445908567e-03,-5.370946504489222673e-04,-5.311269321105998968e-03,-1.008544399176307740e-02,-1.485961866242015497e-02,-1.963379333307723254e-02,-2.457847424197205990e-02,-2.935264891262913747e-02,-3.156923000971992299e-02,-3.156923000971992299e-02,-3.156923000971992299e-02,-3.156923000971992299e-02,-3.156923000971992299e-02,-3.156923000971992299e-02,-3.156923000971992299e-02,-3.156923000971992299e-02,-3.156923000971992299e-02,-3.156923000971992299e-02,-3.156923000971992299e-02,-3.156923000971992299e-02,-3.156923000971992299e-02,-3.156923000971992299e-02,-3.156923000971992299e-02,-3.156923000971992299e-02,-3.043536352543886950e-02,-2.876440239070889374e-02,-2.709344125597891798e-02,-2.542248012124894221e-02,-2.369184180313574709e-02,-2.202088066840577132e-02,-2.034991953367579556e-02,-2.755179021173188025e-01,-2.738469409825888268e-01,-2.721163026644756178e-01,-2.704453415297456420e-01,-2.687743803950156662e-01,-1.026447554191271469e-02,-8.533837223799526500e-03,-6.862876089069548137e-03,-5.191914954339570641e-03,-3.520953819609594880e-03,-1.849992684879617384e-03,-1.193543667664274596e-04,1.551606767963550036e-03,3.222567902693527098e-03,4.893529037423504160e-03,6.624167355536694952e-03
6.624167355536694952e-03,2.191005161355122181e-03,-2.753675747539706918e-03,-7.527850418196784486e-03,-1.230202508885386292e-02,-1.707619975951094049e-02,-2.202088066840577132e-02,-2.679505533906284889e-02,-3.156923000971992299e-02,-3.156923000971992299e-02,-3.156923000971992299e-02,-3.156923000971992299e-02,-3.156923000971992299e-02,-3.156923000971992299e-02,-3.156923000971992299e-02,-3.156923000971992299e-02,-3.156923000971992299e-02,-3.156923000971992299e-02,-3.156923000971992299e-02,-3.156923000971992299e-02,-3.156923000971992299e-02,-3.156923000971992299e-02,-3.156923000971992299e-02,-3.156923000971992299e-02,-3.133052127618706634e-02,-2.965956014145709405e-02,-2.798859900672711135e-02,-2.631763787199714252e-02,-2.464667673726715982e-02,-2.291603841915397163e-02,-2.124507728442399587e-02,-1.957411614969401664e-02,-1.790315501496404088e-02,-1.617251669685085269e-02,-1.450155556212087346e-02,-1.283059442739089770e-02,-1.115963329266092194e-02,-9.488672157930942708e-03,-7.758033839817750181e-03,-6.087072705087772685e-03,-4.416111570357796924e-03,-2.745150435627819428e-03,-1.014512117514629504e-03,6.564490172153479922e-04,2.327410151945324621e-03,3.998371286675302116e-03,5.669332421405279612e-03
6.624167355536694952e-03,4.748598734921414231e-03,-1.960821739734166028e-04,-4.970256844630492436e-03,-9.744431515287570872e-03,-1.451860618594464844e-02,-1.929278085660172601e-02,-2.423746176549655337e-02,-2.901163643615363094e-02,-3.156923000971992299e-02,-3.156923000971992299e-02,-3.156923000971992299e-02,-3.156923000971992299e-02,-3.156923000971992299e-02,-3.156923000971992299e-02,-3.156923000971992299e-02,-3.156923000971992299e-02,-3.156923000971992299e-02,-3.156923000971992299e-02,-3.156923000971992299e-02,-3.156923000971992299e-02,-3.156923000971992299e-02,-3.156923000971992299e-02,-3.156923000971992299e-02,-3.156923000971992299e-02,-3.055471789220529436e-02,-2.888375675747531859e-02,-2.721279562274534283e-02,-2.554183448801537401e-02,-2.381119616990217541e-02,-2.214023503517219618e-02,-2.879166815836513016e-01,-2.862457204489213258e-01,-2.845747593141913501e-01,-2.828441209960781966e-01,-2.811731598613482208e-01,-1.205479104340912225e-02,-1.038382990867914302e-02,-8.653191590565954827e-03,-6.982230455835976464e-03,-5.311269321105997233e-03,-3.640308186376021472e-03,-1.969347051646045711e-03,-2.387087335328540519e-04,1.432252401197122577e-03,3.103213535927100072e-03,4.774174670657077568e-03
6.624167355536694952e-03,6.624167355536694952e-03,2.361511399592875447e-03,-2.412663271064202121e-03,-7.186837941721279689e-03,-1.196101261237835986e-02,-1.673518728303543743e-02,-2.167986819193026826e-02,-2.645404286258734930e-02,-3.122821753324441993e-02,-3.156923000971992299e-02,-3.156923000971992299e-02,-3.156923000971992299e-02,-3.156923000971992299e-02,-3.156923000971992299e-02,-3.156923000971992299e-02,-3.156923000971992299e-02,-3.156923000971992299e-02,-3.156923000971992299e-02,-3.156923000971992299e-02,-3.156923000971992299e-02,-3.156923000971992299e-02,-3.156923000971992299e-02,-3.156923000971992299e-02,-3.156923000971992299e-02,-3.144987564295349813e-02,-2.977891450822351890e-02,-2.810795337349354314e-02,-2.643699223876356738e-02,-2.470635392065037919e-02,-2.303539278592040343e-02,-2.888118393343995227e-01,-2.871408781996695470e-01,-2.854699170649395712e-01,-2.837392787468263622e-01,-2.820683176120963864e-01,-1.294994879415732256e-02,-1.127898765942734680e-02,-9.548349341314155136e-03,-7.877388206584179375e-03,-6.206427071854199277e-03,-4.535465937124223516e-03,-2.864504802394246021e-03,-1.133866484281056096e-03,5.370946504489213999e-04,2.208055785178898028e-03,3.879016919908875524e-03
6.624167355536694952e-03,6.624167355536694952e-03,5.089611211396919896e-03,1.449303025020890617e-04,-4.629244368154989374e-03,-9.403419038812064340e-03,-1.417759370946914538e-02,-1.912227461836397621e-02,-2.389644928902104684e-02,-2.867062395967812441e-02,-3.156923000971992299e-02,-3.156923000971992299e-02,-3.156923000971992299e-02,-3.156923000971992299e-02,-3.156923000971992299e-02,-3.156923000971992299e-02,-3.156923000971992299e-02,-3.156923000971992299e-02,-3.156923000971992299e-02,-3.156923000971992299e-02,-3.156923000971992299e-02,-3.156923000971992299e-02,-3.156923000971992299e-02,-3.156923000971992299e-02,-3.156923000971992299e-02,-3.156923000971992299e-02,-3.067407225897172615e-02,-2.900311112424175039e-02,-2.733214998951177463e-02,-2.566118885478179193e-02,-2.393055053666860374e-02,-2.897069970851477438e-01,-2.880360359504177681e-01,-2.863650748156877923e-01,-2.846344364975745833e-01,-2.829634753628446076e-01,-1.384510654490552634e-02,-1.217414541017555057e-02,-1.050318427544557134e-02,-8.772545957332379685e-03,-7.101584822602403056e-03,-5.430623687872425560e-03,-3.759662553142448065e-03,-2.029024235029258140e-03,-3.580631002992806441e-04,1.312898034430695984e-03,2.983859169160673046e-03
6.624167355536694952e-03,6.624167355536694952e-03,6.624167355536694952e-03,2.702523876068381112e-03,-2.071650794588697324e-03,-6.845825465245773157e-03,-1.162000013590285333e-02,-1.639417480655993090e-02,-2.133885571545475826e-02,-2.611303038611183583e-02,-3.088720505676891340e-02,-3.156923000971992299e-02,-3.156923000971992299e-02,-3.156923000971992299e-02,-3.156923000971992299e-02,-3.156923000971992299e-02,-3.156923000971992299e-02,-3.156923000971992299e-02,-3.156923000971992299e-02,-3.156923000971992299e-02,-3.156923000971992299e-02,-3.156923000971992299e-02,-3.156923000971992299e-02,-3.156923000971992299e-02,-3.156923000971992299e-02,-3.156923000971992299e-02,-3.156923000971992299e-02,-2.989826887498995070e-02,-2.822730774025996800e-02,-2.655634660552999918e-02,-2.482570828741680405e-02,-2.906021548358959095e-01,-2.889311937011659337e-01,-2.872602325664359579e-01,-2.855892714317059822e-01,-2.838586331135927732e-01,-1.474026429565373011e-02,-1.306930316092375088e-02,-1.139834202619377165e-02,-9.667703708080583463e-03,-7.996742573350604233e-03,-6.325781438620625870e-03,-4.654820303890650109e-03,-2.983859169160674348e-03,-1.253220851047482688e-03,4.177402836824939403e-04,2.088701418412471436e-03
6.624167355536694952e-03,6.624167355536694952e-03,6.624167355536694952e-03,5.430623687872425560e-03,4.859427789775947262e-04,-4.288231891679482842e-03,-9.062406562336561278e-03,-1.383658123299363885e-02,-1.878126214188846968e-02,-2.355543681254554378e-02,-2.832961148320262482e-02,-3.156923000971992299e-02,-3.156923000971992299e-02,-3.156923000971992299e-02,-3.156923000971992299e-02,-3.156923000971992299e-02,-3.156923000971992299e-02,-3.156923000971992299e-02,-3.156923000971992299e-02,-3.156923000971992299e-02,-3.156923000971992299e-02,-3.156923000971992299e-02,-3.156923000971992299e-02,-3.156923000971992299e-02,-3.156923000971992299e-02,-3.156923000971992299e-02,-3.156923000971992299e-02,-3.079342662573815101e-02,-2.912246549100816831e-02,-2.745150435627819255e-02,-2.578054322154822373e-02,-2.914973125866441306e-01,-2.898263514519141548e-01,-2.881553903171841791e-01,-2.864844291824542033e-01,-2.847537908643409943e-01,-1.563542204640193042e-02,-1.396446091167195466e-02,-1.229349977694197543e-02,-1.062253864221199620e-02,-8.891900324098808012e-03,-7.220939189368827914e-03,-5.549978054638852153e-03,-3.879016919908876392e-03,-2.148378601795684732e-03,-4.774174670657072364e-04,1.193543667664269392e-03
6.624167355536694952e-03,6.624167355536694952e-03,6.624167355536694952e-03,6.624167355536694952e-03,3.043536352543886776e-03,-1.730638318113190792e-03,-6.504812988770268360e-03,-1.127898765942734680e-02,-1.622366856832217763e-02,-2.099784323897925520e-02,-2.577201790963632930e-02,-3.054619258029341380e-02,-3.156923000971992299e-02,-3.156923000971992299e-02,-3.156923000971992299e-02,-3.156923000971992299e-02,-3.156923000971992299e-02,-3.156923000971992299e-02,-3.156923000971992299e-02,-3.156923000971992299e-02,-3.156923000971992299e-02,-3.156923000971992299e-02,-3.156923000971992299e-02,-3.156923000971992299e-02,-3.156923000971992299e-02,-3.156923000971992299e-02,-3.156923000971992299e-02,-3.156923000971992299e-02,-3.001762324175637556e-02,-2.834666210702639980e-02,-2.667570097229642404e-02,-2.494506265418322891e-02,-2.327410151945325315e-02,-2.160314038472327391e-02,-1.993217924999329815e-02,-1.820154093188010996e-02,-1.653057979715013073e-02,-1.485961866242015497e-02,-1.318865752769017921e-02,-1.151769639296019998e-02,-9.787058074847008321e-03,-8.116096940117032560e-03,-6.445135805387054197e-03,-4.774174670657076701e-03,-3.043536352543886776e-03,-1.372575217813911015e-03,1.484469936657435186e-03
6.624167355536694952e-03,6.624167355536694952e-03,6.624167355536694952e-03,6.624167355536694952e-03,5.601129926110177959e-03,8.269552554531012581e-04,-3.947219415203978045e-03,-8.721394085861054746e-03,-1.349556875651813578e-02,-1.844024966541296315e-02,-2.321442433607003725e-02,-2.798859900672711828e-02,-3.156923000971992299e-02,-3.156923000971992299e-02,-3.156923000971992299e-02,-3.156923000971992299e-02,-3.156923000971992299e-02,-3.156923000971992299e-02,-3.156923000971992299e-02,-3.156923000971992299e-02,-3.156923000971992299e-02,-3.156923000971992299e-02,-3.156923000971992299e-02,-3.156923000971992299e-02,-3.156923000971992299e-02,-3.156923000971992299e-02,-3.156923000971992299e-02,-3.156923000971992299e-02,-3.091278099250457587e-02,-2.924181985777460011e-02,-2.757085872304462434e-02,-2.584022040493143615e-02,-2.416925927020146039e-02,-2.249829813547147769e-02,-2.082733700074150193e-02,-1.915637586601152617e-02,-1.742573754789833104e-02,-1.575477641316835181e-02,-1.408381527843838299e-02,-1.241285414370840029e-02,-1.068221582559521210e-02,-9.011254690865236339e-03,-7.340293556135256241e-03,-5.669332421405280480e-03,-2.670553956398802158e-03,3.011832848871554523e-03,6.624167355536694952e-03
6.624167355536694952e-03,6.624167355536694952e-03,6.624167355536694952e-03,6.624167355536694952e-03,6.624167355536694952e-03,3.384548829019392007e-03,-1.389625841637684260e-03,-6.163800512294763563e-03,-1.093797518295184026e-02,-1.588265609184667457e-02,-2.065683076250374867e-02,-2.543100543316082277e-02,-3.020518010381790033e-02,-3.156923000971992299e-02,-3.156923000971992299e-02,-3.156923000971992299e-02,-3.156923000971992299e-02,-3.156923000971992299e-02,-3.156923000971992299e-02,-3.156923000971992299e-02,-3.156923000971992299e-02,-3.156923000971992299e-02,-3.156923000971992299e-02,-3.156923000971992299e-02,-3.156923000971992299e-02,-3.156923000971992299e-02,-3.156923000971992299e-02,-3.156923000971992299e-02,-3.156923000971992299e-02,-3.013697760852280735e-02,-2.846601647379282465e-02,-2.679505533906284889e-02,-2.506441702094966070e-02,-2.339345588621968494e-02,-2.172249475148970224e-02,-2.005153361675972648e-02,-1.832089529864653829e-02,-1.664993416391655906e-02,-1.497897302918658330e-02,-1.330801189445660407e-02,-1.163705075972662831e-02,-9.906412441613436648e-03,-7.306725140482199683e-03,4.419841394319246400e-04,6.624167355536694952e-03,6.624167355536694952e-03,6.624167355536694952e-03
6.624167355536694952e-03,6.624167355536694952e-03,6.624167355536694952e-03,6.624167355536694952e-03,6.624167355536694952e-03,5.942142402585683623e-03,1.167967731928606055e-03,-3.606206938728471513e-03,-8.380381609385548214e-03,-1.315455628004262925e-02,-1.809923718893745662e-02,-2.287341185959453418e-02,-2.764758653025161175e-02,-3.156923000971992299e-02,-3.156923000971992299e-02,-3.156923000971992299e-02,-3.156923000971992299e-02,-3.156923000971992299e-02,-3.156923000971992299e-02,-3.156923000971992299e-02,-3.156923000971992299e-02,-3.156923000971992299e-02,-3.156923000971992299e-02,-3.156923000971992299e-02,-3.156923000971992299e-02,-3.156923000971992299e-02,-3.156923000971992299e-02,-3.156923000971992299e-02,-3.156923000971992299e-02,-3.103213535927100072e-02,-2.936117422454102496e-02,-2.769021308981104920e-02,-2.595957477169786101e-02,-2.428861363696788525e-02,-2.261765250223790602e-02,-2.094669136750792679e-02,-1.927573023277795103e-02,-1.754509191466475937e-02,-1.587413077993478708e-02,-1.420316964520480785e-02,-1.253220851047482862e-02,-2.633255716784293522e-03,5.639493829713672531e-03,6.624167355536694952e-03,6.624167355536694952e-03,6.624167355536694952e-03,6.624167355536694952e-03
6.624167355536694952e-03,6.624167355536694952e-03,6.624167355536694952e-03,6.624167355536694952e-03,6.624167355536694952e-03,6.624167355536694952e-03,3.725561305494897672e-03,-1.048613365162179463e-03,-5.822788035819258766e-03,-1.059696270647633373e-02,-1.554164361537116457e-02,-2.031581828602824560e-02,-2.508999295668532317e-02,-2.986416762734240074e-02,-3.156923000971992299e-02,-3.156923000971992299e-02,-3.156923000971992299e-02,-3.156923000971992299e-02,-3.156923000971992299e-02,-3.156923000971992299e-02,-3.156923000971992299e-02,-3.156923000971992299e-02,-3.156923000971992299e-02,-3.156923000971992299e-02,-3.156923000971992299e-02,-3.156923000971992299e-02,-3.156923000971992299e-02,-3.156923000971992299e-02,-3.156923000971992299e-02,-3.156923000971992299e-02,-3.025633197528922527e-02,-2.858537084055924951e-02,-2.685473252244606132e-02,-2.518377138771608556e-02,-2.351281025298610980e-02,-2.184184911825613057e-02,-2.017088798352615134e-02,-1.844024966541296315e-02,-1.676928853068298392e-02,-6.273563903160315862e-03,4.117725653441728709e-03,6.624167355536694952e-03,6.624167355536694952e-03,6.624167355536694952e-03,6.624167355536694952e-03,6.624167355536694952e-03,6.624167355536694952e-03
6.624167355536694952e-03,6.624167355536694952e-03,6.624167355536694952e-03,6.624167355536694952e-03,6.624167355536694952e-03,6.624167355536694952e-03,6.283154879061189288e-03,1.508980208404110852e-03,-3.265194462252966716e-03,-8.039369132910041682e-03,-1.298405004180487252e-02,-1.775822471246195008e-02,-2.253239938311903112e-02,-2.730657405377610522e-02,-3.156923000971992299e-02,-3.156923000971992299e-02,-3.156923000971992299e-02,-3.156923000971992299e-02,-3.156923000971992299e-02,-3.156923000971992299e-02,-3.156923000971992299e-02,-3.156923000971992299e-02,-3.156923000971992299e-02,-3.156923000971992299e-02,-3.156923000971992299e-02,-3.156923000971992299e-02,-3.156923000971992299e-02,-3.156923000971992299e-02,-3.156923000971992299e-02,-3.156923000971992299e-02,-3.115148972603743252e-02,-2.948052859130745676e-02,-2.780956745657747406e-02,-2.607892913846428587e-02,-2.440796800373431011e-02,-1.910128913190063671e-01,-1.893419301842763636e-01,-1.786876880383920507e-01,-1.662058321513968095e-01,-1.616517170944653248e-01,6.624167355536694952e-03,6.624167355536694952e-03,6.624167355536694952e-03,6.624167355536694952e-03,6.624167355536694952e-03,6.624167355536694952e-03,6.624167355536694952e-03
6.624167355536694952e-03,6.624167355536694952e-03,6.624167355536694952e-03,6.624167355536694952e-03,6.624167355536694952e-03,6.624167355536694952e-03,6.624167355536694952e-03,4.066573781970403770e-03,-7.076008886866737985e-04,-5.481775559343752234e-03,-1.025595023000083067e-02,-1.520063113889566150e-02,-1.997480580955273907e-02,-2.474898048020980970e-02,-2.952315515086689421e-02,-3.156923000971992299e-02,-3.156923000971992299e-02,-3.156923000971992299e-02,-3.156923000971992299e-02,-3.156923000971992299e-02,-3.156923000971992299e-02,-3.156923000971992299e-02,-3.156923000971992299e-02,-3.156923000971992299e-02,-3.156923000971992299e-02,-3.156923000971992299e-02,-3.156923000971992299e-02,-3.156923000971992299e-02,-3.156923000971992299e-02,-3.156923000971992299e-02,-3.156923000971992299e-02,-3.037568634205565707e-02,-2.870472520732567437e-02,-2.697408688921248618e-02,-2.530312575448251736e-02,-1.833984557017044603e-01,-1.679047669658376707e-01,-1.616517170944653248e-01,-1.616517170944653248e-01,-1.616517170944653248e-01,6.624167355536694952e-03,6.624167355536694952e-03,6.624167355536694952e-03,6.624167355536694952e-03,6.624167355536694952e-03,6.624167355536694952e-03,6.624167355536694952e-03
6.624167355536694952e-03,6.624167355536694952e-03,6.624167355536694952e-03,6.624167355536694952e-03,6.624167355536694952e-03,6.624167355536694952e-03,6.624167355536694952e-03,6.624167355536694952e-03,1.849992684879617384e-03,-2.924181985777461919e-03,-7.698356656434536018e-03,-1.264303756532936945e-02,-1.741721223598644702e-02,-2.219138690664352806e-02,-2.696556157730059869e-02,-3.156923000971992299e-02,-3.156923000971992299e-02,-3.156923000971992299e-02,-3.156923000971992299e-02,-3.156923000971992299e-02,-3.156923000971992299e-02,-3.156923000971992299e-02,-3.156923000971992299e-02,-3.156923000971992299e-02,-3.156923000971992299e-02,-3.156923000971992299e-02,-3.156923000971992299e-02,-3.156923000971992299e-02,-3.156923000971992299e-02,-3.156923000971992299e-02,-3.156923000971992299e-02,-3.127084409280386085e-02,-2.959988295807388162e-02,-2.037043356546377332e-02,-2.607146949054139386e-03,-1.616517170944653248e-01,-1.616517170944653248e-01,-1.616517170944653248e-01,-1.616517170944653248e-01,-1.616517170944653248e-01,6.624167355536694952e-03,6.624167355536694952e-03,6.624167355536694952e-03,6.624167355536694952e-03,6.624167355536694952e-03,6.624167355536694952e-03,6.624167355536694952e-03
6.624167355536694952e-03,6.624167355536694952e-03,6.624167355536694952e-03,6.624167355536694952e-03,6.624167355536694952e-03,6.624167355536694952e-03,6.624167355536694952e-03,6.624167355536694952e-03,4.407586258445908567e-03,-3.665884122111698687e-04,-5.140763082868245702e-03,-1.008544399176307740e-02,-1.485961866242015497e-02,-1.963379333307723254e-02,-2.440796800373430664e-02,-2.918214267439138768e-02,-3.156923000971992299e-02,-3.156923000971992299e-02,-3.156923000971992299e-02,-3.156923000971992299e-02,-3.156923000971992299e-02,-3.156923000971992299e-02,-3.156923000971992299e-02,-3.156923000971992299e-02,-3.156923000971992299e-02,-3.156923000971992299e-02,-3.156923000971992299e-02,-3.156923000971992299e-02,-3.156923000971992299e-02,-3.156923000971992299e-02,-3.156923000971992299e-02,-2.440796800373431011e-02,-6.135560416586634085e-03,6.624167355536694952e-03,6.624167355536694952e-03,-1.616517170944653248e-01,-1.616517170944653248e-01,-1.616517170944653248e-01,-1.616517170944653248e-01,-1.616517170944653248e-01,6.624167355536694952e-03,6.624167355536694952e-03,6.624167355536694952e-03,6.624167355536694952e-03,6.624167355536694952e-03,6.624167355536694952e-03,6.624167355536694952e-03
6.624167355536694952e-03,6.624167355536694952e-03,6.624167355536694952e-03,6.624167355536694952e-03,6.624167355536694952e-03,6.624167355536694952e-03,6.624167355536694952e-03,6.624167355536694952e-03,6.624167355536694952e-03,2.191005161355122181e-03,-2.583169509301955387e-03,-7.357344179959031220e-03,-1.230202508885386292e-02,-1.707619975951094049e-02,-2.185037443016801806e-02,-2.662454910082509910e-02,-3.156923000971992299e-02,-3.156923000971992299e-02,-3.156923000971992299e-02,-3.156923000971992299e-02,-3.156923000971992299e-02,-3.156923000971992299e-02,-3.156923000971992299e-02,-3.156923000971992299e-02,-3.156923000971992299e-02,-3.156923000971992299e-02,-3.156923000971992299e-02,-3.156923000971992299e-02,-3.156923000971992299e-02,-2.679505533906284889e-02,-8.891900324098808012e-03,6.624167355536694952e-03,6.624167355536694952e-03,6.624167355536694952e-03,6.624167355536694952e-03,-1.616517170944653248e-01,-1.616517170944653248e-01,-1.616517170944653248e-01,-1.616517170944653248e-01,-1.616517170944653248e-01,6.624167355536694952e-03,6.624167355536694952e-03,6.624167355536694952e-03,6.624167355536694952e-03,6.624167355536694952e-03,6.624167355536694952e-03,6.624167355536694952e-03
