-2.190246336095562352e-01,-2.190246336095562352e-01,-2.190246336095562352e-01,-2.190246336095562352e-01,-2.190246336095562352e-01,-2.190246336095562352e-01,-2.190246336095562352e-01,-2.190246336095562352e-01,-2.190246336095562352e-01,-2.190246336095562352e-01,-2.190246336095562352e-01,-2.190246336095562352e-01,-2.190246336095562352e-01,-2.190246336095562352e-01,-2.190246336095562352e-01,-2.190246336095562352e-01,-2.190246336095562352e-01,-2.190246336095562352e-01,-2.190246336095562352e-01,-2.190246336095562352e-01,-2.190246336095562352e-01,-2.190246336095562352e-01,-2.190246336095562352e-01,-2.190246336095562352e-01,-2.190246336095562352e-01,-2.190246336095562352e-01,-2.190246336095562352e-01,-2.190246336095562352e-01,-2.190246336095562352e-01,-2.190246336095562352e-01,-2.190246336095562352e-01,-2.190246336095562352e-01,-2.190246336095562352e-01,-2.190246336095562352e-01,-2.190246336095562352e-01,-2.190246336095562352e-01,-2.190246336095562352e-01,-2.190246336095562352e-01,-2.190246336095562352e-01,-2.190246336095562352e-01,-2.190246336095562352e-01,-2.190246336095562352e-01,-2.190246336095562352e-01,-2.190246336095562352e-01,-2.190246336095562352e-01,-2.190246336095562352e-01,-2.190246336095562352e-01
-2.190246336095562352e-01,-2.177855395077780420e-01,-2.178445439888150870e-01,-2.183165798371115573e-01,-2.187886156854080000e-01,-2.190246336095562352e-01,-2.190246336095562352e-01,-2.190246336095562352e-01,-2.190246336095562352e-01,-2.190246336095562352e-01,-2.190246336095562352e-01,-2.190246336095562352e-01,-2.190246336095562352e-01,-2.190246336095562352e-01,-2.190246336095562352e-01,-2.190246336095562352e-01,-2.190246336095562352e-01,-2.190246336095562352e-01,-2.190246336095562352e-01,-2.190246336095562352e-01,-2.190246336095562352e-01,-2.190246336095562352e-01,-2.190246336095562352e-01,-2.190246336095562352e-01,-2.190246336095562352e-01,-2.190246336095562352e-01,-2.190246336095562352e-01,-2.190246336095562352e-01,-2.190246336095562352e-01,-2.190246336095562352e-01,-2.190246336095562352e-01,-2.190246336095562352e-01,-2.190246336095562352e-01,-2.190246336095562352e-01,-2.190246336095562352e-01,-2.190246336095562352e-01,-2.190246336095562352e-01,-2.190246336095562352e-01,-2.190246336095562352e-01,-2.190246336095562352e-01,-2.190246336095562352e-01,-2.190246336095562352e-01,-2.190246336095562352e-01,-2.190246336095562352e-01,-2.190246336095562352e-01,-2.190246336095562352e-01,-2.190246336095562352e-01
-2.190246336095562352e-01,-2.108967663467016251e-01,-2.102919704160717829e-01,-2.107640062643682255e-01,-2.112360421126646959e-01,-2.114720600368129311e-01,-2.119440958851093737e-01,-2.124161317334058441e-01,-2.128881675817022867e-01,-2.131241855058505219e-01,-2.135962213541469645e-01,-2.140682572024434349e-01,-2.143042751265916701e-01,-2.147763109748881127e-01,-2.152483468231845831e-01,-2.154843647473328183e-01,-2.159564005956292609e-01,-2.164284364439257313e-01,-2.169004722922221740e-01,-2.171364902163704091e-01,-2.176085260646668518e-01,-2.180805619129633222e-01,-2.183165798371115573e-01,-2.187886156854080000e-01,-2.190246336095562352e-01,-2.190246336095562352e-01,-2.190246336095562352e-01,-2.190246336095562352e-01,-2.190246336095562352e-01,-2.190246336095562352e-01,-2.190246336095562352e-01,-2.190246336095562352e-01,-2.190246336095562352e-01,-2.190246336095562352e-01,-2.190246336095562352e-01,-2.190246336095562352e-01,-2.190246336095562352e-01,-2.190246336095562352e-01,-2.190246336095562352e-01,-2.190246336095562352e-01,-2.190246336095562352e-01,-2.190246336095562352e-01,-2.190246336095562352e-01,-2.190246336095562352e-01,-2.190246336095562352e-01,-2.190246336095562352e-01,-2.190246336095562352e-01
-2.190246336095562352e-01,-2.030196681282544768e-01,-2.027393968433284510e-01,-2.032114326916249214e-01,-2.036834685399213640e-01,-2.039194864640695992e-01,-2.043915223123660696e-01,-2.048635581606625122e-01,-2.053355940089589826e-01,-2.055716119331071901e-01,-2.060436477814036604e-01,-2.065156836297001308e-01,-2.067517015538483383e-01,-2.072237374021448086e-01,-2.076957732504412513e-01,-2.079317911745894865e-01,-2.084038270228859568e-01,-2.088758628711823995e-01,-2.093478987194788699e-01,-2.095839166436270773e-01,-2.100559524919235477e-01,-2.105279883402200181e-01,-2.107640062643682255e-01,-2.112360421126646959e-01,-2.117080779609611385e-01,-2.119440958851093737e-01,-2.124161317334058441e-01,-2.128881675817022867e-01,-2.133602034299987571e-01,-2.135962213541469645e-01,-2.140682572024434349e-01,-2.145402930507398775e-01,-2.147763109748881127e-01,-2.152483468231845831e-01,-2.157203826714810257e-01,-2.159564005956292609e-01,-2.164284364439257313e-01,-2.169004722922221740e-01,-2.173725081405186443e-01,-2.176085260646668518e-01,-2.180805619129633222e-01,-2.185525977612597648e-01,-2.187886156854080000e-01,-2.190246336095562352e-01,-2.190246336095562352e-01,-2.190246336095562352e-01,-2.190246336095562352e-01
-2.182575753560744847e-01,-1.949508053464369117e-01,-1.951868232705851469e-01,-1.956588591188815895e-01,-1.961308949671780599e-01,-1.966029308154745026e-01,-1.968389487396227377e-01,-1.973109845879192081e-01,-1.977830204362156508e-01,-1.980190383603638860e-01,-1.984910742086603563e-01,-1.989631100569567990e-01,-1.991991279811050342e-01,-1.996711638294014768e-01,-2.001431996776979472e-01,-2.006152355259943898e-01,-2.008512534501426250e-01,-2.013232892984390954e-01,-2.017953251467355380e-01,-2.020313430708837732e-01,-2.025033789191802436e-01,-2.029754147674766862e-01,-2.032114326916249214e-01,-2.036834685399213640e-01,-2.041555043882178344e-01,-2.046275402365142770e-01,-2.048635581606625122e-01,-2.053355940089589826e-01,-2.058076298572554252e-01,-2.060436477814036604e-01,-2.065156836297001308e-01,-2.069877194779965734e-01,-2.072237374021448086e-01,-2.076957732504412513e-01,-2.081678090987377217e-01,-2.086398449470341643e-01,-2.088758628711823995e-01,-2.093478987194788699e-01,-2.098199345677753125e-01,-2.100559524919235477e-01,-2.105279883402200181e-01,-2.110000241885164607e-01,-2.112360421126646959e-01,-2.117080779609611385e-01,-2.121801138092576089e-01,-2.126521496575540515e-01,-2.128881675817022867e-01
-2.170184812542962915e-01,-1.873982317736935799e-01,-1.876342496978418151e-01,-1.881062855461382854e-01,-1.885783213944347558e-01,-1.890503572427311985e-01,-1.892863751668794337e-01,-1.897584110151758763e-01,-1.902304468634723467e-01,-1.904664647876205819e-01,-1.909385006359170245e-01,-1.914105364842134671e-01,-1.916465544083617023e-01,-1.921185902566581727e-01,-1.925906261049546431e-01,-1.930626619532510857e-01,-1.932986798773993209e-01,-1.937707157256957635e-01,-1.942427515739922339e-01,-1.944787694981404691e-01,-1.949508053464369117e-01,-1.954228411947333544e-01,-1.956588591188815895e-01,-1.961308949671780599e-01,-1.966029308154745026e-01,-1.970749666637709729e-01,-1.973109845879192081e-01,-1.977830204362156508e-01,-1.982550562845121211e-01,-1.984910742086603563e-01,-1.989631100569567990e-01,-1.994351459052532416e-01,-1.996711638294014768e-01,-2.001431996776979472e-01,-2.006152355259943898e-01,-2.010872713742908602e-01,-2.013232892984390954e-01,-2.017953251467355380e-01,-2.022673609950320084e-01,-2.025033789191802436e-01,-2.029754147674766862e-01,-2.034474506157731566e-01,-2.036834685399213640e-01,-2.041555043882178344e-01,-2.046275402365142770e-01,-2.050995760848107474e-01,-2.053355940089589826e-01
-2.140682572024434349e-01,-1.798456582009502758e-01,-1.800816761250985110e-01,-1.805537119733949536e-01,-1.810257478216914240e-01,-1.814977836699878666e-01,-1.817338015941361018e-01,-1.822058374424325722e-01,-1.826778732907290148e-01,-1.829138912148772500e-01,-1.833859270631736926e-01,-1.838579629114701630e-01,-1.840939808356183982e-01,-1.845660166839148686e-01,-1.850380525322113112e-01,-1.855100883805077538e-01,-1.857461063046559890e-01,-1.862181421529524594e-01,-1.866901780012489021e-01,-1.869261959253971372e-01,-1.873982317736935799e-01,-1.878702676219900503e-01,-1.883423034702865206e-01,-1.885783213944347281e-01,-1.890503572427311985e-01,-1.895223930910276411e-01,-1.897584110151758763e-01,-1.902304468634723467e-01,-2.963697429225986557e-01,-2.966057608467468909e-01,-2.970777966950433058e-01,-1.918825723325099375e-01,-1.923546081808064079e-01,-1.925906261049546153e-01,-1.930626619532510857e-01,-1.935346978015475283e-01,-1.937707157256957635e-01,-1.942427515739922339e-01,-1.947147874222886765e-01,-1.949508053464369117e-01,-1.954228411947333544e-01,-1.958948770430298247e-01,-1.963669128913262951e-01,-1.966029308154745026e-01,-1.970749666637709729e-01,-1.975470025120674156e-01,-1.977830204362156508e-01
-2.101739614539976653e-01,-1.722930846282069717e-01,-1.727651204765034143e-01,-1.730011384006516495e-01,-1.734731742489480921e-01,-1.739452100972445625e-01,-1.741812280213927977e-01,-1.746532638696892681e-01,-1.751252997179857107e-01,-1.753613176421339459e-01,-1.758333534904303885e-01,-1.763053893387268589e-01,-1.767774251870233015e-01,-1.770134431111715367e-01,-1.774854789594679794e-01,-1.779575148077644497e-01,-1.781935327319126849e-01,-1.786655685802091276e-01,-1.791376044285055702e-01,-1.793736223526538054e-01,-1.798456582009502758e-01,-1.803176940492467462e-01,-1.807897298975431888e-01,-1.810257478216914240e-01,-1.814977836699878666e-01,-1.819698195182843370e-01,-1.822058374424325722e-01,-1.826778732907290148e-01,-2.888171693498553516e-01,-2.890531872740035313e-01,-2.895252231223000017e-01,-1.843299987597666334e-01,-1.848020346080630760e-01,-1.850380525322113112e-01,-1.855100883805077538e-01,-1.859821242288042242e-01,-1.862181421529524594e-01,-1.866901780012489021e-01,-1.871622138495453724e-01,-1.873982317736935799e-01,-1.878702676219900503e-01,-1.883423034702865206e-01,-1.888143393185829633e-01,-1.890503572427311985e-01,-1.895223930910276411e-01,-1.899944289393241115e-01,-1.902304468634723467e-01
-2.053355940089589826e-01,-1.647405110554636398e-01,-1.652125469037601102e-01,-1.654485648279083176e-01,-1.659206006762047880e-01,-1.663926365245012584e-01,-1.666286544486494658e-01,-1.671006902969459362e-01,-1.675727261452423789e-01,-1.678087440693906141e-01,-1.682807799176870844e-01,-1.687528157659835271e-01,-1.692248516142799974e-01,-1.694608695384282049e-01,-1.699329053867246753e-01,-1.704049412350211457e-01,-1.706409591591693531e-01,-1.711129950074658235e-01,-1.715850308557622661e-01,-1.718210487799105013e-01,-1.722930846282069717e-01,-1.727651204765034143e-01,-1.732371563247998847e-01,-1.734731742489480921e-01,-1.739452100972445625e-01,-1.744172459455410329e-01,-1.746532638696892681e-01,-1.751252997179857107e-01,-2.812645957771120475e-01,-2.817366316254084624e-01,-2.819726495495566976e-01,-1.767774251870233015e-01,-1.772494610353197719e-01,-1.774854789594679794e-01,-1.779575148077644497e-01,-1.784295506560609201e-01,-1.786655685802091276e-01,-1.791376044285055980e-01,-1.796096402768020406e-01,-1.800816761250985110e-01,-1.803176940492467184e-01,-1.807897298975431888e-01,-1.812617657458396314e-01,-1.814977836699878666e-01,-1.819698195182843370e-01,-1.824418553665808074e-01,-1.826778732907290148e-01
-2.015003027415502579e-01,-1.571879374827203357e-01,-1.576599733310167784e-01,-1.578959912551650135e-01,-1.583680271034614839e-01,-1.588400629517579266e-01,-1.590760808759061340e-01,-1.595481167242026044e-01,-1.600201525724990748e-01,-1.604921884207955451e-01,-1.607282063449437526e-01,-1.612002421932401952e-01,-1.616722780415366656e-01,-1.619082959656849008e-01,-1.623803318139813712e-01,-1.628523676622778138e-01,-1.630883855864260490e-01,-1.635604214347224916e-01,-1.640324572830189620e-01,-1.645044931313154046e-01,-1.647405110554636398e-01,-1.652125469037601102e-01,-1.656845827520565528e-01,-1.659206006762047880e-01,-1.663926365245012584e-01,-1.668646723727977010e-01,-1.671006902969459362e-01,-1.675727261452423789e-01,-1.680447619935388492e-01,-1.685167978418353196e-01,-1.687528157659835271e-01,-1.692248516142799974e-01,-1.696968874625764401e-01,-1.699329053867246753e-01,-1.704049412350211457e-01,-1.708769770833175883e-01,-1.711129950074658235e-01,-1.715850308557622661e-01,-1.720570667040587365e-01,-1.725291025523551791e-01,-1.727651204765034143e-01,-1.732371563247998847e-01,-1.737091921730963273e-01,-1.739452100972445625e-01,-1.744172459455410329e-01,-1.748892817938374755e-01,-1.751252997179857107e-01
-1.950098098274739566e-01,-1.496353639099770039e-01,-1.501073997582734465e-01,-1.503434176824217094e-01,-1.508154535307181243e-01,-1.512874893790145947e-01,-1.515235073031628299e-01,-1.519955431514593003e-01,-1.524675789997557429e-01,-1.529396148480521855e-01,-1.531756327722004207e-01,-1.536476686204968911e-01,-1.541197044687933615e-01,-1.543557223929415967e-01,-1.548277582412380393e-01,-1.552997940895344819e-01,-1.555358120136827171e-01,-1.560078478619791875e-01,-1.564798837102756579e-01,-1.569519195585721005e-01,-1.571879374827203357e-01,-1.576599733310167784e-01,-1.581320091793132487e-01,-1.583680271034614839e-01,-1.588400629517579266e-01,-1.593120988000543692e-01,-1.595481167242026044e-01,-1.600201525724990748e-01,-1.604921884207955451e-01,-1.609642242690919878e-01,-1.612002421932401952e-01,-1.616722780415366656e-01,-1.621443138898331360e-01,-1.623803318139813712e-01,-1.628523676622778138e-01,-1.633244035105742564e-01,-1.637964393588707268e-01,-1.640324572830189620e-01,-1.645044931313154046e-01,-1.649765289796118750e-01,-1.652125469037601102e-01,-1.656845827520565528e-01,-1.661566186003530232e-01,-1.663926365245012584e-01,-1.668646723727977010e-01,-1.673367082210941437e-01,-1.678087440693906141e-01
-1.875752452168047701e-01,-1.420827903372336998e-01,-1.425548261855301424e-01,-1.427908441096783498e-01,-1.432628799579748202e-01,-1.437349158062712906e-01,-1.442069516545677332e-01,-1.444429695787159684e-01,-1.449150054270124111e-01,-1.453870412753088814e-01,-1.456230591994571166e-01,-1.460950950477535870e-01,-1.465671308960500296e-01,-1.468031488201982648e-01,-1.472751846684947075e-01,-1.477472205167911778e-01,-1.482192563650876482e-01,-1.484552742892358557e-01,-1.489273101375322983e-01,-1.493993459858287687e-01,-1.496353639099770039e-01,-1.501073997582734743e-01,-1.505794356065699169e-01,-1.508154535307181243e-01,-1.512874893790145947e-01,-1.517595252273110651e-01,-1.522315610756075355e-01,-1.524675789997557429e-01,-1.529396148480521855e-01,-1.534116506963486559e-01,-1.536476686204968911e-01,-1.541197044687933615e-01,-1.545917403170898041e-01,-1.548277582412380393e-01,-1.552997940895344819e-01,-1.557718299378309523e-01,-1.562438657861274227e-01,-1.564798837102756301e-01,-1.569519195585720728e-01,-1.574239554068685432e-01,-1.576599733310167784e-01,-1.581320091793132487e-01,-1.586040450276096914e-01,-1.588400629517579266e-01,-1.593120988000543692e-01,-1.597841346483508396e-01,-1.602561704966473100e-01
-1.818518105562102194e-01,-1.345302167644903957e-01,-1.350022526127868383e-01,-1.352382705369350457e-01,-1.357103063852315161e-01,-1.361823422335279865e-01,-1.366543780818244291e-01,-1.368903960059726643e-01,-1.373624318542691347e-01,-1.378344677025655773e-01,-1.380704856267138125e-01,-1.385425214750102552e-01,-1.390145573233067255e-01,-1.392505752474549330e-01,-1.397226110957514034e-01,-1.401946469440478737e-01,-1.406666827923443164e-01,-1.409027007164925238e-01,-1.413747365647889942e-01,-1.418467724130854646e-01,-1.420827903372336998e-01,-1.425548261855301424e-01,-1.430268620338265850e-01,-1.432628799579748202e-01,-1.437349158062712906e-01,-1.442069516545677332e-01,-1.446789875028642036e-01,-1.449150054270124111e-01,-1.453870412753088814e-01,-1.458590771236053518e-01,-1.460950950477535870e-01,-1.465671308960500296e-01,-1.470391667443464723e-01,-1.472751846684947075e-01,-1.477472205167911778e-01,-1.482192563650876205e-01,-1.486912922133840909e-01,-1.489273101375322983e-01,-1.493993459858287687e-01,-1.498713818341252391e-01,-1.501073997582734743e-01,-1.505794356065699169e-01,-1.510514714548663595e-01,-1.515235073031628299e-01,-1.517595252273110651e-01,-1.522315610756075077e-01,-1.527035969239039781e-01
-1.727651204765034143e-01,-1.269776431917470361e-01,-1.274496790400435065e-01,-1.279217148883399768e-01,-1.281577328124882120e-01,-1.286297686607846547e-01,-1.291018045090811250e-01,-1.293378224332293325e-01,-1.298098582815258029e-01,-1.302818941298222732e-01,-1.305179120539705084e-01,-1.309899479022669511e-01,-1.314619837505633937e-01,-1.319340195988598641e-01,-1.321700375230080993e-01,-1.326420733713045419e-01,-1.331141092196010123e-01,-1.333501271437492197e-01,-1.338221629920456901e-01,-1.342941988403421605e-01,-1.345302167644903957e-01,-1.350022526127868383e-01,-1.354742884610832809e-01,-1.359463243093797513e-01,-1.361823422335279865e-01,-1.366543780818244291e-01,-1.371264139301208995e-01,-1.373624318542691070e-01,-1.378344677025655773e-01,-1.383065035508620477e-01,-1.385425214750102829e-01,-1.390145573233067255e-01,-1.394865931716031682e-01,-1.399586290198996386e-01,-1.401946469440478737e-01,-1.406666827923443164e-01,-1.411387186406407590e-01,-1.413747365647889942e-01,-1.418467724130854646e-01,-1.423188082613819072e-01,-1.425548261855301702e-01,-1.430268620338265850e-01,-1.434988978821230554e-01,-1.439709337304195258e-01,-1.442069516545677332e-01,-1.446789875028641759e-01,-1.451510233511606462e-01
-1.627343587002036962e-01,-1.194250696190037181e-01,-1.198971054673001885e-01,-1.203691413155966450e-01,-1.206051592397448663e-01,-1.210771950880413228e-01,-1.215492309363377932e-01,-1.217852488604860145e-01,-1.222572847087824710e-01,-1.227293205570789414e-01,-1.229653384812271766e-01,-1.234373743295236192e-01,-1.239094101778200896e-01,-1.243814460261165461e-01,-1.246174639502647674e-01,-1.250894997985612100e-01,-1.255615356468576804e-01,-1.257975535710059156e-01,-1.262695894193023860e-01,-1.267416252675988286e-01,-1.269776431917470361e-01,-1.274496790400435065e-01,-1.279217148883399768e-01,-1.283937507366364472e-01,-1.286297686607846547e-01,-1.291018045090811250e-01,-1.295738403573775677e-01,-1.298098582815258029e-01,-1.302818941298222732e-01,-1.307539299781187159e-01,-1.309899479022669511e-01,-1.314619837505633937e-01,-1.319340195988598641e-01,-1.324060554471563067e-01,-1.326420733713045419e-01,-1.331141092196010123e-01,-1.335861450678974549e-01,-1.338221629920456901e-01,-1.342941988403421605e-01,-1.347662346886386031e-01,-1.350022526127868105e-01,-1.354742884610833087e-01,-1.359463243093797513e-01,-1.364183601576762217e-01,-1.366543780818244291e-01,-1.371264139301208995e-01,-1.375984497784173421e-01
-1.551227806464233194e-01,-1.118724960462604279e-01,-1.123445318945568705e-01,-1.128165677428533409e-01,-1.130525856670015622e-01,-1.135246215152980187e-01,-1.139966573635944891e-01,-1.142326752877427104e-01,-1.147047111360391669e-01,-3.813880670627742830e-01,-3.816240849869224627e-01,-3.820961208352189331e-01,-3.825681566835154035e-01,-1.168288724533732281e-01,-1.170648903775214356e-01,-1.175369262258179059e-01,-1.180089620741143625e-01,-1.182449799982625976e-01,-1.187170158465590541e-01,-1.191890516948554968e-01,-1.196610875431519533e-01,-1.198971054673002024e-01,-1.203691413155966450e-01,-1.208411771638931015e-01,-1.210771950880413228e-01,-1.215492309363377932e-01,-1.220212667846342358e-01,-1.222572847087824710e-01,-1.227293205570789414e-01,-1.232013564053753979e-01,-1.236733922536718544e-01,-1.239094101778200896e-01,-1.243814460261165322e-01,-1.248534818744129887e-01,-1.250894997985612378e-01,-1.255615356468576804e-01,-1.260335714951541508e-01,-1.262695894193023860e-01,-1.267416252675988286e-01,-1.272136611158952713e-01,-1.276856969641917416e-01,-1.279217148883399768e-01,-1.283937507366364472e-01,-1.288657865849328898e-01,-1.291018045090811250e-01,-1.295738403573775677e-01,-1.300458762056740381e-01
-1.435947801638082777e-01,-1.043199224735170960e-01,-1.047919583218135525e-01,-1.052639941701100229e-01,-1.055000120942582442e-01,-1.059720479425546869e-01,-1.064440837908511434e-01,-1.066801017149993785e-01,-1.071521375632958351e-01,-3.738354934900308679e-01,-3.743075293383273383e-01,-3.745435472624756290e-01,-3.750155831107720994e-01,-1.092762988806298963e-01,-1.095123168047781315e-01,-1.099843526530745741e-01,-1.104563885013710584e-01,-1.106924064255192658e-01,-1.111644422738157362e-01,-1.116364781221121927e-01,-1.121085139704086631e-01,-1.123445318945568844e-01,-1.128165677428533409e-01,-1.132886035911497974e-01,-1.135246215152980187e-01,-1.139966573635944891e-01,-1.144686932118909456e-01,-1.147047111360391669e-01,-1.151767469843356234e-01,-1.156487828326320799e-01,-1.161208186809285364e-01,-1.163568366050767577e-01,-1.168288724533732142e-01,-1.173009083016696708e-01,-1.175369262258179059e-01,-1.180089620741143763e-01,-1.184809979224108190e-01,-1.187170158465590541e-01,-1.191890516948554968e-01,-1.196610875431519533e-01,-1.201331233914484098e-01,-1.203691413155966450e-01,-1.208411771638931015e-01,-1.213132130121895580e-01,-1.215492309363377932e-01,-1.220212667846342497e-01,-1.224933026329307062e-01
-1.309825723421373100e-01,-9.676734890077379192e-02,-9.723938474907023455e-02,-9.771142059736670493e-02,-9.794743852151494012e-02,-9.841947436981138275e-02,-9.889151021810785314e-02,-9.912752814225608833e-02,-9.959956399055253096e-02,-3.662829199172876193e-01,-3.667549557655840342e-01,-3.669909736897323249e-01,-3.674630095380287398e-01,-1.017237253078865922e-01,-1.019597432320348274e-01,-1.024317790803312700e-01,-1.029038149286277126e-01,-1.031398328527759617e-01,-1.036118687010724182e-01,-1.040839045493688608e-01,-1.045559403976653312e-01,-1.047919583218135386e-01,-1.052639941701100229e-01,-1.057360300184064794e-01,-1.059720479425547007e-01,-1.064440837908511434e-01,-1.069161196391475999e-01,-1.073881554874440702e-01,-1.076241734115923054e-01,-1.080962092598887619e-01,-1.085682451081852185e-01,-1.088042630323334536e-01,-1.092762988806298963e-01,-1.097483347289263667e-01,-1.099843526530745880e-01,-1.104563885013710445e-01,-1.109284243496675010e-01,-1.114004601979639575e-01,-1.116364781221121927e-01,-1.121085139704086631e-01,-1.125805498187051057e-01,-1.128165677428533409e-01,-1.132886035911497835e-01,-1.137606394394462539e-01,-1.139966573635944752e-01,-1.144686932118909317e-01,-1.149407290601874021e-01
-1.174262928238734294e-01,-8.921477532803048782e-02,-8.968681117632693045e-02,-9.015884702462337308e-02,-9.039486494877160827e-02,-9.086690079706807865e-02,-9.133893664536452128e-02,-9.181097249366099167e-02,-9.204699041780919910e-02,-3.587303463445442597e-01,-3.592023821928407301e-01,-3.594384001169890208e-01,-3.599104359652854357e-01,-9.417115173514327420e-02,-9.440716965929149551e-02,-9.487920550758796590e-02,-9.535124135588442240e-02,-9.582327720418087891e-02,-9.605929512832910022e-02,-9.653133097662555673e-02,-9.700336682492202711e-02,-9.723938474907024843e-02,-9.771142059736670493e-02,-9.818345644566316144e-02,-9.841947436981138275e-02,-9.889151021810785314e-02,-9.936354606640429576e-02,-9.983558191470075227e-02,-1.000715998388489875e-01,-1.005436356871454440e-01,-1.010156715354419144e-01,-1.012516894595901357e-01,-1.017237253078865783e-01,-1.021957611561830348e-01,-1.024317790803312700e-01,-1.029038149286277126e-01,-1.033758507769241830e-01,-1.038478866252206395e-01,-1.040839045493688747e-01,-1.045559403976653312e-01,-1.050279762459617738e-01,-1.052639941701099952e-01,-1.057360300184064794e-01,-1.062080658667029220e-01,-1.064440837908511572e-01,-1.069161196391475999e-01,-1.073881554874440702e-01
-1.072258931645921620e-01,-8.166220175528712821e-02,-8.213423760358359860e-02,-8.260627345188006898e-02,-8.284229137602827642e-02,-8.331432722432474680e-02,-8.378636307262118943e-02,-8.425839892091765981e-02,-8.449441684506589501e-02,-8.496645269336236539e-02,-8.543848854165880802e-02,-8.567450646580701545e-02,-8.614654231410348584e-02,-8.661857816239995622e-02,-8.685459608654816366e-02,-8.732663193484463404e-02,-8.779866778314110443e-02,-8.827070363143754705e-02,-8.850672155558578225e-02,-8.897875740388225263e-02,-8.945079325217869526e-02,-8.968681117632693045e-02,-9.015884702462337308e-02,-9.063088287291984346e-02,-9.086690079706807865e-02,-9.133893664536452128e-02,-9.181097249366099167e-02,-9.228300834195743430e-02,-9.251902626610566949e-02,-9.299106211440213987e-02,-9.346309796269858250e-02,-9.369911588684681769e-02,-9.417115173514327420e-02,-9.464318758343973070e-02,-9.511522343173620109e-02,-9.535124135588440852e-02,-9.582327720418086503e-02,-9.629531305247732154e-02,-9.653133097662555673e-02,-9.700336682492202711e-02,-9.747540267321846974e-02,-9.771142059736670493e-02,-9.818345644566316144e-02,-9.865549229395961794e-02,-9.912752814225607445e-02,-9.936354606640430964e-02,-9.983558191470075227e-02
-9.201748817729066277e-02,-7.410962818254382412e-02,-7.458166403084023899e-02,-7.505369987913670937e-02,-7.552573572743317976e-02,-7.576175365158141495e-02,-7.623378949987788533e-02,-7.670582534817432796e-02,-7.694184327232256315e-02,-7.741387912061900578e-02,-7.788591496891547616e-02,-7.812193289306371136e-02,-7.859396874136015398e-02,-7.906600458965659661e-02,-7.953804043795306700e-02,-7.977405836210130219e-02,-8.024609421039774482e-02,-8.071813005869424296e-02,-8.095414798284245039e-02,-8.142618383113889302e-02,-8.189821967943536341e-02,-8.213423760358359860e-02,-8.260627345188004123e-02,-8.307830930017651161e-02,-8.355034514847295424e-02,-8.378636307262118943e-02,-8.425839892091765981e-02,-8.473043476921413020e-02,-8.496645269336236539e-02,-8.543848854165880802e-02,-8.591052438995525065e-02,-8.614654231410348584e-02,-8.661857816239995622e-02,-8.709061401069639885e-02,-8.756264985899286923e-02,-8.779866778314110443e-02,-8.827070363143754705e-02,-8.874273947973401744e-02,-8.897875740388225263e-02,-8.945079325217869526e-02,-8.992282910047516564e-02,-9.015884702462337308e-02,-9.063088287291984346e-02,-9.110291872121628609e-02,-9.157495456951275647e-02,-9.181097249366099167e-02,-9.228300834195743430e-02
-7.586501149339627825e-02,-6.655705460980052002e-02,-6.702909045809696265e-02,-6.750112630639343303e-02,-6.797316215468987566e-02,-6.820918007883808309e-02,-6.868121592713455348e-02,-6.915325177543102386e-02,-6.938926969957923130e-02,-6.986130554787570168e-02,-7.033334139617217207e-02,-7.056935932032037950e-02,-7.104139516861684989e-02,-7.151343101691329252e-02,-7.198546686520976290e-02,-7.222148478935799809e-02,-7.269352063765444072e-02,-7.316555648595088335e-02,-7.340157441009911854e-02,-7.387361025839558892e-02,-7.434564610669203155e-02,-7.458166403084026674e-02,-7.505369987913670937e-02,-7.552573572743317976e-02,-7.599777157572965014e-02,-7.623378949987785758e-02,-7.670582534817432796e-02,-7.717786119647077059e-02,-7.741387912061900578e-02,-7.788591496891547616e-02,-7.835795081721191879e-02,-7.859396874136015398e-02,-7.906600458965659661e-02,-7.953804043795306700e-02,-8.001007628624953738e-02,-8.024609421039777257e-02,-8.071813005869421520e-02,-8.119016590699065783e-02,-8.142618383113889302e-02,-8.189821967943536341e-02,-8.237025552773183379e-02,-8.284229137602827642e-02,-8.307830930017651161e-02,-8.355034514847295424e-02,-8.402238099676942462e-02,-8.425839892091765981e-02,-8.473043476921413020e-02
-6.377646844092918488e-02,-5.924049896120542336e-02,-5.947651688535365855e-02,-5.994855273365010118e-02,-6.042058858194657156e-02,-6.065660650609480675e-02,-6.112864235439124938e-02,-6.160067820268771976e-02,-6.183669612683592720e-02,-6.230873197513239758e-02,-6.278076782342886797e-02,-6.325280367172531060e-02,-6.348882159587351803e-02,-6.396085744416998842e-02,-6.443289329246645880e-02,-6.466891121661466624e-02,-6.514094706491113662e-02,-6.561298291320757925e-02,-6.584900083735581444e-02,-6.632103668565228483e-02,-6.679307253394869970e-02,-6.726510838224517008e-02,-6.750112630639343303e-02,-6.797316215468987566e-02,-6.844519800298634604e-02,-6.868121592713455348e-02,-6.915325177543099611e-02,-6.962528762372746649e-02,-6.986130554787570168e-02,-7.033334139617214431e-02,-7.080537724446861469e-02,-7.127741309276505732e-02,-7.151343101691329252e-02,-7.198546686520976290e-02,-7.245750271350623328e-02,-7.269352063765444072e-02,-7.316555648595091110e-02,-7.363759233424735373e-02,-7.387361025839558892e-02,-7.434564610669203155e-02,-7.481768195498850194e-02,-7.528971780328497232e-02,-7.552573572743317976e-02,-7.599777157572965014e-02,-7.646980742402609277e-02,-7.670582534817432796e-02,-7.717786119647077059e-02
-5.121588954016564887e-02,-5.168792538846211926e-02,-5.192394331261032669e-02,-5.239597916090682483e-02,-5.286801500920326746e-02,-5.310403293335150265e-02,-5.357606878164794528e-02,-5.404810462994441567e-02,-5.428412255409265086e-02,-5.475615840238909349e-02,-5.522819425068556387e-02,-5.570023009898200650e-02,-5.593624802313024169e-02,-5.640828387142668432e-02,-5.688031971972315470e-02,-5.711633764387138990e-02,-5.758837349216783252e-02,-5.806040934046427515e-02,-5.829642726461251034e-02,-5.876846311290898073e-02,-5.924049896120542336e-02,-5.971253480950189374e-02,-5.994855273365010118e-02,-6.042058858194657156e-02,-6.089262443024301419e-02,-6.112864235439124938e-02,-6.160067820268769201e-02,-6.207271405098416239e-02,-6.230873197513239758e-02,-6.278076782342886797e-02,-6.325280367172531060e-02,-6.372483952002175323e-02,-6.396085744416998842e-02,-6.443289329246645880e-02,-6.490492914076290143e-02,-6.514094706491113662e-02,-6.561298291320757925e-02,-6.608501876150404963e-02,-6.632103668565228483e-02,-6.679307253394875521e-02,-6.726510838224519784e-02,-6.773714423054164047e-02,-6.797316215468987566e-02,-6.844519800298634604e-02,-6.891723385128278867e-02,-6.915325177543102386e-02,-6.962528762372746649e-02
-4.366331596742234478e-02,-4.413535181571878740e-02,-4.437136973986702260e-02,-4.484340558816346523e-02,-4.531544143645993561e-02,-4.555145936060814305e-02,-4.602349520890464118e-02,-4.649553105720108381e-02,-4.673154898134931901e-02,-4.720358482964576163e-02,-4.767562067794225977e-02,-4.814765652623867465e-02,-4.838367445038690984e-02,-4.885571029868338022e-02,-4.932774614697982285e-02,-4.956376407112805804e-02,-5.003579991942452843e-02,-5.050783576772097105e-02,-5.097987161601744144e-02,-5.121588954016567663e-02,-5.168792538846214701e-02,-5.215996123675856189e-02,-5.239597916090676932e-02,-5.286801500920326746e-02,-5.334005085749971009e-02,-5.357606878164794528e-02,-5.404810462994441567e-02,-5.452014047824085829e-02,-5.499217632653732868e-02,-5.522819425068556387e-02,-5.570023009898200650e-02,-5.617226594727847688e-02,-5.640828387142668432e-02,-5.688031971972315470e-02,-5.735235556801959733e-02,-5.758837349216783252e-02,-5.806040934046427515e-02,-5.853244518876074554e-02,-5.900448103705718816e-02,-5.924049896120542336e-02,-5.971253480950186598e-02,-6.018457065779833637e-02,-6.042058858194657156e-02,-6.089262443024304194e-02,-6.136466027853948457e-02,-6.160067820268771976e-02,-6.697746153718955875e-02
-3.611074239467901292e-02,-3.658277824297548331e-02,-3.681879616712371850e-02,-3.729083201542016113e-02,-3.776286786371663151e-02,-3.799888578786483895e-02,-3.847092163616130933e-02,-3.894295748445777972e-02,-3.941499333275422234e-02,-3.965101125690245754e-02,-4.012304710519892792e-02,-4.059508295349537055e-02,-4.083110087764357798e-02,-4.130313672594004837e-02,-4.177517257423651875e-02,-4.201119049838472619e-02,-4.248322634668119657e-02,-4.295526219497763920e-02,-4.342729804327413734e-02,-4.366331596742234478e-02,-4.413535181571881516e-02,-4.460738766401523003e-02,-4.484340558816346523e-02,-4.531544143645993561e-02,-4.578747728475637824e-02,-4.602349520890464118e-02,-4.649553105720108381e-02,-4.696756690549755420e-02,-4.743960275379399683e-02,-4.767562067794225977e-02,-4.814765652623867465e-02,-4.861969237453511727e-02,-4.885571029868335247e-02,-4.932774614697982285e-02,-4.979978199527629323e-02,-5.003579991942452843e-02,-5.050783576772097105e-02,-5.097987161601744144e-02,-5.145190746431388407e-02,-5.168792538846211926e-02,-5.215996123675856189e-02,-5.263199708505500451e-02,-5.286801500920326746e-02,-5.334005085749971009e-02,-5.381208670579618047e-02,-5.428412255409265086e-02,-6.480167129894806588e-02
-2.855816882193568107e-02,-2.903020467023212370e-02,-2.926622259438038665e-02,-2.973825844267682927e-02,-3.021029429097329966e-02,-3.044631221512153485e-02,-3.091834806341797748e-02,-3.139038391171442011e-02,-3.186241976001089049e-02,-3.209843768415912568e-02,-3.257047353245559607e-02,-3.304250938075206645e-02,-3.327852730490030164e-02,-3.375056315319677203e-02,-3.422259900149318690e-02,-3.469463484978965728e-02,-3.493065277393789247e-02,-3.540268862223436286e-02,-3.587472447053080549e-02,-3.611074239467904068e-02,-3.658277824297548331e-02,-3.705481409127195369e-02,-3.729083201542018888e-02,-3.776286786371663151e-02,-3.823490371201307414e-02,-3.870693956030957228e-02,-3.894295748445775196e-02,-3.941499333275425010e-02,-3.988702918105069273e-02,-4.012304710519890016e-02,-4.059508295349537055e-02,-4.106711880179181318e-02,-4.130313672594002061e-02,-4.177517257423651875e-02,-4.224720842253298914e-02,-4.271924427082943176e-02,-4.295526219497766696e-02,-4.342729804327413734e-02,-4.389933389157057997e-02,-4.413535181571881516e-02,-4.460738766401523003e-02,-4.507942351231170042e-02,-4.531544143645993561e-02,-4.578747728475637824e-02,-4.625951313305284862e-02,-4.673154898134931901e-02,-6.847470024350488238e-02
-2.100559524919237697e-02,-2.147763109748881960e-02,-2.171364902163705479e-02,-2.218568486993352518e-02,-2.265772071822996780e-02,-2.312975656652643819e-02,-2.336577449067467338e-02,-2.383781033897111601e-02,-2.430984618726755864e-02,-2.454586411141579383e-02,-2.501789995971226421e-02,-2.548993580800870684e-02,-2.572595373215694203e-02,-2.619798958045341242e-02,-2.667002542874985505e-02,-2.714206127704632543e-02,-2.737807920119453287e-02,-2.785011504949100325e-02,-2.832215089778747363e-02,-2.855816882193568107e-02,-2.903020467023215145e-02,-2.950224051852862184e-02,-2.973825844267682927e-02,-3.021029429097329966e-02,-3.068233013926974229e-02,-3.115436598756621267e-02,-3.139038391171444786e-02,-3.186241976001089049e-02,-3.233445560830736087e-02,-3.257047353245556831e-02,-3.304250938075206645e-02,-3.351454522904853683e-02,-3.375056315319677203e-02,-3.422259900149318690e-02,-3.469463484978965728e-02,-3.516667069808612767e-02,-3.540268862223436286e-02,-3.587472447053080549e-02,-3.634676031882724812e-02,-3.658277824297548331e-02,-3.705481409127195369e-02,-3.752684993956839632e-02,-3.776286786371663151e-02,-3.823490371201310190e-02,-3.870693956030957228e-02,-3.917897540860601491e-02,-7.309180088465461189e-02
-1.345302167644904512e-02,-1.392505752474551550e-02,-1.416107544889372294e-02,-1.463311129719022108e-02,-1.510514714548666371e-02,-1.557718299378313409e-02,-1.581320091793134153e-02,-1.628523676622781191e-02,-1.675727261452425454e-02,-1.699329053867248973e-02,-1.746532638696893236e-02,-1.793736223526540274e-02,-1.817338015941363794e-02,-1.864541600771008056e-02,-1.911745185600657870e-02,-1.958948770430299358e-02,-1.982550562845125652e-02,-2.029754147674767140e-02,-2.076957732504414178e-02,-2.100559524919234922e-02,-2.147763109748884736e-02,-2.194966694578526223e-02,-2.242170279408176037e-02,-2.265772071822996780e-02,-2.312975656652643819e-02,-2.360179241482290857e-02,-2.383781033897111601e-02,-2.023504578665532572e-01,-2.028224937148497276e-01,-2.030585116389979350e-01,-2.548993580800870684e-02,-2.596197165630514947e-02,-2.643400750460161985e-02,-2.667002542874988280e-02,-2.714206127704632543e-02,-2.761409712534279581e-02,-2.785011504949100325e-02,-2.832215089778747363e-02,-2.879418674608391626e-02,-2.903020467023217921e-02,-2.950224051852862184e-02,-2.997427636682509222e-02,-3.044631221512153485e-02,-3.068233013926974229e-02,-3.115436598756621267e-02,-3.162640183586268305e-02,-7.280415403959894505e-02
-5.900448103705741021e-03,-6.372483952002211405e-03,-6.844519800298654033e-03,-7.080537724446916981e-03,-7.552573572743331853e-03,-8.024609421039802237e-03,-8.260627345188037429e-03,-8.732663193484507813e-03,-9.204699041780950441e-03,-9.440716965929213389e-03,-9.912752814225628262e-03,-1.038478866252209865e-02,-1.085682451081854127e-02,-1.109284243496680422e-02,-1.156487828326324685e-02,-1.203691413155968948e-02,-1.227293205570792467e-02,-1.274496790400436730e-02,-1.321700375230080993e-02,-1.345302167644904512e-02,-1.392505752474551550e-02,-1.439709337304198589e-02,-1.486912922133845627e-02,-1.510514714548669146e-02,-1.557718299378313409e-02,-1.604921884207957672e-02,-1.628523676622781191e-02,-1.947978842938099531e-01,-1.952699201421063957e-01,-1.955059380662546309e-01,-1.793736223526537499e-02,-1.840939808356187313e-02,-1.888143393185834351e-02,-1.911745185600655095e-02,-1.958948770430302133e-02,-2.006152355259946396e-02,-2.029754147674769915e-02,-2.076957732504414178e-02,-2.124161317334058441e-02,-2.147763109748884736e-02,-2.194966694578526223e-02,-2.242170279408176037e-02,-2.289373864237820300e-02,-2.312975656652643819e-02,-2.360179241482288082e-02,-2.407382826311935120e-02,-7.907338014978626539e-02
-2.775557561562891351e-17,-2.775557561562891351e-17,-5.551115123125782702e-17,0.000000000000000000e+00,-2.775557561562891351e-17,-4.720358482964981395e-04,-7.080537724447055759e-04,-1.180089620741203715e-03,-1.652125469037618588e-03,-1.888143393185853780e-03,-2.360179241482324164e-03,-2.832215089778766792e-03,-3.304250938075209421e-03,-3.540268862223444613e-03,-4.012304710519914996e-03,-4.484340558816413136e-03,-4.720358482964620572e-03,-5.192394331261063201e-03,-5.664430179557505829e-03,-5.900448103705768776e-03,-6.372483952002211405e-03,-6.844519800298681789e-03,-7.316555648595124417e-03,-7.552573572743359609e-03,-8.024609421039802237e-03,-8.496645269336272621e-03,-8.732663193484507813e-03,-1.872453107210666490e-01,-1.877173465693631194e-01,-1.881893824176595620e-01,-1.038478866252209865e-02,-1.085682451081856903e-02,-1.132886035911503941e-02,-1.156487828326324685e-02,-1.203691413155968948e-02,-1.250894997985615986e-02,-1.274496790400436730e-02,-1.321700375230080993e-02,-1.368903960059730807e-02,-1.416107544889375069e-02,-1.439709337304198589e-02,-1.486912922133845627e-02,-1.534116506963489890e-02,-1.557718299378313409e-02,-1.604921884207957672e-02,-1.652125469037604710e-02,-8.628667795656649875e-02
-2.775557561562891351e-17,-2.775557561562891351e-17,-2.775557561562891351e-17,0.000000000000000000e+00,-2.775557561562891351e-17,-2.775557561562891351e-17,-2.775557561562891351e-17,-2.775557561562891351e-17,-2.775557561562891351e-17,-2.775557561562891351e-17,-2.775557561562891351e-17,-2.775557561562891351e-17,-2.775557561562891351e-17,-2.775557561562891351e-17,-2.775557561562891351e-17,-2.775557561562891351e-17,-2.775557561562891351e-17,-2.775557561562891351e-17,-5.551115123125782702e-17,-2.775557561562891351e-17,-2.775557561562891351e-17,-5.551115123125782702e-17,-2.775557561562891351e-17,-2.775557561562891351e-17,-4.720358482964981395e-04,-9.440716965929407678e-04,-1.180089620741203715e-03,-1.652125469037618588e-03,-2.124161317334088972e-03,-2.596197165630559356e-03,-2.832215089778794548e-03,-3.304250938075209421e-03,-3.776286786371652049e-03,-4.012304710519942752e-03,-4.484340558816385380e-03,-4.956376407112800253e-03,-5.192394331261063201e-03,-5.664430179557533585e-03,-6.136466027853976213e-03,-6.608501876150418841e-03,-6.844519800298709544e-03,-7.316555648595124417e-03,-7.788591496891567045e-03,-8.024609421039829993e-03,-8.496645269336272621e-03,-8.968681117632715249e-03,-9.444404745993965899e-02
-2.775557561562891351e-17,-2.775557561562891351e-17,-2.775557561562891351e-17,-2.775557561562891351e-17,-2.775557561562891351e-17,-2.775557561562891351e-17,-2.775557561562891351e-17,-2.775557561562891351e-17,-2.775557561562891351e-17,-2.775557561562891351e-17,-2.775557561562891351e-17,-2.775557561562891351e-17,-2.775557561562891351e-17,-2.775557561562891351e-17,-2.775557561562891351e-17,0.000000000000000000e+00,-2.775557561562891351e-17,-2.775557561562891351e-17,-2.775557561562891351e-17,-2.775557561562891351e-17,-2.775557561562891351e-17,-2.775557561562891351e-17,-2.775557561562891351e-17,-2.775557561562891351e-17,-2.775557561562891351e-17,-2.775557561562891351e-17,-2.775557561562891351e-17,-2.775557561562891351e-17,-2.775557561562891351e-17,-2.775557561562891351e-17,-2.775557561562891351e-17,-2.775557561562891351e-17,-2.775557561562891351e-17,-2.775557561562891351e-17,-5.551115123125782702e-17,-2.775557561562891351e-17,0.000000000000000000e+00,-5.551115123125782702e-17,-2.775557561562891351e-17,-2.775557561562891351e-17,-2.775557561562891351e-17,-2.775557561562891351e-17,-2.360179241482629475e-04,-4.720358482964981395e-04,-9.440716965929407678e-04,-1.416107544889383396e-03,-9.688535786284789564e-02
-2.775557561562891351e-17,-2.775557561562891351e-17,-5.551115123125782702e-17,-2.775557561562891351e-17,-2.775557561562891351e-17,-2.775557561562891351e-17,-2.775557561562891351e-17,-2.775557561562891351e-17,-2.775557561562891351e-17,-2.775557561562891351e-17,-2.775557561562891351e-17,-2.775557561562891351e-17,-2.775557561562891351e-17,-2.775557561562891351e-17,-2.775557561562891351e-17,-5.551115123125782702e-17,-2.775557561562891351e-17,-2.775557561562891351e-17,-2.775557561562891351e-17,-2.775557561562891351e-17,-2.775557561562891351e-17,-2.775557561562891351e-17,-2.775557561562891351e-17,-2.775557561562891351e-17,-2.775557561562891351e-17,-2.775557561562891351e-17,-2.775557561562891351e-17,-2.775557561562891351e-17,-2.775557561562891351e-17,-2.775557561562891351e-17,-2.775557561562891351e-17,-2.775557561562891351e-17,-2.775557561562891351e-17,-2.775557561562891351e-17,-5.551115123125782702e-17,-2.775557561562891351e-17,-5.551115123125782702e-17,-2.775557561562891351e-17,-2.775557561562891351e-17,-5.551115123125782702e-17,-2.775557561562891351e-17,0.000000000000000000e+00,-2.775557561562891351e-17,-2.775557561562891351e-17,-2.775557561562891351e-17,-2.775557561562891351e-17,-1.095123168047781315e-01
-2.775557561562891351e-17,-2.775557561562891351e-17,-2.775557561562891351e-17,-2.775557561562891351e-17,-2.775557561562891351e-17,-2.775557561562891351e-17,-2.775557561562891351e-17,-2.775557561562891351e-17,-2.775557561562891351e-17,-2.775557561562891351e-17,-2.775557561562891351e-17,-2.775557561562891351e-17,-2.775557561562891351e-17,-2.775557561562891351e-17,-2.775557561562891351e-17,-5.551115123125782702e-17,-2.775557561562891351e-17,-2.775557561562891351e-17,-5.551115123125782702e-17,0.000000000000000000e+00,-2.775557561562891351e-17,-5.551115123125782702e-17,-2.775557561562891351e-17,-2.775557561562891351e-17,-2.775557561562891351e-17,-2.775557561562891351e-17,-2.775557561562891351e-17,-2.775557561562891351e-17,-2.775557561562891351e-17,-2.775557561562891351e-17,-2.775557561562891351e-17,-2.775557561562891351e-17,-2.775557561562891351e-17,-2.775557561562891351e-17,-2.775557561562891351e-17,-2.775557561562891351e-17,-2.775557561562891351e-17,-5.551115123125782702e-17,-2.775557561562891351e-17,-2.775557561562891351e-17,-5.551115123125782702e-17,-2.775557561562891351e-17,-2.775557561562891351e-17,-2.775557561562891351e-17,-2.775557561562891351e-17,-2.775557561562891351e-17,-1.232013564053753979e-01
-2.775557561562891351e-17,-2.775557561562891351e-17,-2.775557561562891351e-17,-2.775557561562891351e-17,-2.775557561562891351e-17,-2.775557561562891351e-17,-2.775557561562891351e-17,-2.775557561562891351e-17,-2.775557561562891351e-17,-2.775557561562891351e-17,-2.775557561562891351e-17,-2.775557561562891351e-17,-2.775557561562891351e-17,-2.775557561562891351e-17,-9.388553315914224817e-02,-9.388553315914224817e-02,-9.388553315914224817e-02,-2.775557561562891351e-17,-2.775557561562891351e-17,-2.775557561562891351e-17,-2.775557561562891351e-17,-2.775557561562891351e-17,-2.775557561562891351e-17,-2.775557561562891351e-17,-2.775557561562891351e-17,-2.775557561562891351e-17,-2.775557561562891351e-17,-2.775557561562891351e-17,-2.775557561562891351e-17,-2.775557561562891351e-17,-2.775557561562891351e-17,0.000000000000000000e+00,-2.775557561562891351e-17,-2.775557561562891351e-17,-2.775557561562891351e-17,-2.775557561562891351e-17,-2.775557561562891351e-17,-2.775557561562891351e-17,-2.775557561562891351e-17,0.000000000000000000e+00,-2.775557561562891351e-17,-2.775557561562891351e-17,-2.775557561562891351e-17,-2.775557561562891351e-17,-2.775557561562891351e-17,-2.775557561562891351e-17,-1.300458762056740381e-01
0.000000000000000000e+00,-2.775557561562891351e-17,-2.775557561562891351e-17,0.000000000000000000e+00,-2.775557561562891351e-17,-2.775557561562891351e-17,-2.775557561562891351e-17,-2.775557561562891351e-17,-2.775557561562891351e-17,-2.775557561562891351e-17,-2.775557561562891351e-17,-2.775557561562891351e-17,-2.775557561562891351e-17,-2.775557561562891351e-17,-9.388553315914224817e-02,-9.388553315914224817e-02,-9.388553315914224817e-02,-2.775557561562891351e-17,-2.775557561562891351e-17,-2.775557561562891351e-17,-2.775557561562891351e-17,-2.775557561562891351e-17,-5.551115123125782702e-17,-2.775557561562891351e-17,-2.775557561562891351e-17,-2.775557561562891351e-17,-2.775557561562891351e-17,-2.775557561562891351e-17,-2.775557561562891351e-17,-2.775557561562891351e-17,-2.775557561562891351e-17,-2.775557561562891351e-17,-2.775557561562891351e-17,-2.775557561562891351e-17,-2.775557561562891351e-17,-2.775557561562891351e-17,-2.775557561562891351e-17,-2.775557561562891351e-17,-2.775557561562891351e-17,-2.775557561562891351e-17,-2.775557561562891351e-17,-2.775557561562891351e-17,-2.775557561562891351e-17,-2.775557561562891351e-17,-2.775557561562891351e-17,-2.775557561562891351e-17,-1.437349158062712906e-01
0.000000000000000000e+00,-2.775557561562891351e-17,-5.551115123125782702e-17,-2.775557561562891351e-17,-2.775557561562891351e-17,-2.775557561562891351e-17,-2.775557561562891351e-17,-2.775557561562891351e-17,-2.775557561562891351e-17,-2.775557561562891351e-17,-2.775557561562891351e-17,-2.775557561562891351e-17,-2.775557561562891351e-17,-2.775557561562891351e-17,-9.388553315914224817e-02,-9.388553315914224817e-02,-9.388553315914224817e-02,-2.775557561562891351e-17,-5.551115123125782702e-17,-2.775557561562891351e-17,-2.775557561562891351e-17,-5.551115123125782702e-17,-2.775557561562891351e-17,-2.775557561562891351e-17,-2.775557561562891351e-17,-2.775557561562891351e-17,-2.775557561562891351e-17,-2.775557561562891351e-17,-2.775557561562891351e-17,-2.775557561562891351e-17,-2.775557561562891351e-17,-2.775557561562891351e-17,-2.775557561562891351e-17,-2.775557561562891351e-17,-2.775557561562891351e-17,-2.775557561562891351e-17,0.000000000000000000e+00,-5.551115123125782702e-17,-5.551115123125782702e-17,0.000000000000000000e+00,-2.775557561562891351e-17,0.000000000000000000e+00,-2.775557561562891351e-17,-2.775557561562891351e-17,-2.775557561562891351e-17,-2.775557561562891351e-17,-1.574239554068685432e-01
-6.844519800298654033e-03,-5.703766500248869109e-03,-3.422259900149354772e-03,-1.140753300049784924e-03,-2.775557561562891351e-17,-2.775557561562891351e-17,-2.775557561562891351e-17,-2.775557561562891351e-17,-2.775557561562891351e-17,-2.775557561562891351e-17,-2.775557561562891351e-17,-2.775557561562891351e-17,-2.775557561562891351e-17,-2.775557561562891351e-17,-2.775557561562891351e-17,0.000000000000000000e+00,-2.775557561562891351e-17,-2.775557561562891351e-17,-2.775557561562891351e-17,-2.775557561562891351e-17,-2.775557561562891351e-17,-2.775557561562891351e-17,-2.775557561562891351e-17,-2.775557561562891351e-17,-2.775557561562891351e-17,-2.775557561562891351e-17,-2.775557561562891351e-17,-2.775557561562891351e-17,-2.775557561562891351e-17,-2.775557561562891351e-17,-2.775557561562891351e-17,-2.775557561562891351e-17,-2.775557561562891351e-17,-2.775557561562891351e-17,-2.775557561562891351e-17,-2.775557561562891351e-17,-2.775557561562891351e-17,0.000000000000000000e+00,-2.775557561562891351e-17,-2.775557561562891351e-17,-5.551115123125782702e-17,-2.775557561562891351e-17,-2.775557561562891351e-17,-2.775557561562891351e-17,-2.775557561562891351e-17,-2.775557561562891351e-17,-1.642684752071671972e-01
-4.334862540189135527e-02,-4.220787210184159810e-02,-3.992636550174202825e-02,-3.764485890164251392e-02,-3.650410560159272899e-02,-3.422259900149318690e-02,-3.194109240139364481e-02,-3.080033910134385988e-02,-2.851883250124434555e-02,-2.623732590114477570e-02,-2.395581930104523360e-02,-2.281506600099547644e-02,-2.053355940089593434e-02,-1.825205280079636450e-02,-1.711129950074660733e-02,-1.482979290064703748e-02,-1.254828630054752314e-02,-1.140753300049773822e-02,-9.126026400398196126e-03,-6.844519800298654033e-03,-4.563013200199111941e-03,-3.422259900149354772e-03,-1.140753300049840435e-03,-2.775557561562891351e-17,-2.775557561562891351e-17,-2.775557561562891351e-17,-2.775557561562891351e-17,-2.775557561562891351e-17,-2.775557561562891351e-17,-2.775557561562891351e-17,-2.775557561562891351e-17,-2.775557561562891351e-17,-2.775557561562891351e-17,-2.775557561562891351e-17,-2.775557561562891351e-17,-2.775557561562891351e-17,-2.775557561562891351e-17,-2.775557561562891351e-17,-2.775557561562891351e-17,-2.775557561562891351e-17,0.000000000000000000e+00,-2.775557561562891351e-17,-2.775557561562891351e-17,-2.775557561562891351e-17,-2.775557561562891351e-17,-2.775557561562891351e-17,-1.779575148077644497e-01
-7.985273100348405650e-02,-7.871197770343429934e-02,-7.643047110333472949e-02,-7.414896450323518740e-02,-7.300821120318543023e-02,-7.072670460308588813e-02,-6.844519800298634604e-02,-6.616369140288677619e-02,-6.502293810283701903e-02,-6.274143150273747693e-02,-6.045992490263793484e-02,-5.931917160258817767e-02,-5.703766500248860782e-02,-5.475615840238909349e-02,-5.361540510233930856e-02,-5.133389850223976647e-02,-4.905239190214022438e-02,-4.677088530204068229e-02,-4.563013200199086961e-02,-4.334862540189135527e-02,-4.106711880179178542e-02,-3.992636550174205601e-02,-3.764485890164251392e-02,-3.536335230154297182e-02,-3.422259900149318690e-02,-3.194109240139361705e-02,-2.965958580129410271e-02,-2.737807920119453287e-02,-2.623732590114477570e-02,-2.395581930104526136e-02,-2.167431270094569151e-02,-2.053355940089593434e-02,-1.825205280079636450e-02,-1.597054620069685016e-02,-1.482979290064703748e-02,-1.254828630054752314e-02,-1.026677970044795329e-02,-7.985273100348411202e-03,-6.844519800298626278e-03,-4.563013200199139696e-03,-2.281506600099569848e-03,-1.140753300049784924e-03,-2.775557561562891351e-17,-2.775557561562891351e-17,-2.775557561562891351e-17,-2.775557561562891351e-17,-1.916465544083617023e-01
-1.163568366050767716e-01,-1.152160833050270006e-01,-1.129345767049274585e-01,-1.106530701048279164e-01,-1.095123168047781453e-01,-1.072308102046786032e-01,-1.049493036045790612e-01,-1.026677970044795191e-01,-1.015270437044297480e-01,-9.924553710433020592e-02,-9.696403050423064995e-02,-9.582327720418087891e-02,-9.354177060408133682e-02,-9.126026400398176697e-02,-9.011951070393200980e-02,-8.783800410383246771e-02,-8.555649750373292561e-02,-8.327499090363335577e-02,-8.213423760358359860e-02,-7.985273100348408426e-02,-7.757122440338454217e-02,-7.643047110333472949e-02,-7.414896450323521515e-02,-7.186745790313564530e-02,-7.072670460308588813e-02,-6.844519800298634604e-02,-6.616369140288677619e-02,-6.388218480278726186e-02,-6.274143150273747693e-02,-6.045992490263793484e-02,-5.817841830253839275e-02,-5.703766500248860782e-02,-5.475615840238909349e-02,-5.247465180228952364e-02,-5.019314520218998155e-02,-4.905239190214019662e-02,-4.677088530204068229e-02,-4.448937870194116795e-02,-4.334862540189135527e-02,-4.106711880179181318e-02,-3.878561220169229884e-02,-3.764485890164245840e-02,-3.536335230154294407e-02,-3.308184570144342973e-02,-3.080033910134385988e-02,-2.965958580129410271e-02,-2.070467239590336184e-01
-1.528609422066694590e-01,-1.517201889066197018e-01,-1.494386823065201320e-01,-1.471571757064206176e-01,-1.448756691063210478e-01,-1.437349158062712906e-01,-1.414534092061717485e-01,-1.391719026060722064e-01,-1.380311493060224493e-01,-1.357496427059228794e-01,-1.334681361058233373e-01,-1.323273828057735801e-01,-1.300458762056740381e-01,-1.277643696055744682e-01,-1.254828630054749539e-01,-1.243421097054251689e-01,-1.220606031053256268e-01,-1.197790965052260848e-01,-1.186383432051763137e-01,-1.163568366050767716e-01,-1.140753300049772434e-01,-1.129345767049274585e-01,-1.106530701048279164e-01,-1.083715635047283743e-01,-1.060900569046288183e-01,-1.049493036045790612e-01,-1.026677970044795052e-01,-1.003862904043799631e-01,-9.924553710433019205e-02,-9.696403050423064995e-02,-9.468252390413110786e-02,-9.354177060408133682e-02,-9.126026400398179472e-02,-8.897875740388225263e-02,-8.669725080378268278e-02,-8.555649750373292561e-02,-8.327499090363338352e-02,-8.099348430353384143e-02,-7.985273100348408426e-02,-7.757122440338451441e-02,-7.528971780328497232e-02,-7.414896450323518740e-02,-7.186745790313564530e-02,-6.958595130303610321e-02,-6.730444470293656112e-02,-6.616369140288680395e-02,-2.141764320843446978e-01
-1.893650478082621602e-01,-1.882242945082124030e-01,-1.859427879081128610e-01,-1.836612813080132911e-01,-1.813797747079137768e-01,-1.802390214078639918e-01,-1.779575148077644497e-01,-1.756760082076649077e-01,-1.745352549076151227e-01,-1.722537483075155806e-01,-1.699722417074160385e-01,-1.688314884073662814e-01,-1.665499818072667115e-01,-1.642684752071671972e-01,-1.619869686070676273e-01,-1.608462153070178702e-01,-1.585647087069183003e-01,-1.562832021068187860e-01,-1.551424488067690011e-01,-1.528609422066694590e-01,-1.505794356065699169e-01,-1.494386823065201320e-01,-1.471571757064206176e-01,-1.448756691063210478e-01,-1.425941625062215334e-01,-1.414534092061717208e-01,-1.391719026060722064e-01,-1.368903960059726643e-01,-1.357496427059228794e-01,-1.334681361058233373e-01,-1.311866295057237952e-01,-1.300458762056740381e-01,-1.277643696055744960e-01,-1.254828630054749539e-01,-1.232013564053753979e-01,-1.220606031053256268e-01,-1.197790965052260848e-01,-1.174975899051265427e-01,-1.163568366050767716e-01,-1.140753300049772434e-01,-1.117938234048776736e-01,-1.095123168047781453e-01,-1.083715635047283882e-01,-1.060900569046288183e-01,-1.038085503045292762e-01,-1.063039481483881582e-01,-2.190246336095562352e-01
-2.190246336095562352e-01,-2.190246336095562352e-01,-2.190246336095562352e-01,-2.190246336095562352e-01,-2.178838803095064502e-01,-2.167431270094566931e-01,-2.144616204093571510e-01,-2.121801138092576089e-01,-2.110393605092078240e-01,-2.087578539091082819e-01,-2.064763473090087398e-01,-2.041948407089091977e-01,-2.030540874088594405e-01,-2.007725808087598707e-01,-1.984910742086603563e-01,-1.973503209086105714e-01,-1.950688143085110293e-01,-1.927873077084114872e-01,-1.916465544083617023e-01,-1.893650478082621602e-01,-1.870835412081626181e-01,-1.848020346080630760e-01,-1.836612813080132911e-01,-1.813797747079137768e-01,-1.790982681078142069e-01,-1.779575148077644497e-01,-1.756760082076649077e-01,-1.733945016075653656e-01,-1.722537483075155806e-01,-1.699722417074160385e-01,-1.676907351073164965e-01,-1.654092285072169544e-01,-1.642684752071671972e-01,-1.619869686070676273e-01,-1.597054620069681130e-01,-1.585647087069183281e-01,-1.562832021068187860e-01,-1.540016955067192439e-01,-1.528609422066694590e-01,-1.505794356065699169e-01,-1.482979290064703748e-01,-1.460164224063708327e-01,-1.448756691063210478e-01,-1.425941625062215334e-01,-1.403126559061219636e-01,-1.466580961376488246e-01,-2.190246336095562352e-01
-2.190246336095562352e-01,-2.190246336095562352e-01,-2.190246336095562352e-01,-2.190246336095562352e-01,-2.190246336095562352e-01,-2.190246336095562352e-01,-2.190246336095562352e-01,-2.190246336095562352e-01,-2.190246336095562352e-01,-2.190246336095562352e-01,-2.190246336095562352e-01,-2.190246336095562352e-01,-2.190246336095562352e-01,-2.190246336095562352e-01,-2.190246336095562352e-01,-2.190246336095562352e-01,-2.190246336095562352e-01,-2.190246336095562352e-01,-2.190246336095562352e-01,-2.190246336095562352e-01,-2.190246336095562352e-01,-2.190246336095562352e-01,-2.190246336095562352e-01,-2.178838803095064502e-01,-2.156023737094069082e-01,-2.144616204093571510e-01,-2.121801138092576089e-01,-2.098986072091580668e-01,-2.087578539091082819e-01,-2.064763473090087398e-01,-2.041948407089091977e-01,-2.019133341088096556e-01,-2.007725808087598707e-01,-1.984910742086603286e-01,-1.962095676085607865e-01,-1.950688143085110293e-01,-1.927873077084114872e-01,-1.905058011083119451e-01,-1.893650478082621602e-01,-1.870835412081626181e-01,-1.848020346080630760e-01,-1.825205280079635339e-01,-1.813797747079137768e-01,-1.790982681078142069e-01,-1.768167615077146926e-01,-1.810945863829013236e-01,-2.190246336095562352e-01
-2.190246336095562352e-01,-2.190246336095562352e-01,-2.190246336095562352e-01,-2.190246336095562352e-01,-2.190246336095562352e-01,-2.190246336095562352e-01,-2.190246336095562352e-01,-2.190246336095562352e-01,-2.190246336095562352e-01,-2.190246336095562352e-01,-2.190246336095562352e-01,-2.190246336095562352e-01,-2.190246336095562352e-01,-2.190246336095562352e-01,-2.190246336095562352e-01,-2.190246336095562352e-01,-2.190246336095562352e-01,-2.190246336095562352e-01,-2.190246336095562352e-01,-2.190246336095562352e-01,-2.190246336095562352e-01,-2.190246336095562352e-01,-2.190246336095562352e-01,-2.190246336095562352e-01,-2.190246336095562352e-01,-2.190246336095562352e-01,-2.190246336095562352e-01,-2.190246336095562352e-01,-2.190246336095562352e-01,-2.190246336095562352e-01,-2.190246336095562352e-01,-2.190246336095562352e-01,-2.190246336095562352e-01,-2.190246336095562352e-01,-2.190246336095562352e-01,-2.190246336095562352e-01,-2.190246336095562352e-01,-2.190246336095562352e-01,-2.190246336095562352e-01,-2.190246336095562352e-01,-2.190246336095562352e-01,-2.190246336095562352e-01,-2.178838803095064502e-01,-2.156023737094069082e-01,-2.133208671093073661e-01,-2.134634612718135926e-01,-2.190246336095562352e-01
