-2.090720036262241066e-01,-2.090720036262241066e-01,-2.090720036262241066e-01,-2.090720036262241066e-01,-2.090720036262241066e-01,-2.090720036262241066e-01,-2.090720036262241066e-01,-2.090720036262241066e-01,-2.090720036262241066e-01,-2.090720036262241066e-01,-2.090720036262241066e-01,-2.090720036262241066e-01,-2.090720036262241066e-01,-2.025385035129046163e-01,-6.533500113319504199e-02,-5.551115123125782702e-17,-2.775557561562891351e-17,-1.016322239849704046e-02,-2.758588936734907016e-02,-4.573450079323654327e-02,-6.315716776208854522e-02,-8.057983473094057492e-02,-9.800250169979254911e-02,-1.161511131256800777e-01,-1.335737800945320797e-01,-1.509964470633840816e-01,-1.684191140322360836e-01,-1.865677254581236122e-01,-2.039903924269756141e-01,-2.090720036262241066e-01,-2.090720036262241066e-01,-2.090720036262241066e-01,-2.090720036262241066e-01,-2.090720036262241066e-01,-2.090720036262241066e-01,-2.090720036262241066e-01,-2.090720036262241066e-01,-2.090720036262241066e-01,-2.090720036262241066e-01,-2.090720036262241066e-01,-2.090720036262241066e-01,-2.090720036262241066e-01,-2.090720036262241066e-01,-2.090720036262241066e-01,-2.090720036262241066e-01,-2.090720036262241066e-01,-2.090720036262241066e-01
-2.090720036262241066e-01,-2.090720036262241066e-01,-2.090720036262241066e-01,-2.090720036262241066e-01,-2.090720036262241066e-01,-2.090720036262241066e-01,-2.090720036262241066e-01,-2.090720036262241066e-01,-2.090720036262241066e-01,-2.090720036262241066e-01,-2.090720036262241066e-01,-2.090720036262241066e-01,-1.764045030596265995e-01,-4.573450079323654327e-02,-2.775557561562891351e-17,-2.775557561562891351e-17,-2.775557561562891351e-17,-2.775557561562891351e-17,-1.234105576960353723e-02,-3.048966719549103810e-02,-4.791233416434304004e-02,-6.533500113319504199e-02,-8.348361255908257061e-02,-1.009062795279345587e-01,-1.183289464967865745e-01,-1.357516134656385765e-01,-1.539002248915260773e-01,-1.713228918603780793e-01,-1.887455588292301090e-01,-2.061682257980821109e-01,-2.090720036262241066e-01,-2.090720036262241066e-01,-2.090720036262241066e-01,-2.090720036262241066e-01,-2.090720036262241066e-01,-2.090720036262241066e-01,-2.090720036262241066e-01,-2.090720036262241066e-01,-2.090720036262241066e-01,-2.090720036262241066e-01,-2.090720036262241066e-01,-2.090720036262241066e-01,-2.090720036262241066e-01,-2.090720036262241066e-01,-2.090720036262241066e-01,-2.090720036262241066e-01,-2.090720036262241066e-01
-2.090720036262241066e-01,-2.090720036262241066e-01,-2.090720036262241066e-01,-2.090720036262241066e-01,-2.090720036262241066e-01,-2.090720036262241066e-01,-2.090720036262241066e-01,-2.090720036262241066e-01,-2.090720036262241066e-01,-2.090720036262241066e-01,-2.090720036262241066e-01,-1.568040027196681008e-01,-1.960050033995855423e-02,-2.775557561562891351e-17,0.000000000000000000e+00,-2.775557561562891351e-17,-2.775557561562891351e-17,-2.775557561562891351e-17,-1.142240113696604414e-01,-1.294688449674059605e-01,-1.468915119362579902e-01,-5.009016753544956457e-02,-6.823877896133706544e-02,-8.566144593018905351e-02,-1.030841128990410693e-01,-1.205067798678930852e-01,-1.386553912937805721e-01,-1.560780582626326018e-01,-1.735007252314846038e-01,-1.916493366573721047e-01,-2.090720036262241066e-01,-2.090720036262241066e-01,-2.090720036262241066e-01,-2.090720036262241066e-01,-2.090720036262241066e-01,-2.090720036262241066e-01,-2.090720036262241066e-01,-2.090720036262241066e-01,-2.090720036262241066e-01,-2.090720036262241066e-01,-2.090720036262241066e-01,-2.090720036262241066e-01,-2.090720036262241066e-01,-2.090720036262241066e-01,-2.090720036262241066e-01,-2.090720036262241066e-01,-2.090720036262241066e-01
-2.090720036262241066e-01,-2.090720036262241066e-01,-2.090720036262241066e-01,-2.090720036262241066e-01,-2.090720036262241066e-01,-2.090720036262241066e-01,-2.090720036262241066e-01,-2.090720036262241066e-01,-2.090720036262241066e-01,-2.090720036262241066e-01,-1.372035023797095743e-01,-2.775557561562891351e-17,-2.775557561562891351e-17,-2.775557561562891351e-17,-2.775557561562891351e-17,-2.775557561562891351e-17,-2.775557561562891351e-17,-2.775557561562891351e-17,-1.142240113696604692e-01,-1.142240113696604692e-01,-1.316466783385125128e-01,-3.557127839473953057e-02,-5.299394536359153252e-02,-7.041661233244356222e-02,-8.783927930129556416e-02,-1.059878907271830650e-01,-1.234105576960350670e-01,-1.408332246648870689e-01,-1.582558916337390986e-01,-1.764045030596265995e-01,-1.938271700284786014e-01,-2.090720036262241066e-01,-2.090720036262241066e-01,-2.090720036262241066e-01,-2.090720036262241066e-01,-2.090720036262241066e-01,-2.090720036262241066e-01,-2.090720036262241066e-01,-2.090720036262241066e-01,-2.090720036262241066e-01,-2.090720036262241066e-01,-2.090720036262241066e-01,-2.090720036262241066e-01,-2.090720036262241066e-01,-2.090720036262241066e-01,-2.090720036262241066e-01,-2.090720036262241066e-01
-2.090720036262241066e-01,-2.090720036262241066e-01,-2.090720036262241066e-01,-2.090720036262241066e-01,-2.090720036262241066e-01,-2.090720036262241066e-01,-2.090720036262241066e-01,-2.090720036262241066e-01,-2.090720036262241066e-01,-1.110695019264315714e-01,-2.775557561562891351e-17,-2.775557561562891351e-17,-2.775557561562891351e-17,-5.551115123125782702e-17,-2.775557561562891351e-17,-2.775557561562891351e-17,-2.775557561562891351e-17,-2.775557561562891351e-17,-1.142240113696604692e-01,-1.142240113696604970e-01,-1.164018447407669660e-01,-2.032644479699408091e-02,-3.774911176584602734e-02,-5.517177873469805705e-02,-7.259444570355005899e-02,-9.074305712943757374e-02,-1.081657240982895618e-01,-1.255883910671415915e-01,-1.437370024930290924e-01,-1.611596694618810943e-01,-1.785823364307330963e-01,-1.960050033995850982e-01,-2.090720036262241066e-01,-2.090720036262241066e-01,-2.090720036262241066e-01,-2.090720036262241066e-01,-2.090720036262241066e-01,-2.090720036262241066e-01,-2.090720036262241066e-01,-2.090720036262241066e-01,-2.090720036262241066e-01,-2.090720036262241066e-01,-2.090720036262241066e-01,-2.090720036262241066e-01,-2.090720036262241066e-01,-2.090720036262241066e-01,-2.090720036262241066e-01
-2.090720036262241066e-01,-2.090720036262241066e-01,-2.090720036262241066e-01,-2.090720036262241066e-01,-2.090720036262241066e-01,-2.090720036262241066e-01,-2.090720036262241066e-01,-2.090720036262241066e-01,-9.146900158647305878e-02,-2.775557561562891351e-17,-2.775557561562891351e-17,-2.775557561562891351e-17,-2.775557561562891351e-17,-2.775557561562891351e-17,-2.775557561562891351e-17,-2.775557561562891351e-17,-2.775557561562891351e-17,-5.551115123125782702e-17,-2.775557561562891351e-17,-2.775557561562891351e-17,-2.775557561562891351e-17,-5.081611199248520228e-03,-2.250427816810054993e-02,-3.992694513695252412e-02,-5.807555656284005274e-02,-7.549822353169208244e-02,-9.292089050054405663e-02,-1.103435574693960725e-01,-1.284921688952835872e-01,-1.459148358641355614e-01,-1.633375028329875911e-01,-1.814861142588750920e-01,-1.989087812277270939e-01,-2.090720036262241066e-01,-2.090720036262241066e-01,-2.090720036262241066e-01,-2.090720036262241066e-01,-2.090720036262241066e-01,-2.090720036262241066e-01,-2.090720036262241066e-01,-2.090720036262241066e-01,-2.090720036262241066e-01,-2.090720036262241066e-01,-2.090720036262241066e-01,-2.090720036262241066e-01,-2.090720036262241066e-01,-2.090720036262241066e-01
-2.090720036262241066e-01,-2.090720036262241066e-01,-2.090720036262241066e-01,-2.090720036262241066e-01,-2.090720036262241066e-01,-2.090720036262241066e-01,-2.030210915894566093e-01,-6.615168864735998522e-02,-2.775557561562891351e-17,-2.775557561562891351e-17,-2.775557561562891351e-17,-2.775557561562891351e-17,-2.775557561562891351e-17,-2.775557561562891351e-17,-2.775557561562891351e-17,-2.775557561562891351e-17,-2.775557561562891351e-17,-2.775557561562891351e-17,-2.775557561562891351e-17,-2.775557561562891351e-17,-5.551115123125782702e-17,-2.775557561562891351e-17,-7.259444570355017001e-03,-2.540805599624254563e-02,-4.283072296509457533e-02,-6.025338993394654952e-02,-7.767605690279855146e-02,-9.582466832868605233e-02,-1.132473352975380820e-01,-1.306700022663900840e-01,-1.480926692352420859e-01,-1.662412806611295868e-01,-1.836639476299815887e-01,-2.010866145988335907e-01,-2.090720036262241066e-01,-2.090720036262241066e-01,-2.090720036262241066e-01,-2.090720036262241066e-01,-2.090720036262241066e-01,-2.090720036262241066e-01,-2.090720036262241066e-01,-2.090720036262241066e-01,-2.090720036262241066e-01,-2.090720036262241066e-01,-2.090720036262241066e-01,-2.090720036262241066e-01,-2.090720036262241066e-01
-2.090720036262241066e-01,-2.090720036262241066e-01,-2.090720036262241066e-01,-2.090720036262241066e-01,-2.090720036262241066e-01,-1.882093498552834254e-01,-6.754376963741384743e-02,-1.366095478239534589e-02,-2.775557561562891351e-17,0.000000000000000000e+00,-2.775557561562891351e-17,-5.551115123125782702e-17,-2.775557561562891351e-17,0.000000000000000000e+00,-2.775557561562891351e-17,-2.775557561562891351e-17,-2.775557561562891351e-17,0.000000000000000000e+00,-2.775557561562891351e-17,0.000000000000000000e+00,-2.775557561562891351e-17,-5.551115123125782702e-17,-2.775557561562891351e-17,-1.016322239849704046e-02,-2.758588936734904240e-02,-4.500855633620104435e-02,-6.243122330505304629e-02,-8.057983473094057492e-02,-9.800250169979256298e-02,-1.154251686686445788e-01,-1.335737800945320797e-01,-1.509964470633840816e-01,-1.684191140322360836e-01,-1.858417810010881133e-01,-2.039903924269756141e-01,-2.090720036262241066e-01,-2.090720036262241066e-01,-2.090720036262241066e-01,-2.090720036262241066e-01,-2.090720036262241066e-01,-2.090720036262241066e-01,-2.090720036262241066e-01,-2.090720036262241066e-01,-2.090720036262241066e-01,-2.090720036262241066e-01,-2.090720036262241066e-01,-2.090720036262241066e-01
-2.090720036262241066e-01,-2.090720036262241066e-01,-2.090720036262241066e-01,-2.090720036262241066e-01,-1.740286848366013328e-01,-6.912146142614158939e-02,-4.038890979142970017e-02,-2.613400045327801680e-02,-1.128513655937007920e-02,-2.775557561562891351e-17,0.000000000000000000e+00,-2.775557561562891351e-17,-5.551115123125782702e-17,0.000000000000000000e+00,-2.775557561562891351e-17,-2.775557561562891351e-17,-2.775557561562891351e-17,-2.775557561562891351e-17,-2.775557561562891351e-17,0.000000000000000000e+00,-2.775557561562891351e-17,-2.775557561562891351e-17,-2.775557561562891351e-17,-2.775557561562891351e-17,-1.234105576960353723e-02,-2.976372273845553917e-02,-4.791233416434306780e-02,-6.533500113319504199e-02,-8.275766810204707169e-02,-1.001803350708990598e-01,-1.183289464967865745e-01,-1.357516134656385765e-01,-1.531742804344905784e-01,-1.713228918603780793e-01,-1.887455588292301090e-01,-2.061682257980821109e-01,-2.090720036262241066e-01,-2.090720036262241066e-01,-2.090720036262241066e-01,-2.090720036262241066e-01,-2.090720036262241066e-01,-2.090720036262241066e-01,-2.090720036262241066e-01,-2.090720036262241066e-01,-2.090720036262241066e-01,-2.090720036262241066e-01,-2.090720036262241066e-01
-2.090720036262241066e-01,-2.090720036262241066e-01,-2.090720036262241066e-01,-1.700751748248483242e-01,-8.137177413861565456e-02,-6.711686480046399894e-02,-5.286195546231237108e-02,-3.801309156840440573e-02,-2.375818223025277787e-02,-9.503272892101150005e-03,-2.775557561562891351e-17,-2.775557561562891351e-17,-2.775557561562891351e-17,-2.775557561562891351e-17,-2.775557561562891351e-17,-2.775557561562891351e-17,-2.775557561562891351e-17,-2.775557561562891351e-17,0.000000000000000000e+00,-2.775557561562891351e-17,-2.775557561562891351e-17,-2.775557561562891351e-17,-2.775557561562891351e-17,-2.775557561562891351e-17,-1.578344861798476328e-01,-1.723533753205576946e-01,-1.905019867464451677e-01,-5.009016753544956457e-02,-6.751283450430156652e-02,-8.566144593018906739e-02,-1.030841128990410693e-01,-1.205067798678930713e-01,-1.379294468367450732e-01,-1.560780582626326018e-01,-1.735007252314845760e-01,-1.909233922003366057e-01,-2.083460591691886077e-01,-2.090720036262241066e-01,-2.090720036262241066e-01,-2.090720036262241066e-01,-2.090720036262241066e-01,-2.090720036262241066e-01,-2.090720036262241066e-01,-2.090720036262241066e-01,-2.090720036262241066e-01,-2.090720036262241066e-01,-2.090720036262241066e-01
-2.090720036262241066e-01,-2.090720036262241066e-01,-1.687016549146618249e-01,-1.080997291476499811e-01,-9.384481980949833935e-02,-7.958991047134669761e-02,-6.533500113319506974e-02,-5.048613723928710439e-02,-3.623122790113544878e-02,-2.197631856298379316e-02,-7.127454669075855564e-03,-2.775557561562891351e-17,-2.775557561562891351e-17,-2.775557561562891351e-17,-5.551115123125782702e-17,-2.775557561562891351e-17,-2.775557561562891351e-17,-2.775557561562891351e-17,-2.775557561562891351e-17,-2.775557561562891351e-17,-2.775557561562891351e-17,0.000000000000000000e+00,-2.775557561562891351e-17,-2.775557561562891351e-17,-1.578344861798476606e-01,-1.578344861798476606e-01,-1.752571531486996625e-01,-3.484533393770403165e-02,-5.226800090655603359e-02,-7.041661233244358997e-02,-8.783927930129555028e-02,-1.052619462701475661e-01,-1.234105576960350809e-01,-1.408332246648870689e-01,-1.582558916337390986e-01,-1.756785586025911006e-01,-1.938271700284786014e-01,-2.090720036262241066e-01,-2.090720036262241066e-01,-2.090720036262241066e-01,-2.090720036262241066e-01,-2.090720036262241066e-01,-2.090720036262241066e-01,-2.090720036262241066e-01,-2.090720036262241066e-01,-2.090720036262241066e-01,-2.090720036262241066e-01
-2.090720036262241066e-01,-1.756620598649311915e-01,-1.348276841566842799e-01,-1.205727748185326659e-01,-1.063178654803810380e-01,-9.206295614222939627e-02,-7.721409224832143092e-02,-6.295918291016977530e-02,-4.870427357201814744e-02,-3.444936423386649182e-02,-1.960050033995852647e-02,-5.345591001806898612e-03,-2.775557561562891351e-17,-2.775557561562891351e-17,-2.775557561562891351e-17,-2.775557561562891351e-17,-2.775557561562891351e-17,-2.775557561562891351e-17,-2.775557561562891351e-17,-2.775557561562891351e-17,-2.775557561562891351e-17,-2.775557561562891351e-17,-2.775557561562891351e-17,0.000000000000000000e+00,-1.578344861798476606e-01,-1.578344861798476606e-01,-1.600123195509541574e-01,-1.960050033995855423e-02,-3.774911176584602734e-02,-5.517177873469805705e-02,-7.259444570355005899e-02,-9.001711267240206094e-02,-1.081657240982895757e-01,-1.255883910671415915e-01,-1.430110580359935657e-01,-1.611596694618810943e-01,-1.785823364307330963e-01,-1.960050033995850982e-01,-2.090720036262241066e-01,-2.090720036262241066e-01,-2.090720036262241066e-01,-2.090720036262241066e-01,-2.090720036262241066e-01,-2.090720036262241066e-01,-2.090720036262241066e-01,-2.090720036262241066e-01,-2.090720036262241066e-01
-1.876339563793944787e-01,-1.621495937214749439e-01,-1.473007298275670063e-01,-1.330458204894153507e-01,-1.187909111512637089e-01,-1.045360018131120672e-01,-8.968713791920410183e-02,-7.543222858105244621e-02,-6.117731924290081835e-02,-4.632845534899285300e-02,-3.207354601084119738e-02,-1.781863667268959728e-02,-3.563727334537969416e-03,-2.775557561562891351e-17,-2.775557561562891351e-17,-2.775557561562891351e-17,0.000000000000000000e+00,-2.775557561562891351e-17,-2.775557561562891351e-17,-2.775557561562891351e-17,-5.551115123125782702e-17,-2.775557561562891351e-17,-2.775557561562891351e-17,-2.775557561562891351e-17,-2.775557561562891351e-17,-2.775557561562891351e-17,-2.775557561562891351e-17,-4.355666742213021303e-03,-2.250427816810054993e-02,-3.992694513695255187e-02,-5.734961210580455382e-02,-7.549822353169205469e-02,-9.292089050054405663e-02,-1.103435574693960725e-01,-1.277662244382480883e-01,-1.459148358641355891e-01,-1.633375028329875911e-01,-1.807601698018395930e-01,-1.981828367706915950e-01,-2.090720036262241066e-01,-2.090720036262241066e-01,-2.090720036262241066e-01,-2.090720036262241066e-01,-2.090720036262241066e-01,-2.090720036262241066e-01,-2.090720036262241066e-01,-2.090720036262241066e-01
-1.888775487305092704e-01,-1.740286848366013051e-01,-1.597737754984496772e-01,-1.455188661602980216e-01,-1.312639568221463937e-01,-1.164150929282384422e-01,-1.021601835900868144e-01,-8.790527425193517264e-02,-7.365036491378348926e-02,-5.880150101987555167e-02,-4.454659168172392381e-02,-3.029168234357226819e-02,-1.544281844966433059e-02,-1.187909111512674976e-03,-2.775557561562891351e-17,-2.775557561562891351e-17,-2.775557561562891351e-17,-2.775557561562891351e-17,-2.775557561562891351e-17,-2.775557561562891351e-17,-2.775557561562891351e-17,-2.775557561562891351e-17,-2.775557561562891351e-17,-2.775557561562891351e-17,-2.775557561562891351e-17,-2.775557561562891351e-17,-2.775557561562891351e-17,-2.775557561562891351e-17,-7.259444570355017001e-03,-2.468211153920704670e-02,-4.210477850805904865e-02,-6.025338993394654952e-02,-7.767605690279857922e-02,-9.509872387165055341e-02,-1.132473352975380820e-01,-1.306700022663900840e-01,-1.480926692352420859e-01,-1.655153362040940879e-01,-1.836639476299815887e-01,-2.010866145988335907e-01,-2.090720036262241066e-01,-2.090720036262241066e-01,-2.090720036262241066e-01,-2.090720036262241066e-01,-2.090720036262241066e-01,-2.090720036262241066e-01,-2.090720036262241066e-01
-2.013505944013919691e-01,-1.865017305074840037e-01,-1.722468211693323759e-01,-1.579919118311807202e-01,-1.431430479372727826e-01,-1.288881385991211270e-01,-1.146332292609694853e-01,-1.003783199228178435e-01,-8.552945602890987820e-02,-7.127454669075825033e-02,-5.701963735260659472e-02,-4.276472801445493910e-02,-2.791586412054700150e-02,-1.366095478239534589e-02,-2.775557561562891351e-17,-2.775557561562891351e-17,-2.775557561562891351e-17,-2.775557561562891351e-17,-2.775557561562891351e-17,-2.775557561562891351e-17,-2.775557561562891351e-17,-2.775557561562891351e-17,-2.775557561562891351e-17,-2.775557561562891351e-17,0.000000000000000000e+00,-2.775557561562891351e-17,-2.775557561562891351e-17,-2.775557561562891351e-17,-2.775557561562891351e-17,-9.437277941461513775e-03,-2.758588936734904240e-02,-4.500855633620107210e-02,-6.243122330505307405e-02,-7.985389027390507599e-02,-9.800250169979256298e-02,-1.154251686686445788e-01,-1.328478356374965808e-01,-1.502705026063485827e-01,-1.684191140322360836e-01,-1.858417810010881133e-01,-2.032644479699401152e-01,-2.090720036262241066e-01,-2.090720036262241066e-01,-2.090720036262241066e-01,-2.090720036262241066e-01,-2.090720036262241066e-01,-2.090720036262241066e-01
-2.090720036262241066e-01,-1.989747761783667024e-01,-1.847198668402150468e-01,-1.704649575020634189e-01,-1.556160936081554536e-01,-1.413611842700038257e-01,-1.271062749318521701e-01,-1.128513655937005145e-01,-9.800250169979257686e-02,-8.374759236164092124e-02,-6.949268302348929338e-02,-5.464381912958132803e-02,-4.038890979142964466e-02,-2.613400045327801680e-02,-1.187909111512638893e-02,-2.775557561562891351e-17,-5.551115123125782702e-17,-2.775557561562891351e-17,-2.775557561562891351e-17,-2.775557561562891351e-17,-2.775557561562891351e-17,-2.775557561562891351e-17,-5.551115123125782702e-17,-2.775557561562891351e-17,-2.775557561562891351e-17,-2.775557561562891351e-17,-2.775557561562891351e-17,-2.775557561562891351e-17,-2.775557561562891351e-17,-2.775557561562891351e-17,-1.234105576960353723e-02,-2.976372273845553917e-02,-4.718638970730751336e-02,-6.533500113319506974e-02,-8.275766810204704393e-02,-1.001803350708990736e-01,-1.176030020397510756e-01,-1.357516134656385765e-01,-1.531742804344906062e-01,-1.705969474033425803e-01,-1.880196143721946100e-01,-2.061682257980821109e-01,-2.090720036262241066e-01,-2.090720036262241066e-01,-2.090720036262241066e-01,-2.090720036262241066e-01,-2.090720036262241066e-01
-2.090720036262241066e-01,-2.090720036262241066e-01,-1.971929125110977454e-01,-1.823440486171897801e-01,-1.680891392790381245e-01,-1.538342299408864966e-01,-1.395793206027348687e-01,-1.247304567088268895e-01,-1.104755473706752616e-01,-9.622063803252360603e-02,-8.196572869437196429e-02,-6.711686480046399894e-02,-5.286195546231237108e-02,-3.860704612416071546e-02,-2.375818223025275011e-02,-9.503272892101150005e-03,-5.551115123125782702e-17,-2.775557561562891351e-17,-2.775557561562891351e-17,-2.775557561562891351e-17,-2.775557561562891351e-17,-2.775557561562891351e-17,-2.775557561562891351e-17,-2.775557561562891351e-17,-2.775557561562891351e-17,-2.775557561562891351e-17,0.000000000000000000e+00,-5.551115123125782702e-17,-2.775557561562891351e-17,-2.775557561562891351e-17,-5.551115123125782702e-17,-1.451888914071003400e-02,-3.194155610956206370e-02,-5.009016753544953682e-02,-6.751283450430156652e-02,-8.493550147315356846e-02,-1.023581684420055565e-01,-1.205067798678930713e-01,-1.379294468367451010e-01,-1.553521138055971029e-01,-1.735007252314845760e-01,-1.909233922003366057e-01,-2.083460591691886077e-01,-2.090720036262241066e-01,-2.090720036262241066e-01,-2.090720036262241066e-01,-2.090720036262241066e-01
-2.090720036262241066e-01,-2.090720036262241066e-01,-2.090720036262241066e-01,-1.948170942880724787e-01,-1.805621849499208231e-01,-1.663072756117691675e-01,-1.520523662736175674e-01,-1.372035023797095743e-01,-1.229485930415579464e-01,-1.086936837034063047e-01,-9.384481980949835322e-02,-7.958991047134669761e-02,-6.533500113319504199e-02,-5.108009179504341413e-02,-3.623122790113544878e-02,-2.197631856298382091e-02,-7.721409224832137541e-03,-2.775557561562891351e-17,-2.775557561562891351e-17,-2.775557561562891351e-17,-2.775557561562891351e-17,-2.775557561562891351e-17,-2.775557561562891351e-17,-5.551115123125782702e-17,-5.551115123125782702e-17,-2.775557561562891351e-17,-2.775557561562891351e-17,-2.775557561562891351e-17,-2.775557561562891351e-17,-2.775557561562891351e-17,-2.775557561562891351e-17,-2.775557561562891351e-17,-1.742266696885205746e-02,-3.484533393770403165e-02,-5.226800090655606135e-02,-6.969066787540806329e-02,-8.783927930129555028e-02,-1.052619462701475661e-01,-1.226846132389995819e-01,-1.401072802078515700e-01,-1.582558916337390986e-01,-1.756785586025911006e-01,-1.931012255714431025e-01,-2.090720036262241066e-01,-2.090720036262241066e-01,-2.090720036262241066e-01,-2.090720036262241066e-01
-2.090720036262241066e-01,-2.090720036262241066e-01,-2.090720036262241066e-01,-2.072901399589551497e-01,-1.930352306208035218e-01,-1.787803212826518662e-01,-1.639314573887439286e-01,-1.496765480505922730e-01,-1.354216387124406173e-01,-1.211667293742889756e-01,-1.063178654803810241e-01,-9.206295614222939627e-02,-7.780804680407774065e-02,-6.295918291016977530e-02,-4.870427357201811969e-02,-3.444936423386649182e-02,-2.019445489571483621e-02,-5.345591001806898612e-03,-2.775557561562891351e-17,-2.775557561562891351e-17,0.000000000000000000e+00,-2.775557561562891351e-17,-2.775557561562891351e-17,-2.775557561562891351e-17,-2.775557561562891351e-17,-2.775557561562891351e-17,0.000000000000000000e+00,-2.775557561562891351e-17,-2.775557561562891351e-17,-2.775557561562891351e-17,-2.775557561562891351e-17,-2.775557561562891351e-17,-2.177833371106524529e-03,-1.960050033995852647e-02,-3.702316730881052842e-02,-5.517177873469805705e-02,-7.259444570355005899e-02,-9.001711267240206094e-02,-1.074397796412540629e-01,-1.255883910671415915e-01,-1.430110580359935935e-01,-1.604337250048455954e-01,-1.778563919736975973e-01,-1.960050033995850982e-01,-2.090720036262241066e-01,-2.090720036262241066e-01,-2.090720036262241066e-01
-2.090720036262241066e-01,-2.090720036262241066e-01,-2.090720036262241066e-01,-2.090720036262241066e-01,-2.055082762916861927e-01,-1.906594123977782274e-01,-1.764045030596265995e-01,-1.621495937214749439e-01,-1.478946843833233160e-01,-1.330458204894153507e-01,-1.187909111512637089e-01,-1.045360018131120811e-01,-9.028109247496042544e-02,-7.543222858105247397e-02,-6.117731924290084611e-02,-4.692240990474919049e-02,-3.207354601084119738e-02,-1.781863667268956952e-02,-3.563727334537913904e-03,-2.775557561562891351e-17,-2.775557561562891351e-17,-2.775557561562891351e-17,-2.775557561562891351e-17,-2.775557561562891351e-17,-2.775557561562891351e-17,0.000000000000000000e+00,-5.551115123125782702e-17,-2.775557561562891351e-17,-2.775557561562891351e-17,-2.775557561562891351e-17,-2.775557561562891351e-17,-2.775557561562891351e-17,-2.775557561562891351e-17,-4.355666742213021303e-03,-2.177833371106505100e-02,-3.992694513695255187e-02,-5.734961210580455382e-02,-7.477227907465655576e-02,-9.219494604350855771e-02,-1.103435574693960725e-01,-1.277662244382480883e-01,-1.451888914071000902e-01,-1.633375028329875911e-01,-1.807601698018395930e-01,-1.981828367706915950e-01,-2.090720036262241066e-01,-2.090720036262241066e-01
-2.090720036262241066e-01,-2.090720036262241066e-01,-2.090720036262241066e-01,-2.090720036262241066e-01,-2.090720036262241066e-01,-2.031324580686609260e-01,-1.888775487305092704e-01,-1.746226393923576425e-01,-1.603677300542060147e-01,-1.455188661602980493e-01,-1.312639568221463937e-01,-1.170090474839947381e-01,-1.021601835900868005e-01,-8.790527425193515876e-02,-7.365036491378351702e-02,-5.939545557563188916e-02,-4.454659168172389605e-02,-3.029168234357226819e-02,-1.603677300542064033e-02,-1.781863667269012463e-03,-2.775557561562891351e-17,-2.775557561562891351e-17,-2.775557561562891351e-17,-2.775557561562891351e-17,-2.775557561562891351e-17,-2.775557561562891351e-17,-2.775557561562891351e-17,-2.775557561562891351e-17,0.000000000000000000e+00,-2.775557561562891351e-17,-2.775557561562891351e-17,-2.775557561562891351e-17,-2.775557561562891351e-17,-5.684762050198632899e-03,-1.294420662055364990e-02,-3.036687358940565185e-02,-4.210477850805904865e-02,-5.952744547691105059e-02,-7.767605690279855146e-02,-9.509872387165056729e-02,-1.125213908405025692e-01,-1.299440578093545851e-01,-1.480926692352420859e-01,-1.655153362040940879e-01,-1.829380031729460898e-01,-2.010866145988335907e-01,-2.090720036262241066e-01
-2.090720036262241066e-01,-2.090720036262241066e-01,-2.090720036262241066e-01,-2.090720036262241066e-01,-2.090720036262241066e-01,-2.090720036262241066e-01,-2.013505944013919691e-01,-1.870956850632403135e-01,-1.722468211693323759e-01,-1.579919118311807202e-01,-1.437370024930290924e-01,-1.294820931548774368e-01,-1.146332292609694853e-01,-1.003783199228178574e-01,-8.612341058466620181e-02,-7.127454669075825033e-02,-5.701963735260659472e-02,-4.276472801445493910e-02,-2.850981867630331124e-02,-1.366095478239534589e-02,-2.775557561562891351e-17,-5.551115123125782702e-17,-2.775557561562891351e-17,-2.775557561562891351e-17,-2.775557561562891351e-17,-2.775557561562891351e-17,-2.775557561562891351e-17,-2.775557561562891351e-17,-2.775557561562891351e-17,0.000000000000000000e+00,-2.775557561562891351e-17,-2.775557561562891351e-17,-2.775557561562891351e-17,-5.684762050198632899e-03,-5.684762050198632899e-03,-1.512203999166014667e-02,-2.685994491031354348e-02,-4.428261187916554542e-02,-6.243122330505304629e-02,-7.985389027390504824e-02,-9.727655724275706406e-02,-1.154251686686445788e-01,-1.328478356374965808e-01,-1.502705026063485827e-01,-1.676931695752005846e-01,-1.858417810010881133e-01,-2.032644479699401152e-01
-2.090720036262241066e-01,-2.090720036262241066e-01,-2.090720036262241066e-01,-2.090720036262241066e-01,-2.090720036262241066e-01,-2.090720036262241066e-01,-2.090720036262241066e-01,-1.989747761783667024e-01,-1.847198668402150468e-01,-1.704649575020634189e-01,-1.562100481639117633e-01,-1.413611842700038257e-01,-1.271062749318521701e-01,-1.128513655937005283e-01,-9.859645625554888659e-02,-8.374759236164092124e-02,-6.949268302348929338e-02,-5.523777368533763776e-02,-4.098286434718598215e-02,-2.613400045327804455e-02,-1.187909111512638893e-02,-2.775557561562891351e-17,-2.775557561562891351e-17,-2.775557561562891351e-17,-2.775557561562891351e-17,-2.775557561562891351e-17,-5.551115123125782702e-17,-2.775557561562891351e-17,-2.775557561562891351e-17,-5.551115123125782702e-17,-2.775557561562891351e-17,-2.775557561562891351e-17,-2.775557561562891351e-17,-5.684762050198632899e-03,-5.684762050198632899e-03,-5.684762050198632899e-03,-1.161511131256803830e-02,-2.976372273845556693e-02,-4.718638970730754112e-02,-6.460905667615954306e-02,-8.203172364501154501e-02,-1.001803350708990736e-01,-1.176030020397510756e-01,-1.350256690086030775e-01,-1.531742804344906062e-01,-1.705969474033425803e-01,-1.880196143721946100e-01
-2.090720036262241066e-01,-2.090720036262241066e-01,-2.090720036262241066e-01,-2.090720036262241066e-01,-2.090720036262241066e-01,-2.090720036262241066e-01,-2.090720036262241066e-01,-2.090720036262241066e-01,-1.971929125110977454e-01,-1.829380031729460898e-01,-1.686830938347944620e-01,-1.538342299408864966e-01,-1.395793206027348687e-01,-1.253244112645832131e-01,-1.104755473706752478e-01,-9.622063803252361991e-02,-8.196572869437199205e-02,-6.771081935622030867e-02,-5.286195546231234332e-02,-3.860704612416074322e-02,-2.435213678600908760e-02,-1.009722744785743198e-02,-2.775557561562891351e-17,-2.775557561562891351e-17,-2.775557561562891351e-17,-5.551115123125782702e-17,-2.775557561562891351e-17,-2.775557561562891351e-17,-2.775557561562891351e-17,-2.775557561562891351e-17,-2.775557561562891351e-17,-2.775557561562891351e-17,-2.775557561562891351e-17,-2.775557561562891351e-17,-2.775557561562891351e-17,-2.775557561562891351e-17,0.000000000000000000e+00,-1.451888914071003400e-02,-3.194155610956203595e-02,-4.936422307841403789e-02,-6.751283450430156652e-02,-8.493550147315356846e-02,-1.023581684420055565e-01,-1.197808354108575862e-01,-1.379294468367450732e-01,-1.553521138055971029e-01,-1.727747807744490771e-01
-2.090720036262241066e-01,-2.090720036262241066e-01,-2.090720036262241066e-01,-2.090720036262241066e-01,-2.090720036262241066e-01,-2.090720036262241066e-01,-2.090720036262241066e-01,-2.090720036262241066e-01,-2.090720036262241066e-01,-1.954110488438287885e-01,-1.805621849499208231e-01,-1.663072756117691675e-01,-1.520523662736175396e-01,-1.377974569354659118e-01,-1.229485930415579464e-01,-1.086936837034063047e-01,-9.443877436525467683e-02,-7.958991047134669761e-02,-6.533500113319506974e-02,-5.108009179504341413e-02,-3.682518245689175851e-02,-2.197631856298382091e-02,-7.721409224832193052e-03,-2.775557561562891351e-17,-2.775557561562891351e-17,-2.775557561562891351e-17,-2.775557561562891351e-17,-2.775557561562891351e-17,0.000000000000000000e+00,-5.551115123125782702e-17,-2.775557561562891351e-17,-2.775557561562891351e-17,-2.775557561562891351e-17,-2.775557561562891351e-17,-2.775557561562891351e-17,-2.775557561562891351e-17,-2.775557561562891351e-17,0.000000000000000000e+00,-1.669672251181655853e-02,-3.411938948066856048e-02,-5.226800090655606135e-02,-6.969066787540806329e-02,-8.711333484426005136e-02,-1.052619462701475661e-01,-1.226846132389995819e-01,-1.401072802078515700e-01,-1.575299471767035997e-01
-2.090720036262241066e-01,-2.090720036262241066e-01,-2.090720036262241066e-01,-2.090720036262241066e-01,-2.090720036262241066e-01,-2.090720036262241066e-01,-2.090720036262241066e-01,-2.090720036262241066e-01,-2.090720036262241066e-01,-2.078840945147114594e-01,-1.930352306208035218e-01,-1.787803212826518662e-01,-1.645254119445002106e-01,-1.496765480505922730e-01,-1.354216387124406173e-01,-1.211667293742889895e-01,-1.069118200361373477e-01,-9.206295614222939627e-02,-7.780804680407774065e-02,-6.355313746592611279e-02,-4.929822812777445717e-02,-3.444936423386649182e-02,-2.019445489571483621e-02,-5.939545557563208344e-03,-2.775557561562891351e-17,-2.775557561562891351e-17,0.000000000000000000e+00,-2.775557561562891351e-17,-2.775557561562891351e-17,-2.775557561562891351e-17,-2.775557561562891351e-17,-5.551115123125782702e-17,-2.775557561562891351e-17,-2.775557561562891351e-17,-2.775557561562891351e-17,-2.775557561562891351e-17,-2.775557561562891351e-17,-2.775557561562891351e-17,-1.451888914071025605e-03,-1.960050033995855423e-02,-3.702316730881052842e-02,-5.444583427766255812e-02,-7.186850124651456007e-02,-9.001711267240206094e-02,-1.074397796412540629e-01,-1.248624466101060787e-01,-1.430110580359935935e-01
-2.090720036262241066e-01,-2.090720036262241066e-01,-2.090720036262241066e-01,-2.090720036262241066e-01,-2.090720036262241066e-01,-2.090720036262241066e-01,-2.090720036262241066e-01,-2.090720036262241066e-01,-2.090720036262241066e-01,-2.090720036262241066e-01,-2.055082762916861927e-01,-1.912533669535345648e-01,-1.769984576153829092e-01,-1.621495937214749439e-01,-1.478946843833233160e-01,-1.336397750451716882e-01,-1.187909111512637089e-01,-1.045360018131120811e-01,-9.028109247496043932e-02,-7.602618313680878370e-02,-6.117731924290081835e-02,-4.692240990474919049e-02,-3.266750056659753487e-02,-1.841259122844590701e-02,-3.563727334537941660e-03,-2.775557561562891351e-17,-2.775557561562891351e-17,-2.775557561562891351e-17,0.000000000000000000e+00,0.000000000000000000e+00,-2.775557561562891351e-17,-2.775557561562891351e-17,-2.775557561562891351e-17,-2.775557561562891351e-17,-2.775557561562891351e-17,-2.775557561562891351e-17,-2.775557561562891351e-17,-2.775557561562891351e-17,-2.775557561562891351e-17,-4.355666742213021303e-03,-2.177833371106507876e-02,-3.920100067991705295e-02,-5.734961210580455382e-02,-7.477227907465658352e-02,-9.219494604350855771e-02,-1.096176130123605735e-01,-1.277662244382480883e-01
-2.090720036262241066e-01,-2.090720036262241066e-01,-2.090720036262241066e-01,-2.090720036262241066e-01,-2.090720036262241066e-01,-2.090720036262241066e-01,-2.090720036262241066e-01,-2.090720036262241066e-01,-2.090720036262241066e-01,-2.090720036262241066e-01,-2.090720036262241066e-01,-2.037264126244172358e-01,-1.888775487305092704e-01,-1.746226393923576425e-01,-1.603677300542060147e-01,-1.461128207160543591e-01,-1.312639568221463937e-01,-1.170090474839947520e-01,-1.027541381458431102e-01,-8.849922880769148237e-02,-7.365036491378351702e-02,-5.939545557563188916e-02,-4.514054623748023354e-02,-3.029168234357226819e-02,-1.603677300542064033e-02,-1.781863667269012463e-03,-2.775557561562891351e-17,-2.775557561562891351e-17,-2.775557561562891351e-17,-2.775557561562891351e-17,-2.775557561562891351e-17,-5.551115123125782702e-17,-2.775557561562891351e-17,0.000000000000000000e+00,-5.551115123125782702e-17,-2.775557561562891351e-17,-5.551115123125782702e-17,-2.775557561562891351e-17,-2.775557561562891351e-17,-2.775557561562891351e-17,-6.533500113319518077e-03,-2.395616708217154778e-02,-4.210477850805904865e-02,-5.952744547691105059e-02,-7.695011244576308029e-02,-9.509872387165055341e-02,-1.125213908405025831e-01
-2.090720036262241066e-01,-2.090720036262241066e-01,-2.090720036262241066e-01,-2.090720036262241066e-01,-2.090720036262241066e-01,-2.090720036262241066e-01,-2.090720036262241066e-01,-2.090720036262241066e-01,-2.090720036262241066e-01,-2.090720036262241066e-01,-2.090720036262241066e-01,-2.090720036262241066e-01,-2.013505944013919691e-01,-1.870956850632403135e-01,-1.728407757250886856e-01,-1.579919118311807202e-01,-1.437370024930290924e-01,-1.294820931548774368e-01,-1.152271838167257950e-01,-1.003783199228178435e-01,-8.612341058466621568e-02,-7.186850124651456007e-02,-5.761359190836293220e-02,-4.276472801445493910e-02,-2.850981867630331124e-02,-1.425490933815168337e-02,-2.775557561562891351e-17,-2.775557561562891351e-17,-2.775557561562891351e-17,-2.775557561562891351e-17,-2.775557561562891351e-17,-2.775557561562891351e-17,-2.775557561562891351e-17,-2.775557561562891351e-17,-2.775557561562891351e-17,-2.775557561562891351e-17,-2.775557561562891351e-17,-2.775557561562891351e-17,-2.775557561562891351e-17,-2.775557561562891351e-17,-2.775557561562891351e-17,-9.437277941461513775e-03,-2.685994491031354348e-02,-4.428261187916554542e-02,-6.170527884801754737e-02,-7.985389027390504824e-02,-9.727655724275706406e-02
-2.090720036262241066e-01,-2.090720036262241066e-01,-2.090720036262241066e-01,-2.090720036262241066e-01,-2.090720036262241066e-01,-2.090720036262241066e-01,-2.090720036262241066e-01,-2.090720036262241066e-01,-2.090720036262241066e-01,-2.090720036262241066e-01,-2.090720036262241066e-01,-2.090720036262241066e-01,-2.090720036262241066e-01,-1.995687307341230121e-01,-1.853138213959713565e-01,-1.704649575020634189e-01,-1.562100481639117633e-01,-1.419551388257601354e-01,-1.277002294876084798e-01,-1.128513655937005283e-01,-9.859645625554890047e-02,-8.434154691739724485e-02,-6.949268302348929338e-02,-5.523777368533763776e-02,-4.098286434718598215e-02,-2.672795500903435428e-02,-1.187909111512641669e-02,-2.775557561562891351e-17,-2.775557561562891351e-17,-2.775557561562891351e-17,-5.551115123125782702e-17,-2.775557561562891351e-17,-2.775557561562891351e-17,-2.775557561562891351e-17,-2.775557561562891351e-17,-2.775557561562891351e-17,-5.551115123125782702e-17,-2.775557561562891351e-17,-5.551115123125782702e-17,-2.775557561562891351e-17,-2.775557561562891351e-17,-2.775557561562891351e-17,-1.161511131256803830e-02,-2.903777828142004025e-02,-4.718638970730754112e-02,-6.460905667615957082e-02,-8.203172364501157277e-02
-2.090720036262241066e-01,-2.090720036262241066e-01,-2.090720036262241066e-01,-2.090720036262241066e-01,-2.090720036262241066e-01,-2.090720036262241066e-01,-2.090720036262241066e-01,-2.090720036262241066e-01,-2.090720036262241066e-01,-2.090720036262241066e-01,-2.090720036262241066e-01,-2.090720036262241066e-01,-2.090720036262241066e-01,-2.090720036262241066e-01,-1.971929125110977454e-01,-1.829380031729460898e-01,-1.686830938347944620e-01,-1.544281844966428063e-01,-1.395793206027348687e-01,-1.253244112645832131e-01,-1.110695019264315714e-01,-9.681459258827994352e-02,-8.196572869437196429e-02,-6.771081935622030867e-02,-5.345591001806868081e-02,-3.860704612416071546e-02,-2.435213678600905984e-02,-1.009722744785743198e-02,-2.775557561562891351e-17,-2.775557561562891351e-17,-5.551115123125782702e-17,-2.775557561562891351e-17,0.000000000000000000e+00,-2.775557561562891351e-17,-2.775557561562891351e-17,-2.775557561562891351e-17,-2.775557561562891351e-17,-2.775557561562891351e-17,0.000000000000000000e+00,-2.775557561562891351e-17,0.000000000000000000e+00,-5.551115123125782702e-17,-2.775557561562891351e-17,-1.379294468367456283e-02,-3.194155610956203595e-02,-4.936422307841406565e-02,-6.678689004726606759e-02
-2.090720036262241066e-01,-2.090720036262241066e-01,-2.090720036262241066e-01,-2.090720036262241066e-01,-2.090720036262241066e-01,-2.090720036262241066e-01,-2.090720036262241066e-01,-2.090720036262241066e-01,-2.090720036262241066e-01,-2.090720036262241066e-01,-2.090720036262241066e-01,-2.090720036262241066e-01,-2.090720036262241066e-01,-2.090720036262241066e-01,-2.090720036262241066e-01,-1.954110488438287885e-01,-1.811561395056771329e-01,-1.663072756117691953e-01,-1.520523662736175396e-01,-1.377974569354659118e-01,-1.235425475973142562e-01,-1.086936837034062908e-01,-9.443877436525467683e-02,-8.018386502710300734e-02,-6.592895568895137948e-02,-5.108009179504341413e-02,-3.682518245689175851e-02,-2.257027311874013065e-02,-7.721409224832193052e-03,-5.551115123125782702e-17,-2.775557561562891351e-17,0.000000000000000000e+00,-2.775557561562891351e-17,-2.775557561562891351e-17,-2.775557561562891351e-17,-2.775557561562891351e-17,0.000000000000000000e+00,-2.775557561562891351e-17,-2.775557561562891351e-17,0.000000000000000000e+00,-2.775557561562891351e-17,-2.775557561562891351e-17,-5.551115123125782702e-17,-5.551115123125782702e-17,-1.669672251181650302e-02,-3.411938948066856048e-02,-5.154205644952056242e-02
-2.090720036262241066e-01,-2.090720036262241066e-01,-2.090720036262241066e-01,-2.090720036262241066e-01,-2.090720036262241066e-01,-2.090720036262241066e-01,-2.090720036262241066e-01,-2.090720036262241066e-01,-2.090720036262241066e-01,-2.090720036262241066e-01,-2.090720036262241066e-01,-2.090720036262241066e-01,-2.090720036262241066e-01,-2.090720036262241066e-01,-2.090720036262241066e-01,-2.078840945147114594e-01,-1.936291851765598315e-01,-1.787803212826518662e-01,-1.645254119445002106e-01,-1.502705026063485827e-01,-1.360155932681969548e-01,-1.211667293742889756e-01,-1.069118200361373477e-01,-9.265691069798570600e-02,-7.780804680407771290e-02,-6.355313746592608504e-02,-4.929822812777445717e-02,-3.504331878962282931e-02,-2.019445489571483621e-02,-5.939545557563180589e-03,-2.775557561562891351e-17,-2.775557561562891351e-17,-2.775557561562891351e-17,-5.551115123125782702e-17,-2.775557561562891351e-17,-2.775557561562891351e-17,-2.775557561562891351e-17,-2.775557561562891351e-17,-2.775557561562891351e-17,-2.775557561562891351e-17,-2.775557561562891351e-17,-2.775557561562891351e-17,-2.775557561562891351e-17,-2.775557561562891351e-17,-1.451888914071025605e-03,-1.887455588292302755e-02,-3.702316730881052842e-02
-2.090720036262241066e-01,-2.090720036262241066e-01,-2.090720036262241066e-01,-2.090720036262241066e-01,-2.090720036262241066e-01,-2.090720036262241066e-01,-2.090720036262241066e-01,-2.090720036262241066e-01,-2.090720036262241066e-01,-2.090720036262241066e-01,-2.090720036262241066e-01,-2.090720036262241066e-01,-2.090720036262241066e-01,-2.090720036262241066e-01,-2.090720036262241066e-01,-2.090720036262241066e-01,-2.055082762916861927e-01,-1.912533669535345648e-01,-1.769984576153829092e-01,-1.627435482772312814e-01,-1.478946843833233160e-01,-1.336397750451716604e-01,-1.193848657070200325e-01,-1.051299563688683908e-01,-9.028109247496043932e-02,-7.602618313680878370e-02,-6.177127379865715584e-02,-4.692240990474919049e-02,-3.266750056659753487e-02,-1.841259122844587925e-02,-4.157681890294251392e-03,-2.775557561562891351e-17,-2.775557561562891351e-17,-2.775557561562891351e-17,0.000000000000000000e+00,-2.775557561562891351e-17,-2.775557561562891351e-17,-2.775557561562891351e-17,-2.775557561562891351e-17,-2.775557561562891351e-17,-2.775557561562891351e-17,-2.775557561562891351e-17,-5.551115123125782702e-17,-2.775557561562891351e-17,-2.775557561562891351e-17,-3.629722285177522378e-03,-2.177833371106502325e-02
-2.090720036262241066e-01,-2.090720036262241066e-01,-2.090720036262241066e-01,-2.090720036262241066e-01,-2.090720036262241066e-01,-2.090720036262241066e-01,-2.090720036262241066e-01,-2.090720036262241066e-01,-2.090720036262241066e-01,-2.090720036262241066e-01,-2.090720036262241066e-01,-2.090720036262241066e-01,-2.090720036262241066e-01,-2.090720036262241066e-01,-2.090720036262241066e-01,-2.090720036262241066e-01,-2.090720036262241066e-01,-2.037264126244172358e-01,-1.894715032862656079e-01,-1.746226393923576425e-01,-1.603677300542060147e-01,-1.461128207160543591e-01,-1.318579113779027034e-01,-1.170090474839947658e-01,-1.027541381458431102e-01,-8.849922880769148237e-02,-7.424431946953982675e-02,-5.939545557563188916e-02,-4.514054623748020578e-02,-3.088563689932860568e-02,-1.663072756117695006e-02,-1.781863667269012463e-03,-2.775557561562891351e-17,-2.775557561562891351e-17,-2.775557561562891351e-17,-2.775557561562891351e-17,-2.775557561562891351e-17,-5.551115123125782702e-17,-2.775557561562891351e-17,-2.775557561562891351e-17,-2.775557561562891351e-17,-2.775557561562891351e-17,-2.775557561562891351e-17,-2.775557561562891351e-17,0.000000000000000000e+00,-2.775557561562891351e-17,-7.615611069588049120e-02
-2.090720036262241066e-01,-2.090720036262241066e-01,-2.090720036262241066e-01,-2.090720036262241066e-01,-2.090720036262241066e-01,-2.090720036262241066e-01,-2.090720036262241066e-01,-2.090720036262241066e-01,-2.090720036262241066e-01,-2.090720036262241066e-01,-2.090720036262241066e-01,-2.090720036262241066e-01,-2.090720036262241066e-01,-2.090720036262241066e-01,-2.090720036262241066e-01,-2.090720036262241066e-01,-2.090720036262241066e-01,-2.090720036262241066e-01,-2.019445489571482788e-01,-1.870956850632403135e-01,-1.728407757250886856e-01,-1.585858663869370577e-01,-1.443309570487854021e-01,-1.294820931548774368e-01,-1.152271838167257950e-01,-1.009722744785741672e-01,-8.612341058466620181e-02,-7.186850124651453231e-02,-5.761359190836290445e-02,-4.335868257021127659e-02,-2.850981867630331124e-02,-1.425490933815168337e-02,-2.775557561562891351e-17,-5.551115123125782702e-17,-2.775557561562891351e-17,-2.775557561562891351e-17,-2.775557561562891351e-17,-2.775557561562891351e-17,-2.775557561562891351e-17,-2.775557561562891351e-17,-2.775557561562891351e-17,0.000000000000000000e+00,-2.775557561562891351e-17,0.000000000000000000e+00,-2.775557561562891351e-17,-9.146900158647305878e-02,-2.090720036262241066e-01
-2.090720036262241066e-01,-2.090720036262241066e-01,-2.090720036262241066e-01,-2.090720036262241066e-01,-2.090720036262241066e-01,-2.090720036262241066e-01,-2.090720036262241066e-01,-2.090720036262241066e-01,-2.090720036262241066e-01,-2.090720036262241066e-01,-2.090720036262241066e-01,-2.090720036262241066e-01,-2.090720036262241066e-01,-2.090720036262241066e-01,-2.090720036262241066e-01,-2.090720036262241066e-01,-2.090720036262241066e-01,-2.090720036262241066e-01,-2.090720036262241066e-01,-1.995687307341230121e-01,-1.853138213959713565e-01,-1.710589120578197286e-01,-1.562100481639117633e-01,-1.419551388257601354e-01,-1.277002294876084798e-01,-1.134453201494568381e-01,-9.859645625554888659e-02,-8.434154691739725873e-02,-7.008663757924560311e-02,-5.523777368533763776e-02,-4.098286434718600990e-02,-2.672795500903435428e-02,-1.247304567088272642e-02,-2.775557561562891351e-17,0.000000000000000000e+00,-2.775557561562891351e-17,-2.775557561562891351e-17,-2.775557561562891351e-17,-5.551115123125782702e-17,-5.551115123125782702e-17,-2.775557561562891351e-17,-2.775557561562891351e-17,-2.775557561562891351e-17,-5.551115123125782702e-17,-1.110695019264315714e-01,-2.090720036262241066e-01,-2.090720036262241066e-01
-2.090720036262241066e-01,-2.090720036262241066e-01,-2.090720036262241066e-01,-2.090720036262241066e-01,-2.090720036262241066e-01,-2.090720036262241066e-01,-2.090720036262241066e-01,-2.090720036262241066e-01,-2.090720036262241066e-01,-2.090720036262241066e-01,-2.090720036262241066e-01,-2.090720036262241066e-01,-2.090720036262241066e-01,-2.090720036262241066e-01,-2.090720036262241066e-01,-2.090720036262241066e-01,-2.090720036262241066e-01,-2.090720036262241066e-01,-2.090720036262241066e-01,-2.090720036262241066e-01,-1.977868670668540552e-01,-1.835319577287024273e-01,-1.686830938347944620e-01,-1.544281844966428063e-01,-1.401732751584911785e-01,-1.253244112645832131e-01,-1.110695019264315714e-01,-9.681459258827994352e-02,-8.255968325012827402e-02,-6.771081935622033643e-02,-5.345591001806868081e-02,-3.920100067991702519e-02,-2.494609134176539733e-02,-1.009722744785743198e-02,-2.775557561562891351e-17,0.000000000000000000e+00,-2.775557561562891351e-17,-2.775557561562891351e-17,-2.775557561562891351e-17,-2.775557561562891351e-17,-2.775557561562891351e-17,-2.775557561562891351e-17,-2.775557561562891351e-17,-1.372035023797095743e-01,-2.090720036262241066e-01,-2.090720036262241066e-01,-2.090720036262241066e-01
-2.090720036262241066e-01,-2.090720036262241066e-01,-2.090720036262241066e-01,-2.090720036262241066e-01,-2.090720036262241066e-01,-2.090720036262241066e-01,-2.090720036262241066e-01,-2.090720036262241066e-01,-2.090720036262241066e-01,-2.090720036262241066e-01,-2.090720036262241066e-01,-2.090720036262241066e-01,-2.090720036262241066e-01,-2.090720036262241066e-01,-2.090720036262241066e-01,-2.090720036262241066e-01,-2.090720036262241066e-01,-2.090720036262241066e-01,-2.090720036262241066e-01,-2.090720036262241066e-01,-2.090720036262241066e-01,-1.954110488438287885e-01,-1.811561395056771329e-01,-1.669012301675255050e-01,-1.526463208293738771e-01,-1.377974569354659118e-01,-1.235425475973142562e-01,-1.092876382591626283e-01,-9.443877436525466296e-02,-8.018386502710300734e-02,-6.592895568895137948e-02,-5.167404635079972386e-02,-3.682518245689178626e-02,-2.257027311874013065e-02,-8.315363780588475029e-03,-2.775557561562891351e-17,-2.775557561562891351e-17,-2.775557561562891351e-17,-2.775557561562891351e-17,-2.775557561562891351e-17,-2.775557561562891351e-17,-1.960050033995855423e-02,-1.568040027196681008e-01,-2.090720036262241066e-01,-2.090720036262241066e-01,-2.090720036262241066e-01,-2.090720036262241066e-01
-2.090720036262241066e-01,-2.090720036262241066e-01,-2.090720036262241066e-01,-2.090720036262241066e-01,-2.090720036262241066e-01,-2.090720036262241066e-01,-2.090720036262241066e-01,-2.090720036262241066e-01,-2.090720036262241066e-01,-2.090720036262241066e-01,-2.090720036262241066e-01,-2.090720036262241066e-01,-2.090720036262241066e-01,-2.090720036262241066e-01,-2.090720036262241066e-01,-2.090720036262241066e-01,-2.090720036262241066e-01,-2.090720036262241066e-01,-2.090720036262241066e-01,-2.090720036262241066e-01,-2.090720036262241066e-01,-2.078840945147114594e-01,-1.936291851765598315e-01,-1.793742758384082037e-01,-1.645254119445002106e-01,-1.502705026063485827e-01,-1.360155932681969548e-01,-1.217606839300452992e-01,-1.069118200361373339e-01,-9.265691069798570600e-02,-7.840200135983405039e-02,-6.414709202168242252e-02,-4.929822812777445717e-02,-3.504331878962282931e-02,-2.078840945147117369e-02,-5.939545557563236100e-03,-2.775557561562891351e-17,-2.775557561562891351e-17,-2.775557561562891351e-17,-2.775557561562891351e-17,-4.573450079323654327e-02,-1.829380031729460898e-01,-2.090720036262241066e-01,-2.090720036262241066e-01,-2.090720036262241066e-01,-2.090720036262241066e-01,-2.090720036262241066e-01
-2.090720036262241066e-01,-2.090720036262241066e-01,-2.090720036262241066e-01,-2.090720036262241066e-01,-2.090720036262241066e-01,-2.090720036262241066e-01,-2.090720036262241066e-01,-2.090720036262241066e-01,-2.090720036262241066e-01,-2.090720036262241066e-01,-2.090720036262241066e-01,-2.090720036262241066e-01,-2.090720036262241066e-01,-2.090720036262241066e-01,-2.090720036262241066e-01,-2.090720036262241066e-01,-2.090720036262241066e-01,-2.090720036262241066e-01,-2.090720036262241066e-01,-2.090720036262241066e-01,-2.090720036262241066e-01,-2.090720036262241066e-01,-2.061022308474425024e-01,-1.918473215092908746e-01,-1.769984576153829092e-01,-1.627435482772312536e-01,-1.484886389390796257e-01,-1.336397750451716604e-01,-1.193848657070200187e-01,-1.051299563688683769e-01,-9.087504703071676293e-02,-7.602618313680878370e-02,-6.177127379865712808e-02,-4.751636446050550022e-02,-3.326145512235384460e-02,-1.841259122844587925e-02,-4.157681890294279148e-03,0.000000000000000000e+00,-2.775557561562891351e-17,-6.533500113319504199e-02,-2.025385035129046163e-01,-2.090720036262241066e-01,-2.090720036262241066e-01,-2.090720036262241066e-01,-2.090720036262241066e-01,-2.090720036262241066e-01,-2.090720036262241066e-01
-2.090720036262241066e-01,-2.090720036262241066e-01,-2.090720036262241066e-01,-2.090720036262241066e-01,-2.090720036262241066e-01,-2.090720036262241066e-01,-2.090720036262241066e-01,-2.090720036262241066e-01,-2.090720036262241066e-01,-2.090720036262241066e-01,-2.090720036262241066e-01,-2.090720036262241066e-01,-2.090720036262241066e-01,-2.090720036262241066e-01,-2.090720036262241066e-01,-2.090720036262241066e-01,-2.090720036262241066e-01,-2.090720036262241066e-01,-2.090720036262241066e-01,-2.090720036262241066e-01,-2.090720036262241066e-01,-2.090720036262241066e-01,-2.090720036262241066e-01,-2.037264126244172358e-01,-1.894715032862656079e-01,-1.752165939481139523e-01,-1.609616846099623244e-01,-1.461128207160543591e-01,-1.318579113779027034e-01,-1.176030020397510478e-01,-1.033480927015994338e-01,-8.849922880769148237e-02,-7.424431946953982675e-02,-5.998941013138822664e-02,-4.514054623748023354e-02,-3.088563689932857792e-02,-1.663072756117692230e-02,-2.375818223025294440e-03,-9.146900158647305878e-02,-2.090720036262241066e-01,-2.090720036262241066e-01,-2.090720036262241066e-01,-2.090720036262241066e-01,-2.090720036262241066e-01,-2.090720036262241066e-01,-2.090720036262241066e-01,-2.090720036262241066e-01
-2.090720036262241066e-01,-2.090720036262241066e-01,-2.090720036262241066e-01,-2.090720036262241066e-01,-2.090720036262241066e-01,-2.090720036262241066e-01,-2.090720036262241066e-01,-2.090720036262241066e-01,-2.090720036262241066e-01,-2.090720036262241066e-01,-2.090720036262241066e-01,-2.090720036262241066e-01,-2.090720036262241066e-01,-2.090720036262241066e-01,-2.090720036262241066e-01,-2.090720036262241066e-01,-2.090720036262241066e-01,-2.090720036262241066e-01,-2.090720036262241066e-01,-2.090720036262241066e-01,-2.090720036262241066e-01,-2.090720036262241066e-01,-2.090720036262241066e-01,-2.090720036262241066e-01,-2.019445489571482788e-01,-1.876896396189966509e-01,-1.728407757250886856e-01,-1.585858663869370577e-01,-1.443309570487854021e-01,-1.300760477106337465e-01,-1.152271838167258089e-01,-1.009722744785741672e-01,-8.671736514042252542e-02,-7.246245580227086980e-02,-5.761359190836290445e-02,-4.335868257021127659e-02,-2.910377323205962097e-02,-1.177514906786901600e-01,-2.090720036262241066e-01,-2.090720036262241066e-01,-2.090720036262241066e-01,-2.090720036262241066e-01,-2.090720036262241066e-01,-2.090720036262241066e-01,-2.090720036262241066e-01,-2.090720036262241066e-01,-2.090720036262241066e-01
-2.090720036262241066e-01,-2.090720036262241066e-01,-2.090720036262241066e-01,-2.090720036262241066e-01,-2.090720036262241066e-01,-2.090720036262241066e-01,-2.090720036262241066e-01,-2.090720036262241066e-01,-2.090720036262241066e-01,-2.090720036262241066e-01,-2.090720036262241066e-01,-2.090720036262241066e-01,-2.090720036262241066e-01,-2.090720036262241066e-01,-2.090720036262241066e-01,-2.090720036262241066e-01,-2.090720036262241066e-01,-2.090720036262241066e-01,-2.090720036262241066e-01,-2.090720036262241066e-01,-2.090720036262241066e-01,-2.090720036262241066e-01,-2.090720036262241066e-01,-2.090720036262241066e-01,-2.090720036262241066e-01,-2.001626852898793218e-01,-1.853138213959713565e-01,-1.710589120578197286e-01,-1.568040027196681008e-01,-1.419551388257601077e-01,-1.277002294876084798e-01,-1.134453201494568519e-01,-9.919041081130521020e-02,-8.434154691739723098e-02,-7.008663757924560311e-02,-5.583172824109394750e-02,-1.514955338775960114e-01,-2.090720036262241066e-01,-2.090720036262241066e-01,-2.090720036262241066e-01,-2.090720036262241066e-01,-2.090720036262241066e-01,-2.090720036262241066e-01,-2.090720036262241066e-01,-2.090720036262241066e-01,-2.090720036262241066e-01,-2.090720036262241066e-01
-2.090720036262241066e-01,-2.090720036262241066e-01,-2.090720036262241066e-01,-2.090720036262241066e-01,-2.090720036262241066e-01,-2.090720036262241066e-01,-2.090720036262241066e-01,-2.090720036262241066e-01,-2.090720036262241066e-01,-2.090720036262241066e-01,-2.090720036262241066e-01,-2.090720036262241066e-01,-2.090720036262241066e-01,-2.090720036262241066e-01,-2.090720036262241066e-01,-2.090720036262241066e-01,-2.090720036262241066e-01,-2.090720036262241066e-01,-2.090720036262241066e-01,-2.090720036262241066e-01,-2.090720036262241066e-01,-2.090720036262241066e-01,-2.090720036262241066e-01,-2.090720036262241066e-01,-2.090720036262241066e-01,-2.090720036262241066e-01,-1.977868670668540552e-01,-1.835319577287024273e-01,-1.692770483905507717e-01,-1.544281844966428063e-01,-1.401732751584911785e-01,-1.259183658203395506e-01,-1.116634564821878950e-01,-9.681459258827994352e-02,-9.442021328538727221e-02,-1.738801961976622346e-01,-2.090720036262241066e-01,-2.090720036262241066e-01,-2.090720036262241066e-01,-2.090720036262241066e-01,-2.090720036262241066e-01,-2.090720036262241066e-01,-2.090720036262241066e-01,-2.090720036262241066e-01,-2.090720036262241066e-01,-2.090720036262241066e-01,-2.090720036262241066e-01
-2.090720036262241066e-01,-2.090720036262241066e-01,-2.090720036262241066e-01,-2.090720036262241066e-01,-2.090720036262241066e-01,-2.090720036262241066e-01,-2.090720036262241066e-01,-2.090720036262241066e-01,-2.090720036262241066e-01,-2.090720036262241066e-01,-2.090720036262241066e-01,-2.090720036262241066e-01,-2.090720036262241066e-01,-2.090720036262241066e-01,-2.090720036262241066e-01,-2.090720036262241066e-01,-2.090720036262241066e-01,-2.090720036262241066e-01,-2.090720036262241066e-01,-2.090720036262241066e-01,-2.090720036262241066e-01,-2.090720036262241066e-01,-2.090720036262241066e-01,-2.090720036262241066e-01,-2.090720036262241066e-01,-2.090720036262241066e-01,-2.090720036262241066e-01,-1.960050033995850982e-01,-1.811561395056771329e-01,-1.669012301675255050e-01,-1.526463208293738494e-01,-1.383914114912222215e-01,-1.235425475973142562e-01,-1.311154681832073232e-01,-1.912533669535345648e-01,-2.090720036262241066e-01,-2.090720036262241066e-01,-2.090720036262241066e-01,-2.090720036262241066e-01,-2.090720036262241066e-01,-2.090720036262241066e-01,-2.090720036262241066e-01,-2.090720036262241066e-01,-2.090720036262241066e-01,-2.090720036262241066e-01,-2.090720036262241066e-01,-2.090720036262241066e-01
-2.090720036262241066e-01,-2.090720036262241066e-01,-2.090720036262241066e-01,-2.090720036262241066e-01,-2.090720036262241066e-01,-2.090720036262241066e-01,-2.090720036262241066e-01,-2.090720036262241066e-01,-2.090720036262241066e-01,-2.090720036262241066e-01,-2.090720036262241066e-01,-2.090720036262241066e-01,-2.090720036262241066e-01,-2.090720036262241066e-01,-2.090720036262241066e-01,-2.090720036262241066e-01,-2.090720036262241066e-01,-2.090720036262241066e-01,-2.090720036262241066e-01,-2.090720036262241066e-01,-2.090720036262241066e-01,-2.090720036262241066e-01,-2.090720036262241066e-01,-2.090720036262241066e-01,-2.090720036262241066e-01,-2.090720036262241066e-01,-2.090720036262241066e-01,-2.084780490704677969e-01,-1.936291851765598315e-01,-1.793742758384082037e-01,-1.651193665002565480e-01,-1.502705026063486105e-01,-1.588457215050804172e-01,-2.063435248857185267e-01,-2.090720036262241066e-01,-2.090720036262241066e-01,-2.090720036262241066e-01,-2.090720036262241066e-01,-2.090720036262241066e-01,-2.090720036262241066e-01,-2.090720036262241066e-01,-2.090720036262241066e-01,-2.090720036262241066e-01,-2.090720036262241066e-01,-2.090720036262241066e-01,-2.090720036262241066e-01,-2.090720036262241066e-01
