1.048563600836587839e-01,1.048563600836587839e-01,1.048563600836587839e-01,1.048563600836587839e-01,1.048563600836587839e-01,1.048563600836587839e-01,1.048563600836587839e-01,1.048563600836587839e-01,1.048563600836587839e-01,1.048563600836587839e-01,1.048563600836587839e-01,1.048563600836587839e-01,1.048563600836587839e-01,1.048563600836587839e-01,1.048563600836587839e-01,1.048563600836587839e-01,1.048563600836587839e-01,1.301137314906714026e-02,-7.883361378552450338e-02,-1.798630994135753114e-01,-1.890475981070344758e-01,-1.890475981070344758e-01,-1.890475981070344758e-01,-1.890475981070344758e-01,-1.890475981070344758e-01,-1.890475981070344758e-01,-1.890475981070344758e-01,-1.890475981070344758e-01,-1.890475981070344758e-01,-1.890475981070344758e-01,-1.890475981070344758e-01,-1.706786007201161470e-01,-3.291112031822868156e-02,1.048563600836587839e-01,1.048563600836587839e-01,1.048563600836587839e-01,1.048563600836587839e-01,1.048563600836587839e-01,1.048563600836587839e-01,1.048563600836587839e-01,1.048563600836587839e-01,1.048563600836587839e-01,1.048563600836587839e-01,1.048563600836587839e-01,1.048563600836587839e-01,1.048563600836587839e-01,1.048563600836587839e-01
1.048563600836587839e-01,1.048563600836587839e-01,1.048563600836587839e-01,1.048563600836587839e-01,1.048563600836587839e-01,1.048563600836587839e-01,1.048563600836587839e-01,1.048563600836587839e-01,1.048563600836587839e-01,1.048563600836587839e-01,1.048563600836587839e-01,1.048563600836587839e-01,1.048563600836587839e-01,1.048563600836587839e-01,3.138037053598546899e-02,-6.964911509206533902e-02,-1.614941020266569827e-01,-1.890475981070344758e-01,-1.890475981070344758e-01,-1.890475981070344758e-01,-1.890475981070344758e-01,-1.890475981070344758e-01,-1.890475981070344758e-01,-1.890475981070344758e-01,-1.890475981070344758e-01,-1.890475981070344758e-01,-1.890475981070344758e-01,-1.890475981070344758e-01,-1.890475981070344758e-01,-1.890475981070344758e-01,-1.890475981070344758e-01,-1.890475981070344758e-01,-7.883361378552450338e-02,5.893386661636296209e-02,1.048563600836587839e-01,1.048563600836587839e-01,1.048563600836587839e-01,1.048563600836587839e-01,1.048563600836587839e-01,1.048563600836587839e-01,1.048563600836587839e-01,1.048563600836587839e-01,1.048563600836587839e-01,1.048563600836587839e-01,1.048563600836587839e-01,1.048563600836587839e-01,1.048563600836587839e-01
1.048563600836587839e-01,1.048563600836587839e-01,1.048563600836587839e-01,1.048563600836587839e-01,1.048563600836587839e-01,1.048563600836587839e-01,1.048563600836587839e-01,1.048563600836587839e-01,1.048563600836587839e-01,1.048563600836587839e-01,1.048563600836587839e-01,4.056486922944463336e-02,-6.046461639860617465e-02,-1.523096033331978183e-01,-1.890475981070344758e-01,-1.890475981070344758e-01,-1.890475981070344758e-01,-1.890475981070344758e-01,-1.890475981070344758e-01,-1.890475981070344758e-01,-1.890475981070344758e-01,-1.890475981070344758e-01,-1.890475981070344758e-01,-1.890475981070344758e-01,-1.890475981070344758e-01,-1.890475981070345313e-01,-1.890475981070344758e-01,-1.890475981070344758e-01,-1.890475981070344758e-01,-1.890475981070344758e-01,-1.890475981070344758e-01,-1.890475981070344758e-01,-1.293483565995499074e-01,8.419123802337558082e-03,1.048563600836587839e-01,1.048563600836587839e-01,1.048563600836587839e-01,1.048563600836587839e-01,1.048563600836587839e-01,1.048563600836587839e-01,1.048563600836587839e-01,1.048563600836587839e-01,1.048563600836587839e-01,1.048563600836587839e-01,1.048563600836587839e-01,1.048563600836587839e-01,1.048563600836587839e-01
1.048563600836587839e-01,1.048563600836587839e-01,1.048563600836587839e-01,1.048563600836587839e-01,1.048563600836587839e-01,1.048563600836587839e-01,1.048563600836587839e-01,1.048563600836587839e-01,6.166051466598365671e-02,-2.181318439696552924e-02,-1.289178332232940039e-01,-1.890475981070344758e-01,-1.890475981070344758e-01,-1.890475981070344758e-01,-1.890475981070344758e-01,-1.890475981070344758e-01,-1.890475981070344758e-01,-1.890475981070344758e-01,-1.890475981070344758e-01,-1.890475981070344758e-01,-1.890475981070344758e-01,-1.890475981070344758e-01,-1.890475981070344758e-01,-1.890475981070344758e-01,-1.890475981070344758e-01,-1.890475981070344758e-01,-1.890475981070344758e-01,-1.890475981070344758e-01,-1.890475981070344758e-01,-1.890475981070344758e-01,-1.890475981070344758e-01,-1.890475981070344758e-01,-1.798630994135753114e-01,-3.750336966495826374e-02,1.002641107369292017e-01,1.048563600836587839e-01,1.048563600836587839e-01,1.048563600836587839e-01,1.048563600836587839e-01,1.048563600836587839e-01,1.048563600836587839e-01,1.048563600836587839e-01,1.048563600836587839e-01,1.048563600836587839e-01,1.048563600836587839e-01,1.048563600836587839e-01,1.048563600836587839e-01
1.048563600836587839e-01,1.048563600836587839e-01,1.048563600836587839e-01,1.048563600836587839e-01,1.048563600836587839e-01,8.572198780561886278e-02,2.233937963461160581e-02,-5.061041467541563255e-02,-1.178677332327259519e-01,-1.408289799663738351e-01,-1.637902267000217460e-01,-1.867514734336696569e-01,-1.890475981070344758e-01,-1.890475981070344758e-01,-1.890475981070344758e-01,-1.890475981070344758e-01,-1.890475981070344758e-01,-1.890475981070344758e-01,-1.890475981070344758e-01,-1.890475981070344758e-01,-1.890475981070344758e-01,-1.890475981070344758e-01,-1.890475981070344758e-01,-1.890475981070344758e-01,-1.890475981070344758e-01,-1.890475981070344758e-01,-1.890475981070344758e-01,-1.890475981070344758e-01,-1.890475981070344758e-01,-1.890475981070344758e-01,-1.890475981070344758e-01,-1.890475981070344758e-01,-1.890475981070344758e-01,-8.801811247898366775e-02,4.974936792290379772e-02,1.048563600836587839e-01,1.048563600836587839e-01,1.048563600836587839e-01,1.048563600836587839e-01,1.048563600836587839e-01,1.048563600836587839e-01,1.048563600836587839e-01,1.048563600836587839e-01,1.048563600836587839e-01,1.048563600836587839e-01,1.048563600836587839e-01,1.048563600836587839e-01
1.048563600836587839e-01,1.048563600836587839e-01,9.775272437543645887e-02,6.166051466598364977e-02,1.358540431740834498e-02,-3.979949433832305483e-02,-6.352611596309254427e-02,-8.648736269674048294e-02,-1.094486094303883661e-01,-1.324098561640362770e-01,-1.561364777888057942e-01,-1.790977245224537051e-01,-1.890475981070344758e-01,-1.890475981070344758e-01,-1.890475981070344758e-01,-1.890475981070344758e-01,-1.890475981070344758e-01,-1.890475981070344758e-01,-1.890475981070344758e-01,-1.890475981070344758e-01,-1.890475981070344758e-01,-1.890475981070344758e-01,-1.890475981070344758e-01,-1.890475981070344758e-01,-1.890475981070344758e-01,-1.890475981070344758e-01,-1.890475981070344758e-01,-1.890475981070344758e-01,-1.890475981070344758e-01,-1.890475981070344758e-01,-1.890475981070344758e-01,-1.890475981070344758e-01,-1.890475981070344758e-01,-1.339406059462794896e-01,3.826874455607975900e-03,1.048563600836587839e-01,1.048563600836587839e-01,1.048563600836587839e-01,1.048563600836587839e-01,1.048563600836587839e-01,1.048563600836587839e-01,1.048563600836587839e-01,1.048563600836587839e-01,1.048563600836587839e-01,1.048563600836587839e-01,1.048563600836587839e-01,1.048563600836587839e-01
9.681992372688201509e-02,7.294979431002721060e-02,3.750336966495824986e-02,1.454212293131032507e-02,-9.184498693459164365e-03,-3.214574542710707528e-02,-5.510699216075498619e-02,-7.806823889440289710e-02,-1.017948605191724143e-01,-1.247561072528203252e-01,-1.477173539864682361e-01,-1.706786007201161470e-01,-1.890475981070344758e-01,-1.890475981070344758e-01,-1.890475981070344758e-01,-1.890475981070344758e-01,-1.890475981070344758e-01,-1.890475981070344758e-01,-1.890475981070344758e-01,-1.890475981070344758e-01,-1.890475981070344758e-01,-1.890475981070344758e-01,-1.890475981070344758e-01,-1.890475981070344758e-01,-1.890475981070344758e-01,-1.890475981070344758e-01,-1.890475981070344758e-01,-1.890475981070344758e-01,-1.890475981070344758e-01,-1.890475981070344758e-01,-1.890475981070344758e-01,-1.890475981070344758e-01,-1.890475981070344758e-01,-1.844553487603048936e-01,-4.668786835841742811e-02,9.567186139019961955e-02,1.048563600836587839e-01,1.048563600836587839e-01,1.048563600836587839e-01,1.048563600836587839e-01,1.048563600836587839e-01,1.048563600836587839e-01,1.048563600836587839e-01,1.048563600836587839e-01,1.048563600836587839e-01,1.048563600836587839e-01,1.048563600836587839e-01
9.184498693459162977e-02,6.811836530982212645e-02,4.515711857617421554e-02,2.219587184252630463e-02,-7.653748911216062822e-04,-2.372662162476951719e-02,-4.745324324953903439e-02,-7.041448998318694530e-02,-9.337573671683485621e-02,-1.163369834504827671e-01,-1.400636050752522566e-01,-1.630248518089001952e-01,-1.859860985425481061e-01,-1.890475981070344758e-01,-1.890475981070344758e-01,-1.890475981070344758e-01,-1.890475981070344758e-01,-1.890475981070344202e-01,-1.890475981070344758e-01,-1.890475981070344758e-01,-1.890475981070344202e-01,-1.890475981070344758e-01,-1.890475981070344758e-01,-1.890475981070344758e-01,-1.890475981070344758e-01,-1.890475981070344758e-01,-1.890475981070344758e-01,-1.890475981070344758e-01,-1.890475981070344758e-01,-1.890475981070344758e-01,-1.890475981070344758e-01,-1.890475981070344758e-01,-1.890475981070344758e-01,-1.890475981070344758e-01,-9.261036182571324993e-02,4.515711857617421554e-02,1.048563600836587839e-01,1.048563600836587839e-01,1.048563600836587839e-01,1.048563600836587839e-01,1.048563600836587839e-01,1.009807902866860368e-01,1.009807902866860368e-01,1.009807902866860368e-01,1.048563600836587839e-01,1.048563600836587839e-01,1.048563600836587839e-01
9.949873584580760932e-02,7.653748911215969841e-02,5.357624237851178056e-02,3.061499564486387659e-02,6.888374020094359396e-03,-1.607287271355355152e-02,-3.903411944720144855e-02,-6.199536618084935946e-02,-8.572198780561890441e-02,-1.086832345392667876e-01,-1.316444812729147262e-01,-1.546057280065626371e-01,-1.775669747402104925e-01,-1.890475981070344758e-01,-1.890475981070344758e-01,-1.890475981070344758e-01,-1.890475981070344758e-01,-1.890475981070344758e-01,-1.890475981070344758e-01,-1.890475981070344758e-01,-1.890475981070344758e-01,-1.890475981070344758e-01,-1.890475981070344758e-01,-1.890475981070345313e-01,-1.890475981070344758e-01,-1.890475981070344758e-01,-1.890475981070345313e-01,-1.890475981070344758e-01,-1.890475981070344758e-01,-1.890475981070344758e-01,-1.890475981070344758e-01,-1.890475981070344758e-01,-1.890475981070344758e-01,-1.890475981070344758e-01,-1.431251046397386539e-01,-7.653748911216062822e-04,1.048563600836587839e-01,1.048563600836587839e-01,1.048563600836587839e-01,1.048563600836587839e-01,1.048563600836587839e-01,1.009807902866860368e-01,1.009807902866860368e-01,1.009807902866860368e-01,1.048563600836587839e-01,1.048563600836587839e-01,1.048563600836587839e-01
1.048563600836587839e-01,8.495661291449725649e-02,6.122999128972774624e-02,3.826874455607984227e-02,1.530749782243193136e-02,-7.653748911215979556e-03,-3.138037053598549675e-02,-5.434161726963337991e-02,-7.730286400328129082e-02,-1.002641107369292295e-01,-1.232253574705771126e-01,-1.469519790953466298e-01,-1.699132258289945407e-01,-1.890475981070344758e-01,-1.890475981070344758e-01,-1.890475981070344758e-01,-1.890475981070344758e-01,-1.890475981070344758e-01,-1.890475981070344758e-01,-1.890475981070344758e-01,-1.890475981070344758e-01,-1.890475981070344758e-01,-1.890475981070344758e-01,-1.890475981070345313e-01,-1.890475981070344758e-01,-1.890475981070344758e-01,-1.890475981070344758e-01,-1.890475981070344758e-01,-1.890475981070344758e-01,-1.890475981070344758e-01,-1.890475981070344758e-01,-1.890475981070344758e-01,-1.890475981070344758e-01,-1.890475981070344758e-01,-1.890475981070344758e-01,-5.128011770514701029e-02,8.648736269674045518e-02,1.048563600836587839e-01,1.048563600836587839e-01,1.048563600836587839e-01,1.048563600836587839e-01,1.009807902866860368e-01,1.009807902866860368e-01,1.009807902866860368e-01,1.048563600836587839e-01,1.048563600836587839e-01,1.048563600836587839e-01
1.048563600836587839e-01,9.261036182571323605e-02,6.964911509206531126e-02,4.668786835841740035e-02,2.296124673364791091e-02,0.000000000000000000e+00,-2.296124673364791091e-02,-4.592249346729582182e-02,-6.964911509206533902e-02,-9.261036182571324993e-02,-1.155716085593611608e-01,-1.385328552930090718e-01,-1.614941020266569827e-01,-1.852207236514264443e-01,-1.890475981070344758e-01,-1.890475981070344758e-01,-1.890475981070344758e-01,-1.890475981070344758e-01,-1.890475981070344758e-01,-1.890475981070344758e-01,-1.890475981070344758e-01,-1.890475981070344758e-01,-1.890475981070344758e-01,-1.890475981070344758e-01,-1.890475981070344758e-01,-1.890475981070344758e-01,-1.890475981070344758e-01,-1.890475981070344758e-01,-1.890475981070344758e-01,-1.890475981070344758e-01,-1.890475981070344758e-01,-1.890475981070344758e-01,-1.890475981070344758e-01,-1.890475981070344758e-01,-1.890475981070344758e-01,-1.017948605191724143e-01,4.056486922944463336e-02,1.048563600836587839e-01,1.048563600836587839e-01,1.048563600836587839e-01,1.048563600836587839e-01,1.048563600836587839e-01,1.048563600836587839e-01,1.048563600836587839e-01,1.048563600836587839e-01,1.048563600836587839e-01,1.048563600836587839e-01
1.048563600836587839e-01,1.010294856280507941e-01,7.730286400328129082e-02,5.434161726963337991e-02,3.138037053598546899e-02,8.419123802337558082e-03,-1.530749782243194523e-02,-3.826874455607987002e-02,-6.122999128972778093e-02,-8.419123802337569185e-02,-1.071524847570236028e-01,-1.308791063817930922e-01,-1.538403531154410309e-01,-1.768015998490888863e-01,-1.890475981070344758e-01,-1.890475981070344758e-01,-1.890475981070344758e-01,-1.890475981070344758e-01,-1.890475981070344758e-01,-1.890475981070344758e-01,-1.890475981070344758e-01,-1.890475981070344758e-01,-1.890475981070344758e-01,-1.890475981070344758e-01,-1.890475981070344758e-01,-1.890475981070344758e-01,-1.890475981070344758e-01,-1.890475981070344758e-01,-1.890475981070344758e-01,-1.890475981070344758e-01,-1.890475981070344758e-01,-1.890475981070344758e-01,-1.890475981070344758e-01,-1.890475981070344758e-01,-1.890475981070344758e-01,-1.477173539864682361e-01,-9.949873584580770647e-03,1.048563600836587839e-01,1.048563600836587839e-01,1.048563600836587839e-01,1.048563600836587839e-01,1.048563600836587839e-01,1.048563600836587839e-01,1.048563600836587839e-01,1.048563600836587839e-01,1.048563600836587839e-01,1.048563600836587839e-01
1.048563600836587839e-01,1.048563600836587839e-01,8.572198780561884890e-02,6.276074107197093799e-02,3.903411944720144855e-02,1.607287271355350988e-02,-6.888374020094387151e-03,-2.984962075374228418e-02,-5.281086748739022285e-02,-7.653748911215971229e-02,-9.949873584580762320e-02,-1.224599825794555341e-01,-1.454212293131034173e-01,-1.691478509378729345e-01,-1.890475981070344758e-01,-1.890475981070344758e-01,-1.890475981070344758e-01,-1.890475981070344758e-01,-1.890475981070344758e-01,-1.890475981070344758e-01,-1.890475981070344758e-01,-1.890475981070344758e-01,-1.890475981070344758e-01,-1.890475981070344758e-01,-1.890475981070344758e-01,-1.890475981070344758e-01,-1.890475981070344758e-01,-1.890475981070344758e-01,-1.890475981070344758e-01,-1.890475981070344758e-01,-1.890475981070344758e-01,-1.890475981070344758e-01,-1.890475981070344758e-01,-1.890475981070344758e-01,-1.890475981070344758e-01,-1.890475981070344758e-01,-5.587236705187659247e-02,8.189511335001087300e-02,1.048563600836587839e-01,1.048563600836587839e-01,1.048563600836587839e-01,1.048563600836587839e-01,1.048563600836587839e-01,1.048563600836587839e-01,1.048563600836587839e-01,1.048563600836587839e-01,1.048563600836587839e-01
1.048563600836587839e-01,1.048563600836587839e-01,9.337573671683482845e-02,7.041448998318691754e-02,4.745324324953900663e-02,2.449199651589109572e-02,1.530749782243184809e-03,-2.219587184252633238e-02,-4.515711857617421554e-02,-6.811836530982215421e-02,-9.107961204347006512e-02,-1.148062336682395546e-01,-1.377674804018874655e-01,-1.607287271355353764e-01,-1.836899738691832873e-01,-1.890475981070344758e-01,-1.890475981070344758e-01,-1.890475981070344758e-01,-1.890475981070345313e-01,-1.890475981070344758e-01,-1.890475981070344758e-01,-1.890475981070345313e-01,-1.890475981070344758e-01,-1.890475981070344758e-01,-1.890475981070344758e-01,-1.890475981070344758e-01,-1.890475981070344758e-01,-1.890475981070344758e-01,-1.890475981070344758e-01,-1.890475981070344758e-01,-1.890475981070344758e-01,-1.890475981070344758e-01,-1.890475981070344758e-01,-1.890475981070344758e-01,-1.890475981070344758e-01,-1.890475981070344758e-01,-1.063871098659019965e-01,3.138037053598546899e-02,1.048563600836587839e-01,1.048563600836587839e-01,1.048563600836587839e-01,1.048563600836587839e-01,1.048563600836587839e-01,1.048563600836587839e-01,1.048563600836587839e-01,1.048563600836587839e-01,1.048563600836587839e-01
1.048563600836587839e-01,1.048563600836587839e-01,1.017948605191724004e-01,7.883361378552448950e-02,5.510699216075497231e-02,3.214574542710707528e-02,9.184498693459150487e-03,-1.377674804018874655e-02,-3.673799477383665746e-02,-6.046461639860617465e-02,-8.342586313225408556e-02,-1.063871098659019965e-01,-3.180943416122807288e-01,-3.418209632370501905e-01,-3.647822099706980459e-01,-1.890475981070344758e-01,-1.890475981070344758e-01,-1.890475981070344758e-01,-1.890475981070344758e-01,-1.890475981070344758e-01,-1.890475981070344758e-01,-1.890475981070344758e-01,-1.890475981070344758e-01,-1.890475981070344758e-01,-1.890475981070344758e-01,-1.890475981070344758e-01,-1.890475981070344758e-01,-1.890475981070344758e-01,-1.890475981070344758e-01,-1.890475981070344758e-01,-1.890475981070344758e-01,-1.890475981070344758e-01,-1.890475981070344758e-01,-1.890475981070344758e-01,-1.890475981070344758e-01,-1.890475981070344758e-01,-1.523096033331978183e-01,-1.454212293131035283e-02,1.048563600836587839e-01,1.048563600836587839e-01,1.048563600836587839e-01,1.048563600836587839e-01,1.048563600836587839e-01,1.048563600836587839e-01,1.048563600836587839e-01,1.048563600836587839e-01,1.048563600836587839e-01
1.048563600836587839e-01,1.048563600836587839e-01,1.048563600836587839e-01,8.648736269674045518e-02,6.352611596309254427e-02,4.056486922944463336e-02,1.760362249579672245e-02,-6.122999128972794747e-03,-2.908424586262070566e-02,-5.204549259626861657e-02,-7.500673932991652748e-02,-9.873336095468604467e-02,-3.104405927010647215e-01,-3.334018394347126324e-01,-3.563630861683604878e-01,-1.890475981070344758e-01,-1.890475981070344758e-01,-1.890475981070344758e-01,-1.890475981070344758e-01,-1.890475981070344758e-01,-1.890475981070344758e-01,-1.890475981070344758e-01,-1.890475981070344758e-01,-1.890475981070344758e-01,-1.890475981070344758e-01,-1.890475981070344758e-01,-1.890475981070344758e-01,-1.890475981070344758e-01,-1.890475981070344758e-01,-1.890475981070344758e-01,-1.890475981070344758e-01,-1.890475981070344758e-01,-1.890475981070344758e-01,-1.890475981070344758e-01,-1.890475981070344758e-01,-1.890475981070344758e-01,-1.890475981070344758e-01,-6.505686574533575683e-02,7.730286400328129082e-02,1.048563600836587839e-01,1.048563600836587839e-01,1.048563600836587839e-01,1.048563600836587839e-01,1.048563600836587839e-01,1.048563600836587839e-01,1.048563600836587839e-01,1.048563600836587839e-01
1.048563600836587839e-01,1.048563600836587839e-01,1.048563600836587839e-01,9.490648649907802714e-02,7.194523976543010235e-02,4.821861814066059904e-02,2.525737140701268812e-02,2.296124673364791091e-03,-2.066512206028311982e-02,-4.439174368505263701e-02,-6.735299041870054793e-02,-9.031423715234845884e-02,-3.020214688987272189e-01,-3.249827156323750743e-01,-3.487093372571445360e-01,-1.829245989780616810e-01,-1.890475981070344758e-01,-1.890475981070344758e-01,-1.890475981070344758e-01,-1.890475981070344758e-01,-1.890475981070344758e-01,-1.890475981070344758e-01,-1.890475981070344758e-01,-1.890475981070344758e-01,-1.890475981070344758e-01,-1.890475981070344758e-01,-1.890475981070344758e-01,-1.890475981070344758e-01,-1.890475981070344758e-01,-1.890475981070344758e-01,-1.890475981070344758e-01,-1.890475981070344758e-01,-1.890475981070344758e-01,-1.890475981070344758e-01,-1.890475981070344758e-01,-1.890475981070344758e-01,-1.890475981070344758e-01,-1.109793592126315787e-01,2.678812118925588681e-02,1.048563600836587839e-01,1.048563600836587839e-01,1.048563600836587839e-01,1.048563600836587839e-01,1.048563600836587839e-01,1.048563600836587839e-01,1.048563600836587839e-01,1.048563600836587839e-01
1.048563600836587839e-01,1.048563600836587839e-01,1.048563600836587839e-01,1.025602354102939928e-01,7.959898867664608191e-02,5.663774194299817100e-02,3.367649520935026008e-02,9.949873584580756769e-03,-1.301137314906715414e-02,-3.597261988271505118e-02,-5.893386661636296209e-02,-8.266048824113247928e-02,-1.056217349747803902e-01,-1.285829817084283011e-01,-1.515442284420762120e-01,-1.745054751757241229e-01,-1.890475981070344758e-01,-1.890475981070344758e-01,-1.890475981070344758e-01,-1.890475981070344758e-01,-1.890475981070344758e-01,-1.890475981070344758e-01,-1.890475981070344758e-01,-1.890475981070344758e-01,-1.890475981070344758e-01,-1.890475981070344758e-01,-1.890475981070344758e-01,-1.890475981070344758e-01,-1.890475981070345313e-01,-1.890475981070344758e-01,-1.890475981070344758e-01,-1.890475981070344758e-01,-1.890475981070344758e-01,-1.890475981070344758e-01,-1.890475981070344758e-01,-1.890475981070344758e-01,-1.890475981070344758e-01,-1.614941020266569827e-01,-2.372662162476951719e-02,1.048563600836587839e-01,1.048563600836587839e-01,1.048563600836587839e-01,1.048563600836587839e-01,1.048563600836587839e-01,1.048563600836587839e-01,1.048563600836587839e-01,1.048563600836587839e-01
1.048563600836587839e-01,1.048563600836587839e-01,1.048563600836587839e-01,1.048563600836587839e-01,8.801811247898365387e-02,6.429149085421413667e-02,4.133024412056622576e-02,1.836899738691831485e-02,-4.592249346729596060e-03,-2.831887097149909938e-02,-5.128011770514701029e-02,-7.424136443879492120e-02,-9.720261117244283211e-02,-1.201638579060907430e-01,-1.438904795308602325e-01,-1.668517262645081156e-01,-1.890475981070344758e-01,-1.890475981070344758e-01,-1.890475981070344758e-01,-1.890475981070344758e-01,-1.890475981070344758e-01,-1.890475981070344758e-01,-1.890475981070344758e-01,-1.890475981070344758e-01,-1.890475981070344758e-01,-1.890475981070344758e-01,-1.890475981070344758e-01,-1.890475981070344758e-01,-1.890475981070344758e-01,-1.890475981070344758e-01,-1.890475981070344758e-01,-1.890475981070344758e-01,-1.890475981070344758e-01,-1.890475981070344758e-01,-1.890475981070344758e-01,-1.890475981070344758e-01,-1.890475981070344758e-01,-1.890475981070344758e-01,-6.964911509206533902e-02,6.811836530982212645e-02,1.048563600836587839e-01,1.048563600836587839e-01,1.048563600836587839e-01,1.048563600836587839e-01,1.048563600836587839e-01,1.048563600836587839e-01,1.048563600836587839e-01
1.048563600836587839e-01,1.048563600836587839e-01,1.048563600836587839e-01,1.048563600836587839e-01,9.567186139019961955e-02,7.271061465655170863e-02,4.974936792290379772e-02,2.602274629813429441e-02,3.061499564486383496e-03,-1.989974716916151354e-02,-4.286099390280945221e-02,-6.582224063645736312e-02,-8.954886226122688031e-02,-1.125101089948747635e-01,-1.354713557285226744e-01,-1.584326024621705575e-01,-1.821592240869401302e-01,-1.890475981070344758e-01,-1.890475981070344758e-01,-1.890475981070344758e-01,-1.890475981070344758e-01,-1.890475981070344758e-01,-1.890475981070344758e-01,-1.890475981070344758e-01,-1.890475981070344758e-01,-1.890475981070344758e-01,-1.890475981070344758e-01,-1.890475981070344758e-01,-1.890475981070344758e-01,-1.890475981070344758e-01,-1.890475981070344758e-01,-1.890475981070344758e-01,-1.890475981070344758e-01,-1.890475981070344758e-01,-1.890475981070344758e-01,-1.890475981070344758e-01,-1.890475981070344758e-01,-1.890475981070344758e-01,-1.201638579060907430e-01,2.219587184252630463e-02,1.048563600836587839e-01,1.048563600836587839e-01,1.048563600836587839e-01,1.048563600836587839e-01,1.048563600836587839e-01,1.048563600836587839e-01,1.048563600836587839e-01
1.048563600836587839e-01,1.048563600836587839e-01,1.048563600836587839e-01,1.048563600836587839e-01,1.040909851925371915e-01,8.036436356776767431e-02,5.740311683411976340e-02,3.444187010047185249e-02,1.148062336682394158e-02,-1.148062336682396933e-02,-3.520724499159347265e-02,-5.816849172524138356e-02,-8.112973845888929447e-02,-1.040909851925372331e-01,-1.278176068173066948e-01,-1.507788535509546057e-01,-1.737401002846025166e-01,-1.890475981070344758e-01,-1.890475981070344758e-01,-1.890475981070344758e-01,-1.890475981070344758e-01,-1.890475981070344758e-01,-1.890475981070344758e-01,-1.890475981070344758e-01,-1.890475981070344758e-01,-1.890475981070344758e-01,-1.890475981070344758e-01,-1.890475981070344758e-01,-1.890475981070344202e-01,-1.890475981070344758e-01,-1.890475981070344758e-01,-1.890475981070344758e-01,-1.890475981070344758e-01,-1.890475981070344758e-01,-1.890475981070344758e-01,-1.890475981070344758e-01,-1.890475981070344758e-01,-1.890475981070344758e-01,-1.660863513733865648e-01,-2.831887097149909938e-02,1.048563600836587839e-01,1.048563600836587839e-01,1.048563600836587839e-01,1.048563600836587839e-01,1.048563600836587839e-01,1.048563600836587839e-01,1.048563600836587839e-01
1.048563600836587839e-01,1.048563600836587839e-01,1.048563600836587839e-01,-1.305517277379194263e-01,-1.305517277379194263e-01,-1.466246004514729639e-01,6.582224063645733536e-02,4.209561901168783205e-02,1.913437227803990726e-02,-3.826874455607975900e-03,-2.678812118925591457e-02,-4.974936792290382548e-02,-7.347598954767331492e-02,-9.643723628132125358e-02,-1.193984830149691367e-01,-1.423597297486170477e-01,-1.660863513733865648e-01,-1.890475981070344758e-01,-1.890475981070344758e-01,-1.890475981070344758e-01,-1.890475981070344758e-01,-1.890475981070344758e-01,-1.890475981070344758e-01,-1.890475981070344758e-01,-1.890475981070344758e-01,-1.890475981070344758e-01,-1.890475981070344758e-01,-1.890475981070344758e-01,-1.890475981070344758e-01,-1.890475981070344758e-01,-1.890475981070344758e-01,-1.890475981070344758e-01,-1.890475981070344758e-01,-1.890475981070344758e-01,-1.890475981070344758e-01,-1.890475981070344758e-01,-1.890475981070344758e-01,-1.890475981070344758e-01,-1.890475981070344758e-01,-7.424136443879492120e-02,6.352611596309254427e-02,1.048563600836587839e-01,1.048563600836587839e-01,1.048563600836587839e-01,1.048563600836587839e-01,1.048563600836587839e-01,1.048563600836587839e-01
1.048563600836587839e-01,1.048563600836587839e-01,1.048563600836587839e-01,-1.305517277379194263e-01,-1.305517277379194263e-01,-1.389708515402569844e-01,7.347598954767331492e-02,5.051474281402539013e-02,2.755349608037749309e-02,4.592249346729568305e-03,-1.913437227803993501e-02,-4.209561901168784592e-02,-6.505686574533575683e-02,-8.801811247898366775e-02,-1.117447341037531849e-01,-1.347059808374010681e-01,-1.576672275710489513e-01,-1.806284743046969177e-01,-1.890475981070344758e-01,-1.890475981070344758e-01,-1.890475981070344758e-01,-1.890475981070344758e-01,-1.890475981070344758e-01,-1.890475981070344758e-01,-1.890475981070344758e-01,-1.890475981070344758e-01,-1.890475981070344758e-01,-1.890475981070344758e-01,-1.890475981070344758e-01,-1.890475981070344758e-01,-1.890475981070344758e-01,-1.890475981070344758e-01,-1.890475981070344758e-01,-1.890475981070344758e-01,-1.890475981070344758e-01,-1.890475981070344758e-01,-1.890475981070344758e-01,-1.890475981070344758e-01,-1.890475981070344758e-01,-1.247561072528203252e-01,1.301137314906714026e-02,1.048563600836587839e-01,1.048563600836587839e-01,1.048563600836587839e-01,1.048563600836587839e-01,1.048563600836587839e-01,1.048563600836587839e-01
1.048563600836587839e-01,1.048563600836587839e-01,1.048563600836587839e-01,-1.305517277379194263e-01,-1.305517277379194263e-01,-1.305517277379194263e-01,8.189511335001087300e-02,5.893386661636296209e-02,3.520724499159344489e-02,1.224599825794553398e-02,-1.071524847570236305e-02,-3.367649520935028784e-02,-5.740311683411977728e-02,-8.036436356776766043e-02,-1.033256103014156269e-01,-1.262868570350634823e-01,-1.492481037687113932e-01,-1.729747253934809104e-01,-1.890475981070344758e-01,-1.890475981070344758e-01,-1.890475981070344758e-01,-1.890475981070344758e-01,-1.890475981070344758e-01,-1.890475981070344758e-01,-1.890475981070344758e-01,-1.890475981070344758e-01,-1.890475981070344758e-01,-1.890475981070344758e-01,-1.890475981070344758e-01,-1.890475981070344758e-01,-1.890475981070344758e-01,-1.890475981070344758e-01,-1.890475981070344758e-01,-1.890475981070344758e-01,-1.890475981070344758e-01,-1.890475981070345313e-01,-1.890475981070344758e-01,-1.890475981070344758e-01,-1.890475981070344758e-01,-1.706786007201161470e-01,-3.291112031822868156e-02,1.048563600836587839e-01,1.048563600836587839e-01,1.048563600836587839e-01,1.048563600836587839e-01,1.048563600836587839e-01,1.048563600836587839e-01
1.048563600836587839e-01,1.048563600836587839e-01,1.048563600836587839e-01,1.048563600836587839e-01,1.048563600836587839e-01,1.048563600836587839e-01,8.954886226122683868e-02,6.658761552757892777e-02,4.362636879393101685e-02,2.066512206028311982e-02,-3.061499564486397373e-03,-2.602274629813430828e-02,-4.898399303178221920e-02,-7.194523976543013011e-02,-9.567186139019961955e-02,-1.186331081238475582e-01,-1.415943548574954414e-01,-1.645556015911433523e-01,-1.875168483247912632e-01,-1.890475981070344758e-01,-1.890475981070344202e-01,-1.890475981070344758e-01,-1.890475981070344758e-01,-1.890475981070344202e-01,-1.890475981070344758e-01,-1.890475981070344758e-01,-1.890475981070344758e-01,-1.890475981070344758e-01,-1.890475981070344758e-01,-1.890475981070344758e-01,-1.890475981070344758e-01,-1.890475981070344758e-01,-1.890475981070344758e-01,-1.890475981070344758e-01,-1.890475981070344758e-01,-1.890475981070344758e-01,-1.890475981070344758e-01,-1.890475981070344758e-01,-1.890475981070344758e-01,-1.890475981070344758e-01,-8.342586313225408556e-02,5.434161726963337991e-02,1.048563600836587839e-01,1.048563600836587839e-01,1.048563600836587839e-01,1.048563600836587839e-01,1.048563600836587839e-01
1.048563600836587839e-01,1.048563600836587839e-01,1.048563600836587839e-01,1.048563600836587839e-01,1.048563600836587839e-01,1.048563600836587839e-01,9.796798606356441064e-02,7.500673932991649973e-02,5.128011770514698947e-02,2.831887097149908550e-02,5.357624237851160709e-03,-1.760362249579673632e-02,-4.133024412056623964e-02,-6.429149085421415055e-02,-8.725273758786206146e-02,-1.102139843215100001e-01,-1.331752310551578833e-01,-1.569018526799274005e-01,-1.798630994135753114e-01,-1.890475981070344758e-01,-1.890475981070344758e-01,-1.890475981070344758e-01,-1.890475981070344758e-01,-1.890475981070344758e-01,-1.890475981070344758e-01,-1.890475981070344758e-01,-1.890475981070344758e-01,-1.890475981070344758e-01,-1.890475981070344758e-01,-1.890475981070344758e-01,-1.890475981070344758e-01,-1.890475981070344758e-01,-1.890475981070344758e-01,-1.890475981070344758e-01,-1.890475981070344758e-01,-1.890475981070344758e-01,-1.890475981070344758e-01,-1.890475981070344758e-01,-1.890475981070344758e-01,-1.890475981070344758e-01,-1.293483565995499074e-01,8.419123802337558082e-03,1.048563600836587839e-01,1.048563600836587839e-01,1.048563600836587839e-01,1.048563600836587839e-01,1.048563600836587839e-01
1.048563600836587839e-01,1.048563600836587839e-01,1.048563600836587839e-01,1.048563600836587839e-01,1.048563600836587839e-01,1.048563600836587839e-01,1.048563600836587839e-01,8.266048824113246540e-02,5.969924150748456143e-02,3.673799477383664358e-02,1.301137314906714026e-02,-9.949873584580784525e-03,-3.291112031822868156e-02,-5.587236705187659247e-02,-7.883361378552453114e-02,-1.025602354102940206e-01,-1.255214821439419315e-01,-1.484827288775897869e-01,-1.714439756112377533e-01,-1.890475981070344758e-01,-1.890475981070344758e-01,-1.890475981070344758e-01,-1.890475981070344758e-01,-1.890475981070344758e-01,-1.890475981070344758e-01,-1.890475981070344758e-01,-1.890475981070344758e-01,-1.890475981070344758e-01,-1.890475981070344758e-01,-1.890475981070344758e-01,-1.890475981070344758e-01,-1.890475981070344758e-01,-1.890475981070344758e-01,-1.890475981070344758e-01,-1.890475981070344758e-01,-1.890475981070344758e-01,-1.890475981070344758e-01,-1.890475981070344758e-01,-1.890475981070344758e-01,-1.890475981070344758e-01,-1.798630994135753114e-01,-4.209561901168784592e-02,1.002641107369292017e-01,1.048563600836587839e-01,1.048563600836587839e-01,1.048563600836587839e-01,1.048563600836587839e-01
1.048563600836587839e-01,1.048563600836587839e-01,1.048563600836587839e-01,1.048563600836587839e-01,1.048563600836587839e-01,1.048563600836587839e-01,1.048563600836587839e-01,9.107961204347003736e-02,6.735299041870052017e-02,4.439174368505261620e-02,2.143049695140469835e-02,-1.530749782243198687e-03,-2.525737140701270200e-02,-4.821861814066064067e-02,-7.117986487430852383e-02,-9.414111160795643474e-02,-1.171023583416043456e-01,-1.408289799663738351e-01,-1.637902267000217460e-01,-1.867514734336696569e-01,-1.890475981070344758e-01,-1.890475981070344758e-01,-1.890475981070344758e-01,-1.890475981070344758e-01,-1.890475981070344758e-01,-1.890475981070344758e-01,-1.890475981070344758e-01,-1.890475981070344758e-01,-1.890475981070344758e-01,-1.890475981070344758e-01,-1.890475981070344758e-01,-1.890475981070344758e-01,-1.890475981070344758e-01,-1.890475981070344758e-01,-1.890475981070344758e-01,-1.890475981070344758e-01,-1.890475981070344758e-01,-1.890475981070344758e-01,-1.890475981070344758e-01,-1.890475981070344758e-01,-1.890475981070344758e-01,-8.801811247898366775e-02,4.974936792290379772e-02,1.048563600836587839e-01,1.048563600836587839e-01,1.048563600836587839e-01,1.048563600836587839e-01
1.048563600836587839e-01,1.048563600836587839e-01,1.048563600836587839e-01,1.048563600836587839e-01,1.048563600836587839e-01,1.048563600836587839e-01,1.048563600836587839e-01,9.873336095468600304e-02,7.577211422103809213e-02,5.281086748739018122e-02,2.908424586262067790e-02,6.122999128972766991e-03,-1.683824760467514392e-02,-3.979949433832305483e-02,-6.276074107197093799e-02,-8.648736269674045518e-02,-1.094486094303883938e-01,-1.324098561640362770e-01,-1.553711028976841879e-01,-1.790977245224537051e-01,-1.890475981070344758e-01,-1.890475981070344758e-01,-1.890475981070344758e-01,-1.890475981070344758e-01,-1.890475981070344758e-01,-1.890475981070344758e-01,-1.890475981070344758e-01,-1.890475981070344758e-01,-1.890475981070344758e-01,-1.890475981070344758e-01,-1.890475981070344758e-01,-1.890475981070344758e-01,-1.890475981070344758e-01,-1.890475981070344758e-01,-1.890475981070344758e-01,-1.890475981070344758e-01,-1.890475981070344758e-01,-1.890475981070344758e-01,-1.890475981070344758e-01,-1.890475981070344758e-01,-1.890475981070344758e-01,-1.385328552930090718e-01,3.826874455607975900e-03,1.048563600836587839e-01,1.048563600836587839e-01,1.048563600836587839e-01,1.048563600836587839e-01
1.048563600836587839e-01,1.048563600836587839e-01,1.048563600836587839e-01,1.048563600836587839e-01,1.048563600836587839e-01,1.048563600836587839e-01,1.048563600836587839e-01,1.048563600836587839e-01,8.342586313225405781e-02,6.046461639860615384e-02,3.750336966495823598e-02,1.454212293131032507e-02,-8.419123802337571960e-03,-3.214574542710707528e-02,-5.510699216075498619e-02,-7.806823889440289710e-02,-1.010294856280508080e-01,-1.247561072528203252e-01,-1.477173539864682361e-01,-1.706786007201161470e-01,-1.890475981070344758e-01,-1.890475981070344758e-01,-1.890475981070344758e-01,-1.890475981070344758e-01,-1.890475981070344758e-01,-1.890475981070344758e-01,-1.890475981070344758e-01,-1.890475981070344758e-01,-1.890475981070344758e-01,-1.890475981070344758e-01,-1.890475981070344758e-01,-1.890475981070344758e-01,-1.890475981070344758e-01,-1.890475981070344758e-01,-1.890475981070344758e-01,-1.890475981070344758e-01,-1.890475981070344758e-01,-1.890475981070344758e-01,-1.890475981070344758e-01,-1.890475981070344758e-01,-1.890475981070344758e-01,-1.844553487603048936e-01,-4.668786835841742811e-02,9.107961204347003736e-02,1.048563600836587839e-01,1.048563600836587839e-01,1.048563600836587839e-01
1.048563600836587839e-01,1.048563600836587839e-01,1.048563600836587839e-01,1.048563600836587839e-01,1.048563600836587839e-01,1.048563600836587839e-01,1.048563600836587839e-01,1.048563600836587839e-01,9.184498693459162977e-02,6.888374020094371886e-02,4.592249346729580795e-02,2.219587184252630463e-02,-7.653748911216062822e-04,-2.372662162476951719e-02,-4.668786835841742811e-02,-7.041448998318694530e-02,-9.337573671683485621e-02,-1.163369834504827671e-01,-1.392982301841306780e-01,-1.622594769177785889e-01,-1.859860985425480506e-01,-1.890475981070344758e-01,-1.890475981070344758e-01,-1.890475981070344758e-01,-1.890475981070344202e-01,-1.890475981070344758e-01,-1.890475981070344758e-01,-1.890475981070344758e-01,-1.890475981070344758e-01,-1.890475981070344758e-01,-1.890475981070344758e-01,-1.890475981070344758e-01,-1.890475981070344758e-01,-1.890475981070344758e-01,-1.890475981070344758e-01,-1.890475981070344758e-01,-1.890475981070344758e-01,-1.890475981070344758e-01,-1.890475981070344758e-01,-1.890475981070344758e-01,-1.890475981070344758e-01,-1.890475981070344758e-01,-9.261036182571324993e-02,4.515711857617421554e-02,1.048563600836587839e-01,1.048563600836587839e-01,1.048563600836587839e-01
1.048563600836587839e-01,1.048563600836587839e-01,1.048563600836587839e-01,1.048563600836587839e-01,1.048563600836587839e-01,1.048563600836587839e-01,1.048563600836587839e-01,1.048563600836587839e-01,9.949873584580760932e-02,7.653748911215969841e-02,5.357624237851178056e-02,3.061499564486387659e-02,7.653748911215951800e-03,-1.607287271355353764e-02,-3.903411944720144855e-02,-6.199536618084935946e-02,-8.495661291449727037e-02,-1.086832345392667598e-01,-1.316444812729146707e-01,-1.546057280065625816e-01,-1.775669747402104925e-01,-1.890475981070344758e-01,-1.890475981070344758e-01,-1.890475981070344758e-01,-1.890475981070344758e-01,-1.890475981070344758e-01,-1.890475981070344758e-01,-1.890475981070344758e-01,-1.890475981070344758e-01,-1.890475981070344758e-01,-1.890475981070344758e-01,-1.890475981070344758e-01,-1.890475981070344758e-01,-1.890475981070344758e-01,-1.890475981070344758e-01,-1.890475981070344758e-01,-1.890475981070344758e-01,-1.890475981070344758e-01,-1.890475981070344758e-01,-1.890475981070344758e-01,-1.890475981070344758e-01,-1.890475981070344758e-01,-1.431251046397386539e-01,-5.357624237851188465e-03,1.048563600836587839e-01,1.048563600836587839e-01,1.048563600836587839e-01
1.048563600836587839e-01,1.048563600836587839e-01,1.048563600836587839e-01,1.048563600836587839e-01,1.048563600836587839e-01,1.048563600836587839e-01,1.048563600836587839e-01,1.048563600836587839e-01,1.048563600836587839e-01,8.495661291449727037e-02,6.199536618084934558e-02,3.826874455607984227e-02,1.530749782243193136e-02,-7.653748911215979556e-03,-3.061499564486389047e-02,-5.434161726963337991e-02,-7.730286400328129082e-02,-1.002641107369292295e-01,-1.232253574705771404e-01,-1.461866042042250236e-01,-1.699132258289945407e-01,-1.890475981070344202e-01,-1.890475981070344758e-01,-1.890475981070344758e-01,-1.890475981070344758e-01,-1.890475981070344758e-01,-1.890475981070344758e-01,-1.890475981070344758e-01,-1.890475981070344758e-01,-1.890475981070344758e-01,-1.890475981070344758e-01,-1.890475981070344758e-01,-1.890475981070344758e-01,-1.890475981070344758e-01,-1.890475981070344758e-01,-1.890475981070344758e-01,-1.890475981070344758e-01,-1.890475981070344758e-01,-1.890475981070344758e-01,-1.890475981070344758e-01,-1.890475981070344758e-01,-1.890475981070344758e-01,-1.890475981070344758e-01,-5.128011770514701029e-02,8.648736269674045518e-02,1.048563600836587839e-01,1.048563600836587839e-01
1.048563600836587839e-01,1.048563600836587839e-01,1.048563600836587839e-01,1.048563600836587839e-01,1.048563600836587839e-01,1.048563600836587839e-01,1.048563600836587839e-01,1.048563600836587839e-01,1.048563600836587839e-01,9.261036182571323605e-02,6.964911509206532514e-02,4.668786835841740729e-02,2.372662162476950332e-02,0.000000000000000000e+00,-2.296124673364791091e-02,-4.592249346729584958e-02,-6.888374020094373273e-02,-9.184498693459167140e-02,-1.155716085593611608e-01,-1.385328552930090718e-01,-1.614941020266569827e-01,-1.844553487603048936e-01,-1.890475981070344758e-01,-1.890475981070344758e-01,-1.890475981070344758e-01,-1.890475981070344758e-01,-1.890475981070344758e-01,-1.890475981070344758e-01,-1.890475981070344758e-01,-1.890475981070344758e-01,-1.890475981070344758e-01,-1.890475981070344758e-01,-1.890475981070344758e-01,-1.890475981070344758e-01,-1.890475981070344758e-01,-1.890475981070344758e-01,-1.890475981070344758e-01,-1.890475981070344758e-01,-1.890475981070344758e-01,-1.890475981070344758e-01,-1.890475981070344758e-01,-1.890475981070344758e-01,-1.890475981070344758e-01,-1.017948605191724143e-01,3.597261988271505118e-02,1.048563600836587839e-01,1.048563600836587839e-01
1.048563600836587839e-01,1.048563600836587839e-01,1.048563600836587839e-01,1.048563600836587839e-01,1.048563600836587839e-01,1.048563600836587839e-01,1.048563600836587839e-01,1.048563600836587839e-01,1.048563600836587839e-01,1.010294856280507941e-01,7.806823889440288322e-02,5.434161726963337991e-02,3.138037053598546899e-02,8.419123802337558082e-03,-1.454212293131035283e-02,-3.826874455607987002e-02,-6.122999128972778093e-02,-8.419123802337569185e-02,-1.071524847570236028e-01,-1.301137314906714859e-01,-1.538403531154409754e-01,-1.768015998490888863e-01,-1.890475981070344758e-01,-1.890475981070344758e-01,-1.890475981070344758e-01,-1.890475981070344758e-01,-1.890475981070344758e-01,-1.890475981070344758e-01,-1.890475981070344758e-01,-1.890475981070344758e-01,-1.890475981070344758e-01,-1.890475981070344758e-01,-1.890475981070344758e-01,-1.890475981070344758e-01,-1.890475981070344758e-01,-1.890475981070344758e-01,-1.890475981070344758e-01,-1.890475981070344758e-01,-1.890475981070344758e-01,-1.890475981070344758e-01,-1.890475981070344758e-01,-1.890475981070344758e-01,-1.890475981070344758e-01,-1.477173539864682361e-01,-9.949873584580770647e-03,1.048563600836587839e-01,1.048563600836587839e-01
1.048563600836587839e-01,1.048563600836587839e-01,1.048563600836587839e-01,1.048563600836587839e-01,1.048563600836587839e-01,1.048563600836587839e-01,1.048563600836587839e-01,1.048563600836587839e-01,1.048563600836587839e-01,1.048563600836587839e-01,8.572198780561884890e-02,6.276074107197093799e-02,3.979949433832302708e-02,1.607287271355352376e-02,-6.888374020094373273e-03,-2.984962075374228418e-02,-5.281086748739019510e-02,-7.577211422103810601e-02,-9.949873584580762320e-02,-1.224599825794555341e-01,-1.454212293131034173e-01,-1.683824760467513837e-01,-1.890475981070344758e-01,-1.890475981070344758e-01,-1.890475981070344758e-01,-1.890475981070344758e-01,-1.890475981070344758e-01,-1.890475981070344758e-01,-1.890475981070344202e-01,-1.890475981070344758e-01,-1.890475981070344758e-01,-1.890475981070344758e-01,-1.890475981070344758e-01,-1.890475981070344758e-01,-1.890475981070344758e-01,-1.890475981070344758e-01,-1.890475981070344758e-01,-1.890475981070344758e-01,-1.890475981070344758e-01,-1.890475981070344758e-01,-1.890475981070344758e-01,-1.890475981070344758e-01,-1.890475981070344758e-01,-1.890475981070344758e-01,-6.046461639860617465e-02,8.189511335001087300e-02,1.048563600836587839e-01
1.048563600836587839e-01,1.048563600836587839e-01,1.048563600836587839e-01,1.048563600836587839e-01,1.048563600836587839e-01,1.048563600836587839e-01,1.048563600836587839e-01,1.048563600836587839e-01,1.048563600836587839e-01,1.048563600836587839e-01,9.414111160795642086e-02,7.041448998318691754e-02,4.745324324953900663e-02,2.449199651589109572e-02,1.530749782243170931e-03,-2.143049695140472610e-02,-4.515711857617424330e-02,-6.811836530982212645e-02,-9.107961204347006512e-02,-1.140408587771179760e-01,-1.377674804018874655e-01,-1.607287271355353764e-01,-1.836899738691832873e-01,-1.890475981070344758e-01,-1.890475981070344758e-01,-1.890475981070344758e-01,-1.890475981070344758e-01,-1.890475981070344758e-01,-1.890475981070344202e-01,-1.890475981070344758e-01,-1.890475981070344758e-01,-1.890475981070344758e-01,-1.890475981070344758e-01,-1.890475981070344758e-01,-1.890475981070344758e-01,-1.890475981070344758e-01,-1.890475981070344758e-01,-1.890475981070344758e-01,-1.890475981070344758e-01,-1.890475981070344758e-01,-1.890475981070344758e-01,-1.890475981070344758e-01,-1.890475981070344758e-01,-1.890475981070344758e-01,-1.063871098659019965e-01,3.138037053598546899e-02,1.048563600836587839e-01
1.048563600836587839e-01,1.048563600836587839e-01,1.048563600836587839e-01,1.048563600836587839e-01,1.048563600836587839e-01,1.048563600836587839e-01,1.048563600836587839e-01,1.048563600836587839e-01,1.048563600836587839e-01,1.048563600836587839e-01,1.017948605191724004e-01,7.883361378552448950e-02,5.587236705187657165e-02,3.214574542710706140e-02,9.184498693459150487e-03,-1.377674804018874655e-02,-3.673799477383665746e-02,-5.969924150748456837e-02,-8.342586313225408556e-02,-1.063871098659019965e-01,-1.293483565995499074e-01,-1.523096033331978183e-01,-1.752708500668457292e-01,-1.890475981070344758e-01,-1.890475981070344758e-01,-1.890475981070344758e-01,-1.890475981070344758e-01,-1.890475981070344758e-01,-1.890475981070344758e-01,-1.890475981070344758e-01,-1.890475981070344758e-01,-1.890475981070345313e-01,-1.890475981070344758e-01,-1.890475981070344758e-01,-1.890475981070344758e-01,-1.890475981070344758e-01,-1.890475981070344758e-01,-1.890475981070344758e-01,-1.890475981070344758e-01,-1.890475981070344758e-01,-1.890475981070344758e-01,-1.890475981070344758e-01,-1.890475981070344758e-01,-1.890475981070345313e-01,-1.569018526799274005e-01,-1.454212293131035283e-02,1.048563600836587839e-01
1.048563600836587839e-01,1.048563600836587839e-01,1.048563600836587839e-01,1.048563600836587839e-01,1.048563600836587839e-01,1.048563600836587839e-01,1.048563600836587839e-01,1.048563600836587839e-01,1.048563600836587839e-01,1.048563600836587839e-01,1.048563600836587839e-01,8.648736269674045518e-02,6.352611596309254427e-02,4.056486922944463336e-02,1.760362249579672245e-02,-5.357624237851188465e-03,-2.805045115857052740e-01,-3.034657583193532404e-01,-3.264270050530011513e-01,-3.493882517866490622e-01,-1.216946076883339278e-01,-1.446558544219818387e-01,-1.676171011556297774e-01,-1.890475981070344758e-01,-1.890475981070344758e-01,-1.890475981070344758e-01,-1.890475981070344758e-01,-1.890475981070344758e-01,-1.890475981070345313e-01,-1.890475981070344758e-01,-1.890475981070344758e-01,-1.890475981070344758e-01,-1.890475981070344758e-01,-1.890475981070344758e-01,-1.890475981070344758e-01,-1.890475981070344758e-01,-1.890475981070344758e-01,-1.890475981070344758e-01,-1.890475981070344758e-01,-1.890475981070344758e-01,-1.890475981070344758e-01,-1.890475981070344758e-01,-1.890475981070344758e-01,-1.890475981070344758e-01,-1.890475981070344758e-01,-6.505686574533575683e-02,7.271061465655170863e-02
1.048563600836587839e-01,1.048563600836587839e-01,1.048563600836587839e-01,1.048563600836587839e-01,1.048563600836587839e-01,1.048563600836587839e-01,1.048563600836587839e-01,1.048563600836587839e-01,1.048563600836587839e-01,1.048563600836587839e-01,1.048563600836587839e-01,9.490648649907802714e-02,7.194523976543010235e-02,4.898399303178219838e-02,2.525737140701270200e-02,2.296124673364777213e-03,-2.720853877833677159e-01,-2.950466345170156823e-01,-5.380706571235451818e-01,-5.610319038571931483e-01,-3.325728848677564353e-01,-3.555341316014042907e-01,-1.591979773532921638e-01,-1.829245989780616810e-01,-1.890475981070344758e-01,-1.890475981070344758e-01,-1.890475981070344758e-01,-1.890475981070344758e-01,-1.890475981070344758e-01,-1.890475981070344758e-01,-1.890475981070344758e-01,-1.890475981070344758e-01,-1.890475981070344758e-01,-1.890475981070344758e-01,-1.890475981070344758e-01,-1.890475981070344758e-01,-1.890475981070344758e-01,-1.890475981070344758e-01,-1.890475981070344758e-01,-1.890475981070344758e-01,-1.890475981070344758e-01,-1.890475981070344758e-01,-1.890475981070344758e-01,-1.890475981070344758e-01,-1.890475981070344758e-01,-1.155716085593611608e-01,2.678812118925588681e-02
1.048563600836587839e-01,1.048563600836587839e-01,1.048563600836587839e-01,1.048563600836587839e-01,1.048563600836587839e-01,1.048563600836587839e-01,1.048563600836587839e-01,1.048563600836587839e-01,1.048563600836587839e-01,1.048563600836587839e-01,1.048563600836587839e-01,1.033256103014155852e-01,7.959898867664608191e-02,5.663774194299816406e-02,3.367649520935026008e-02,1.071524847570234917e-02,-2.644316388721517641e-01,-2.873928856057996750e-01,-5.296515333212077348e-01,-5.526127800548557012e-01,-3.241537610654188217e-01,-3.478803826901883389e-01,-1.515442284420762120e-01,-1.745054751757241229e-01,-1.890475981070344758e-01,-1.890475981070344758e-01,-1.890475981070344758e-01,-1.890475981070344758e-01,-1.890475981070344758e-01,-1.890475981070344758e-01,-1.890475981070344758e-01,-1.890475981070344758e-01,-1.890475981070344758e-01,-1.890475981070344758e-01,-1.890475981070344758e-01,-1.890475981070344758e-01,-1.890475981070344758e-01,-1.890475981070344758e-01,-1.890475981070344758e-01,-1.890475981070344758e-01,-1.890475981070344758e-01,-4.135115590532710272e-01,-4.135115590532710272e-01,-4.135115590532710272e-01,-4.135115590532710272e-01,-3.110469955043672075e-01,5.663774194299817100e-02
1.048563600836587839e-01,1.048563600836587839e-01,1.048563600836587839e-01,1.048563600836587839e-01,1.048563600836587839e-01,1.048563600836587839e-01,1.048563600836587839e-01,1.048563600836587839e-01,1.048563600836587839e-01,1.048563600836587839e-01,1.048563600836587839e-01,1.048563600836587839e-01,8.801811247898363999e-02,6.505686574533572908e-02,4.133024412056623964e-02,1.836899738691831485e-02,-2.560125150698142060e-01,-2.789737618034621169e-01,-5.219977844099916720e-01,-5.449590311436396384e-01,-3.165000121542028699e-01,-3.394612588878507808e-01,-1.431251046397386539e-01,-1.668517262645081156e-01,-1.890475981070344758e-01,-1.890475981070344758e-01,-1.890475981070344758e-01,-1.890475981070344758e-01,-1.890475981070344758e-01,-1.890475981070344758e-01,-1.890475981070344758e-01,-1.890475981070344758e-01,-1.890475981070344758e-01,-1.890475981070344758e-01,-1.890475981070344758e-01,-1.890475981070344758e-01,-1.890475981070344758e-01,-1.890475981070344758e-01,-1.890475981070344758e-01,-1.890475981070344758e-01,-1.890475981070344758e-01,-4.135115590532710272e-01,-3.400355695055977123e-01,-2.481905825710060687e-01,-1.471610969429552607e-01,-1.196076008625777676e-01,1.048563600836587839e-01
1.048563600836587839e-01,1.048563600836587839e-01,1.048563600836587839e-01,1.048563600836587839e-01,1.048563600836587839e-01,1.048563600836587839e-01,1.048563600836587839e-01,1.048563600836587839e-01,1.048563600836587839e-01,1.048563600836587839e-01,1.048563600836587839e-01,1.048563600836587839e-01,9.567186139019961955e-02,7.271061465655170863e-02,4.974936792290379772e-02,2.678812118925588681e-02,3.061499564486383496e-03,-1.989974716916152742e-02,-2.621583948845694345e-01,-2.851196416182174009e-01,-3.080808883518653118e-01,-3.318075099766348290e-01,-1.354713557285227021e-01,-1.584326024621705575e-01,-1.813938491958185240e-01,-1.890475981070344758e-01,-1.890475981070344758e-01,-1.890475981070344758e-01,-1.890475981070344758e-01,-1.890475981070345313e-01,-1.890475981070344758e-01,-1.890475981070344758e-01,-1.890475981070344758e-01,-1.890475981070344758e-01,-1.890475981070344758e-01,-1.890475981070344758e-01,-1.890475981070344758e-01,-1.890475981070344758e-01,-1.890475981070344758e-01,-1.247561072528203252e-01,-3.291112031822868156e-02,-1.563455956364144250e-01,-1.196076008625777676e-01,-1.196076008625777676e-01,-1.196076008625777676e-01,-1.196076008625777676e-01,1.048563600836587839e-01
1.048563600836587839e-01,1.048563600836587839e-01,1.048563600836587839e-01,1.048563600836587839e-01,1.048563600836587839e-01,1.048563600836587839e-01,1.048563600836587839e-01,1.048563600836587839e-01,1.048563600836587839e-01,1.048563600836587839e-01,1.048563600836587839e-01,1.048563600836587839e-01,1.040909851925371915e-01,8.112973845888926672e-02,5.740311683411977034e-02,3.444187010047185249e-02,1.148062336682394158e-02,-1.148062336682395546e-02,-3.444187010047186637e-02,-5.816849172524138356e-02,-8.112973845888929447e-02,-1.040909851925372054e-01,-1.270522319261851163e-01,-1.507788535509546057e-01,-1.737401002846025166e-01,-1.890475981070344758e-01,-1.890475981070344758e-01,-1.890475981070344758e-01,-1.890475981070344758e-01,-1.890475981070344758e-01,-1.890475981070344758e-01,-1.890475981070344758e-01,-1.890475981070345313e-01,-1.890475981070344758e-01,-1.890475981070344758e-01,-1.890475981070344758e-01,-1.431251046397386539e-01,-4.209561901168784592e-02,4.974936792290379772e-02,1.048563600836587839e-01,1.048563600836587839e-01,-1.196076008625777676e-01,-1.196076008625777676e-01,-1.196076008625777676e-01,-1.196076008625777676e-01,-1.196076008625777676e-01,1.048563600836587839e-01
1.048563600836587839e-01,1.048563600836587839e-01,1.048563600836587839e-01,1.048563600836587839e-01,1.048563600836587839e-01,1.048563600836587839e-01,1.048563600836587839e-01,1.048563600836587839e-01,1.048563600836587839e-01,1.048563600836587839e-01,1.048563600836587839e-01,1.048563600836587839e-01,1.048563600836587839e-01,8.878348737010524627e-02,6.582224063645733536e-02,4.286099390280942445e-02,1.989974716916151354e-02,-3.826874455607989778e-03,-2.678812118925588681e-02,-4.974936792290379772e-02,-7.271061465655173639e-02,-9.643723628132125358e-02,-1.193984830149691645e-01,-1.423597297486170477e-01,-1.653209764822649586e-01,-1.882822232159128695e-01,-1.890475981070344758e-01,-1.890475981070344758e-01,-1.890475981070344758e-01,-1.890475981070344758e-01,-1.890475981070344758e-01,-1.890475981070344758e-01,-1.890475981070345313e-01,-1.523096033331978183e-01,-6.046461639860617465e-02,4.056486922944463336e-02,1.048563600836587839e-01,1.048563600836587839e-01,1.048563600836587839e-01,1.048563600836587839e-01,1.048563600836587839e-01,-1.196076008625777676e-01,-1.196076008625777676e-01,-1.196076008625777676e-01,-1.196076008625777676e-01,-1.196076008625777676e-01,1.048563600836587839e-01
1.048563600836587839e-01,1.048563600836587839e-01,1.048563600836587839e-01,1.048563600836587839e-01,1.048563600836587839e-01,1.048563600836587839e-01,1.048563600836587839e-01,1.048563600836587839e-01,1.048563600836587839e-01,1.048563600836587839e-01,1.048563600836587839e-01,1.048563600836587839e-01,1.048563600836587839e-01,9.720261117244281823e-02,7.347598954767330104e-02,5.051474281402539013e-02,2.755349608037747922e-02,4.592249346729582182e-03,-1.836899738691832873e-02,-4.209561901168784592e-02,-6.505686574533575683e-02,-8.801811247898366775e-02,-1.109793592126315787e-01,-1.347059808374010959e-01,-1.576672275710490068e-01,-1.806284743046969177e-01,-1.890475981070344758e-01,-1.890475981070344758e-01,-1.890475981070344758e-01,-1.890475981070344758e-01,-1.706786007201161470e-01,-6.964911509206533902e-02,3.138037053598546899e-02,1.048563600836587839e-01,1.048563600836587839e-01,1.048563600836587839e-01,1.048563600836587839e-01,1.048563600836587839e-01,1.048563600836587839e-01,1.048563600836587839e-01,1.048563600836587839e-01,1.048563600836587839e-01,1.048563600836587839e-01,1.048563600836587839e-01,1.048563600836587839e-01,1.048563600836587839e-01,1.048563600836587839e-01
1.048563600836587839e-01,1.048563600836587839e-01,1.048563600836587839e-01,1.048563600836587839e-01,1.048563600836587839e-01,1.048563600836587839e-01,1.048563600836587839e-01,1.048563600836587839e-01,1.048563600836587839e-01,1.048563600836587839e-01,1.048563600836587839e-01,1.048563600836587839e-01,1.048563600836587839e-01,1.048563600836587839e-01,8.189511335001087300e-02,5.893386661636295515e-02,3.597261988271505118e-02,1.224599825794553398e-02,-1.071524847570236305e-02,-3.367649520935028784e-02,-5.663774194299817100e-02,-8.036436356776768819e-02,-1.033256103014156269e-01,-1.262868570350635100e-01,-1.492481037687113932e-01,-1.722093505023593596e-01,-1.890475981070344758e-01,-1.798630994135753114e-01,-7.883361378552450338e-02,1.301137314906714026e-02,1.048563600836587839e-01,1.048563600836587839e-01,1.048563600836587839e-01,1.048563600836587839e-01,1.048563600836587839e-01,1.048563600836587839e-01,1.048563600836587839e-01,1.048563600836587839e-01,1.048563600836587839e-01,1.048563600836587839e-01,1.048563600836587839e-01,1.048563600836587839e-01,1.048563600836587839e-01,1.048563600836587839e-01,1.048563600836587839e-01,1.048563600836587839e-01,1.048563600836587839e-01
