-2.025847748189570641e-01,-2.025847748189570641e-01,-2.025847748189570641e-01,-2.025847748189570641e-01,-2.025847748189570641e-01,-2.025847748189570641e-01,-2.025847748189570641e-01,-2.025847748189570641e-01,-2.025847748189570641e-01,-2.025847748189570641e-01,-2.025847748189570641e-01,-2.025847748189570641e-01,-2.025847748189570641e-01,-2.025847748189570641e-01,-2.025847748189570641e-01,-2.025847748189570641e-01,-2.025847748189570641e-01,-2.025847748189570641e-01,-2.025847748189570641e-01,-2.025847748189570641e-01,-2.025847748189570641e-01,-2.025847748189570641e-01,-2.025847748189570641e-01,-2.025847748189570641e-01,-2.025847748189570641e-01,-2.025847748189570641e-01,-2.025847748189570641e-01,-2.025847748189570641e-01,-2.025847748189570641e-01,-2.025847748189570641e-01,-2.025847748189570641e-01,-2.025847748189570641e-01,-2.025847748189570641e-01,-2.025847748189570641e-01,-2.025847748189570641e-01,-2.025847748189570641e-01,-2.025847748189570641e-01,-2.025847748189570641e-01,-2.025847748189570641e-01,-2.025847748189570641e-01,-2.025847748189570641e-01,-2.025847748189570641e-01,-2.025847748189570641e-01,-2.025847748189570641e-01,-2.025847748189570641e-01,-2.025847748189570641e-01,-2.025847748189570641e-01
-2.025847748189570641e-01,-2.025847748189570641e-01,-2.025847748189570641e-01,-2.025847748189570641e-01,-2.025847748189570641e-01,-2.025847748189570641e-01,-2.025847748189570641e-01,-2.025847748189570641e-01,-2.025847748189570641e-01,-2.025847748189570641e-01,-2.025847748189570641e-01,-2.025847748189570641e-01,-2.025847748189570641e-01,-2.025847748189570641e-01,-2.025847748189570641e-01,-2.025847748189570641e-01,-2.025847748189570641e-01,-2.025847748189570641e-01,-2.025847748189570641e-01,-2.025847748189570641e-01,-2.025847748189570641e-01,-2.025847748189570641e-01,-2.025847748189570641e-01,-2.025847748189570641e-01,-2.025847748189570641e-01,-2.025847748189570641e-01,-2.025847748189570641e-01,-2.025847748189570641e-01,-2.025847748189570641e-01,-2.025847748189570641e-01,-2.025847748189570641e-01,-2.025847748189570641e-01,-2.025847748189570641e-01,-2.025847748189570641e-01,-2.025847748189570641e-01,-2.025847748189570641e-01,-2.025847748189570641e-01,-2.025847748189570641e-01,-2.025847748189570641e-01,-2.025847748189570641e-01,-2.025847748189570641e-01,-2.025847748189570641e-01,-2.025847748189570641e-01,-2.025847748189570641e-01,-2.025847748189570641e-01,-2.025847748189570641e-01,-2.025847748189570641e-01
-2.025847748189570641e-01,-2.025847748189570641e-01,-2.025847748189570641e-01,-2.025847748189570641e-01,-2.025847748189570641e-01,-2.025847748189570641e-01,-2.025847748189570641e-01,-2.025847748189570641e-01,-2.025847748189570641e-01,-2.025847748189570641e-01,-2.025847748189570641e-01,-2.025847748189570641e-01,-2.025847748189570641e-01,-2.025847748189570641e-01,-2.025847748189570641e-01,-2.025847748189570641e-01,-2.025847748189570641e-01,-2.025847748189570641e-01,-2.025847748189570641e-01,-2.025847748189570641e-01,-2.025847748189570641e-01,-2.025847748189570641e-01,-2.025847748189570641e-01,-4.223398061147982663e-01,-4.223398061147982663e-01,-4.223398061147982663e-01,-4.223398061147982663e-01,-4.223398061147982663e-01,-2.025847748189570641e-01,-2.025847748189570641e-01,-2.025847748189570641e-01,-2.025847748189570641e-01,-2.025847748189570641e-01,-2.025847748189570641e-01,-2.025847748189570641e-01,-2.025847748189570641e-01,-2.025847748189570641e-01,-2.025847748189570641e-01,-2.025847748189570641e-01,-2.025847748189570641e-01,-2.020960018098580113e-01,-2.025847748189570641e-01,-2.025847748189570641e-01,-2.025847748189570641e-01,-2.025847748189570641e-01,-2.025847748189570641e-01,-2.025847748189570641e-01
-2.025847748189570641e-01,-2.025847748189570641e-01,-2.025847748189570641e-01,-2.025847748189570641e-01,-2.025847748189570641e-01,-2.025847748189570641e-01,-2.025847748189570641e-01,-2.025847748189570641e-01,-2.025847748189570641e-01,-2.025847748189570641e-01,-2.025847748189570641e-01,-2.025847748189570641e-01,-2.025847748189570641e-01,-2.025847748189570641e-01,-2.025847748189570641e-01,-2.025847748189570641e-01,-2.025847748189570641e-01,-2.025847748189570641e-01,-2.025847748189570641e-01,-2.025847748189570641e-01,-2.025847748189570641e-01,-2.025847748189570641e-01,-2.025847748189570641e-01,-4.223398061147982663e-01,-4.223398061147982663e-01,-4.223398061147982663e-01,-4.223398061147982663e-01,-4.223398061147982663e-01,-2.025847748189570641e-01,-2.025847748189570641e-01,-2.025847748189570641e-01,-2.025847748189570641e-01,-2.025847748189570641e-01,-2.025847748189570641e-01,-2.025847748189570641e-01,-2.025847748189570641e-01,-2.025847748189570641e-01,-2.025847748189570641e-01,-1.981159930214800580e-01,-1.936472112240030796e-01,-1.946247572422011574e-01,-2.025847748189570641e-01,-2.025847748189570641e-01,-2.025847748189570641e-01,-2.025847748189570641e-01,-2.025847748189570641e-01,-2.025847748189570641e-01
-2.025847748189570641e-01,-2.025847748189570641e-01,-2.025847748189570641e-01,-2.025847748189570641e-01,-2.025847748189570641e-01,-2.025847748189570641e-01,-2.025847748189570641e-01,-2.025847748189570641e-01,-2.025847748189570641e-01,-2.025847748189570641e-01,-2.025847748189570641e-01,-2.025847748189570641e-01,-2.025847748189570641e-01,-2.025847748189570641e-01,-2.025847748189570641e-01,-2.025847748189570641e-01,-2.025847748189570641e-01,-2.025847748189570641e-01,-2.025847748189570641e-01,-2.025847748189570641e-01,-2.025847748189570641e-01,-2.025847748189570641e-01,-2.025847748189570641e-01,-4.223398061147982663e-01,-4.223398061147982663e-01,-4.223398061147982663e-01,-4.223398061147982663e-01,-4.223398061147982663e-01,-2.025847748189570641e-01,-2.025847748189570641e-01,-2.025847748189570641e-01,-2.025847748189570641e-01,-2.025847748189570641e-01,-2.025847748189570641e-01,-2.025847748189570641e-01,-2.010951808864647194e-01,-1.966263990889877411e-01,-1.917852188083876697e-01,-1.873164370109106636e-01,-1.828476552134336852e-01,-1.787745468042749586e-01,-2.007693322137320269e-01,-2.025847748189570641e-01,-2.025847748189570641e-01,-2.025847748189570641e-01,-2.025847748189570641e-01,-2.025847748189570641e-01
-2.025847748189570641e-01,-2.025847748189570641e-01,-2.025847748189570641e-01,-2.025847748189570641e-01,-2.025847748189570641e-01,-2.025847748189570641e-01,-2.025847748189570641e-01,-2.025847748189570641e-01,-2.025847748189570641e-01,-2.025847748189570641e-01,-2.025847748189570641e-01,-2.025847748189570641e-01,-2.025847748189570641e-01,-2.025847748189570641e-01,-2.025847748189570641e-01,-2.025847748189570641e-01,-2.025847748189570641e-01,-2.025847748189570641e-01,-2.025847748189570641e-01,-2.025847748189570641e-01,-2.025847748189570641e-01,-2.025847748189570641e-01,-2.025847748189570641e-01,-4.223398061147982663e-01,-4.223398061147982663e-01,-4.223398061147982663e-01,-4.223398061147982663e-01,-4.223398061147982663e-01,-2.025847748189570641e-01,-2.025847748189570641e-01,-2.025847748189570641e-01,-2.025847748189570641e-01,-2.025847748189570641e-01,-1.992331884708493095e-01,-1.947644066733723311e-01,-1.902956248758953250e-01,-1.854544445952952536e-01,-1.809856627978182475e-01,-1.761444825172181761e-01,-1.716757007197411977e-01,-1.672069189222641916e-01,-1.849889464913914150e-01,-2.025847748189570641e-01,-2.025847748189570641e-01,-2.025847748189570641e-01,-2.025847748189570641e-01,-2.025847748189570641e-01
-2.025847748189570641e-01,-2.025847748189570641e-01,-2.025847748189570641e-01,-2.025847748189570641e-01,-2.025847748189570641e-01,-2.025847748189570641e-01,-2.025847748189570641e-01,-2.025847748189570641e-01,-2.025847748189570641e-01,-2.025847748189570641e-01,-2.025847748189570641e-01,-2.025847748189570641e-01,-2.025847748189570641e-01,-2.025847748189570641e-01,-2.025847748189570641e-01,-2.025847748189570641e-01,-2.025847748189570641e-01,-2.025847748189570641e-01,-2.025847748189570641e-01,-2.025847748189570641e-01,-2.025847748189570641e-01,-2.025847748189570641e-01,-2.025847748189570641e-01,-4.223398061147982663e-01,-4.223398061147982663e-01,-4.223398061147982663e-01,-4.223398061147982663e-01,-4.223398061147982663e-01,-2.025847748189570641e-01,-2.025847748189570641e-01,-2.022123763358339710e-01,-1.977435945383569926e-01,-1.929024142577569212e-01,-1.884336324602799151e-01,-1.835924521796798436e-01,-1.791236703822028375e-01,-1.746548885847258592e-01,-1.698137083041257878e-01,-1.653449265066487817e-01,-1.605037462260487102e-01,-1.560349644285717041e-01,-1.611321686663189090e-01,-2.025847748189570641e-01,-2.025847748189570641e-01,-2.025847748189570641e-01,-2.025847748189570641e-01,-2.025847748189570641e-01
-2.025847748189570641e-01,-2.025847748189570641e-01,-2.025847748189570641e-01,-2.025847748189570641e-01,-2.025847748189570641e-01,-2.025847748189570641e-01,-2.025847748189570641e-01,-2.025847748189570641e-01,-2.025847748189570641e-01,-2.025847748189570641e-01,-2.025847748189570641e-01,-2.025847748189570641e-01,-2.025847748189570641e-01,-2.025847748189570641e-01,-2.025847748189570641e-01,-2.025847748189570641e-01,-2.025847748189570641e-01,-2.025847748189570641e-01,-2.025847748189570641e-01,-2.025847748189570641e-01,-2.025847748189570641e-01,-2.025847748189570641e-01,-2.025847748189570641e-01,-2.025847748189570641e-01,-2.025847748189570641e-01,-2.025847748189570641e-01,-2.025847748189570641e-01,-2.025847748189570641e-01,-2.003503839202185610e-01,-1.958816021227415827e-01,-1.910404218421414835e-01,-1.865716400446645051e-01,-1.821028582471875268e-01,-1.772616779665874276e-01,-1.727928961691104492e-01,-1.683241143716334431e-01,-1.634829340910333717e-01,-1.590141522935563656e-01,-1.541729720129562942e-01,-1.497041902154793158e-01,-1.452354084180023097e-01,-1.403942281374022383e-01,-1.838368386842293700e-01,-2.025847748189570641e-01,-2.025847748189570641e-01,-2.025847748189570641e-01,-2.025847748189570641e-01
-2.025847748189570641e-01,-2.025847748189570641e-01,-2.025847748189570641e-01,-2.025847748189570641e-01,-2.025847748189570641e-01,-2.025847748189570641e-01,-2.025847748189570641e-01,-2.025847748189570641e-01,-2.025847748189570641e-01,-2.025847748189570641e-01,-2.025847748189570641e-01,-2.025847748189570641e-01,-2.025847748189570641e-01,-2.025847748189570641e-01,-2.025847748189570641e-01,-2.025847748189570641e-01,-2.025847748189570641e-01,-2.025847748189570641e-01,-2.025847748189570641e-01,-2.025847748189570641e-01,-2.025847748189570641e-01,-2.025847748189570641e-01,-2.025847748189570641e-01,-2.025847748189570641e-01,-2.025847748189570641e-01,-2.025847748189570641e-01,-1.984883915046031511e-01,-1.940196097071261727e-01,-1.895508279096491666e-01,-1.847096476290490952e-01,-1.802408658315720891e-01,-1.757720840340951107e-01,-1.709309037534950115e-01,-1.664621219560180332e-01,-1.616209416754179617e-01,-1.571521598779409556e-01,-1.526833780804639773e-01,-1.478421977998639059e-01,-1.433734160023868998e-01,-1.385322357217868283e-01,-1.340634539243098500e-01,-1.295946721268328439e-01,-1.490757677752091170e-01,-2.025847748189570641e-01,-2.025847748189570641e-01,-2.025847748189570641e-01,-2.025847748189570641e-01
-2.025847748189570641e-01,-2.025847748189570641e-01,-2.025847748189570641e-01,-2.025847748189570641e-01,-2.025847748189570641e-01,-2.025847748189570641e-01,-2.025847748189570641e-01,-2.025847748189570641e-01,-2.025847748189570641e-01,-2.025847748189570641e-01,-2.025847748189570641e-01,-2.025847748189570641e-01,-2.025847748189570641e-01,-2.025847748189570641e-01,-2.025847748189570641e-01,-2.025847748189570641e-01,-2.025847748189570641e-01,-2.025847748189570641e-01,-2.025847748189570641e-01,-2.025847748189570641e-01,-2.025847748189570641e-01,-2.025847748189570641e-01,-2.025847748189570641e-01,-2.014675793695878125e-01,-1.969987975721108342e-01,-1.921576172915107350e-01,-1.876888354940337567e-01,-1.832200536965567506e-01,-1.783788734159566791e-01,-1.739100916184797008e-01,-1.690689113378796016e-01,-1.646001295404026232e-01,-1.601313477429256449e-01,-1.552901674623255457e-01,-1.508213856648485396e-01,-1.463526038673715612e-01,-1.415114235867714898e-01,-1.370426417892944837e-01,-1.322014615086944123e-01,-1.277326797112174339e-01,-1.232638979137404417e-01,-1.184227176331403564e-01,-1.139539358356633642e-01,-1.909007724109703374e-01,-2.025847748189570641e-01,-2.025847748189570641e-01,-2.025847748189570641e-01
-2.025847748189570641e-01,-2.025847748189570641e-01,-2.025847748189570641e-01,-2.025847748189570641e-01,-2.025847748189570641e-01,-2.025847748189570641e-01,-2.025847748189570641e-01,-2.025847748189570641e-01,-2.025847748189570641e-01,-2.025847748189570641e-01,-2.025847748189570641e-01,-2.025847748189570641e-01,-2.025847748189570641e-01,-2.025847748189570641e-01,-2.025847748189570641e-01,-2.025847748189570641e-01,-2.025847748189570641e-01,-2.025847748189570641e-01,-2.025847748189570641e-01,-2.025847748189570641e-01,-2.025847748189570641e-01,-1.996055869539724026e-01,-1.951368051564953965e-01,-1.906680233590184181e-01,-1.858268430784183467e-01,-1.813580612809413406e-01,-1.765168810003412692e-01,-1.720480992028642908e-01,-1.675793174053872847e-01,-1.627381371247872133e-01,-1.582693553273102349e-01,-1.538005735298332288e-01,-1.489593932492331296e-01,-1.444906114517561513e-01,-1.396494311711560798e-01,-1.351806493736790737e-01,-1.307118675762020954e-01,-1.258706872956020240e-01,-1.214019054981250179e-01,-1.165607252175249464e-01,-1.120919434200479542e-01,-1.076231616225709481e-01,-1.027819813419708767e-01,-1.471905004543985207e-01,-2.025847748189570641e-01,-2.025847748189570641e-01,-2.025847748189570641e-01
-2.025847748189570641e-01,-2.025847748189570641e-01,-2.025847748189570641e-01,-2.025847748189570641e-01,-2.025847748189570641e-01,-2.025847748189570641e-01,-2.025847748189570641e-01,-2.025847748189570641e-01,-2.025847748189570641e-01,-2.025847748189570641e-01,-2.025847748189570641e-01,-2.025847748189570641e-01,-2.025847748189570641e-01,-2.025847748189570641e-01,-2.025847748189570641e-01,-2.025847748189570641e-01,-2.025847748189570641e-01,-2.025847748189570641e-01,-2.025847748189570641e-01,-1.981159930214800580e-01,-1.932748127408799865e-01,-1.888060309434030082e-01,-1.839648506628029367e-01,-1.794960688653259306e-01,-1.750272870678489245e-01,-1.701861067872488809e-01,-1.657173249897718748e-01,-1.612485431922948687e-01,-1.564073629116947972e-01,-1.519385811142178189e-01,-1.470974008336177197e-01,-1.426286190361407413e-01,-1.381598372386637352e-01,-1.333186569580636638e-01,-1.288498751605866854e-01,-1.240086948799866001e-01,-1.195399130825096079e-01,-1.150711312850326296e-01,-1.102299510044325304e-01,-1.057611692069555381e-01,-1.012923874094785459e-01,-9.645120712887847447e-02,-9.198242533140148225e-02,-9.796407596656599159e-02,-2.025847748189570641e-01,-2.025847748189570641e-01,-2.025847748189570641e-01
-2.025847748189570641e-01,-2.025847748189570641e-01,-2.025847748189570641e-01,-2.025847748189570641e-01,-2.025847748189570641e-01,-2.025847748189570641e-01,-2.025847748189570641e-01,-2.025847748189570641e-01,-2.025847748189570641e-01,-2.025847748189570641e-01,-2.025847748189570641e-01,-2.025847748189570641e-01,-2.025847748189570641e-01,-2.025847748189570641e-01,-2.025847748189570641e-01,-2.025847748189570641e-01,-2.007227824033416541e-01,-1.962540006058646480e-01,-1.914128203252645766e-01,-1.869440385277875982e-01,-1.824752567303105921e-01,-1.776340764497105207e-01,-1.731652946522335146e-01,-1.686965128547565362e-01,-1.638553325741564648e-01,-1.593865507766794587e-01,-1.545453704960793873e-01,-1.500765886986024089e-01,-1.456078069011254028e-01,-1.407666266205253036e-01,-1.362978448230483253e-01,-1.318290630255713469e-01,-1.269878827449712477e-01,-1.225191009474942694e-01,-1.176779206668941979e-01,-1.132091388694172057e-01,-1.087403570719402135e-01,-1.038991767913401143e-01,-9.943039499386313596e-02,-9.458921471326306452e-02,-9.012043291578605841e-02,-8.565165111830905231e-02,-8.081047083770898087e-02,-7.634168904023200253e-02,-1.535678244778813095e-01,-2.025847748189570641e-01,-2.025847748189570641e-01
-2.025847748189570641e-01,-2.025847748189570641e-01,-2.025847748189570641e-01,-2.025847748189570641e-01,-2.025847748189570641e-01,-2.025847748189570641e-01,-2.025847748189570641e-01,-2.025847748189570641e-01,-2.025847748189570641e-01,-2.025847748189570641e-01,-2.025847748189570641e-01,-3.502483706296811716e-01,-3.502483706296811716e-01,-3.502483706296811716e-01,-3.468967842815734448e-01,-3.420556040009733456e-01,-1.899232263927722597e-01,-1.850820461121721605e-01,-1.806132643146951822e-01,-1.761444825172181761e-01,-1.713033022366181046e-01,-1.668345204391411263e-01,-1.619933401585410548e-01,-1.575245583610640487e-01,-1.530557765635870426e-01,-1.482145962829869712e-01,-1.437458144855099929e-01,-1.392770326880329868e-01,-1.344358524074329153e-01,-1.299670706099559370e-01,-1.251258903293558378e-01,-1.206571085318788594e-01,-1.161883267344018533e-01,-1.113471464538017819e-01,-1.068783646563247897e-01,-1.020371843757247043e-01,-9.756840257824771212e-02,-9.309962078077073377e-02,-8.825844050017064846e-02,-8.378965870269364236e-02,-7.932087690521666401e-02,-7.447969662461659257e-02,-7.001091482713961422e-02,-6.516973454653954279e-02,-9.173803882685195588e-02,-2.025847748189570641e-01,-2.025847748189570641e-01
-2.025847748189570641e-01,-2.025847748189570641e-01,-2.025847748189570641e-01,-2.025847748189570641e-01,-2.025847748189570641e-01,-2.025847748189570641e-01,-2.025847748189570641e-01,-2.025847748189570641e-01,-2.025847748189570641e-01,-2.025847748189570641e-01,-2.025847748189570641e-01,-3.495035736634350410e-01,-3.450347918659580349e-01,-3.401936115853579912e-01,-3.357248297878809851e-01,-3.312560479904039790e-01,-1.787512718990797722e-01,-1.742824901016027661e-01,-1.694413098210026947e-01,-1.649725280235257163e-01,-1.605037462260487102e-01,-1.556625659454486388e-01,-1.511937841479716327e-01,-1.467250023504946266e-01,-1.418838220698945829e-01,-1.374150402724175768e-01,-1.325738599918175054e-01,-1.281050781943405270e-01,-1.236362963968635209e-01,-1.187951161162634495e-01,-1.143263343187864434e-01,-1.094851540381863719e-01,-1.050163722407093658e-01,-1.005475904432323736e-01,-9.570641016263231604e-02,-9.123762836515530994e-02,-8.676884656767830384e-02,-8.192766628707823240e-02,-7.745888448960122630e-02,-7.261770420900118261e-02,-6.814892241152420427e-02,-6.368014061404717041e-02,-5.883896033344712673e-02,-5.437017853597012063e-02,-4.990139673849311452e-02,-1.681262776774743173e-01,-2.025847748189570641e-01
-2.025847748189570641e-01,-2.025847748189570641e-01,-2.025847748189570641e-01,-2.025847748189570641e-01,-2.025847748189570641e-01,-2.025847748189570641e-01,-2.025847748189570641e-01,-2.025847748189570641e-01,-2.025847748189570641e-01,-1.999779854370954957e-01,-1.955092036396184896e-01,-3.387040176528656188e-01,-3.338628373722655196e-01,-3.293940555747885690e-01,-3.245528752941884698e-01,-3.200840934967115192e-01,-1.679517158885103778e-01,-1.631105356079102786e-01,-1.586417538104333003e-01,-1.541729720129562942e-01,-1.493317917323562227e-01,-1.448630099348792166e-01,-1.400218296542791452e-01,-1.355530478568021668e-01,-1.310842660593251607e-01,-1.262430857787251171e-01,-1.217743039812481110e-01,-1.173055221837711187e-01,-1.124643419031710334e-01,-1.079955601056940412e-01,-1.031543798250939559e-01,-9.868559802761696365e-02,-9.421681623013997142e-02,-8.937563594953988610e-02,-8.490685415206290776e-02,-8.006567387146282244e-02,-7.559689207398584410e-02,-7.112811027650883799e-02,-6.628692999590876656e-02,-6.181814819843178821e-02,-5.734936640095478211e-02,-5.250818612035471067e-02,-4.803940432287770457e-02,-4.319822404227760537e-02,-3.872944224480065478e-02,-9.738220333668619333e-02,-2.025847748189570641e-01
-2.025847748189570641e-01,-2.025847748189570641e-01,-2.025847748189570641e-01,-2.025847748189570641e-01,-2.025847748189570641e-01,-2.025847748189570641e-01,-2.025847748189570641e-01,-1.984883915046031511e-01,-1.936472112240030796e-01,-1.891784294265260735e-01,-1.847096476290490952e-01,-3.275320631591731591e-01,-3.230632813616961529e-01,-3.182221010810960538e-01,-3.137533192836191032e-01,-3.092845374861420971e-01,-1.567797613948178626e-01,-1.523109795973408842e-01,-1.474697993167408128e-01,-1.430010175192638067e-01,-1.385322357217868283e-01,-1.336910554411867569e-01,-1.292222736437097508e-01,-1.247534918462327724e-01,-1.199123115656327010e-01,-1.154435297681556949e-01,-1.106023494875556235e-01,-1.061335676900786174e-01,-1.016647858926016390e-01,-9.682360561200155369e-02,-9.235482381452454759e-02,-8.751364353392447615e-02,-8.304486173644748392e-02,-7.857607993897050558e-02,-7.373489965837040638e-02,-6.926611786089345579e-02,-6.479733606341644969e-02,-5.995615578281635050e-02,-5.548737398533937215e-02,-5.064619370473927296e-02,-4.617741190726226685e-02,-4.170863010978528851e-02,-3.686744982918524483e-02,-3.239866803170823872e-02,-2.792988623423126038e-02,-2.308870595363116118e-02,-1.853380700693192940e-01
-2.025847748189570641e-01,-2.025847748189570641e-01,-2.025847748189570641e-01,-2.025847748189570641e-01,-2.010951808864647194e-01,-1.966263990889877411e-01,-1.921576172915107350e-01,-1.873164370109106636e-01,-1.828476552134336852e-01,-1.780064749328336138e-01,-1.735376931353566077e-01,-3.167325071486037369e-01,-3.118913268680036932e-01,-3.074225450705266871e-01,-3.025813647899265879e-01,-2.981125829924495818e-01,-1.459802053842484959e-01,-1.411390251036483967e-01,-1.366702433061714184e-01,-1.322014615086944123e-01,-1.273602812280943408e-01,-1.228914994306173486e-01,-1.180503191500172772e-01,-1.135815373525402849e-01,-1.091127555550632788e-01,-1.042715752744631935e-01,-9.980279347698621517e-02,-9.533401167950922295e-02,-9.049283139890915151e-02,-8.602404960143214541e-02,-8.118286932083206009e-02,-7.671408752335509562e-02,-7.224530572587808952e-02,-6.740412544527801808e-02,-6.293534364780103973e-02,-5.809416336720094054e-02,-5.362538156972393444e-02,-4.915659977224695609e-02,-4.431541949164688465e-02,-3.984663769416987855e-02,-3.537785589669292796e-02,-3.053667561609282877e-02,-2.606789381861582267e-02,-2.122671353801572347e-02,-1.675793174053877288e-02,-1.228914994306176678e-02,-1.111143974018498626e-01
-2.025847748189570641e-01,-2.025847748189570641e-01,-1.996055869539724026e-01,-1.947644066733723311e-01,-1.902956248758953250e-01,-1.854544445952952536e-01,-1.809856627978182475e-01,-1.765168810003412692e-01,-1.716757007197411977e-01,-1.672069189222641916e-01,-1.623657386416641202e-01,-1.578969568441871418e-01,-1.534281750467101357e-01,-1.485869947661100643e-01,-1.441182129686330582e-01,-1.396494311711560798e-01,-1.348082508905559807e-01,-1.303394690930790301e-01,-1.254982888124789309e-01,-1.210295070150019386e-01,-1.165607252175249464e-01,-1.117195449369248611e-01,-1.072507631394478689e-01,-1.027819813419708767e-01,-9.794080106137079134e-02,-9.347201926389379911e-02,-8.863083898329374155e-02,-8.416205718581673545e-02,-7.969327538833974323e-02,-7.485209510773968566e-02,-7.038331331026267956e-02,-6.554213302966260812e-02,-6.107335123218562978e-02,-5.660456943470859592e-02,-5.176338915410852448e-02,-4.729460735663151838e-02,-4.282582555915454003e-02,-3.798464527855446859e-02,-3.351586348107751800e-02,-2.867468320047741881e-02,-2.420590140300041271e-02,-1.973711960552343436e-02,-1.489593932492333517e-02,-1.042715752744635682e-02,-5.585977246846257627e-03,-1.117195449369279281e-03,-3.165387106546205254e-02
-1.977435945383569926e-01,-1.929024142577569212e-01,-1.884336324602799151e-01,-1.839648506628029367e-01,-1.791236703822028375e-01,-1.746548885847258592e-01,-1.701861067872488809e-01,-1.653449265066487817e-01,-1.608761447091717756e-01,-1.560349644285717319e-01,-1.515661826310947258e-01,-1.470974008336177197e-01,-1.422562205530176482e-01,-1.377874387555406699e-01,-1.329462584749405707e-01,-1.284774766774635923e-01,-1.240086948799866140e-01,-1.191675145993865287e-01,-1.146987328019095365e-01,-1.102299510044325304e-01,-1.053887707238324589e-01,-1.009199889263554667e-01,-9.607880864575538138e-02,-9.161002684827840303e-02,-8.714124505080139693e-02,-8.230006477020132549e-02,-7.783128297272433327e-02,-7.299010269212427571e-02,-6.852132089464729736e-02,-6.405253909717026350e-02,-5.921135881657021982e-02,-5.474257701909321372e-02,-5.027379522161620762e-02,-4.543261494101610842e-02,-4.096383314353913008e-02,-3.612265286293905864e-02,-3.165387106546205254e-02,-2.718508926798507419e-02,-2.234390898738500275e-02,-1.787512718990799665e-02,-1.340634539243099055e-02,-8.565165111830919109e-03,-4.096383314353940763e-03,-2.775557561562891351e-17,-2.775557561562891351e-17,-2.775557561562891351e-17,-2.775557561562891351e-17
-1.865716400446645051e-01,-1.821028582471875268e-01,-1.776340764497105207e-01,-1.727928961691104492e-01,-1.683241143716334431e-01,-1.634829340910333717e-01,-1.590141522935563656e-01,-1.545453704960793873e-01,-1.497041902154793158e-01,-1.452354084180023097e-01,-1.403942281374022383e-01,-1.359254463399252599e-01,-1.314566645424482538e-01,-1.266154842618481824e-01,-1.221467024643711902e-01,-1.176779206668941979e-01,-1.128367403862941126e-01,-1.083679585888171204e-01,-1.035267783082170490e-01,-9.905799651074004286e-02,-9.458921471326305064e-02,-8.974803443266297920e-02,-8.527925263518598697e-02,-8.081047083770898087e-02,-7.596929055710890943e-02,-7.150050875963193109e-02,-6.665932847903185965e-02,-6.219054668155485355e-02,-5.772176488407787520e-02,-5.288058460347777601e-02,-4.841180280600076991e-02,-4.357062252540069847e-02,-3.910184072792374788e-02,-3.463305893044674177e-02,-2.979187864984667033e-02,-2.532309685236963648e-02,-2.085431505489263038e-02,-1.601313477429258669e-02,-1.154435297681558059e-02,-6.703172696215536908e-03,-2.234390898738530806e-03,-2.775557561562891351e-17,-2.775557561562891351e-17,-2.775557561562891351e-17,-2.775557561562891351e-17,-2.775557561562891351e-17,-2.775557561562891351e-17
-1.757720840340951107e-01,-1.709309037534950393e-01,-1.664621219560180332e-01,-1.619933401585410548e-01,-1.571521598779409556e-01,-1.526833780804639495e-01,-1.482145962829869990e-01,-1.433734160023868998e-01,-1.389046342049098937e-01,-1.340634539243098500e-01,-1.295946721268328439e-01,-1.251258903293558378e-01,-1.202847100487557663e-01,-1.158159282512787741e-01,-1.109747479706787027e-01,-1.065059661732016966e-01,-1.020371843757247043e-01,-9.719600409512463290e-02,-9.272722229764764068e-02,-8.825844050017064846e-02,-8.341726021957056314e-02,-7.894847842209357092e-02,-7.410729814149349948e-02,-6.963851634401649338e-02,-6.516973454653951503e-02,-6.032855426593944359e-02,-5.585977246846243749e-02,-5.101859218786236605e-02,-4.654981039038535995e-02,-4.208102859290838160e-02,-3.723984831230831016e-02,-3.277106651483133182e-02,-2.830228471735432572e-02,-2.346110443675422652e-02,-1.899232263927724818e-02,-1.415114235867717674e-02,-9.682360561200170634e-03,-5.213578763723164533e-03,-3.723984831231208492e-04,-2.775557561562891351e-17,-2.775557561562891351e-17,-2.775557561562891351e-17,-2.775557561562891351e-17,-2.775557561562891351e-17,-5.551115123125782702e-17,-2.775557561562891351e-17,-2.775557561562891351e-17
-1.646001295404026232e-01,-1.601313477429256449e-01,-1.556625659454486388e-01,-1.508213856648485396e-01,-1.463526038673715612e-01,-1.415114235867714898e-01,-1.370426417892944837e-01,-1.325738599918175054e-01,-1.277326797112174339e-01,-1.232638979137404278e-01,-1.184227176331403564e-01,-1.139539358356633642e-01,-1.094851540381863719e-01,-1.046439737575862866e-01,-1.001751919601093083e-01,-9.570641016263230216e-02,-9.086522988203221685e-02,-8.639644808455522462e-02,-8.155526780395515318e-02,-7.708648600647816096e-02,-7.261770420900118261e-02,-6.777652392840111117e-02,-6.330774213092410507e-02,-5.883896033344712673e-02,-5.399778005284702753e-02,-4.952899825537002143e-02,-4.468781797476997775e-02,-4.021903617729299940e-02,-3.575025437981599330e-02,-3.090907409921589410e-02,-2.644029230173891576e-02,-2.159911202113884432e-02,-1.713033022366183822e-02,-1.266154842618485987e-02,-7.820368145584760677e-03,-3.351586348107754576e-03,-2.775557561562891351e-17,-2.775557561562891351e-17,-2.775557561562891351e-17,-2.775557561562891351e-17,-2.775557561562891351e-17,-2.775557561562891351e-17,-2.775557561562891351e-17,-2.775557561562891351e-17,-2.775557561562891351e-17,-2.775557561562891351e-17,-2.775557561562891351e-17
-1.538005735298332288e-01,-1.489593932492331296e-01,-1.444906114517561513e-01,-1.400218296542791729e-01,-1.351806493736790737e-01,-1.307118675762020954e-01,-1.258706872956020240e-01,-1.214019054981250317e-01,-1.169331237006480395e-01,-1.120919434200479542e-01,-1.076231616225709481e-01,-1.031543798250939559e-01,-9.831319954449388443e-02,-9.384441774701687833e-02,-8.900323746641680689e-02,-8.453445566893980079e-02,-8.006567387146282244e-02,-7.522449359086275100e-02,-7.075571179338577266e-02,-6.628692999590876656e-02,-6.144574971530869512e-02,-5.697696791783171677e-02,-5.213578763723161758e-02,-4.766700583975461147e-02,-4.319822404227763313e-02,-3.835704376167756169e-02,-3.388826196420058334e-02,-2.904708168360051190e-02,-2.457829988612350580e-02,-2.010951808864649970e-02,-1.526833780804640051e-02,-1.079955601056942216e-02,-6.330774213092443814e-03,-1.489593932492372375e-03,-5.551115123125782702e-17,-2.775557561562891351e-17,-2.775557561562891351e-17,-2.775557561562891351e-17,-2.775557561562891351e-17,-2.775557561562891351e-17,-2.775557561562891351e-17,-2.775557561562891351e-17,-2.775557561562891351e-17,-2.775557561562891351e-17,-2.110258071030823857e-03,-8.441032284123267670e-03,-1.529937101497333418e-02
-1.426286190361407413e-01,-1.381598372386637352e-01,-1.336910554411867569e-01,-1.288498751605866577e-01,-1.243810933631096793e-01,-1.195399130825096079e-01,-1.150711312850326157e-01,-1.106023494875556235e-01,-1.057611692069555381e-01,-1.012923874094785459e-01,-9.645120712887846059e-02,-9.198242533140146837e-02,-8.751364353392449003e-02,-8.267246325332439083e-02,-7.820368145584741248e-02,-7.373489965837043414e-02,-6.889371937777033494e-02,-6.442493758029335660e-02,-5.958375729969328516e-02,-5.511497550221627906e-02,-5.064619370473927296e-02,-4.580501342413920152e-02,-4.133623162666219542e-02,-3.649505134606215173e-02,-3.202626954858517339e-02,-2.755748775110813953e-02,-2.271630747050809584e-02,-1.824752567303108974e-02,-1.377874387555408364e-02,-8.937563594954012203e-03,-4.468781797477033857e-03,-2.775557561562891351e-17,-2.775557561562891351e-17,-2.775557561562891351e-17,-2.775557561562891351e-17,-2.775557561562891351e-17,-2.775557561562891351e-17,-2.775557561562891351e-17,-2.775557561562891351e-17,-2.775557561562891351e-17,-2.775557561562891351e-17,-2.775557561562891351e-17,-4.748080659819353677e-03,-1.107885487291176974e-02,-1.793719360376186400e-02,-2.426796781685425231e-02,-3.059874202994664061e-02
-1.318290630255713469e-01,-1.269878827449712477e-01,-1.225191009474942694e-01,-1.180503191500172772e-01,-1.132091388694171918e-01,-1.087403570719402135e-01,-1.038991767913401282e-01,-9.943039499386313596e-02,-9.496161319638615761e-02,-9.012043291578605841e-02,-8.565165111830905231e-02,-8.118286932083206009e-02,-7.634168904023200253e-02,-7.187290724275502418e-02,-6.703172696215495274e-02,-6.256294516467794664e-02,-5.809416336720096830e-02,-5.325298308660086910e-02,-4.878420128912383524e-02,-4.431541949164688465e-02,-3.947423921104681321e-02,-3.500545741356983487e-02,-3.016427713296973567e-02,-2.569549533549272957e-02,-2.122671353801572347e-02,-1.638553325741565203e-02,-1.191675145993867369e-02,-7.075571179338574490e-03,-2.606789381861596144e-03,-2.775557561562891351e-17,-2.775557561562891351e-17,-2.775557561562891351e-17,-2.775557561562891351e-17,-2.775557561562891351e-17,-2.775557561562891351e-17,-2.775557561562891351e-17,-2.775557561562891351e-17,-2.775557561562891351e-17,-2.775557561562891351e-17,-5.275645177577337197e-04,-7.385903248607827987e-03,-1.371667746170024405e-02,-2.004745167479266010e-02,-2.690579040564275437e-02,-3.323656461873517043e-02,-3.956733883182758649e-02,-4.642567756267765300e-02
-1.206571085318788594e-01,-1.161883267344018672e-01,-1.117195449369248750e-01,-1.068783646563247758e-01,-1.024095828588477974e-01,-9.756840257824772600e-02,-9.309962078077071990e-02,-8.863083898329374155e-02,-8.378965870269365623e-02,-7.932087690521666401e-02,-7.447969662461659257e-02,-7.001091482713958647e-02,-6.554213302966260812e-02,-6.070095274906253668e-02,-5.623217095158553058e-02,-5.176338915410852448e-02,-4.692220887350845304e-02,-4.245342707603147470e-02,-3.761224679543140326e-02,-3.314346499795442491e-02,-2.867468320047741881e-02,-2.383350291987731961e-02,-1.936472112240031351e-02,-1.452354084180024207e-02,-1.005475904432326373e-02,-5.585977246846257627e-03,-7.447969662461861873e-04,-2.775557561562891351e-17,-2.775557561562891351e-17,-2.775557561562891351e-17,-2.775557561562891351e-17,-2.775557561562891351e-17,-2.775557561562891351e-17,-5.551115123125782702e-17,-5.551115123125782702e-17,-2.775557561562891351e-17,-2.775557561562891351e-17,-3.165387106546208029e-03,-9.496161319638651843e-03,-1.635450005048874611e-02,-2.268527426358116217e-02,-2.901604847667355047e-02,-3.587438720752367249e-02,-4.220516142061606080e-02,-4.906350015146615506e-02,-5.539427436455859888e-02,-6.172504857765098718e-02
-1.098575525213094511e-01,-1.050163722407093658e-01,-1.005475904432323875e-01,-9.607880864575539526e-02,-9.123762836515530994e-02,-8.676884656767830384e-02,-8.192766628707823240e-02,-7.745888448960125405e-02,-7.299010269212424795e-02,-6.814892241152417651e-02,-6.368014061404717041e-02,-5.921135881657016431e-02,-5.437017853597012063e-02,-4.990139673849311452e-02,-4.506021645789301533e-02,-4.059143466041606474e-02,-3.612265286293908639e-02,-3.128147258233898720e-02,-2.681269078486198110e-02,-2.197151050426188190e-02,-1.750272870678490356e-02,-1.303394690930792521e-02,-8.192766628707853771e-03,-3.723984831230847670e-03,-5.551115123125782702e-17,-2.775557561562891351e-17,0.000000000000000000e+00,-5.551115123125782702e-17,-5.551115123125782702e-17,-2.775557561562891351e-17,-2.775557561562891351e-17,-2.775557561562891351e-17,-2.775557561562891351e-17,-2.775557561562891351e-17,-2.775557561562891351e-17,-5.803209695334737850e-03,-1.213398390842715391e-02,-1.846475812151956997e-02,-2.532309685236966423e-02,-3.165387106546205254e-02,-3.851220979631214680e-02,-4.484298400940459062e-02,-5.117375822249697892e-02,-5.803209695334707319e-02,-6.436287116643948925e-02,-7.069364537953190530e-02,-7.755198411038202733e-02
-1.149198444012638626e-01,-9.421681623013997142e-02,-8.937563594953989998e-02,-8.490685415206290776e-02,-8.043807235458591554e-02,-7.559689207398584410e-02,-7.112811027650886575e-02,-6.665932847903185965e-02,-6.181814819843178821e-02,-5.734936640095478211e-02,-5.250818612035468291e-02,-4.803940432287767681e-02,-4.357062252540069847e-02,-3.872944224480065478e-02,-3.426066044732364868e-02,-2.979187864984664258e-02,-2.495069836924659890e-02,-2.048191657176956504e-02,-1.564073629116949360e-02,-1.117195449369251525e-02,-6.703172696215509152e-03,-1.861992415615437713e-03,-2.775557561562891351e-17,-5.551115123125782702e-17,-2.775557561562891351e-17,-2.775557561562891351e-17,-2.775557561562891351e-17,-2.775557561562891351e-17,-2.775557561562891351e-17,-2.775557561562891351e-17,-2.775557561562891351e-17,-2.775557561562891351e-17,-1.582693553273145648e-03,-7.913467766365561706e-03,-1.477180649721562822e-02,-2.110258071030804428e-02,-2.796091944115813854e-02,-3.429169365425055460e-02,-4.062246786734294290e-02,-4.748080659819306493e-02,-5.381158081128548099e-02,-6.014235502437789704e-02,-6.700069375522799131e-02,-7.333146796832040737e-02,-8.018980669917052939e-02,-8.652058091226293157e-02,-9.285135512535536151e-02
-1.488197438180619836e-01,-8.304486173644749780e-02,-7.857607993897047782e-02,-7.410729814149352723e-02,-6.926611786089342804e-02,-6.479733606341647745e-02,-5.995615578281637825e-02,-5.548737398533937215e-02,-5.101859218786236605e-02,-4.617741190726229461e-02,-4.170863010978528851e-02,-3.723984831230833792e-02,-3.239866803170823872e-02,-2.792988623423126038e-02,-2.308870595363113343e-02,-1.861992415615415508e-02,-1.415114235867717674e-02,-9.309962078077077541e-03,-4.841180280600126951e-03,-2.775557561562891351e-17,-2.775557561562891351e-17,-2.775557561562891351e-17,-2.775557561562891351e-17,-2.775557561562891351e-17,-2.775557561562891351e-17,-2.775557561562891351e-17,-2.775557561562891351e-17,-2.775557561562891351e-17,-2.775557561562891351e-17,0.000000000000000000e+00,-4.220516142061647713e-03,-1.055129035515406377e-02,-1.688206456824645207e-02,-2.374040329909654634e-02,-3.007117751218893464e-02,-3.692951624303908442e-02,-4.326029045613147272e-02,-4.959106466922388878e-02,-5.644940340007398305e-02,-6.278017761316637135e-02,-6.963851634401649338e-02,-7.596929055710890943e-02,-8.230006477020132549e-02,-8.915840350105146139e-02,-9.548917771414384970e-02,-1.018199519272362658e-01,-1.086782906580863600e-01
-1.907843978849943778e-01,-7.224530572587808952e-02,-6.740412544527801808e-02,-6.293534364780103973e-02,-5.846656185032403363e-02,-5.362538156972393444e-02,-4.915659977224692834e-02,-4.468781797476994999e-02,-3.984663769416987855e-02,-3.537785589669292796e-02,-3.053667561609282877e-02,-2.606789381861582267e-02,-2.159911202113884432e-02,-1.675793174053874512e-02,-1.228914994306176678e-02,-7.820368145584760677e-03,-2.979187864984689238e-03,-2.775557561562891351e-17,-2.775557561562891351e-17,-2.775557561562891351e-17,-2.775557561562891351e-17,-2.775557561562891351e-17,-5.551115123125782702e-17,-2.775557561562891351e-17,0.000000000000000000e+00,-2.775557561562891351e-17,-5.551115123125782702e-17,-2.775557561562891351e-17,-6.330774213092443814e-03,-1.318911294394256584e-02,-1.951988715703492638e-02,-2.637822588788504841e-02,-3.270900010097746446e-02,-3.903977431406988052e-02,-4.589811304491994703e-02,-5.222888725801239085e-02,-5.908722598886248512e-02,-6.541800020195490117e-02,-7.174877441504728948e-02,-7.860711314589742538e-02,-8.493788735898984144e-02,-9.126866157208224362e-02,-9.812700030293236564e-02,-1.044577745160247678e-01,-1.113161132468748482e-01,-1.176468874599672643e-01,-1.239776616730596526e-01
-2.025847748189570641e-01,-1.141401350772248968e-01,-5.660456943470862368e-02,-5.213578763723161758e-02,-4.729460735663151838e-02,-4.282582555915456779e-02,-3.798464527855446859e-02,-3.351586348107749025e-02,-2.904708168360048415e-02,-2.420590140300038495e-02,-1.973711960552340661e-02,-1.489593932492333517e-02,-1.042715752744632907e-02,-5.958375729969350720e-03,-1.117195449369251525e-03,-2.775557561562891351e-17,-2.775557561562891351e-17,-5.551115123125782702e-17,-2.775557561562891351e-17,0.000000000000000000e+00,-2.775557561562891351e-17,-2.775557561562891351e-17,-2.775557561562891351e-17,-2.775557561562891351e-17,-2.775557561562891351e-17,-2.637822588788529821e-03,-8.968596801880973635e-03,-1.582693553273104015e-02,-2.215770974582345620e-02,-2.848848395891584451e-02,-3.534682268976593877e-02,-4.167759690285835483e-02,-4.853593563370847686e-02,-5.486670984680089291e-02,-6.119748405989328122e-02,-6.805582279074337548e-02,-7.438659700383581930e-02,-8.071737121692823536e-02,-8.757570994777832962e-02,-9.390648416087074568e-02,-1.007648228917208677e-01,-1.070955971048132560e-01,-1.134263713179056582e-01,-1.202847100487557525e-01,-1.266154842618481546e-01,-1.329462584749405707e-01,-1.398045972057906927e-01
-2.025847748189570641e-01,-1.692667480320387552e-01,-4.543261494101610842e-02,-4.096383314353913008e-02,-3.649505134606217949e-02,-3.165387106546208029e-02,-2.718508926798507419e-02,-2.271630747050804033e-02,-1.649829242661508544e-01,-1.605141424686738483e-01,-1.556729621880737491e-01,-1.512041803905967985e-01,-1.471077970762428855e-01,-2.775557561562891351e-17,-2.775557561562891351e-17,-2.775557561562891351e-17,-2.775557561562891351e-17,-2.775557561562891351e-17,-2.775557561562891351e-17,-2.775557561562891351e-17,-2.775557561562891351e-17,-2.775557561562891351e-17,-2.775557561562891351e-17,-5.275645177577031886e-03,-1.160641939066944794e-02,-1.793719360376183625e-02,-2.479553233461195827e-02,-3.112630654770434657e-02,-3.745708076079676263e-02,-4.431541949164685690e-02,-5.064619370473927296e-02,-5.750453243558936722e-02,-6.383530664868178328e-02,-7.016608086177419934e-02,-7.702441959262432136e-02,-8.335519380571673742e-02,-9.021353253656684557e-02,-9.654430674965924775e-02,-1.028750809627516499e-01,-1.097334196936017719e-01,-1.160641939066941603e-01,-1.223949681197865763e-01,-1.292533068506366845e-01,-1.355840810637290728e-01,-1.424424197945791948e-01,-1.487731940076716108e-01,-1.551039682207640269e-01
-2.025847748189570641e-01,-2.025847748189570641e-01,-7.137249678105836437e-02,-3.016427713296973567e-02,-2.532309685236966423e-02,-2.085431505489265813e-02,-1.601313477429258669e-02,-1.154435297681558059e-02,-1.541833682555814600e-01,-1.493421879749813885e-01,-1.471077970762428855e-01,-1.471077970762428855e-01,-1.471077970762428855e-01,-2.775557561562891351e-17,-2.775557561562891351e-17,-2.775557561562891351e-17,-2.775557561562891351e-17,-2.775557561562891351e-17,-2.775557561562891351e-17,-2.775557561562891351e-17,-1.055129035515467439e-03,-7.385903248607855742e-03,-1.424424197945797776e-02,-2.057501619255036607e-02,-2.690579040564275437e-02,-3.376412913649284864e-02,-4.009490334958526470e-02,-4.695324208043535896e-02,-5.328401629352777502e-02,-5.961479050662019108e-02,-6.647312923747031310e-02,-7.280390345056270140e-02,-7.966224218141282343e-02,-8.599301639450522561e-02,-9.232379060759764167e-02,-9.918212933844774981e-02,-1.055129035515401520e-01,-1.118436777646325542e-01,-1.187020164954826484e-01,-1.250327907085750645e-01,-1.318911294394251865e-01,-1.382219036525175748e-01,-1.445526778656099909e-01,-1.514110165964601129e-01,-1.577417908095525012e-01,-1.640725650226449173e-01,-1.709309037534950115e-01
-2.025847748189570641e-01,-2.025847748189570641e-01,-1.354133984256309930e-01,-1.899232263927724818e-02,-1.452354084180026983e-02,-9.682360561200170634e-03,-5.213578763723192289e-03,-7.447969662461861873e-04,-1.471077970762428855e-01,-1.471077970762428855e-01,-1.471077970762428855e-01,-1.471077970762428855e-01,-1.471077970762428855e-01,-2.775557561562891351e-17,-2.775557561562891351e-17,-5.551115123125782702e-17,-2.775557561562891351e-17,-2.775557561562891351e-17,-3.692951624303913993e-03,-1.002372583739635781e-02,-1.635450005048874611e-02,-2.321283878133884038e-02,-2.954361299443122868e-02,-3.640195172528135070e-02,-4.273272593837376676e-02,-4.906350015146618282e-02,-5.592183888231630484e-02,-6.225261309540869314e-02,-6.858338730850110920e-02,-7.544172603935120347e-02,-8.177250025244363341e-02,-8.863083898329374155e-02,-9.496161319638614373e-02,-1.012923874094785598e-01,-1.081507261403286679e-01,-1.144815003534210562e-01,-1.213398390842711783e-01,-1.276706132973635666e-01,-1.340013875104559826e-01,-1.408597262413061046e-01,-1.471905004543985207e-01,-1.535212746674909090e-01,-1.603796133983410033e-01,-1.667103876114334193e-01,-1.735687263422835414e-01,-1.798995005553759297e-01,-1.862302747684683457e-01
-2.025847748189570641e-01,-2.025847748189570641e-01,-2.025847748189570641e-01,-2.641701739654370162e-02,-3.351586348107754576e-03,-2.775557561562891351e-17,-2.775557561562891351e-17,-2.775557561562891351e-17,-1.471077970762429132e-01,-1.471077970762428855e-01,-1.471077970762428855e-01,-1.471077970762428855e-01,-1.471077970762428855e-01,-2.775557561562891351e-17,-2.775557561562891351e-17,-2.775557561562891351e-17,-5.803209695334765605e-03,-1.266154842618485987e-02,-1.899232263927727593e-02,-2.585066137012734244e-02,-3.218143558321975850e-02,-3.851220979631217456e-02,-4.537054852716226883e-02,-5.170132274025468488e-02,-5.803209695334707319e-02,-6.489043568419719521e-02,-7.122120989728961127e-02,-7.807954862813971941e-02,-8.441032284123213547e-02,-9.074109705432453765e-02,-9.759943578517465967e-02,-1.039302099982670619e-01,-1.107885487291171561e-01,-1.171193229422095583e-01,-1.234500971553019744e-01,-1.303084358861520686e-01,-1.366392100992444847e-01,-1.429699843123369007e-01,-1.498283230431869950e-01,-1.561590972562794111e-01,-1.630174359871295331e-01,-1.693482102002219214e-01,-1.756789844133143375e-01,-1.825373231441644317e-01,-1.888680973572568478e-01,-1.951988715703492638e-01,-2.020572103011993581e-01
-2.025847748189570641e-01,-2.025847748189570641e-01,-2.025847748189570641e-01,-9.496161319638614373e-02,-2.775557561562891351e-17,-2.775557561562891351e-17,-2.775557561562891351e-17,-2.775557561562891351e-17,-1.471077970762428855e-01,-1.471077970762429132e-01,-1.471077970762428855e-01,-1.471077970762428855e-01,-1.471077970762428855e-01,-2.110258071030823857e-03,-8.441032284123239915e-03,-1.529937101497333418e-02,-2.163014522806575024e-02,-2.796091944115813854e-02,-3.481925817200823281e-02,-4.115003238510064887e-02,-4.748080659819306493e-02,-5.433914532904315919e-02,-6.066991954213560301e-02,-6.752825827298569727e-02,-7.385903248607811333e-02,-8.018980669917052939e-02,-8.704814543002063754e-02,-9.337891964311303972e-02,-1.002372583739631617e-01,-1.065680325870555778e-01,-1.128988068001479522e-01,-1.197571455309980604e-01,-1.260879197440904764e-01,-1.324186939571828647e-01,-1.392770326880329868e-01,-1.456078069011254028e-01,-1.524661456319755248e-01,-1.587969198450679131e-01,-1.651276940581603014e-01,-1.719860327890104235e-01,-1.783168070021028395e-01,-1.846475812151952556e-01,-1.915059199460453498e-01,-1.978366941591377659e-01,-2.025847748189570641e-01,-2.025847748189570641e-01,-2.025847748189570641e-01
-2.025847748189570641e-01,-2.025847748189570641e-01,-2.025847748189570641e-01,-1.709309037534950115e-01,-5.551115123125782702e-17,-2.775557561562891351e-17,-2.775557561562891351e-17,-2.775557561562891351e-17,-2.775557561562891351e-17,-2.775557561562891351e-17,-2.775557561562891351e-17,-4.748080659819381433e-03,-1.107885487291174198e-02,-1.740962908600415804e-02,-2.426796781685425231e-02,-3.059874202994664061e-02,-3.692951624303905667e-02,-4.378785497388915093e-02,-5.011862918698156699e-02,-5.697696791783166126e-02,-6.330774213092407732e-02,-6.963851634401652113e-02,-7.649685507486661540e-02,-8.282762928795903146e-02,-8.968596801880915348e-02,-9.601674223190154178e-02,-1.023475164449939578e-01,-1.092058551758440660e-01,-1.155366293889364543e-01,-1.218674036020288565e-01,-1.287257423328789785e-01,-1.350565165459713945e-01,-1.419148552768214888e-01,-1.482456294899139049e-01,-1.545764037030062932e-01,-1.614347424338564152e-01,-1.677655166469488313e-01,-1.740962908600412196e-01,-1.809546295908913416e-01,-1.872854038039837299e-01,-1.941437425348338519e-01,-2.004745167479262680e-01,-2.025847748189570641e-01,-2.025847748189570641e-01,-2.025847748189570641e-01,-2.025847748189570641e-01,-2.025847748189570641e-01
-2.025847748189570641e-01,-2.025847748189570641e-01,-2.025847748189570641e-01,-2.025847748189570641e-01,-6.330774213092410507e-02,-2.775557561562891351e-17,-5.551115123125782702e-17,-2.775557561562891351e-17,-5.275645177577337197e-04,-6.858338730850149778e-03,-1.371667746170024405e-02,-2.004745167479263235e-02,-2.637822588788504841e-02,-3.323656461873514267e-02,-3.956733883182755873e-02,-4.642567756267765300e-02,-5.275645177577009681e-02,-5.908722598886248512e-02,-6.594556471971260714e-02,-7.227633893280499544e-02,-7.860711314589743925e-02,-8.546545187674754740e-02,-9.179622608983994958e-02,-9.865456482069005772e-02,-1.049853390337824599e-01,-1.113161132468748621e-01,-1.181744519777249564e-01,-1.245052261908173585e-01,-1.313635649216674806e-01,-1.376943391347598689e-01,-1.440251133478522849e-01,-1.508834520787024069e-01,-1.572142262917948230e-01,-1.635450005048872113e-01,-1.704033392357373056e-01,-1.767341134488297216e-01,-1.835924521796798436e-01,-1.899232263927722597e-01,-1.962540006058646480e-01,-2.025847748189570641e-01,-2.025847748189570641e-01,-2.025847748189570641e-01,-2.025847748189570641e-01,-2.025847748189570641e-01,-2.025847748189570641e-01,-2.025847748189570641e-01,-2.025847748189570641e-01
-2.025847748189570641e-01,-2.025847748189570641e-01,-2.025847748189570641e-01,-2.025847748189570641e-01,-1.456078069011254028e-01,-2.775557561562891351e-17,-3.165387106546235785e-03,-9.496161319638651843e-03,-1.582693553273106790e-02,-2.268527426358116217e-02,-2.901604847667355047e-02,-3.587438720752364474e-02,-4.220516142061606080e-02,-4.853593563370847686e-02,-5.539427436455857112e-02,-2.327179682342063183e-01,-2.390487424472987066e-01,-2.459070811781488564e-01,-8.124493573468591356e-02,-8.810327446553603559e-02,-9.443404867862845165e-02,-1.007648228917208677e-01,-1.076231616225709620e-01,-1.139539358356633503e-01,-1.208122745665134445e-01,-1.271430487796058606e-01,-1.334738229926982767e-01,-1.403321617235483987e-01,-1.466629359366408147e-01,-1.529937101497332030e-01,-1.598520488805833251e-01,-1.661828230936757134e-01,-1.730411618245258354e-01,-1.793719360376182237e-01,-1.857027102507106397e-01,-1.925610489815607618e-01,-1.988918231946531501e-01,-2.025847748189570641e-01,-2.025847748189570641e-01,-2.025847748189570641e-01,-2.025847748189570641e-01,-2.025847748189570641e-01,-2.025847748189570641e-01,-2.025847748189570641e-01,-2.025847748189570641e-01,-2.025847748189570641e-01,-2.025847748189570641e-01
-2.025847748189570641e-01,-2.025847748189570641e-01,-2.025847748189570641e-01,-2.025847748189570641e-01,-2.025847748189570641e-01,-4.784350720415150859e-02,-1.846475812151954221e-02,-2.532309685236963648e-02,-3.165387106546205254e-02,-3.798464527855446859e-02,-4.484298400940456286e-02,-5.117375822249700668e-02,-5.750453243558939498e-02,-6.436287116643948925e-02,-7.069364537953190530e-02,-2.485449037669373584e-01,-2.548756779800297467e-01,-2.612064521931221628e-01,-9.707187126741695371e-02,-1.034026454805093698e-01,-1.102609842113594640e-01,-1.165917584244518523e-01,-1.229225326375442684e-01,-1.297808713683943904e-01,-1.361116455814867787e-01,-1.424424197945791948e-01,-1.493007585254293168e-01,-1.556315327385217051e-01,-1.624898714693718271e-01,-1.688206456824642154e-01,-1.751514198955566315e-01,-1.820097586264067258e-01,-1.883405328394991418e-01,-1.946713070525915579e-01,-2.015296457834416521e-01,-2.025847748189570641e-01,-2.025847748189570641e-01,-2.025847748189570641e-01,-2.025847748189570641e-01,-2.025847748189570641e-01,-2.025847748189570641e-01,-2.025847748189570641e-01,-2.025847748189570641e-01,-2.025847748189570641e-01,-2.025847748189570641e-01,-2.025847748189570641e-01,-2.025847748189570641e-01
-2.025847748189570641e-01,-2.025847748189570641e-01,-2.025847748189570641e-01,-2.025847748189570641e-01,-2.025847748189570641e-01,-1.259560286146510499e-01,-3.429169365425055460e-02,-4.062246786734297066e-02,-4.695324208043535896e-02,-5.381158081128545323e-02,-6.014235502437789704e-02,-6.700069375522799131e-02,-7.333146796832040737e-02,-7.966224218141282343e-02,-8.652058091226293157e-02,-2.638442747819106371e-01,-2.701750489950031087e-01,-2.770333877258531752e-01,-1.123712422823902601e-01,-1.192295810132403544e-01,-1.255603552263327705e-01,-1.318911294394251865e-01,-1.387494681702752808e-01,-1.450802423833676968e-01,-1.519385811142178189e-01,-1.582693553273102072e-01,-1.646001295404026232e-01,-1.714584682712527175e-01,-1.777892424843451336e-01,-1.841200166974375496e-01,-1.909783554282876439e-01,-1.973091296413800599e-01,-2.025847748189570641e-01,-2.025847748189570641e-01,-2.025847748189570641e-01,-2.025847748189570641e-01,-2.025847748189570641e-01,-2.025847748189570641e-01,-2.025847748189570641e-01,-2.025847748189570641e-01,-2.025847748189570641e-01,-2.025847748189570641e-01,-2.025847748189570641e-01,-2.025847748189570641e-01,-2.025847748189570641e-01,-2.025847748189570641e-01,-2.025847748189570641e-01
-2.025847748189570641e-01,-2.025847748189570641e-01,-2.025847748189570641e-01,-2.025847748189570641e-01,-2.025847748189570641e-01,-1.926269945462804611e-01,-5.437211811140302276e-02,-5.644940340007398305e-02,-6.278017761316637135e-02,-6.911095182625881517e-02,-7.596929055710890943e-02,-8.230006477020132549e-02,-8.863083898329372767e-02,-9.548917771414383582e-02,-1.018199519272362519e-01,-1.086782906580863600e-01,-1.150090648711787622e-01,-1.213398390842711644e-01,-1.281981778151212725e-01,-1.345289520282136886e-01,-1.413872907590638106e-01,-1.477180649721561989e-01,-1.540488391852486150e-01,-1.609071779160987092e-01,-1.672379521291911253e-01,-1.735687263422835414e-01,-1.804270650731336356e-01,-1.867578392862260517e-01,-1.936161780170761459e-01,-1.999469522301685620e-01,-2.025847748189570641e-01,-2.025847748189570641e-01,-2.025847748189570641e-01,-2.025847748189570641e-01,-2.025847748189570641e-01,-2.025847748189570641e-01,-2.025847748189570641e-01,-2.025847748189570641e-01,-2.025847748189570641e-01,-2.025847748189570641e-01,-2.025847748189570641e-01,-2.025847748189570641e-01,-2.025847748189570641e-01,-2.025847748189570641e-01,-2.025847748189570641e-01,-2.025847748189570641e-01,-2.025847748189570641e-01
-2.025847748189570641e-01,-2.025847748189570641e-01,-2.025847748189570641e-01,-2.025847748189570641e-01,-2.025847748189570641e-01,-2.025847748189570641e-01,-1.211420023901120246e-01,-7.174877441504731723e-02,-7.807954862813973329e-02,-8.493788735898982756e-02,-9.126866157208224362e-02,-9.812700030293235176e-02,-1.044577745160247539e-01,-1.107885487291171700e-01,-1.176468874599672504e-01,-1.239776616730596664e-01,-1.303084358861520686e-01,-1.371667746170021907e-01,-1.434975488300945790e-01,-1.503558875609447010e-01,-1.566866617740371170e-01,-1.630174359871295331e-01,-1.698757747179796274e-01,-1.762065489310720157e-01,-1.830648876619221377e-01,-1.893956618750145537e-01,-1.957264360881069698e-01,-2.025847748189570641e-01,-2.025847748189570641e-01,-2.025847748189570641e-01,-2.025847748189570641e-01,-2.025847748189570641e-01,-2.025847748189570641e-01,-2.025847748189570641e-01,-2.025847748189570641e-01,-2.025847748189570641e-01,-2.025847748189570641e-01,-2.025847748189570641e-01,-2.025847748189570641e-01,-2.025847748189570641e-01,-2.025847748189570641e-01,-2.025847748189570641e-01,-2.025847748189570641e-01,-2.025847748189570641e-01,-2.025847748189570641e-01,-2.025847748189570641e-01,-2.025847748189570641e-01
-2.025847748189570641e-01,-2.025847748189570641e-01,-2.025847748189570641e-01,-2.025847748189570641e-01,-2.025847748189570641e-01,-2.025847748189570641e-01,-1.797346366435766674e-01,-8.757570994777834350e-02,-9.390648416087074568e-02,-1.002372583739631617e-01,-1.070955971048132560e-01,-1.134263713179056582e-01,-1.197571455309980465e-01,-1.266154842618481546e-01,-1.329462584749405707e-01,-1.398045972057906927e-01,-1.461353714188831088e-01,-1.524661456319755248e-01,-1.593244843628256191e-01,-1.656552585759180074e-01,-1.725135973067681294e-01,-1.788443715198605455e-01,-1.851751457329529338e-01,-1.920334844638030558e-01,-1.983642586768954719e-01,-2.025847748189570641e-01,-2.025847748189570641e-01,-2.025847748189570641e-01,-2.025847748189570641e-01,-2.025847748189570641e-01,-2.025847748189570641e-01,-2.025847748189570641e-01,-2.025847748189570641e-01,-2.025847748189570641e-01,-2.025847748189570641e-01,-2.025847748189570641e-01,-2.025847748189570641e-01,-2.025847748189570641e-01,-2.025847748189570641e-01,-2.025847748189570641e-01,-2.025847748189570641e-01,-2.025847748189570641e-01,-2.025847748189570641e-01,-2.025847748189570641e-01,-2.025847748189570641e-01,-2.025847748189570641e-01,-2.025847748189570641e-01
-2.025847748189570641e-01,-2.025847748189570641e-01,-2.025847748189570641e-01,-2.025847748189570641e-01,-2.025847748189570641e-01,-2.025847748189570641e-01,-2.025847748189570641e-01,-1.278025044268030208e-01,-1.092058551758440521e-01,-1.160641939066941464e-01,-1.223949681197865624e-01,-1.292533068506366845e-01,-1.355840810637291005e-01,-1.419148552768214888e-01,-1.487731940076716108e-01,-1.551039682207639991e-01,-1.619623069516141212e-01,-1.682930811647065372e-01,-1.746238553777989255e-01,-1.814821941086490475e-01,-1.878129683217414359e-01,-1.941437425348338519e-01,-2.010020812656839739e-01,-2.025847748189570641e-01,-2.025847748189570641e-01,-2.025847748189570641e-01,-2.025847748189570641e-01,-2.025847748189570641e-01,-2.025847748189570641e-01,-2.025847748189570641e-01,-2.025847748189570641e-01,-2.025847748189570641e-01,-2.025847748189570641e-01,-2.025847748189570641e-01,-2.025847748189570641e-01,-2.025847748189570641e-01,-2.025847748189570641e-01,-2.025847748189570641e-01,-2.025847748189570641e-01,-2.025847748189570641e-01,-2.025847748189570641e-01,-2.025847748189570641e-01,-2.025847748189570641e-01,-2.025847748189570641e-01,-2.025847748189570641e-01,-2.025847748189570641e-01,-2.025847748189570641e-01
-2.025847748189570641e-01,-2.025847748189570641e-01,-2.025847748189570641e-01,-2.025847748189570641e-01,-2.025847748189570641e-01,-2.025847748189570641e-01,-2.025847748189570641e-01,-1.737500766452627354e-01,-1.250327907085750923e-01,-1.313635649216674806e-01,-1.382219036525175748e-01,-1.445526778656099909e-01,-1.508834520787024069e-01,-1.577417908095525290e-01,-1.640725650226449173e-01,-1.709309037534950115e-01,-1.772616779665874276e-01,-1.835924521796798436e-01,-1.904507909105299379e-01,-1.967815651236223540e-01,-2.025847748189570641e-01,-2.025847748189570641e-01,-2.025847748189570641e-01,-2.025847748189570641e-01,-2.025847748189570641e-01,-2.025847748189570641e-01,-2.025847748189570641e-01,-2.025847748189570641e-01,-2.025847748189570641e-01,-2.025847748189570641e-01,-2.025847748189570641e-01,-2.025847748189570641e-01,-2.025847748189570641e-01,-2.025847748189570641e-01,-2.025847748189570641e-01,-2.025847748189570641e-01,-2.025847748189570641e-01,-2.025847748189570641e-01,-2.025847748189570641e-01,-2.025847748189570641e-01,-2.025847748189570641e-01,-2.025847748189570641e-01,-2.025847748189570641e-01,-2.025847748189570641e-01,-2.025847748189570641e-01,-2.025847748189570641e-01,-2.025847748189570641e-01
