6.800094684634665210e-02,6.800094684634665210e-02,6.800094684634665210e-02,6.800094684634665210e-02,6.800094684634665210e-02,6.800094684634665210e-02,6.800094684634665210e-02,6.800094684634665210e-02,6.800094684634665210e-02,6.800094684634665210e-02,6.800094684634665210e-02,6.800094684634665210e-02,-9.697894135653493952e-02,-9.697894135653493952e-02,-9.697894135653493952e-02,6.195934812448259527e-02,3.324042634391443513e-02,6.917979537744214924e-03,-1.687614739252397966e-02,-3.818848794153865966e-02,-5.722068725277663914e-02,-7.360823295149133971e-02,-7.048273322760016668e-02,-6.254101680758890336e-02,-5.459930038757758453e-02,-4.690576260569163936e-02,-3.896404618568037603e-02,-3.127050840379443086e-02,-2.332879198378313979e-02,-1.538707556377186259e-02,-7.693537781885931293e-03,2.481786381253459073e-04,8.189895058136643924e-03,1.588343284002258909e-02,2.382514926003386629e-02,3.151868704191979759e-02,3.946040346193108866e-02,4.740211988194237280e-02,5.509565766382831103e-02,6.303737408383959517e-02,6.800094684634665210e-02,6.800094684634665210e-02,6.800094684634665210e-02,6.800094684634665210e-02,6.800094684634665210e-02,6.800094684634665210e-02,6.800094684634665210e-02
6.800094684634665210e-02,6.800094684634665210e-02,6.800094684634665210e-02,6.800094684634665210e-02,6.800094684634665210e-02,6.800094684634665210e-02,6.800094684634665210e-02,6.800094684634665210e-02,6.800094684634665210e-02,4.864301307256914397e-02,1.637979011627328785e-02,-1.588343284002256828e-02,-2.131265439992000021e-01,-2.453897669554958583e-01,-2.739613326696770934e-01,-1.265711054439298544e-01,-1.186293890239185772e-01,-1.109358512420326598e-01,-1.029941348220213687e-01,-9.505241840201010539e-02,-8.735888062012416022e-02,-7.941716420011286914e-02,-7.172362641822695173e-02,-6.378190999821566065e-02,-5.584019357820436957e-02,-4.814665579631841053e-02,-4.020493937630711945e-02,-3.251140159442120203e-02,-2.456968517440992483e-02,-1.662796875439863376e-02,-8.934430972512702462e-03,-9.927145525014113847e-04,6.949001867509879693e-03,1.464253964939582486e-02,2.258425606940710206e-02,3.027779385129303336e-02,3.821951027130432443e-02,4.616122669131561551e-02,5.385476447320154680e-02,6.179648089321283094e-02,6.800094684634665210e-02,6.800094684634665210e-02,6.800094684634665210e-02,6.800094684634665210e-02,6.800094684634665210e-02,6.800094684634665210e-02,6.800094684634665210e-02
6.800094684634665210e-02,6.800094684634665210e-02,6.800094684634665210e-02,5.647836721909813007e-02,3.602578838073201145e-02,6.211113595226469553e-03,-3.282162489207789136e-02,-8.035226585447803604e-02,-1.255783908914284708e-01,-1.384836800739467910e-01,-1.384836800739467910e-01,-1.384836800739467910e-01,-3.034635682768283549e-01,-3.034635682768283549e-01,-3.004854246193242040e-01,-1.278119986345566117e-01,-1.198702822145453623e-01,-1.121767444326593893e-01,-1.042350280126480983e-01,-9.629331159263683493e-02,-8.859977381075094527e-02,-8.065805739073962644e-02,-7.296451960885370902e-02,-6.502280318884241794e-02,-5.708108676883112687e-02,-4.938754898694518169e-02,-4.144583256693389062e-02,-3.350411614692259954e-02,-2.581057836503665437e-02,-1.786886194502539105e-02,-1.017532416313947363e-02,-2.233607743128182554e-03,5.708108676883115462e-03,1.340164645876906063e-02,2.134336287878034477e-02,2.903690066066627606e-02,3.697861708067756714e-02,4.492033350068885128e-02,5.261387128257478257e-02,6.055558770258606671e-02,6.800094684634665210e-02,6.800094684634665210e-02,6.800094684634665210e-02,6.800094684634665210e-02,6.800094684634665210e-02,6.800094684634665210e-02,6.800094684634665210e-02
6.800094684634665210e-02,5.866765734827535106e-02,2.836327292861175187e-02,-1.134530917144452311e-03,-2.971052839272078638e-02,-5.920833223847697668e-02,-8.870613608423323637e-02,-1.172821335598095288e-01,-1.384836800739467910e-01,-1.384836800739468465e-01,-1.384836800739467910e-01,-1.384836800739467910e-01,-1.384836800739467910e-01,-1.384836800739467910e-01,-1.367464296070693419e-01,-1.290528918251833690e-01,-1.211111754051720918e-01,-1.134176376232862021e-01,-1.054759212032748833e-01,-9.753420478326361998e-02,-8.984066700137767481e-02,-8.189895058136638373e-02,-7.395723416135509265e-02,-6.626369637946917523e-02,-5.832197995945791191e-02,-5.062844217757193899e-02,-4.268672575756064791e-02,-3.474500933754935683e-02,-2.705147155566342554e-02,-1.910975513565214834e-02,-1.141621735376623092e-02,-3.474500933754939846e-03,4.467215486256351231e-03,1.216075326814229640e-02,2.010246968815358054e-02,2.804418610816485774e-02,3.573772389005079597e-02,4.367944031006208705e-02,5.137297809194801834e-02,5.931469451195930942e-02,6.725641093197060050e-02,6.800094684634665210e-02,6.800094684634665210e-02,6.800094684634665210e-02,6.800094684634665210e-02,6.800094684634665210e-02,6.800094684634665210e-02
6.800094684634665210e-02,6.154830225508747810e-02,3.297230477951115790e-02,3.474500933754939846e-03,-2.602330291200126433e-02,-5.459930038757757065e-02,-8.409710423333381646e-02,-1.126731017089101089e-01,-1.384836800739467910e-01,-1.384836800739467910e-01,-1.384836800739468465e-01,-1.384836800739467910e-01,-1.384836800739468465e-01,-1.384836800739468465e-01,-1.379873227976960992e-01,-1.302937850158101818e-01,-1.223520685957988491e-01,-1.144103521757875858e-01,-1.067168143939016406e-01,-9.877509797389037727e-02,-9.108156019200445985e-02,-8.313984377199314102e-02,-7.519812735198190545e-02,-6.750458957009593253e-02,-5.956287315008464145e-02,-5.186933536819871016e-02,-4.392761894818741908e-02,-3.598590252817614188e-02,-2.829236474629019671e-02,-2.035064832627890563e-02,-1.265711054439298822e-02,-4.715394124381697138e-03,3.226322295629580061e-03,1.091986007751553217e-02,1.886157649752681631e-02,2.680329291753809351e-02,3.449683069942403174e-02,4.243854711943532282e-02,5.013208490132126105e-02,5.807380132133253825e-02,6.601551774134382933e-02,6.800094684634665210e-02,6.800094684634665210e-02,6.800094684634665210e-02,6.800094684634665210e-02,6.800094684634665210e-02,6.800094684634665210e-02
6.800094684634665210e-02,6.615733410598688413e-02,3.758133663041056394e-02,8.083532784654352821e-03,-2.141427106110187217e-02,-4.999026853667817849e-02,-7.948807238243439655e-02,-1.080640698580107167e-01,-1.375618737037668793e-01,-1.384836800739467910e-01,-1.384836800739467910e-01,-1.384836800739467910e-01,-1.384836800739467910e-01,-1.384836800739467910e-01,-1.384836800739467910e-01,-1.315346782064369391e-01,-1.235929617864256341e-01,-1.156512453664143708e-01,-1.079577075845283979e-01,-1.000159911645171346e-01,-9.232245338263124490e-02,-8.438073696261992607e-02,-7.643902054260866274e-02,-6.874548276072271757e-02,-6.080376634071142650e-02,-5.311022855882546745e-02,-4.516851213881417637e-02,-3.722679571880289917e-02,-2.953325793691695400e-02,-2.159154151690566292e-02,-1.364982509689439960e-02,-5.956287315008468308e-03,1.985429105002808892e-03,9.678966886888767940e-03,1.762068330690005208e-02,2.556239972691133622e-02,3.325593750879726751e-02,4.119765392880855859e-02,4.889119171069449682e-02,5.683290813070578096e-02,6.477462455071707204e-02,6.800094684634665210e-02,6.800094684634665210e-02,6.800094684634665210e-02,6.800094684634665210e-02,6.800094684634665210e-02,6.800094684634665210e-02
6.800094684634665210e-02,6.800094684634665210e-02,4.219036848130996997e-02,1.269256463555375886e-02,-1.680523921020245226e-02,-4.538123668577877246e-02,-7.487904053153500439e-02,-1.034550380071112968e-01,-1.329528418528675426e-01,-1.384836800739467910e-01,-1.384836800739467910e-01,-1.384836800739467910e-01,-1.384836800739467910e-01,-1.384836800739467910e-01,-1.384836800739467910e-01,-1.327755713970636964e-01,-1.248338549770523914e-01,-1.168921385570411281e-01,-1.091986007751551829e-01,-1.012568843551439196e-01,-9.356334657325800219e-02,-8.562163015324668336e-02,-7.767991373323539228e-02,-6.998637595134944711e-02,-6.204465953133818379e-02,-5.435112174945225250e-02,-4.640940532944094754e-02,-3.846768890942965646e-02,-3.077415112754372517e-02,-2.283243470753242021e-02,-1.489071828752115689e-02,-7.197180505635239478e-03,7.445359143760515996e-04,8.438073696262003709e-03,1.637979011627329479e-02,2.432150653628457199e-02,3.201504431817050328e-02,3.995676073818179436e-02,4.765029852006773259e-02,5.559201494007901673e-02,6.353373136009030087e-02,6.800094684634665210e-02,6.800094684634665210e-02,6.800094684634665210e-02,6.800094684634665210e-02,6.800094684634665210e-02,6.800094684634665210e-02
6.800094684634665210e-02,6.800094684634665210e-02,4.679940033220937601e-02,1.730159648645317183e-02,-1.219620735930303235e-02,-4.077220483487936642e-02,-7.027000868063558447e-02,-9.976781252639178865e-02,-1.283438100019680950e-01,-1.384836800739467910e-01,-1.384836800739467910e-01,-1.384836800739467910e-01,-1.384836800739467910e-01,-1.384836800739467910e-01,-1.384836800739467910e-01,-1.340164645876904537e-01,-1.260747481676791626e-01,-1.181330317476678854e-01,-1.104394939657819680e-01,-1.024977775457706491e-01,-9.480423976388473173e-02,-8.686252334387344065e-02,-7.892080692386217733e-02,-7.122726914197625991e-02,-6.328555272196494108e-02,-5.534383630195365000e-02,-4.765029852006770483e-02,-3.970858210005641376e-02,-3.201504431817048246e-02,-2.407332789815920526e-02,-1.613161147814791418e-02,-8.438073696261996770e-03,-4.963572762507056924e-04,7.197180505635239478e-03,1.513889692564652362e-02,2.308061334565781469e-02,3.077415112754373905e-02,3.871586754755503013e-02,4.665758396756632120e-02,5.435112174945225250e-02,6.229283816946353664e-02,6.800094684634665210e-02,6.800094684634665210e-02,6.800094684634665210e-02,6.800094684634665210e-02,6.800094684634665210e-02,6.800094684634665210e-02
6.800094684634665210e-02,6.800094684634665210e-02,5.140843218310878204e-02,2.191062833735257787e-02,-7.587175508403640189e-03,-3.616317298397996038e-02,-6.566097682973616456e-02,-9.515878067549236874e-02,-1.237347781510686889e-01,-1.384836800739467910e-01,-1.384836800739467910e-01,-1.384836800739467910e-01,-1.384836800739467910e-01,-1.384836800739467910e-01,-1.384836800739467910e-01,-1.352573577783172110e-01,-1.273156413583059199e-01,-1.193739249382946427e-01,-1.116803871564087253e-01,-1.037386707363974064e-01,-9.579695431638614311e-02,-8.810341653450022570e-02,-8.016170011448893462e-02,-7.246816233260301721e-02,-6.452644591259169837e-02,-5.658472949258042117e-02,-4.889119171069446212e-02,-4.094947529068317105e-02,-3.325593750879723975e-02,-2.531422108878596255e-02,-1.737250466877468535e-02,-9.678966886888754062e-03,-1.737250466877476862e-03,5.956287315008475247e-03,1.389800373501976632e-02,2.183972015503105046e-02,2.953325793691697482e-02,3.747497435692826590e-02,4.541669077693955003e-02,5.311022855882548827e-02,6.105194497883677240e-02,6.800094684634665210e-02,6.800094684634665210e-02,6.800094684634665210e-02,6.800094684634665210e-02,6.800094684634665210e-02,6.800094684634665210e-02
6.800094684634665210e-02,6.800094684634665210e-02,5.509565766382831103e-02,2.651966018825198390e-02,-2.978143657504220276e-03,-3.155414113308054047e-02,-6.105194497883677240e-02,-9.054974882459294883e-02,-1.191257463001692968e-01,-1.384836800739467910e-01,-1.384836800739467910e-01,-1.384836800739467910e-01,-1.384836800739467910e-01,-1.384836800739467910e-01,-1.384836800739467910e-01,-1.362500723308186501e-01,-1.285565345489326772e-01,-1.206148181289214000e-01,-1.129212803470354826e-01,-1.049795639270241637e-01,-9.703784750701292816e-02,-8.934430972512698299e-02,-8.140259330511569191e-02,-7.370905552322977450e-02,-6.576733910321848342e-02,-5.782562268320719234e-02,-5.013208490132123329e-02,-4.219036848130994222e-02,-3.449683069942402480e-02,-2.655511427941271985e-02,-1.861339785940144265e-02,-1.091986007751552523e-02,-2.978143657504220276e-03,4.963572762507056924e-03,1.265711054439300209e-02,2.059882696440428623e-02,2.829236474629021059e-02,3.623408116630150166e-02,4.417579758631279274e-02,5.186933536819872403e-02,5.981105178821001511e-02,6.750458957009594640e-02,6.800094684634665210e-02,6.800094684634665210e-02,6.800094684634665210e-02,6.800094684634665210e-02,6.800094684634665210e-02
6.800094684634665210e-02,6.800094684634665210e-02,5.970468951472771707e-02,3.112869203915138994e-02,1.630888193395185759e-03,-2.694510928218114831e-02,-5.644291312793733861e-02,-8.594071697369358442e-02,-1.145167144492698769e-01,-1.384836800739467910e-01,-1.384836800739467910e-01,-1.384836800739467910e-01,-1.384836800739467910e-01,-1.384836800739467910e-01,-1.384836800739467910e-01,-1.374909655214454074e-01,-1.297974277395594900e-01,-1.218557113195481573e-01,-1.141621735376622676e-01,-1.062204571176509488e-01,-9.827874069763968545e-02,-9.058520291575376804e-02,-8.264348649574242145e-02,-7.494994871385653179e-02,-6.700823229384524071e-02,-5.906651587383394963e-02,-5.137297809194800446e-02,-4.343126167193669951e-02,-3.548954525192542231e-02,-2.779600747003949102e-02,-1.985429105002819994e-02,-1.216075326814229640e-02,-4.219036848130991446e-03,3.722679571880285754e-03,1.141621735376623092e-02,1.935793377377752894e-02,2.705147155566345329e-02,3.499318797567473743e-02,4.293490439568602851e-02,5.062844217757195980e-02,5.857015859758325088e-02,6.626369637946918911e-02,6.800094684634665210e-02,6.800094684634665210e-02,6.800094684634665210e-02,6.800094684634665210e-02,6.800094684634665210e-02
6.800094684634665210e-02,6.800094684634665210e-02,6.431372136562713004e-02,3.573772389005080291e-02,6.239920044294584855e-03,-2.233607743128174228e-02,-5.183388127703793258e-02,-8.133168512279416451e-02,-1.099076825983704847e-01,-1.384836800739467910e-01,-1.384836800739467910e-01,-1.384836800739467910e-01,-1.384836800739467910e-01,-1.384836800739467910e-01,-1.384836800739467910e-01,-1.384836800739467910e-01,-1.310383209301862473e-01,-1.230966045101749146e-01,-1.154030667282890249e-01,-1.074613503082777061e-01,-9.951963388826641499e-02,-9.182609610638052533e-02,-8.388437968636920650e-02,-7.619084190448328908e-02,-6.824912548447199800e-02,-6.030740906446070693e-02,-5.261387128257476176e-02,-4.467215486256347068e-02,-3.673043844255217960e-02,-2.903690066066626219e-02,-2.109518424065497111e-02,-1.340164645876905369e-02,-5.459930038757762616e-03,2.481786381253528462e-03,1.017532416313946669e-02,1.811704058315076471e-02,2.581057836503668212e-02,3.375229478504797320e-02,4.169401120505926428e-02,4.938754898694519557e-02,5.732926540695648665e-02,6.527098182696777773e-02,6.800094684634665210e-02,6.800094684634665210e-02,6.800094684634665210e-02,6.800094684634665210e-02,6.800094684634665210e-02
6.800094684634665210e-02,6.800094684634665210e-02,6.800094684634665210e-02,4.034675574095020201e-02,1.084895189519400477e-02,-1.772704558038233624e-02,-4.722484942613854042e-02,-7.672265327189474460e-02,-1.052986507474710648e-01,-1.347964545932272551e-01,-1.384836800739467910e-01,-1.384836800739467910e-01,-1.384836800739467910e-01,-1.384836800739467910e-01,-1.384836800739467910e-01,-1.384836800739467910e-01,-1.322792141208129491e-01,-1.243374977008016996e-01,-1.166439599189157822e-01,-1.087022434989044634e-01,-1.007605270788932000e-01,-9.306698929700725487e-02,-8.512527287699599154e-02,-7.718355645698470047e-02,-6.949001867509878305e-02,-6.154830225508749197e-02,-5.385476447320154680e-02,-4.591304805319024185e-02,-3.797133163317896465e-02,-3.027779385129301948e-02,-2.233607743128172840e-02,-1.464253964939581099e-02,-6.700823229384519908e-03,1.240893190626771170e-03,8.934430972512709401e-03,1.687614739252399354e-02,2.481786381253527768e-02,3.251140159442120897e-02,4.045311801443250005e-02,4.814665579631843134e-02,5.608837221632972242e-02,6.403008863634100656e-02,6.800094684634665210e-02,6.800094684634665210e-02,6.800094684634665210e-02,6.800094684634665210e-02,6.800094684634665210e-02
6.800094684634665210e-02,6.800094684634665210e-02,6.800094684634665210e-02,4.495578759184961498e-02,1.545798374609340387e-02,-1.403982009966280031e-02,-4.261581757523912051e-02,-7.211362142099535244e-02,-1.006896188965716726e-01,-1.301874227423278629e-01,-1.384836800739467910e-01,-1.384836800739467910e-01,-1.384836800739467910e-01,-1.384836800739467910e-01,-1.384836800739467910e-01,-1.384836800739467910e-01,-1.335201073114397619e-01,-1.255783908914284708e-01,-1.176366744714171936e-01,-1.099431366895312207e-01,-1.020014202695199573e-01,-9.430788248763401216e-02,-8.636616606762274884e-02,-7.842444964761145776e-02,-7.073091186572554034e-02,-6.278919544571424927e-02,-5.509565766382830410e-02,-4.715394124381699914e-02,-3.921222482380570806e-02,-3.151868704191977677e-02,-2.357697062190848569e-02,-1.588343284002256828e-02,-7.941716420011291078e-03,0.000000000000000000e+00,7.693537781885938232e-03,1.563525420189723625e-02,2.357697062190851345e-02,3.127050840379444474e-02,3.921222482380573582e-02,4.690576260569167405e-02,4.662712051027292914e-03,1.260442847103857705e-02,1.781617987167098682e-02,1.781617987167098682e-02,1.781617987167098682e-02,6.800094684634665210e-02,6.800094684634665210e-02
6.800094684634665210e-02,6.800094684634665210e-02,6.800094684634665210e-02,4.956481944274902102e-02,2.006701559699281684e-02,-9.430788248763394277e-03,-3.800678572433972835e-02,-6.750458957009593253e-02,-9.608058704567225272e-02,-1.255783908914284708e-01,-1.384836800739467910e-01,-1.384836800739467910e-01,-1.384836800739467910e-01,-1.384836800739467910e-01,-1.384836800739467910e-01,-1.384836800739467910e-01,-1.347610005020665191e-01,-1.268192840820552281e-01,-1.188775676620439509e-01,-1.111840298801580335e-01,-1.032423134601467146e-01,-9.554877567826082496e-02,-8.760705925824950613e-02,-7.966534283823821505e-02,-7.197180505635229764e-02,-6.403008863634100656e-02,-5.633655085445507527e-02,-4.839483443444375643e-02,-4.045311801443247923e-02,-3.275958023254653406e-02,-2.481786381253524298e-02,-1.687614739252397966e-02,-9.182609610638048370e-03,-1.240893190626771170e-03,6.452644591259174001e-03,1.439436101127047202e-02,2.233607743128175616e-02,3.002961521316768745e-02,3.797133163317897159e-02,4.566486941506490982e-02,3.421818860400521745e-03,1.136353528041181282e-02,1.781617987167098682e-02,1.781617987167098682e-02,1.781617987167098682e-02,6.800094684634665210e-02,6.800094684634665210e-02
6.800094684634665210e-02,6.800094684634665210e-02,6.800094684634665210e-02,5.417385129364843399e-02,2.467604744789222287e-02,-4.821756397863988242e-03,-3.339775387344030844e-02,-6.289555771919654037e-02,-9.147155519477286056e-02,-1.209693590405290647e-01,-1.384836800739467910e-01,-1.384836800739467910e-01,-1.384836800739468465e-01,-1.384836800739467910e-01,-1.384836800739467910e-01,-1.384836800739467910e-01,-1.360018936926932764e-01,-1.280601772726819854e-01,-1.201184608526707082e-01,-1.124249230707847907e-01,-1.044832066507734997e-01,-9.678966886888758225e-02,-8.884795244887629118e-02,-8.090623602886500010e-02,-7.321269824697905493e-02,-6.527098182696776385e-02,-5.732926540695647277e-02,-4.963572762507051372e-02,-4.169401120505923652e-02,-3.400047342317331911e-02,-2.605875700316201415e-02,-1.811704058315072308e-02,-1.042350280126481954e-02,-2.481786381253514584e-03,5.211751400632402831e-03,1.315346782064370779e-02,2.109518424065499886e-02,2.878872202254091628e-02,3.673043844255220736e-02,4.442397622443814559e-02,2.180925669773764453e-03,1.012264208978505553e-02,1.781617987167098682e-02,1.781617987167098682e-02,1.781617987167098682e-02,6.800094684634665210e-02,6.800094684634665210e-02
6.800094684634665210e-02,6.800094684634665210e-02,6.800094684634665210e-02,5.878288314454784003e-02,2.928507929879162891e-02,-2.127245469645683285e-04,-2.878872202254091628e-02,-5.828652586829712046e-02,-8.686252334387344065e-02,-1.163603271896296448e-01,-1.384836800739467910e-01,-1.384836800739468465e-01,-1.384836800739468465e-01,-1.384836800739467910e-01,-1.384836800739467910e-01,-1.384836800739467910e-01,-1.372427868833200337e-01,-1.293010704633087427e-01,-1.213593540432974655e-01,-1.136658162614115203e-01,-1.057240998414002014e-01,-9.803056205951431179e-02,-9.008884563950304847e-02,-8.214712921949175739e-02,-7.445359143760583998e-02,-6.651187501759454890e-02,-5.857015859758323006e-02,-1.375380021859121671e-01,-1.295962857659008760e-01,-1.219027479840149725e-01,-1.139610315640036814e-01,-1.060193151439923903e-01,-1.166439599189157683e-02,-3.722679571880285754e-03,3.970858210005645539e-03,1.191257463001694356e-02,1.985429105002822769e-02,2.754782883191415205e-02,3.548954525192543619e-02,4.343126167193673420e-02,9.400324791469932828e-04,8.881748899158284360e-03,1.657528668104422259e-02,1.781617987167098682e-02,1.781617987167098682e-02,6.800094684634665210e-02,6.800094684634665210e-02
6.800094684634665210e-02,6.800094684634665210e-02,6.800094684634665210e-02,6.339191499544724606e-02,3.389411114969103495e-02,4.396307303934823829e-03,-2.417969017164149637e-02,-5.367749401739770054e-02,-8.317529786315390472e-02,-1.117512953387302249e-01,-1.384836800739467910e-01,-1.384836800739467910e-01,-1.384836800739467910e-01,-1.384836800739468465e-01,-1.384836800739467910e-01,-1.384836800739467910e-01,-1.384836800739467910e-01,-1.305419636539354999e-01,-1.226002472339242227e-01,-1.149067094520383053e-01,-1.069649930320269865e-01,-9.902327661201572317e-02,-9.132973883012980576e-02,-8.338802241011851468e-02,-7.569448462823259727e-02,-6.775276820822130619e-02,-5.981105178821001511e-02,-1.387788953765389244e-01,-1.308371789565276333e-01,-1.231436411746417298e-01,-1.152019247546304387e-01,-1.072602083346191476e-01,-1.290528918251833412e-02,-4.963572762507056924e-03,2.978143657504234154e-03,1.067168143939017932e-02,1.861339785940146346e-02,2.630693564128738782e-02,3.424865206129867889e-02,4.219036848130996997e-02,-3.008607114797640092e-04,7.640855708531527068e-03,1.533439349041745836e-02,1.781617987167098682e-02,1.781617987167098682e-02,6.800094684634665210e-02,6.800094684634665210e-02
6.800094684634665210e-02,6.800094684634665210e-02,6.800094684634665210e-02,6.707914047616676811e-02,3.850314300059044792e-02,9.005339154834243742e-03,-1.957065832074209033e-02,-4.906846216649829451e-02,-7.856626601225451256e-02,-1.071422634878308328e-01,-1.366400673335870231e-01,-1.384836800739467910e-01,-1.384836800739467910e-01,-1.384836800739467910e-01,-1.384836800739467910e-01,-1.384836800739467910e-01,-1.384836800739467910e-01,-1.317828568445622572e-01,-1.238411404245509800e-01,-1.161476026426650626e-01,-1.082058862226537715e-01,-1.002641698026424805e-01,-9.257063202075656305e-02,-8.462891560074527197e-02,-7.693537781885935456e-02,-6.899366139884806348e-02,-6.105194497883677240e-02,-1.400197885671657372e-01,-1.320780721471544461e-01,-1.243845343652684871e-01,-1.164428179452572237e-01,-1.085011015252459049e-01,-1.414618237314510529e-02,-6.204465953133828093e-03,1.737250466877462984e-03,9.430788248763415094e-03,1.737250466877469923e-02,2.506604245066063053e-02,3.300775887067191466e-02,4.094947529068320574e-02,4.864301307256914397e-02,5.658472949258042811e-02,6.427826727446636634e-02,6.800094684634665210e-02,6.800094684634665210e-02,6.800094684634665210e-02,6.800094684634665210e-02
6.800094684634665210e-02,6.800094684634665210e-02,6.800094684634665210e-02,6.800094684634665210e-02,4.311217485148985396e-02,1.361437100573364978e-02,-1.496162646984268429e-02,-4.445943031559890235e-02,-7.395723416135512041e-02,-1.025332316369314406e-01,-1.320310354826876309e-01,-1.384836800739467910e-01,-1.384836800739467910e-01,-1.384836800739467910e-01,-1.384836800739467910e-01,-1.384836800739467910e-01,-1.384836800739467910e-01,-1.330237500351890145e-01,-1.250820336151777235e-01,-1.173884958332918199e-01,-1.094467794132805011e-01,-1.015050629932692378e-01,-9.381152521138334810e-02,-8.586980879137202927e-02,-7.817627100948611185e-02,-7.023455458947482077e-02,-6.229283816946352970e-02,-1.412606817577924945e-01,-1.333189653377812034e-01,-1.253772489177699123e-01,-1.176837111358839810e-01,-1.097419947158726622e-01,-1.538707556377186259e-02,-7.445359143760585385e-03,4.963572762507056924e-04,8.189895058136650863e-03,1.613161147814794194e-02,2.382514926003386629e-02,3.176686568004515043e-02,3.970858210005644151e-02,4.740211988194237280e-02,5.534383630195366388e-02,6.328555272196495496e-02,6.800094684634665210e-02,6.800094684634665210e-02,6.800094684634665210e-02,6.800094684634665210e-02
6.800094684634665210e-02,6.800094684634665210e-02,6.800094684634665210e-02,6.800094684634665210e-02,4.772120670238925999e-02,1.822340285663305581e-02,-1.035259461894326438e-02,-3.985039846469948244e-02,-6.934820231045570049e-02,-9.792419978603202069e-02,-1.274220036317882387e-01,-1.384836800739467910e-01,-1.384836800739467910e-01,-1.384836800739467910e-01,-1.384836800739467910e-01,-1.384836800739467910e-01,-1.384836800739467910e-01,-1.342646432258158273e-01,-1.263229268058045363e-01,-1.186293890239185772e-01,-1.106876726039072861e-01,-1.027459561838960228e-01,-9.505241840201010539e-02,-8.711070198199878656e-02,-7.941716420011286914e-02,-7.147544778010157807e-02,-6.353373136009028699e-02,-1.425015749484192518e-01,-1.345598585284079607e-01,-1.266181421083966696e-01,-1.189246043265107383e-01,-1.109828879064994472e-01,-1.662796875439861988e-02,-8.686252334387356555e-03,-7.445359143760654774e-04,6.949001867509879693e-03,1.489071828752117077e-02,2.258425606940710206e-02,3.052597248941837926e-02,3.846768890942967728e-02,4.616122669131561551e-02,5.410294311132689271e-02,6.204465953133818379e-02,6.800094684634665210e-02,6.800094684634665210e-02,6.800094684634665210e-02,6.800094684634665210e-02
6.800094684634665210e-02,6.800094684634665210e-02,6.800094684634665210e-02,6.800094684634665210e-02,5.233023855328866603e-02,2.283243470753246185e-02,-5.743562768043872224e-03,-3.524136661380007640e-02,-6.473917045955628058e-02,-9.331516793513262853e-02,-1.228129717808888050e-01,-1.384836800739467910e-01,-1.384836800739467910e-01,-1.384836800739467910e-01,-1.384836800739467910e-01,-1.384836800739467910e-01,-1.384836800739467910e-01,-1.355055364164425846e-01,-1.275638199964312935e-01,-1.198702822145453345e-01,-1.119285657945340712e-01,-1.039868493745227801e-01,-9.629331159263686268e-02,-8.835159517262557161e-02,-8.040987875261428053e-02,-7.271634097072836311e-02,-6.477462455071707204e-02,-5.708108676883112687e-02,-4.913937034881980803e-02,-4.119765392880853083e-02,-3.350411614692262730e-02,-2.556239972691132234e-02,-1.786886194502539105e-02,-9.927145525014113847e-03,-1.985429105002836647e-03,5.708108676883108523e-03,1.364982509689440654e-02,2.159154151690570456e-02,2.928507929879162891e-02,3.722679571880291305e-02,4.492033350068885128e-02,5.286204992070013542e-02,6.080376634071142650e-02,6.800094684634665210e-02,6.800094684634665210e-02,6.800094684634665210e-02,6.800094684634665210e-02
6.800094684634665210e-02,6.800094684634665210e-02,6.800094684634665210e-02,6.800094684634665210e-02,5.693927040418807206e-02,2.744146655843186788e-02,-2.056337287324336294e-03,-3.063233476290067037e-02,-6.013013860865688842e-02,-8.870613608423320862e-02,-1.182039399299894128e-01,-1.384836800739467910e-01,-1.384836800739467910e-01,-1.384836800739467910e-01,-1.384836800739467910e-01,-1.384836800739467910e-01,-1.384836800739467910e-01,-1.367464296070693419e-01,-1.288047131870580508e-01,-1.208629967670467736e-01,-1.131694589851608285e-01,-1.052277425651495374e-01,-9.753420478326361998e-02,-8.959248836325232890e-02,-8.165077194324103782e-02,-7.395723416135512041e-02,-6.601551774134380157e-02,-5.832197995945788416e-02,-5.038026353944657920e-02,-4.243854711943530200e-02,-3.474500933754938459e-02,-2.680329291753807963e-02,-1.886157649752678855e-02,-1.116803871564087114e-02,-3.226322295629593939e-03,4.467215486256351231e-03,1.240893190626764925e-02,2.035064832627893339e-02,2.804418610816485774e-02,3.598590252817614882e-02,4.367944031006208705e-02,5.162115673007337119e-02,5.956287315008465533e-02,6.725641093197060050e-02,6.800094684634665210e-02,6.800094684634665210e-02,6.800094684634665210e-02
6.800094684634665210e-02,6.800094684634665210e-02,6.800094684634665210e-02,6.800094684634665210e-02,6.154830225508747810e-02,3.205049840933127392e-02,2.552694563575069742e-03,-2.602330291200126433e-02,-5.552110675775746851e-02,-8.409710423333378870e-02,-1.135949080790900206e-01,-1.384836800739467910e-01,-1.384836800739467910e-01,-1.384836800739467910e-01,-1.384836800739467910e-01,-1.384836800739467910e-01,-1.384836800739467910e-01,-1.379873227976960992e-01,-1.300456063776848081e-01,-1.221038899576735032e-01,-1.144103521757875858e-01,-1.064686357557762947e-01,-9.877509797389037727e-02,-9.083338155387911395e-02,-8.289166513386779511e-02,-7.519812735198187770e-02,-6.725641093197061438e-02,-5.956287315008466920e-02,-5.162115673007335037e-02,-4.367944031006205929e-02,-3.598590252817612800e-02,-2.804418610816485080e-02,-2.010246968815355972e-02,-1.240893190626764231e-02,-4.467215486256351231e-03,3.226322295629593939e-03,1.116803871564088502e-02,1.910975513565216916e-02,2.680329291753809351e-02,3.474500933754938459e-02,4.243854711943532282e-02,5.038026353944660696e-02,5.832197995945789804e-02,6.601551774134382933e-02,6.800094684634665210e-02,6.800094684634665210e-02,6.800094684634665210e-02
6.800094684634665210e-02,6.800094684634665210e-02,6.800094684634665210e-02,6.800094684634665210e-02,6.615733410598688413e-02,3.665953026023068689e-02,7.161726414474475777e-03,-2.141427106110187217e-02,-5.091207490685806247e-02,-7.948807238243439655e-02,-1.089858762281906007e-01,-1.384836800739467910e-01,-1.384836800739467910e-01,-1.384836800739467910e-01,-1.384836800739467910e-01,-1.384836800739467910e-01,-1.384836800739467910e-01,-1.384836800739467910e-01,-1.312864995683115654e-01,-1.233447831483002882e-01,-1.156512453664143708e-01,-1.077095289464030797e-01,-1.000159911645171346e-01,-9.207427474450587124e-02,-8.413255832449458016e-02,-7.643902054260863499e-02,-6.849730412259734391e-02,-6.055558770258608059e-02,-5.286204992070010766e-02,-4.492033350068881659e-02,-3.722679571880289917e-02,-2.928507929879160809e-02,-2.134336287878031702e-02,-1.364982509689439960e-02,-5.708108676883122401e-03,1.985429105002822769e-03,9.927145525014113847e-03,1.786886194502540492e-02,2.556239972691132928e-02,3.350411614692261342e-02,4.144583256693391143e-02,4.913937034881984967e-02,5.708108676883113380e-02,6.477462455071707204e-02,6.800094684634665210e-02,6.800094684634665210e-02,6.800094684634665210e-02
6.800094684634665210e-02,6.800094684634665210e-02,6.800094684634665210e-02,6.800094684634665210e-02,6.800094684634665210e-02,4.126856211113008599e-02,1.177075826537388181e-02,-1.680523921020245226e-02,-4.630304305595865644e-02,-7.580084690171486062e-02,-1.043768443772911808e-01,-1.338746482230473989e-01,-1.384836800739467910e-01,-1.384836800739467910e-01,-1.384836800739467910e-01,-1.384836800739467910e-01,-1.384836800739468465e-01,-1.384836800739467910e-01,-1.325273927589383227e-01,-1.245856763389270455e-01,-1.168921385570411281e-01,-1.089504221370298093e-01,-1.012568843551438919e-01,-9.331516793513262853e-02,-8.537345151512133745e-02,-7.767991373323542004e-02,-6.973819731322412896e-02,-6.179648089321283788e-02,-5.410294311132687883e-02,-4.616122669131558776e-02,-3.846768890942965646e-02,-3.052597248941836539e-02,-2.258425606940707431e-02,-1.489071828752115689e-02,-6.949001867509879693e-03,7.445359143760654774e-04,8.686252334387356555e-03,1.662796875439864763e-02,2.432150653628457199e-02,3.226322295629585613e-02,4.020493937630714720e-02,4.789847715819307850e-02,5.584019357820436957e-02,6.353373136009030087e-02,6.800094684634665210e-02,6.800094684634665210e-02,6.800094684634665210e-02
6.800094684634665210e-02,6.800094684634665210e-02,6.800094684634665210e-02,6.800094684634665210e-02,6.800094684634665210e-02,4.587759396202949203e-02,1.637979011627328785e-02,-1.219620735930304622e-02,-4.169401120505925040e-02,-7.119181505081546846e-02,-9.976781252639178865e-02,-1.292656163721480067e-01,-1.384836800739467910e-01,-1.384836800739467910e-01,-1.384836800739467910e-01,-1.384836800739467910e-01,-1.384836800739467910e-01,-1.384836800739467910e-01,-1.337682859495650800e-01,-1.258265695295537889e-01,-1.181330317476678854e-01,-1.101913153276565943e-01,-1.022495989076453032e-01,-9.455606112575938582e-02,-8.661434470574809474e-02,-7.892080692386217733e-02,-7.097909050385088625e-02,-6.303737408383959517e-02,-5.534383630195365000e-02,-4.740211988194235893e-02,-3.970858210005641376e-02,-3.176686568004513656e-02,-2.382514926003384548e-02,-1.613161147814791418e-02,-8.189895058136650863e-03,-2.481786381253597851e-04,7.445359143760585385e-03,1.538707556377187646e-02,2.308061334565780082e-02,3.102232976566909189e-02,3.896404618568038297e-02,4.665758396756632120e-02,5.459930038757760534e-02,6.229283816946353664e-02,6.800094684634665210e-02,6.800094684634665210e-02,6.800094684634665210e-02
6.800094684634665210e-02,6.800094684634665210e-02,6.800094684634665210e-02,6.800094684634665210e-02,6.800094684634665210e-02,5.048662581292890500e-02,2.098882196717269388e-02,-7.587175508403640189e-03,-3.708497935415983049e-02,-6.658278319991604854e-02,-9.515878067549236874e-02,-1.246565845212485729e-01,-1.384836800739467910e-01,-1.384836800739467910e-01,-1.384836800739467910e-01,-1.384836800739467910e-01,-1.384836800739467910e-01,-1.384836800739467910e-01,-1.350091791401918373e-01,-1.270674627201805462e-01,-1.193739249382946427e-01,-1.114322085182833794e-01,-1.034904920982720605e-01,-9.579695431638617087e-02,-8.785523789637487979e-02,-8.016170011448893462e-02,-7.221998369447764354e-02,-6.427826727446635247e-02,-5.658472949258043505e-02,-4.864301307256913010e-02,-4.094947529068318492e-02,-3.300775887067190772e-02,-2.506604245066061665e-02,-1.737250466877468535e-02,-9.430788248763422033e-03,-1.489071828752117077e-03,6.204465953133821154e-03,1.414618237314511917e-02,2.183972015503105046e-02,2.978143657504233460e-02,3.772315299505361874e-02,4.541669077693955003e-02,5.335840719695084111e-02,6.105194497883677240e-02,6.800094684634665210e-02,6.800094684634665210e-02,6.800094684634665210e-02
6.800094684634665210e-02,6.800094684634665210e-02,6.800094684634665210e-02,6.800094684634665210e-02,6.800094684634665210e-02,5.509565766382831103e-02,2.559785381807210686e-02,-2.978143657504220276e-03,-3.247594750326042445e-02,-6.197375134901662863e-02,-9.054974882459297658e-02,-1.200475526703491808e-01,-1.384836800739467910e-01,-1.384836800739467910e-01,-1.384836800739467910e-01,-1.384836800739467910e-01,-1.384836800739467910e-01,-1.384836800739467910e-01,-1.362500723308186501e-01,-1.283083559108073590e-01,-1.206148181289214277e-01,-1.126731017089101367e-01,-1.047313852888988456e-01,-9.703784750701292816e-02,-8.909613108700163708e-02,-8.140259330511569191e-02,-7.346087688510442859e-02,-6.551916046509313751e-02,-5.782562268320719234e-02,-4.988390626319587351e-02,-4.194218984318458243e-02,-3.424865206129866502e-02,-2.630693564128737394e-02,-1.861339785940142877e-02,-1.067168143939016545e-02,-2.729965019378874369e-03,4.963572762507056924e-03,1.290528918251835494e-02,2.059882696440428623e-02,2.854054338441556343e-02,3.648225980442685451e-02,4.417579758631279274e-02,5.211751400632407688e-02,6.005923042633536102e-02,6.775276820822130619e-02,6.800094684634665210e-02,6.800094684634665210e-02
6.800094684634665210e-02,6.800094684634665210e-02,6.800094684634665210e-02,6.800094684634665210e-02,6.800094684634665210e-02,5.970468951472771707e-02,3.020688566897150595e-02,1.630888193395185759e-03,-2.786691565236103230e-02,-5.736471949811723647e-02,-8.594071697369358442e-02,-1.154385208194497886e-01,-1.384836800739468465e-01,-1.384836800739467910e-01,-1.384836800739467910e-01,-1.384836800739467910e-01,-1.384836800739467910e-01,-1.384836800739467910e-01,-1.374909655214454074e-01,-1.295492491014340608e-01,-1.218557113195481573e-01,-1.139139948995368939e-01,-1.059722784795256029e-01,-9.827874069763968545e-02,-9.033702427762842213e-02,-8.239530785761710330e-02,-7.470177007573115813e-02,-6.676005365571989481e-02,-5.906651587383394963e-02,-5.112479945382264468e-02,-4.318308303381135360e-02,-3.548954525192542231e-02,-2.754782883191414511e-02,-1.985429105002819994e-02,-1.191257463001692274e-02,-3.970858210005645539e-03,3.722679571880285754e-03,1.166439599189159071e-02,1.935793377377752200e-02,2.729965019378879920e-02,3.524136661380009028e-02,4.293490439568602851e-02,5.087662081569731265e-02,5.881833723570860373e-02,6.651187501759453502e-02,6.800094684634665210e-02,6.800094684634665210e-02
6.800094684634665210e-02,6.800094684634665210e-02,6.800094684634665210e-02,6.800094684634665210e-02,6.800094684634665210e-02,6.431372136562713004e-02,3.481591751987091893e-02,5.318113674114707812e-03,-2.325788380146159851e-02,-5.275568764721781656e-02,-8.133168512279416451e-02,-1.108294889685503687e-01,-1.384836800739467910e-01,-1.384836800739467910e-01,-1.384836800739467910e-01,-1.384836800739467910e-01,-1.384836800739467910e-01,-1.384836800739467910e-01,-1.384836800739467910e-01,-1.307901422920608736e-01,-1.230966045101749146e-01,-1.151548880901636790e-01,-1.072131716701523324e-01,-9.951963388826644274e-02,-9.157791746825517942e-02,-8.363620104824386059e-02,-7.594266326635791542e-02,-6.800094684634662434e-02,-6.030740906446070693e-02,-5.236569264444940197e-02,-4.442397622443812477e-02,-3.673043844255219348e-02,-2.878872202254090240e-02,-2.109518424065497111e-02,-1.315346782064369391e-02,-5.211751400632416709e-03,2.481786381253528462e-03,1.042350280126481954e-02,1.836521922127611062e-02,2.605875700316204191e-02,3.400047342317332605e-02,4.169401120505926428e-02,4.963572762507054842e-02,5.757744404508183256e-02,6.527098182696777773e-02,6.800094684634665210e-02,6.800094684634665210e-02
6.800094684634665210e-02,6.800094684634665210e-02,6.800094684634665210e-02,6.800094684634665210e-02,6.800094684634665210e-02,6.800094684634665210e-02,3.942494937077032496e-02,9.927145525014113847e-03,-1.864885195056222023e-02,-4.814665579631842440e-02,-7.672265327189474460e-02,-1.062204571176509765e-01,-1.357182609634071668e-01,-1.384836800739467910e-01,-1.384836800739467910e-01,-1.384836800739468465e-01,-1.384836800739467910e-01,-1.384836800739467910e-01,-1.384836800739467910e-01,-1.320310354826876309e-01,-1.240893190626763537e-01,-1.163957812807904363e-01,-1.084540648607791175e-01,-1.007605270788932000e-01,-9.281881065888193671e-02,-8.487709423887064564e-02,-7.718355645698470047e-02,-6.924184003697340939e-02,-6.154830225508746422e-02,-5.360658583507618702e-02,-4.566486941506488206e-02,-3.797133163317896465e-02,-3.002961521316767357e-02,-9.906538125470222556e-02,-9.112366483469093448e-02,-8.318194841467964340e-02,-7.548841063279372599e-02,-6.754669421278243491e-02,1.712432603064935333e-02,2.481786381253528462e-02,3.275958023254656182e-02,4.045311801443250005e-02,4.839483443444378419e-02,5.633655085445507527e-02,6.403008863634100656e-02,6.800094684634665210e-02,6.800094684634665210e-02
6.800094684634665210e-02,6.800094684634665210e-02,6.800094684634665210e-02,6.800094684634665210e-02,6.800094684634665210e-02,6.800094684634665210e-02,4.403398122166973794e-02,1.453617737591351988e-02,-1.403982009966280031e-02,-4.353762394541900449e-02,-7.211362142099535244e-02,-1.016114252667515566e-01,-1.311092291125077192e-01,-1.384836800739467910e-01,-1.384836800739467910e-01,-1.384836800739467910e-01,-1.384836800739467910e-01,-1.384836800739467910e-01,-1.384836800739467910e-01,-1.332719286733143882e-01,-1.253302122533030971e-01,-1.176366744714171936e-01,-1.096949580514058747e-01,-1.020014202695199851e-01,-9.405970384950869401e-02,-8.611798742949740293e-02,-7.842444964761145776e-02,-7.048273322760019444e-02,-6.278919544571424927e-02,-5.484747902570295819e-02,-4.690576260569163936e-02,-3.921222482380570806e-02,-3.127050840379443086e-02,-1.000580958072036092e-01,-9.236455802531769177e-02,-8.442284160530640069e-02,-7.672930382342048328e-02,-6.878758740340919220e-02,1.588343284002258909e-02,2.357697062190851345e-02,3.151868704191979065e-02,3.921222482380573582e-02,4.715394124381702690e-02,5.509565766382831103e-02,6.278919544571424927e-02,6.800094684634665210e-02,6.800094684634665210e-02
6.800094684634665210e-02,6.800094684634665210e-02,6.800094684634665210e-02,6.800094684634665210e-02,6.800094684634665210e-02,6.800094684634665210e-02,4.864301307256914397e-02,1.914520922681293286e-02,-9.430788248763394277e-03,-3.892859209451959845e-02,-6.750458957009593253e-02,-9.700239341585216446e-02,-1.265001972616083270e-01,-1.384836800739467910e-01,-1.384836800739467910e-01,-1.384836800739467910e-01,-1.384836800739467910e-01,-1.384836800739468465e-01,-1.384836800739467910e-01,-1.345128218639411455e-01,-1.265711054439298544e-01,-1.188775676620439509e-01,-1.109358512420326598e-01,-1.032423134601467146e-01,-9.530059704013545130e-02,-8.735888062012416022e-02,-7.966534283823821505e-02,-7.172362641822695173e-02,-6.378190999821566065e-02,-5.608837221632971548e-02,-4.814665579631841053e-02,-4.045311801443247923e-02,-3.251140159442118815e-02,-1.012989889978303942e-01,-9.360545121594444906e-02,-8.566373479593318574e-02,-7.797019701404724057e-02,-7.002848059403594949e-02,1.464253964939582486e-02,2.233607743128174922e-02,3.027779385129303336e-02,3.797133163317897853e-02,4.591304805319026267e-02,5.385476447320154680e-02,6.154830225508747810e-02,6.800094684634665210e-02,6.800094684634665210e-02
6.800094684634665210e-02,6.800094684634665210e-02,6.800094684634665210e-02,6.800094684634665210e-02,6.800094684634665210e-02,6.800094684634665210e-02,5.325204492346855001e-02,2.375424107771233889e-02,-4.821756397863988242e-03,-3.431956024362019242e-02,-6.381736408937642435e-02,-9.239336156495271679e-02,-1.218911654107089487e-01,-1.384836800739467910e-01,-1.384836800739467910e-01,-1.384836800739467910e-01,-1.384836800739467910e-01,-1.384836800739467910e-01,-1.384836800739467910e-01,-1.357537150545679583e-01,-1.278119986345566117e-01,-1.201184608526707082e-01,-1.121767444326594171e-01,-1.042350280126481260e-01,-9.654149023076220859e-02,-8.859977381075091751e-02,-8.090623602886500010e-02,-7.296451960885370902e-02,-6.502280318884239019e-02,-5.732926540695647277e-02,-4.938754898694518169e-02,-4.169401120505923652e-02,-3.375229478504797320e-02,-1.025398821884571238e-01,-9.484634440657123411e-02,-8.690462798655994303e-02,-7.921109020467399786e-02,-7.126937378466270678e-02,1.340164645876906063e-02,2.109518424065499193e-02,2.903690066066626912e-02,3.697861708067756020e-02,4.467215486256349843e-02,5.261387128257478257e-02,6.030740906446072080e-02,6.800094684634665210e-02,6.800094684634665210e-02
6.800094684634665210e-02,6.800094684634665210e-02,6.800094684634665210e-02,6.800094684634665210e-02,6.800094684634665210e-02,6.800094684634665210e-02,5.786107677436795604e-02,2.836327292861175187e-02,-2.127245469645683285e-04,-2.971052839272078638e-02,-5.920833223847700444e-02,-8.778432971405332463e-02,-1.172821335598095566e-01,-1.384836800739467910e-01,-1.384836800739467910e-01,-1.384836800739467910e-01,-1.384836800739468465e-01,-1.384836800739467910e-01,-1.384836800739467910e-01,-1.369946082451947156e-01,-1.290528918251834245e-01,-1.213593540432974377e-01,-1.134176376232862021e-01,-1.054759212032748833e-01,-9.778238342138896588e-02,-8.984066700137767481e-02,-8.214712921949175739e-02,-7.420541279948049407e-02,-6.626369637946917523e-02,-5.857015859758325782e-02,-5.062844217757192511e-02,-4.293490439568600769e-02,-3.499318797567471662e-02,-1.037807753790839366e-01,-9.608723759719796365e-02,-8.814552117718672808e-02,-8.020380475717543700e-02,-7.251026697528946408e-02,1.216075326814229640e-02,1.985429105002822769e-02,2.779600747003950489e-02,3.573772389005079597e-02,4.343126167193673420e-02,5.137297809194801834e-02,5.906651587383394963e-02,6.700823229384524071e-02,6.800094684634665210e-02
6.800094684634665210e-02,6.800094684634665210e-02,6.800094684634665210e-02,6.800094684634665210e-02,6.800094684634665210e-02,6.800094684634665210e-02,6.247010862526736208e-02,3.297230477951115096e-02,4.396307303934837707e-03,-2.510149654182138035e-02,-5.459930038757758453e-02,-8.317529786315393248e-02,-1.126731017089101089e-01,-1.384836800739467910e-01,-1.384836800739467910e-01,-1.384836800739467910e-01,-1.384836800739467910e-01,-1.384836800739468465e-01,-1.384836800739468465e-01,-1.382355014358214729e-01,-1.302937850158101818e-01,-1.226002472339242227e-01,-3.657155887092351509e-01,-3.577738722892238599e-01,-3.500803345073379425e-01,-3.421386180873266514e-01,-3.344450803054407340e-01,-7.544630599010722360e-02,-6.750458957009596028e-02,-5.981105178821001511e-02,-5.186933536819871016e-02,-4.417579758631276499e-02,-3.623408116630148779e-02,-2.829236474629019671e-02,-2.059882696440425154e-02,-1.265711054439298822e-02,-4.715394124381697138e-03,2.978143657504234154e-03,1.091986007751553911e-02,1.861339785940146346e-02,2.655511427941274760e-02,3.449683069942403174e-02,4.219036848130996997e-02,5.013208490132125411e-02,5.782562268320719234e-02,6.576733910321848342e-02,6.800094684634665210e-02
6.800094684634665210e-02,6.800094684634665210e-02,6.800094684634665210e-02,6.800094684634665210e-02,6.800094684634665210e-02,6.800094684634665210e-02,6.707914047616676811e-02,3.758133663041056394e-02,9.005339154834236803e-03,-2.049246469092197431e-02,-4.999026853667817849e-02,-7.856626601225451256e-02,-1.080640698580107167e-01,-1.366400673335870231e-01,-1.384836800739467910e-01,-1.384836800739467910e-01,-1.384836800739467910e-01,-1.384836800739467910e-01,-1.384836800739467910e-01,-1.384836800739467910e-01,-1.315346782064369391e-01,-1.238411404245509800e-01,-3.669564818998619082e-01,-3.590147654798506172e-01,-3.513212276979646997e-01,-3.433795112779534642e-01,-3.356859734960674913e-01,-7.668719918073398090e-02,-6.874548276072271757e-02,-6.105194497883677240e-02,-5.311022855882546745e-02,-4.516851213881417637e-02,-3.747497435692824508e-02,-2.953325793691695400e-02,-2.183972015503102271e-02,-1.389800373501974551e-02,-5.956287315008468308e-03,1.737250466877476862e-03,9.678966886888767940e-03,1.737250466877469923e-02,2.531422108878598337e-02,3.325593750879726751e-02,4.094947529068320574e-02,4.889119171069448988e-02,5.683290813070578096e-02,6.452644591259171225e-02,6.800094684634665210e-02
6.800094684634665210e-02,6.800094684634665210e-02,6.800094684634665210e-02,6.800094684634665210e-02,6.800094684634665210e-02,6.800094684634665210e-02,6.800094684634665210e-02,4.219036848130996997e-02,1.361437100573363590e-02,-1.588343284002256828e-02,-4.538123668577877246e-02,-7.395723416135512041e-02,-1.034550380071112968e-01,-1.329528418528674871e-01,-1.384836800739467910e-01,-1.384836800739467910e-01,-1.384836800739467910e-01,-1.384836800739467910e-01,-1.384836800739467910e-01,-1.384836800739467910e-01,-1.327755713970636964e-01,-1.250820336151777235e-01,-3.681973750904887210e-01,-3.602556586704774300e-01,-3.525621208885914570e-01,-3.446204044685801660e-01,-3.366786880485688749e-01,-7.792809237136073819e-02,-6.998637595134947487e-02,-6.229283816946352970e-02,-5.435112174945222474e-02,-4.640940532944094754e-02,-3.871586754755501625e-02,-3.077415112754372517e-02,-2.308061334565779388e-02,-1.513889692564650280e-02,-7.197180505635239478e-03,4.963572762507056924e-04,8.438073696261996770e-03,1.613161147814794194e-02,2.407332789815921914e-02,3.201504431817050328e-02,3.970858210005644151e-02,4.765029852006773259e-02,5.559201494007901673e-02,6.328555272196495496e-02,6.800094684634665210e-02
6.800094684634665210e-02,6.800094684634665210e-02,6.800094684634665210e-02,6.800094684634665210e-02,6.800094684634665210e-02,6.800094684634665210e-02,6.800094684634665210e-02,4.679940033220937601e-02,1.730159648645317183e-02,-1.127440098912314836e-02,-4.077220483487936642e-02,-6.934820231045570049e-02,-9.884600615621190467e-02,-1.283438100019680950e-01,-1.384836800739467910e-01,-1.384836800739467910e-01,-1.384836800739467910e-01,-1.384836800739467910e-01,-1.384836800739467910e-01,-1.384836800739467910e-01,-1.340164645876904537e-01,-1.260747481676791626e-01,-3.694382682811154228e-01,-3.614965518611041873e-01,-3.538030140792182698e-01,-3.458612976592069788e-01,-3.379195812391956877e-01,-7.916898556198752324e-02,-7.122726914197623216e-02,-6.353373136009031474e-02,-5.559201494007900979e-02,-4.765029852006770483e-02,-3.995676073818175966e-02,-3.201504431817049634e-02,-2.432150653628455117e-02,-1.637979011627327397e-02,-8.438073696261996770e-03,-7.445359143760654774e-04,7.197180505635225600e-03,1.513889692564653056e-02,2.283243470753246185e-02,3.077415112754373905e-02,3.846768890942967728e-02,4.640940532944096142e-02,5.435112174945225250e-02,6.204465953133818379e-02,6.800094684634665210e-02
6.800094684634665210e-02,6.800094684634665210e-02,6.800094684634665210e-02,6.800094684634665210e-02,6.800094684634665210e-02,6.800094684634665210e-02,6.800094684634665210e-02,5.140843218310878204e-02,2.191062833735257787e-02,-6.665369138223742329e-03,-3.616317298397996038e-02,-6.473917045955630833e-02,-9.423697430531248476e-02,-1.237347781510687167e-01,-1.384836800739467910e-01,-1.384836800739467910e-01,-1.384836800739468465e-01,-1.384836800739468465e-01,-1.384836800739467910e-01,-1.384836800739467910e-01,-1.352573577783172110e-01,-1.273156413583059199e-01,-3.706791614717422356e-01,-3.627374450517309445e-01,-3.550439072698449716e-01,-3.471021908498337361e-01,-3.391604744298224450e-01,-8.040987875261428053e-02,-7.246816233260301721e-02,-6.477462455071707204e-02,-5.683290813070576708e-02,-4.889119171069446212e-02,-4.119765392880854471e-02,-3.325593750879725363e-02,-2.531422108878596255e-02,-1.762068330690001738e-02,-9.678966886888767940e-03,-1.985429105002822769e-03,5.956287315008468308e-03,1.389800373501976632e-02,2.159154151690569762e-02,2.953325793691696788e-02,3.722679571880291305e-02,4.516851213881420413e-02,5.311022855882548827e-02,6.080376634071141956e-02,6.800094684634665210e-02
6.800094684634665210e-02,6.800094684634665210e-02,6.800094684634665210e-02,6.800094684634665210e-02,6.800094684634665210e-02,6.800094684634665210e-02,6.800094684634665210e-02,5.601746403400819502e-02,2.651966018825198390e-02,-2.056337287324350172e-03,-3.155414113308055435e-02,-6.013013860865688842e-02,-8.962794245441309260e-02,-1.191257463001692968e-01,-1.384836800739467910e-01,-1.384836800739467910e-01,-1.384836800739467910e-01,-1.384836800739468465e-01,-1.384836800739467910e-01,-1.384836800739467910e-01,-1.364982509689439683e-01,-1.285565345489326772e-01,-1.208629967670467736e-01,-1.129212803470354826e-01,-1.052277425651495374e-01,-9.728602614513827407e-02,-8.934430972512698299e-02,-8.165077194324101006e-02,-7.370905552322977450e-02,-6.601551774134380157e-02,-5.807380132133253825e-02,-5.013208490132123329e-02,-4.243854711943528812e-02,-3.449683069942402480e-02,-2.655511427941271985e-02,-1.886157649752678855e-02,-1.091986007751552523e-02,-3.226322295629593939e-03,4.715394124381697138e-03,1.265711054439300903e-02,2.035064832627893339e-02,2.829236474629021059e-02,3.598590252817614882e-02,4.392761894818743990e-02,5.186933536819872403e-02,5.956287315008465533e-02,6.750458957009594640e-02
6.800094684634665210e-02,6.800094684634665210e-02,6.800094684634665210e-02,6.800094684634665210e-02,6.800094684634665210e-02,6.800094684634665210e-02,6.800094684634665210e-02,6.062649588490760105e-02,3.112869203915138994e-02,2.552694563575069742e-03,-2.694510928218114831e-02,-5.552110675775748239e-02,-8.501891060351367269e-02,-1.145167144492698769e-01,-1.384836800739467910e-01,-1.384836800739467910e-01,-1.384836800739467910e-01,-1.384836800739467910e-01,-1.384836800739467910e-01,-1.384836800739467910e-01,-1.377391441595707255e-01,-1.297974277395594345e-01,-1.221038899576735309e-01,-1.141621735376622399e-01,-1.064686357557762947e-01,-9.852691933576503136e-02,-9.058520291575376804e-02,-8.289166513386779511e-02,-7.494994871385653179e-02,-6.700823229384524071e-02,-5.931469451195929554e-02,-5.137297809194800446e-02,-4.367944031006205929e-02,-3.573772389005078209e-02,-2.779600747003949102e-02,-2.010246968815354585e-02,-1.216075326814229640e-02,-4.467215486256351231e-03,3.474500933754939846e-03,1.141621735376623092e-02,1.910975513565216916e-02,2.705147155566345329e-02,3.499318797567473743e-02,4.268672575756067566e-02,5.062844217757195980e-02,5.832197995945789804e-02,6.626369637946918911e-02
6.800094684634665210e-02,6.800094684634665210e-02,6.800094684634665210e-02,6.800094684634665210e-02,6.800094684634665210e-02,6.800094684634665210e-02,6.800094684634665210e-02,6.523552773580701403e-02,3.573772389005079597e-02,7.161726414474482716e-03,-2.233607743128174228e-02,-5.183388127703793258e-02,-8.040987875261428053e-02,-1.099076825983705125e-01,-1.384836800739467910e-01,-1.384836800739467910e-01,-1.384836800739467910e-01,-1.384836800739467910e-01,-1.384836800739467910e-01,-1.384836800739467910e-01,-1.384836800739467910e-01,-1.310383209301861918e-01,-1.233447831483002882e-01,-1.154030667282890249e-01,-1.077095289464030797e-01,-9.976781252639178865e-02,-9.182609610638052533e-02,-8.413255832449458016e-02,-7.619084190448328908e-02,-6.824912548447199800e-02,-6.055558770258608059e-02,-5.261387128257476176e-02,-4.492033350068881659e-02,-3.697861708067755326e-02,-2.903690066066626219e-02,-2.134336287878031702e-02,-1.340164645876903982e-02,-5.708108676883122401e-03,2.233607743128182554e-03,1.017532416313947363e-02,1.786886194502540492e-02,2.581057836503668906e-02,3.375229478504797320e-02,4.144583256693391143e-02,4.938754898694519557e-02,5.878731490594293202e-02,6.595347308181248591e-02
6.800094684634665210e-02,6.800094684634665210e-02,6.800094684634665210e-02,6.800094684634665210e-02,6.800094684634665210e-02,6.800094684634665210e-02,6.800094684634665210e-02,6.800094684634665210e-02,4.034675574095020895e-02,1.177075826537388181e-02,-1.772704558038233624e-02,-4.722484942613852654e-02,-7.580084690171488837e-02,-1.052986507474710648e-01,-1.338746482230473989e-01,-1.384836800739467910e-01,-1.384836800739468465e-01,-1.384836800739467910e-01,-1.384836800739467910e-01,-1.384836800739467910e-01,-1.384836800739467910e-01,-1.322792141208129491e-01,-1.245856763389270178e-01,-1.166439599189157822e-01,-1.087022434989044911e-01,-1.010087057170185459e-01,-9.306698929700728262e-02,-8.537345151512133745e-02,-7.743173509511004637e-02,-6.949001867509878305e-02,-6.179648089321283788e-02,-5.385476447320151905e-02,-4.616122669131558776e-02,-3.821951027130431056e-02,-3.027779385129301948e-02,-2.258425606940707431e-02,-1.464253964939581099e-02,-6.700823229384519908e-03,5.180729070866738062e-03,2.185523131991388285e-02,3.589283553887914757e-02,4.764254293762631293e-02,5.691046395511994982e-02,6.365782067915297382e-02,6.800094684634665210e-02,6.800094684634665210e-02,6.800094684634665210e-02
6.800094684634665210e-02,6.800094684634665210e-02,6.800094684634665210e-02,6.800094684634665210e-02,6.800094684634665210e-02,6.800094684634665210e-02,6.800094684634665210e-02,6.800094684634665210e-02,4.495578759184961498e-02,1.637979011627328785e-02,-1.311801372948291633e-02,-4.261581757523913438e-02,-7.119181505081546846e-02,-1.006896188965716726e-01,-1.292656163721480067e-01,-1.384836800739467910e-01,-1.384836800739467910e-01,-1.384836800739467910e-01,-1.384836800739467910e-01,-1.384836800739467910e-01,-1.384836800739467910e-01,-1.335201073114397619e-01,-1.258265695295537889e-01,-1.178848531095425117e-01,-1.099431366895312207e-01,-1.022495989076453032e-01,-9.430788248763401216e-02,-8.661434470574809474e-02,-7.867262828573683142e-02,-7.073091186572554034e-02,-6.303737408383959517e-02,-5.509565766382830410e-02,-3.275958023254654794e-02,-9.236898687727965185e-03,1.202115278419678412e-02,3.069659530312957019e-02,4.702985192475434700e-02,6.088132216512559536e-02,6.800094684634665210e-02,6.800094684634665210e-02,6.800094684634665210e-02,6.800094684634665210e-02,6.800094684634665210e-02,6.800094684634665210e-02,6.800094684634665210e-02,6.800094684634665210e-02,6.800094684634665210e-02
6.800094684634665210e-02,6.800094684634665210e-02,6.800094684634665210e-02,6.800094684634665210e-02,6.800094684634665210e-02,6.800094684634665210e-02,6.800094684634665210e-02,6.800094684634665210e-02,4.956481944274902102e-02,2.098882196717269388e-02,-8.508981878583510294e-03,-3.800678572433971447e-02,-6.658278319991604854e-02,-9.608058704567225272e-02,-1.246565845212485729e-01,-1.384836800739468465e-01,-1.384836800739467910e-01,-1.384836800739467910e-01,-1.384836800739467910e-01,-1.384836800739467910e-01,-1.384836800739467910e-01,-1.347610005020665191e-01,-1.270674627201805462e-01,-1.191257463001692968e-01,-1.111840298801580335e-01,-9.813138463125271882e-02,-6.488320270489690567e-02,-3.427967439106434366e-02,-5.956287315008454430e-03,1.988531337979389246e-02,4.319859419869421374e-02,6.411540004319660202e-02,6.800094684634665210e-02,6.800094684634665210e-02,6.800094684634665210e-02,6.800094684634665210e-02,6.800094684634665210e-02,6.800094684634665210e-02,6.800094684634665210e-02,6.800094684634665210e-02,6.800094684634665210e-02,6.800094684634665210e-02,6.800094684634665210e-02,6.800094684634665210e-02,6.800094684634665210e-02,6.800094684634665210e-02,6.800094684634665210e-02
