-2.939962266117612799e-01,-2.939962266117612799e-01,-2.939962266117612799e-01,-2.939962266117612799e-01,-2.939962266117612799e-01,-2.939962266117612799e-01,-2.939962266117612799e-01,-2.939962266117612799e-01,-2.939962266117612799e-01,-2.939962266117612799e-01,-2.939962266117612799e-01,-2.939962266117612799e-01,-2.939962266117612799e-01,-2.939962266117612799e-01,-2.939962266117612799e-01,-2.939962266117612799e-01,-2.939962266117612799e-01,-2.939962266117612799e-01,-2.939962266117612799e-01,-2.939962266117612799e-01,-2.939962266117612799e-01,-2.789026703348181924e-01,-2.579029398625495295e-01,-2.375594509675392485e-01,-2.165597204952706134e-01,-1.962162316002603324e-01,-1.937758332348306634e-01,-2.026966171756869883e-01,-2.192462094521721583e-01,-2.432400421206822316e-01,-2.751702963641610711e-01,-2.939962266117612799e-01,-2.939962266117612799e-01,-2.939962266117612799e-01,-2.939962266117612799e-01,-2.939962266117612799e-01,-2.939962266117612799e-01,-2.939962266117612799e-01,-2.939962266117612799e-01,-2.939962266117612799e-01,-2.939962266117612799e-01,-2.939962266117612799e-01,-2.939962266117612799e-01,-2.939962266117612799e-01,-2.939962266117612799e-01,-2.939962266117612799e-01,-2.939962266117612799e-01
-2.939962266117612799e-01,-2.939962266117612799e-01,-2.939962266117612799e-01,-2.939962266117612799e-01,-2.939962266117612799e-01,-2.939962266117612799e-01,-2.939962266117612799e-01,-2.939962266117612799e-01,-2.939962266117612799e-01,-2.939962266117612799e-01,-2.939962266117612799e-01,-2.939962266117612799e-01,-2.939962266117612799e-01,-2.939962266117612799e-01,-2.939962266117612799e-01,-2.939962266117612799e-01,-2.939962266117612799e-01,-2.939962266117612799e-01,-2.939962266117612799e-01,-2.939962266117612799e-01,-2.939962266117612799e-01,-2.749652208712677903e-01,-2.539654903989991275e-01,-2.336220015039888742e-01,-2.126222710317202114e-01,-1.922787821367099581e-01,-1.712790516644412953e-01,-1.509355627694310420e-01,-1.305920738744207887e-01,-1.095923434021521259e-01,-8.924885450714181712e-02,-8.941291490145641951e-02,-1.171186139913343305e-01,-1.521044930789225424e-01,-1.951908541357940952e-01,-2.480593162036735799e-01,-2.939962266117612799e-01,-2.939962266117612799e-01,-2.939962266117612799e-01,-2.939962266117612799e-01,-2.939962266117612799e-01,-2.939962266117612799e-01,-2.939962266117612799e-01,-2.939962266117612799e-01,-2.939962266117612799e-01,-2.939962266117612799e-01,-2.939962266117612799e-01
-2.939962266117612799e-01,-2.939962266117612799e-01,-2.939962266117612799e-01,-2.939962266117612799e-01,-2.939962266117612799e-01,-2.939962266117612799e-01,-2.939962266117612799e-01,-2.939962266117612799e-01,-2.939962266117612799e-01,-2.939962266117612799e-01,-2.939962266117612799e-01,-2.939962266117612799e-01,-2.939962266117612799e-01,-2.939962266117612799e-01,-2.939962266117612799e-01,-2.939962266117612799e-01,-2.939962266117612799e-01,-2.939962266117612799e-01,-2.939962266117612799e-01,-2.939962266117612799e-01,-2.913712603027276971e-01,-2.710277714077174438e-01,-2.500280409354487809e-01,-2.296845520404385277e-01,-2.086848215681698648e-01,-1.883413326731595838e-01,-1.673416022008909487e-01,-1.469981133058806677e-01,-1.266546244108703867e-01,-1.056548939386017238e-01,-8.531140504359147059e-02,-6.431167457132280774e-02,-4.396818567631255448e-02,-2.296845520404389163e-02,-2.624966309033638368e-03,-5.551115123125782702e-17,-4.421427626778445807e-02,-1.179047367140917957e-01,-1.803023733517442606e-01,-2.300673596271725629e-01,-2.681567145072119573e-01,-2.939962266117612799e-01,-2.939962266117612799e-01,-2.939962266117612799e-01,-2.939962266117612799e-01,-2.939962266117612799e-01,-2.939962266117612799e-01
-2.939962266117612799e-01,-2.939962266117612799e-01,-2.939962266117612799e-01,-2.939962266117612799e-01,-2.939962266117612799e-01,-2.939962266117612799e-01,-2.939962266117612799e-01,-2.939962266117612799e-01,-2.939962266117612799e-01,-2.939962266117612799e-01,-2.939962266117612799e-01,-2.939962266117612799e-01,-2.939962266117612799e-01,-2.939962266117612799e-01,-2.939962266117612799e-01,-2.939962266117612799e-01,-2.939962266117612799e-01,-2.939962266117612799e-01,-2.939962266117612799e-01,-2.939962266117612799e-01,-2.874338108391773505e-01,-2.670903219441670418e-01,-2.460905914718984067e-01,-2.257471025768881256e-01,-2.047473721046194628e-01,-1.844038832096092095e-01,-1.634041527373405467e-01,-1.430606638423302934e-01,-1.227171749473200402e-01,-1.017174444750513496e-01,-8.137395558004106855e-02,-6.037422510777246121e-02,-4.003073621276220795e-02,-1.903100574049348959e-02,-5.551115123125782702e-17,-1.020820231290908708e-03,-3.368706763259771142e-02,-6.533249480261366093e-02,-9.799874220392046364e-02,-1.296441693739364132e-01,-1.623104167752432159e-01,-1.970821059035873790e-01,-2.405626676301315103e-01,-2.727823061802485682e-01,-2.922097912070023007e-01,-2.939962266117612799e-01,-2.939962266117612799e-01
-2.939962266117612799e-01,-2.939962266117612799e-01,-2.939962266117612799e-01,-2.939962266117612799e-01,-2.939962266117612799e-01,-2.939962266117612799e-01,-2.939962266117612799e-01,-2.939962266117612799e-01,-2.939962266117612799e-01,-2.939962266117612799e-01,-2.939962266117612799e-01,-2.939962266117612799e-01,-2.939962266117612799e-01,-2.939962266117612799e-01,-2.939962266117612799e-01,-2.939962266117612799e-01,-2.939962266117612799e-01,-2.939962266117612799e-01,-2.939962266117612799e-01,-2.939962266117612799e-01,-2.834963613756269485e-01,-2.631528724806166952e-01,-2.421531420083480324e-01,-2.218096531133377791e-01,-2.008099226410691163e-01,-1.804664337460588353e-01,-1.594667032737902002e-01,-1.391232143787799469e-01,-1.187797254837696659e-01,-9.777999501150100303e-02,-7.743650611649072202e-02,-5.643677564422205917e-02,-3.609328674921180591e-02,-1.509355627694314306e-02,-5.551115123125782702e-17,-7.145741619035916870e-03,-3.981198902034271958e-02,-7.145741619035866909e-02,-1.041236635916654996e-01,-1.357690907616814768e-01,-1.684353381629882518e-01,-2.000807653330042291e-01,-2.317261925030201786e-01,-2.643924399043269813e-01,-2.939962266117612799e-01,-2.939962266117612799e-01,-2.939962266117612799e-01
-2.939962266117612799e-01,-2.939962266117612799e-01,-2.939962266117612799e-01,-2.939962266117612799e-01,-2.939962266117612799e-01,-2.939962266117612799e-01,-2.939962266117612799e-01,-2.939962266117612799e-01,-2.939962266117612799e-01,-2.939962266117612799e-01,-2.939962266117612799e-01,-2.939962266117612799e-01,-2.939962266117612799e-01,-2.939962266117612799e-01,-2.939962266117612799e-01,-2.939962266117612799e-01,-2.939962266117612799e-01,-2.939962266117612799e-01,-2.939962266117612799e-01,-2.939962266117612799e-01,-2.795589119120766020e-01,-2.592154230170662932e-01,-2.382156925447976581e-01,-2.178722036497874048e-01,-1.968724731775187142e-01,-1.765289842825084610e-01,-1.561854953874982077e-01,-1.351857649152295449e-01,-1.148422760202192916e-01,-9.384254554795062875e-02,-7.349905665294034773e-02,-5.249932618067171264e-02,-3.215583728566140387e-02,-1.115610681339279653e-02,-5.551115123125782702e-17,-1.327066300678092503e-02,-4.593691040808775550e-02,-7.758233757810370501e-02,-1.102485849794105077e-01,-1.418940121494264850e-01,-1.745602595507332877e-01,-2.062056867207492372e-01,-2.378511138907652145e-01,-2.705173612920720450e-01,-2.939962266117612799e-01,-2.939962266117612799e-01,-2.939962266117612799e-01
-2.939962266117612799e-01,-2.939962266117612799e-01,-2.939962266117612799e-01,-2.939962266117612799e-01,-2.939962266117612799e-01,-2.939962266117612799e-01,-2.939962266117612799e-01,-2.939962266117612799e-01,-2.939962266117612799e-01,-2.939962266117612799e-01,-2.939962266117612799e-01,-2.939962266117612799e-01,-2.939962266117612799e-01,-2.939962266117612799e-01,-2.939962266117612799e-01,-2.939962266117612799e-01,-2.939962266117612799e-01,-2.939962266117612799e-01,-2.939962266117612799e-01,-2.939962266117612799e-01,-2.756214624485261999e-01,-2.552779735535159467e-01,-2.342782430812472838e-01,-2.139347541862370305e-01,-1.929350237139683399e-01,-1.725915348189580867e-01,-1.522480459239478334e-01,-1.312483154516791706e-01,-1.109048265566688896e-01,-8.990509608440025446e-02,-6.956160718938997345e-02,-4.856187671712133835e-02,-2.821838782211105734e-02,-7.218657349842394488e-03,-5.551115123125782702e-17,-1.939558439452593319e-02,-5.206183179583276366e-02,-8.370725896584874093e-02,-1.163735063671555159e-01,-1.480189335371714932e-01,-1.806851809384782959e-01,-2.123306081084942731e-01,-2.439760352785102226e-01,-2.766422826798170531e-01,-2.939962266117612799e-01,-2.939962266117612799e-01,-2.939962266117612799e-01
-2.939962266117612799e-01,-2.939962266117612799e-01,-2.939962266117612799e-01,-2.939962266117612799e-01,-2.939962266117612799e-01,-2.939962266117612799e-01,-2.939962266117612799e-01,-2.939962266117612799e-01,-2.939962266117612799e-01,-2.939962266117612799e-01,-2.939962266117612799e-01,-2.939962266117612799e-01,-2.939962266117612799e-01,-2.939962266117612799e-01,-2.939962266117612799e-01,-2.939962266117612799e-01,-2.939962266117612799e-01,-2.939962266117612799e-01,-2.939962266117612799e-01,-2.926837434572445162e-01,-2.716840129849758534e-01,-2.513405240899655446e-01,-2.303407936176969095e-01,-2.099973047226866285e-01,-1.889975742504179657e-01,-1.686540853554077124e-01,-1.483105964603974591e-01,-1.273108659881287963e-01,-1.069673770931185430e-01,-8.596764662084988018e-02,-6.562415772583959916e-02,-4.462442725357096407e-02,-2.428093835856071081e-02,-3.281207886292047959e-03,-5.551115123125782702e-17,-2.552050578227099686e-02,-5.818675318357779958e-02,-8.983218035359377684e-02,-1.224984277549005518e-01,-1.541438549249165568e-01,-1.868101023262233318e-01,-2.184555294962393091e-01,-2.501009566662552586e-01,-2.827672040675620613e-01,-2.939962266117612799e-01,-2.939962266117612799e-01,-2.939962266117612799e-01
-2.939962266117612799e-01,-2.939962266117612799e-01,-2.939962266117612799e-01,-2.939962266117612799e-01,-2.939962266117612799e-01,-2.939962266117612799e-01,-2.939962266117612799e-01,-2.939962266117612799e-01,-2.939962266117612799e-01,-2.939962266117612799e-01,-2.939962266117612799e-01,-2.939962266117612799e-01,-2.939962266117612799e-01,-2.939962266117612799e-01,-2.939962266117612799e-01,-2.939962266117612799e-01,-2.939962266117612799e-01,-2.939962266117612799e-01,-2.939962266117612799e-01,-2.887462939936941142e-01,-2.677465635214254513e-01,-2.474030746264151981e-01,-2.264033441541465352e-01,-2.060598552591362820e-01,-1.850601247868676191e-01,-1.647166358918573659e-01,-1.443731469968471126e-01,-1.233734165245784498e-01,-1.030299276295681410e-01,-8.203019715729947814e-02,-6.168670826228922488e-02,-4.068697779002056203e-02,-2.034348889501036428e-02,-1.110223024625156540e-16,-5.551115123125782702e-17,-3.164542717001606054e-02,-6.431167457132286325e-02,-9.595710174133875725e-02,-1.286233491426455877e-01,-1.602687763126615650e-01,-1.929350237139683677e-01,-2.245804508839843172e-01,-2.562258780540002667e-01,-2.888921254553070694e-01,-2.939962266117612799e-01,-2.939962266117612799e-01,-2.939962266117612799e-01
-2.939962266117612799e-01,-2.939962266117612799e-01,-2.939962266117612799e-01,-2.939962266117612799e-01,-2.939962266117612799e-01,-2.939962266117612799e-01,-2.939962266117612799e-01,-2.939962266117612799e-01,-2.939962266117612799e-01,-2.939962266117612799e-01,-2.939962266117612799e-01,-2.939962266117612799e-01,-2.939962266117612799e-01,-2.939962266117612799e-01,-2.939962266117612799e-01,-2.939962266117612799e-01,-2.939962266117612799e-01,-2.939962266117612799e-01,-2.939962266117612799e-01,-2.848088445301437677e-01,-2.638091140578751048e-01,-2.434656251628648238e-01,-2.224658946905961610e-01,-2.021224057955858799e-01,-1.811226753233172448e-01,-1.607791864283069916e-01,-1.404356975332967383e-01,-1.194359670610280477e-01,-9.909247816601776671e-02,-7.809274769374913161e-02,-5.774925879873885060e-02,-3.674952832647027101e-02,-1.640603943145996224e-02,0.000000000000000000e+00,-6.124921387745119183e-03,-3.777034855776106870e-02,-7.043659595906787141e-02,-1.020820231290837932e-01,-1.347482705303906236e-01,-1.663936977004065731e-01,-4.267798009058241249e-01,-4.584252280758400744e-01,-4.900706552458560794e-01,-2.939962266117612799e-01,-2.939962266117612799e-01,-2.939962266117612799e-01,-2.939962266117612799e-01
-2.939962266117612799e-01,-2.939962266117612799e-01,-2.939962266117612799e-01,-2.939962266117612799e-01,-2.939962266117612799e-01,-2.939962266117612799e-01,-2.939962266117612799e-01,-2.939962266117612799e-01,-2.939962266117612799e-01,-2.939962266117612799e-01,-2.939962266117612799e-01,-2.939962266117612799e-01,-2.939962266117612799e-01,-2.939962266117612799e-01,-2.939962266117612799e-01,-2.939962266117612799e-01,-2.939962266117612799e-01,-2.939962266117612799e-01,-2.939962266117612799e-01,-2.808713950665933656e-01,-2.598716645943247028e-01,-2.395281756993144495e-01,-2.185284452270457867e-01,-1.981849563320355334e-01,-1.771852258597668706e-01,-1.568417369647565895e-01,-1.364982480697463363e-01,-1.154985175974776457e-01,-9.515502870246739242e-02,-7.415529823019872957e-02,-5.381180933518847631e-02,-3.281207886291981346e-02,-1.246858996790956020e-02,-5.551115123125782702e-17,-1.224984277549007183e-02,-4.389526994550602135e-02,-7.656151734681287957e-02,-1.082069445168288291e-01,-1.408731919181356596e-01,-1.725186190881516368e-01,-4.329047222935691330e-01,-4.645501494635851381e-01,-4.961955766336010876e-01,-2.939962266117612799e-01,-2.939962266117612799e-01,-2.939962266117612799e-01,-2.939962266117612799e-01
-2.939962266117612799e-01,-2.939962266117612799e-01,-2.939962266117612799e-01,-2.939962266117612799e-01,-2.939962266117612799e-01,-2.939962266117612799e-01,-2.939962266117612799e-01,-2.939962266117612799e-01,-2.939962266117612799e-01,-2.939962266117612799e-01,-2.939962266117612799e-01,-2.939962266117612799e-01,-2.939962266117612799e-01,-2.939962266117612799e-01,-2.939962266117612799e-01,-2.939962266117612799e-01,-2.939962266117612799e-01,-2.939962266117612799e-01,-2.939962266117612799e-01,-2.769339456030430191e-01,-2.559342151307743563e-01,-2.355907262357640752e-01,-2.145909957634954124e-01,-1.942475068684851591e-01,-1.732477763962164963e-01,-1.529042875012062153e-01,-1.325607986061959620e-01,-1.115610681339272992e-01,-9.121757923891704589e-02,-7.021784876664838304e-02,-4.987435987163810203e-02,-2.887462939936946693e-02,-8.531140504359213672e-03,-5.551115123125782702e-17,-1.837476416323513551e-02,-5.002019133325111278e-02,-8.268643873455788773e-02,-1.143318659045738650e-01,-1.469981133058806677e-01,-1.786435404758966450e-01,-4.390296436813141967e-01,-4.706750708513301462e-01,-5.023204980213461512e-01,-2.939962266117612799e-01,-2.939962266117612799e-01,-2.939962266117612799e-01,-2.939962266117612799e-01
-2.939962266117612799e-01,-2.939962266117612799e-01,-2.939962266117612799e-01,-2.939962266117612799e-01,-2.939962266117612799e-01,-2.939962266117612799e-01,-2.939962266117612799e-01,-2.939962266117612799e-01,-2.939962266117612799e-01,-2.939962266117612799e-01,-2.939962266117612799e-01,-2.939962266117612799e-01,-2.939962266117612799e-01,-2.939962266117612799e-01,-2.939962266117612799e-01,-2.939962266117612799e-01,-2.939962266117612799e-01,-2.939962266117612799e-01,-2.933399850345028703e-01,-2.729964961394926171e-01,-2.519967656672239542e-01,-2.316532767722137010e-01,-2.106535462999450381e-01,-1.903100574049347848e-01,-1.693103269326661220e-01,-1.489668380376558410e-01,-1.286233491426455877e-01,-1.076236186703769249e-01,-8.728012977536664385e-02,-6.628039930309798100e-02,-4.593691040808775550e-02,-2.493717993581912040e-02,-4.593691040808811632e-03,-1.110223024625156540e-16,-2.449968555098014367e-02,-5.614511272099612094e-02,-8.881136012230289589e-02,-1.204567872923188732e-01,-1.531230346936257036e-01,-1.847684618636416531e-01,-2.174347092649484559e-01,-2.490801364349644054e-01,-2.807255636049804104e-01,-2.939962266117612799e-01,-2.939962266117612799e-01,-2.939962266117612799e-01,-2.939962266117612799e-01
-2.939962266117612799e-01,-2.939962266117612799e-01,-2.939962266117612799e-01,-2.939962266117612799e-01,-2.939962266117612799e-01,-2.939962266117612799e-01,-2.939962266117612799e-01,-2.939962266117612799e-01,-2.939962266117612799e-01,-2.939962266117612799e-01,-2.939962266117612799e-01,-2.939962266117612799e-01,-2.939962266117612799e-01,-2.939962266117612799e-01,-2.939962266117612799e-01,-2.939962266117612799e-01,-2.939962266117612799e-01,-2.939962266117612799e-01,-2.894025355709525238e-01,-2.690590466759422705e-01,-2.480593162036735799e-01,-2.277158273086633267e-01,-2.067160968363946638e-01,-1.863726079413843828e-01,-1.653728774691157477e-01,-1.450293885741054667e-01,-1.246858996790952134e-01,-1.036861692068265506e-01,-8.334268031181626957e-02,-6.234294983954763447e-02,-4.199946094453738121e-02,-2.099973047226871836e-02,-6.562415772584095919e-04,-5.551115123125782702e-17,-3.062460693872515183e-02,-6.227003410874115685e-02,-9.493628151004795956e-02,-1.265817086800639091e-01,-1.592479560813707118e-01,-1.908933832513866891e-01,-2.235596306526934918e-01,-2.552050578227094690e-01,-2.868504849927254186e-01,-2.939962266117612799e-01,-2.939962266117612799e-01,-2.939962266117612799e-01,-2.939962266117612799e-01
-2.939962266117612799e-01,-2.939962266117612799e-01,-2.939962266117612799e-01,-2.939962266117612799e-01,-2.939962266117612799e-01,-2.939962266117612799e-01,-2.939962266117612799e-01,-2.939962266117612799e-01,-2.939962266117612799e-01,-2.939962266117612799e-01,-2.939962266117612799e-01,-2.939962266117612799e-01,-2.939962266117612799e-01,-2.939962266117612799e-01,-2.939962266117612799e-01,-2.939962266117612799e-01,-2.939962266117612799e-01,-2.939962266117612799e-01,-2.854650861074021218e-01,-2.651215972123918685e-01,-2.441218667401232056e-01,-2.237783778451129524e-01,-2.027786473728442895e-01,-1.824351584778340363e-01,-1.614354280055653734e-01,-1.410919391105550924e-01,-1.207484502155448391e-01,-9.974871974327617630e-02,-7.940523084826592304e-02,-5.840550037599723243e-02,-3.806201148098703468e-02,-1.706228100871831632e-02,-5.551115123125782702e-17,-4.083280925163412789e-03,-3.674952832647021550e-02,-6.839495549648616501e-02,-1.010612028977929677e-01,-1.327066300678089450e-01,-1.653728774691157755e-01,-1.970183046391317250e-01,-2.286637318091476745e-01,-2.613299792104544772e-01,-2.929754063804704267e-01,-2.939962266117612799e-01,-2.939962266117612799e-01,-2.939962266117612799e-01,-2.939962266117612799e-01
-2.939962266117612799e-01,-2.939962266117612799e-01,-2.939962266117612799e-01,-2.939962266117612799e-01,-2.939962266117612799e-01,-2.939962266117612799e-01,-2.939962266117612799e-01,-2.939962266117612799e-01,-2.939962266117612799e-01,-2.939962266117612799e-01,-2.939962266117612799e-01,-2.939962266117612799e-01,-2.939962266117612799e-01,-2.939962266117612799e-01,-2.939962266117612799e-01,-2.939962266117612799e-01,-2.939962266117612799e-01,-2.939962266117612799e-01,-2.815276366438517752e-01,-2.611841477488415220e-01,-2.401844172765728591e-01,-2.198409283815625781e-01,-1.988411979092939152e-01,-1.784977090142836620e-01,-1.574979785420149991e-01,-1.371544896470047181e-01,-1.168110007519944649e-01,-9.581127027972580201e-02,-7.546778138471554875e-02,-5.446805091244688590e-02,-3.412456201743663264e-02,-1.312483154516796979e-02,-5.551115123125782702e-17,-1.020820231290847646e-02,-4.287444971421522366e-02,-7.451987688423117318e-02,-1.071861242855380036e-01,-1.388315514555539809e-01,-1.714977988568607836e-01,-2.031432260268767331e-01,-2.347886531968927104e-01,-2.674549005981994854e-01,-2.939962266117612799e-01,-2.939962266117612799e-01,-2.939962266117612799e-01,-2.939962266117612799e-01,-2.939962266117612799e-01
-2.939962266117612799e-01,-2.939962266117612799e-01,-2.939962266117612799e-01,-2.939962266117612799e-01,-2.939962266117612799e-01,-2.939962266117612799e-01,-2.939962266117612799e-01,-2.939962266117612799e-01,-2.939962266117612799e-01,-2.939962266117612799e-01,-2.939962266117612799e-01,-2.939962266117612799e-01,-2.939962266117612799e-01,-2.939962266117612799e-01,-2.939962266117612799e-01,-2.939962266117612799e-01,-2.939962266117612799e-01,-2.939962266117612799e-01,-2.775901871803013732e-01,-2.572466982852911199e-01,-2.362469678130224571e-01,-2.159034789180122038e-01,-1.949037484457435410e-01,-1.745602595507332877e-01,-1.535605290784646526e-01,-1.332170401834543438e-01,-1.128735512884441183e-01,-9.187382081617542773e-02,-7.153033192116514671e-02,-5.053060144889651162e-02,-3.018711255388628611e-02,-9.187382081617623264e-03,-5.551115123125782702e-17,-1.633312370065342911e-02,-4.899937110196025958e-02,-8.064479827197623685e-02,-1.133110456732830118e-01,-1.449564728432989891e-01,-1.776227202446057918e-01,-2.092681474146217413e-01,-2.409135745846377186e-01,-2.735798219859445490e-01,-2.939962266117612799e-01,-2.939962266117612799e-01,-2.939962266117612799e-01,-2.939962266117612799e-01,-2.939962266117612799e-01
-2.939962266117612799e-01,-2.939962266117612799e-01,-2.939962266117612799e-01,-2.939962266117612799e-01,-2.939962266117612799e-01,-2.939962266117612799e-01,-2.939962266117612799e-01,-2.939962266117612799e-01,-2.939962266117612799e-01,-2.939962266117612799e-01,-2.939962266117612799e-01,-2.939962266117612799e-01,-2.939962266117612799e-01,-2.939962266117612799e-01,-2.939962266117612799e-01,-2.939962266117612799e-01,-2.939962266117612799e-01,-2.939962266117612799e-01,-2.736527377167510267e-01,-2.533092488217407734e-01,-2.323095183494721105e-01,-2.119660294544618295e-01,-1.909662989821931667e-01,-1.706228100871829134e-01,-1.496230796149142506e-01,-1.292795907199039696e-01,-1.089361018248937163e-01,-8.793637135262505344e-02,-6.759288245761480018e-02,-4.659315198534616509e-02,-2.624966309033588407e-02,-5.249932618067276735e-03,0.000000000000000000e+00,-2.245804508839843727e-02,-5.512429248970529549e-02,-8.676971965972124501e-02,-1.194359670610280477e-01,-1.510813942310439972e-01,-1.837476416323508277e-01,-2.153930688023668050e-01,-2.470384959723827545e-01,-2.797047433736895572e-01,-2.939962266117612799e-01,-2.939962266117612799e-01,-2.939962266117612799e-01,-2.939962266117612799e-01,-2.939962266117612799e-01
-2.939962266117612799e-01,-2.939962266117612799e-01,-2.939962266117612799e-01,-2.939962266117612799e-01,-2.939962266117612799e-01,-2.939962266117612799e-01,-2.939962266117612799e-01,-2.939962266117612799e-01,-2.939962266117612799e-01,-2.939962266117612799e-01,-2.939962266117612799e-01,-2.939962266117612799e-01,-2.939962266117612799e-01,-2.939962266117612799e-01,-2.939962266117612799e-01,-2.939962266117612799e-01,-2.939962266117612799e-01,-2.907150187254692875e-01,-2.697152882532006246e-01,-2.493717993581903714e-01,-2.283720688859217085e-01,-2.080285799909114552e-01,-1.870288495186427924e-01,-1.666853606236325391e-01,-1.456856301513638763e-01,-1.253421412563536230e-01,-1.049986523613433420e-01,-8.399892188907470691e-02,-6.365543299406439814e-02,-4.265570252179579080e-02,-2.231221362678548203e-02,-1.312483154516819184e-03,-5.551115123125782702e-17,-2.858296647614350094e-02,-6.124921387745033141e-02,-9.289464104746625317e-02,-1.255608884487730836e-01,-1.572063156187890609e-01,-1.898725630200958636e-01,-2.215179901901118131e-01,-2.531634173601277626e-01,-2.858296647614345654e-01,-2.939962266117612799e-01,-2.939962266117612799e-01,-2.939962266117612799e-01,-2.939962266117612799e-01,-2.939962266117612799e-01
-2.939962266117612799e-01,-2.939962266117612799e-01,-2.939962266117612799e-01,-2.939962266117612799e-01,-2.939962266117612799e-01,-2.939962266117612799e-01,-2.939962266117612799e-01,-2.939962266117612799e-01,-2.939962266117612799e-01,-2.939962266117612799e-01,-2.939962266117612799e-01,-2.939962266117612799e-01,-2.939962266117612799e-01,-2.939962266117612799e-01,-2.939962266117612799e-01,-2.939962266117612799e-01,-2.939962266117612799e-01,-2.867775692619189409e-01,-2.657778387896502781e-01,-2.454343498946399971e-01,-2.244346194223713620e-01,-2.040911305273610810e-01,-1.830914000550924459e-01,-1.627479111600821648e-01,-1.417481806878135020e-01,-1.214046917928032487e-01,-1.010612028977929677e-01,-8.006147242552430487e-02,-5.971798353051405162e-02,-3.871825305824538876e-02,-1.837476416323519102e-02,-5.551115123125782702e-17,-3.062460693872559592e-03,-1.628418950819040534e-01,-1.955081424832108283e-01,-2.271535696532267501e-01,-2.598198170545336083e-01,-1.633312370065340691e-01,-1.959974844078408718e-01,-2.276429115778568213e-01,-2.592883387478728263e-01,-2.919545861491796290e-01,-2.939962266117612799e-01,-2.939962266117612799e-01,-2.939962266117612799e-01,-2.939962266117612799e-01,-2.939962266117612799e-01
-2.939962266117612799e-01,-2.939962266117612799e-01,-2.939962266117612799e-01,-2.939962266117612799e-01,-2.939962266117612799e-01,-2.939962266117612799e-01,-2.939962266117612799e-01,-2.939962266117612799e-01,-2.939962266117612799e-01,-2.939962266117612799e-01,-2.939962266117612799e-01,-2.939962266117612799e-01,-2.939962266117612799e-01,-2.939962266117612799e-01,-2.939962266117612799e-01,-2.939962266117612799e-01,-2.939962266117612799e-01,-2.828401197983685389e-01,-2.618403893260998760e-01,-2.414969004310896228e-01,-2.204971699588209599e-01,-2.001536810638107067e-01,-1.791539505915420438e-01,-1.588104616965317906e-01,-1.384669728015215373e-01,-1.174672423292528467e-01,-9.712375343424259344e-02,-7.612402296197393059e-02,-5.578053406696364958e-02,-3.478080359469504224e-02,-1.443731469968473347e-02,-1.110223024625156540e-16,-9.187382081617623264e-03,-1.689668164696490615e-01,-2.016330638709558365e-01,-2.332784910409718415e-01,-2.659447384422786165e-01,-1.694561583942790772e-01,-2.021224057955858799e-01,-2.337678329656018572e-01,-2.654132601356178345e-01,-2.939962266117612799e-01,-2.939962266117612799e-01,-2.939962266117612799e-01,-2.939962266117612799e-01,-2.939962266117612799e-01,-2.939962266117612799e-01
-2.939962266117612799e-01,-2.939962266117612799e-01,-2.939962266117612799e-01,-2.939962266117612799e-01,-2.939962266117612799e-01,-2.939962266117612799e-01,-2.939962266117612799e-01,-2.939962266117612799e-01,-2.939962266117612799e-01,-2.939962266117612799e-01,-2.939962266117612799e-01,-2.939962266117612799e-01,-2.939962266117612799e-01,-2.939962266117612799e-01,-2.939962266117612799e-01,-2.939962266117612799e-01,-2.939962266117612799e-01,-2.789026703348181924e-01,-2.579029398625495295e-01,-2.375594509675392485e-01,-2.165597204952706134e-01,-1.962162316002603324e-01,-1.752165011279916695e-01,-1.548730122329814163e-01,-1.345295233379711353e-01,-1.135297928657024724e-01,-9.318630397069221916e-02,-7.218657349842355631e-02,-5.184308460341330305e-02,-3.084335413114464020e-02,-1.049986523613438694e-02,-5.551115123125782702e-17,-1.531230346936263143e-02,-1.750917378573940697e-01,-2.077579852587009002e-01,-2.394034124287168497e-01,-2.720696598300236246e-01,-1.755810797820241131e-01,-2.082473271833309159e-01,-2.398927543533468931e-01,-2.715381815233628426e-01,-2.939962266117612799e-01,-2.939962266117612799e-01,-2.939962266117612799e-01,-2.939962266117612799e-01,-2.939962266117612799e-01,-2.939962266117612799e-01
-2.939962266117612799e-01,-2.939962266117612799e-01,-2.939962266117612799e-01,-2.939962266117612799e-01,-2.939962266117612799e-01,-2.939962266117612799e-01,-2.939962266117612799e-01,-2.939962266117612799e-01,-2.939962266117612799e-01,-2.939962266117612799e-01,-2.939962266117612799e-01,-2.939962266117612799e-01,-2.939962266117612799e-01,-2.939962266117612799e-01,-2.939962266117612799e-01,-2.939962266117612799e-01,-2.939962266117612799e-01,-2.749652208712677903e-01,-2.539654903989991275e-01,-2.336220015039888742e-01,-2.126222710317202114e-01,-1.922787821367099581e-01,-1.712790516644412953e-01,-1.509355627694310420e-01,-1.305920738744207887e-01,-1.095923434021521259e-01,-8.924885450714184487e-02,-6.824912403487318202e-02,-4.790563513986290101e-02,-2.690590466759423816e-02,-6.562415772584040408e-03,-5.551115123125782702e-17,-2.143722485710763959e-02,-1.812166592451390779e-01,-2.138829066464459083e-01,-2.455283338164618856e-01,-2.781945812177686328e-01,-1.817060011697691491e-01,-2.143722485710759518e-01,-2.460176757410919013e-01,-2.776631029111078508e-01,-2.939962266117612799e-01,-2.939962266117612799e-01,-2.939962266117612799e-01,-2.939962266117612799e-01,-2.939962266117612799e-01,-2.939962266117612799e-01
-2.939962266117612799e-01,-2.939962266117612799e-01,-2.939962266117612799e-01,-2.939962266117612799e-01,-2.939962266117612799e-01,-2.939962266117612799e-01,-2.939962266117612799e-01,-2.939962266117612799e-01,-2.939962266117612799e-01,-2.939962266117612799e-01,-2.939962266117612799e-01,-2.939962266117612799e-01,-2.939962266117612799e-01,-2.939962266117612799e-01,-2.939962266117612799e-01,-2.939962266117612799e-01,-2.913712603027276971e-01,-2.710277714077174438e-01,-2.500280409354487809e-01,-2.296845520404385277e-01,-2.086848215681698648e-01,-1.883413326731595838e-01,-1.673416022008909210e-01,-1.469981133058806677e-01,-1.266546244108704145e-01,-1.056548939386017238e-01,-8.531140504359147059e-02,-6.431167457132280774e-02,-4.396818567631255448e-02,-2.296845520404389163e-02,-2.624966309033638368e-03,-5.551115123125782702e-17,-2.756214624485264775e-02,-5.920757341486862502e-02,-9.187382081617545548e-02,-1.235192479861914050e-01,-1.561854953874982077e-01,-1.878309225575141572e-01,-2.204971699588209599e-01,-2.521425971288369094e-01,-2.837880242988529145e-01,-2.939962266117612799e-01,-2.939962266117612799e-01,-2.939962266117612799e-01,-2.939962266117612799e-01,-2.939962266117612799e-01,-2.939962266117612799e-01
-2.939962266117612799e-01,-2.939962266117612799e-01,-2.939962266117612799e-01,-2.939962266117612799e-01,-2.939962266117612799e-01,-2.939962266117612799e-01,-2.939962266117612799e-01,-2.939962266117612799e-01,-2.939962266117612799e-01,-2.939962266117612799e-01,-2.939962266117612799e-01,-2.939962266117612799e-01,-2.939962266117612799e-01,-2.939962266117612799e-01,-2.939962266117612799e-01,-2.939962266117612799e-01,-2.874338108391773505e-01,-2.670903219441670418e-01,-2.460905914718984067e-01,-2.257471025768881256e-01,-2.047473721046194628e-01,-1.844038832096092095e-01,-1.634041527373405744e-01,-1.430606638423302934e-01,-1.227171749473200124e-01,-1.017174444750513496e-01,-8.137395558004106855e-02,-6.037422510777243345e-02,-4.003073621276220795e-02,-1.903100574049348959e-02,-5.551115123125782702e-17,-1.020820231290908708e-03,-3.368706763259771142e-02,-6.533249480261366093e-02,-9.799874220392046364e-02,-1.296441693739364409e-01,-1.623104167752432159e-01,-1.939558439452591931e-01,-2.266220913465659959e-01,-2.582675185165819731e-01,-2.899129456865979226e-01,-2.939962266117612799e-01,-2.939962266117612799e-01,-2.939962266117612799e-01,-2.939962266117612799e-01,-2.939962266117612799e-01,-2.939962266117612799e-01
-2.939962266117612799e-01,-2.939962266117612799e-01,-2.939962266117612799e-01,-2.939962266117612799e-01,-2.939962266117612799e-01,-2.939962266117612799e-01,-2.939962266117612799e-01,-2.939962266117612799e-01,-2.939962266117612799e-01,-2.939962266117612799e-01,-2.939962266117612799e-01,-2.939962266117612799e-01,-2.939962266117612799e-01,-2.939962266117612799e-01,-2.939962266117612799e-01,-2.939962266117612799e-01,-2.834963613756269485e-01,-2.631528724806166952e-01,-2.421531420083480324e-01,-2.218096531133377791e-01,-2.008099226410691163e-01,-1.804664337460588353e-01,-1.594667032737901724e-01,-1.391232143787799191e-01,-1.187797254837696381e-01,-9.777999501150097528e-02,-7.743650611649072202e-02,-5.643677564422205917e-02,-3.609328674921180591e-02,-1.509355627694314306e-02,-1.110223024625156540e-16,-7.145741619035916870e-03,-3.981198902034271958e-02,-7.145741619035872461e-02,-1.041236635916654996e-01,-1.357690907616814491e-01,-1.684353381629882795e-01,-2.000807653330042291e-01,-2.327470127343110318e-01,-2.643924399043269813e-01,-2.939962266117612799e-01,-2.939962266117612799e-01,-2.939962266117612799e-01,-2.939962266117612799e-01,-2.939962266117612799e-01,-2.939962266117612799e-01,-2.939962266117612799e-01
-2.939962266117612799e-01,-2.939962266117612799e-01,-2.939962266117612799e-01,-2.939962266117612799e-01,-2.939962266117612799e-01,-2.939962266117612799e-01,-2.939962266117612799e-01,-2.939962266117612799e-01,-2.939962266117612799e-01,-2.939962266117612799e-01,-2.939962266117612799e-01,-2.939962266117612799e-01,-2.939962266117612799e-01,-2.939962266117612799e-01,-2.939962266117612799e-01,-2.939962266117612799e-01,-2.795589119120766020e-01,-2.592154230170662932e-01,-2.382156925447976581e-01,-2.178722036497873771e-01,-1.968724731775187420e-01,-1.765289842825084610e-01,-1.555292538102397981e-01,-1.351857649152295726e-01,-1.148422760202192638e-01,-9.384254554795062875e-02,-7.349905665294037549e-02,-5.249932618067171264e-02,-3.215583728566140387e-02,-1.115610681339279653e-02,-5.551115123125782702e-17,-1.327066300678092503e-02,-4.593691040808775550e-02,-7.758233757810370501e-02,-1.102485849794105077e-01,-1.418940121494264572e-01,-1.745602595507332599e-01,-2.062056867207492372e-01,-2.378511138907652145e-01,-2.705173612920720450e-01,-2.939962266117612799e-01,-2.939962266117612799e-01,-2.939962266117612799e-01,-2.939962266117612799e-01,-2.939962266117612799e-01,-2.939962266117612799e-01,-2.939962266117612799e-01
-2.939962266117612799e-01,-2.939962266117612799e-01,-2.939962266117612799e-01,-2.939962266117612799e-01,-2.939962266117612799e-01,-2.939962266117612799e-01,-2.939962266117612799e-01,-2.939962266117612799e-01,-2.939962266117612799e-01,-2.939962266117612799e-01,-2.939962266117612799e-01,-2.939962266117612799e-01,-2.939962266117612799e-01,-2.939962266117612799e-01,-2.939962266117612799e-01,-2.939962266117612799e-01,-2.756214624485261999e-01,-2.552779735535159467e-01,-2.342782430812472838e-01,-2.139347541862370305e-01,-1.929350237139683677e-01,-1.725915348189580867e-01,-1.515918043466894238e-01,-1.312483154516791706e-01,-1.109048265566688896e-01,-8.990509608440022671e-02,-6.956160718938997345e-02,-4.856187671712131060e-02,-2.821838782211105734e-02,-7.218657349842449999e-03,-1.110223024625156540e-16,-1.939558439452593319e-02,-5.206183179583279141e-02,-8.370725896584874093e-02,-1.163735063671555714e-01,-1.480189335371714932e-01,-1.806851809384782959e-01,-2.123306081084942731e-01,-2.439760352785102504e-01,-2.766422826798170531e-01,-2.939962266117612799e-01,-2.939962266117612799e-01,-2.939962266117612799e-01,-2.939962266117612799e-01,-2.939962266117612799e-01,-2.939962266117612799e-01,-2.939962266117612799e-01
-2.939962266117612799e-01,-2.939962266117612799e-01,-2.939962266117612799e-01,-2.939962266117612799e-01,-2.939962266117612799e-01,-2.939962266117612799e-01,-2.939962266117612799e-01,-2.939962266117612799e-01,-2.939962266117612799e-01,-2.939962266117612799e-01,-2.939962266117612799e-01,-2.939962266117612799e-01,-2.939962266117612799e-01,-2.939962266117612799e-01,-2.939962266117612799e-01,-2.920275018799861066e-01,-2.716840129849758534e-01,-2.513405240899655446e-01,-2.303407936176969095e-01,-2.099973047226866285e-01,-1.889975742504179657e-01,-1.686540853554077124e-01,-1.476543548831390773e-01,-1.273108659881287963e-01,-1.069673770931185430e-01,-8.596764662084988018e-02,-6.562415772583959916e-02,-4.462442725357096407e-02,-2.428093835856071081e-02,-3.281207886292047959e-03,-5.551115123125782702e-17,-2.552050578227099686e-02,-5.818675318357779958e-02,-8.983218035359374909e-02,-1.224984277549005518e-01,-1.541438549249165291e-01,-1.868101023262233595e-01,-2.184555294962393091e-01,-2.501009566662552586e-01,-2.827672040675620613e-01,-2.939962266117612799e-01,-2.939962266117612799e-01,-2.939962266117612799e-01,-2.939962266117612799e-01,-2.939962266117612799e-01,-2.939962266117612799e-01,-2.939962266117612799e-01
-2.939962266117612799e-01,-2.939962266117612799e-01,-2.939962266117612799e-01,-2.939962266117612799e-01,-2.939962266117612799e-01,-2.939962266117612799e-01,-2.939962266117612799e-01,-2.939962266117612799e-01,-2.939962266117612799e-01,-2.939962266117612799e-01,-2.939962266117612799e-01,-2.939962266117612799e-01,-2.939962266117612799e-01,-2.939962266117612799e-01,-2.939962266117612799e-01,-2.887462939936941142e-01,-2.677465635214254513e-01,-2.474030746264151981e-01,-2.264033441541465352e-01,-2.060598552591362820e-01,-1.850601247868676191e-01,-1.647166358918573659e-01,-1.437169054195886753e-01,-1.233734165245784220e-01,-1.030299276295681687e-01,-8.203019715729947814e-02,-6.168670826228922488e-02,-4.068697779002061754e-02,-2.034348889501036428e-02,-5.551115123125782702e-17,-5.551115123125782702e-17,-3.164542717001600503e-02,-6.431167457132283549e-02,-9.595710174133878501e-02,-1.286233491426455877e-01,-1.602687763126615650e-01,-1.929350237139683677e-01,-2.245804508839843172e-01,-2.562258780540003222e-01,-2.888921254553070694e-01,-2.939962266117612799e-01,-2.939962266117612799e-01,-2.939962266117612799e-01,-2.939962266117612799e-01,-2.939962266117612799e-01,-2.939962266117612799e-01,-2.939962266117612799e-01
-2.939962266117612799e-01,-2.939962266117612799e-01,-2.939962266117612799e-01,-2.939962266117612799e-01,-2.939962266117612799e-01,-2.939962266117612799e-01,-2.939962266117612799e-01,-2.939962266117612799e-01,-2.939962266117612799e-01,-2.939962266117612799e-01,-2.939962266117612799e-01,-2.939962266117612799e-01,-2.939962266117612799e-01,-2.939962266117612799e-01,-2.939962266117612799e-01,-2.848088445301437677e-01,-2.638091140578751048e-01,-2.434656251628648238e-01,-2.224658946905961610e-01,-2.021224057955859077e-01,-1.811226753233172171e-01,-1.607791864283069638e-01,-1.397794559560383010e-01,-1.194359670610280477e-01,-9.909247816601776671e-02,-7.809274769374913161e-02,-5.774925879873885060e-02,-3.674952832647021550e-02,-1.640603943145996224e-02,0.000000000000000000e+00,-6.124921387745119183e-03,-3.777034855776106870e-02,-7.043659595906787141e-02,-1.020820231290837932e-01,-1.347482705303906236e-01,-1.663936977004066009e-01,-1.990599451017133759e-01,-2.307053722717293531e-01,-2.623507994417453304e-01,-2.939962266117612799e-01,-2.939962266117612799e-01,-2.939962266117612799e-01,-2.939962266117612799e-01,-2.939962266117612799e-01,-2.939962266117612799e-01,-2.939962266117612799e-01,-2.939962266117612799e-01
-2.939962266117612799e-01,-2.939962266117612799e-01,-2.939962266117612799e-01,-2.939962266117612799e-01,-2.939962266117612799e-01,-2.939962266117612799e-01,-2.939962266117612799e-01,-2.939962266117612799e-01,-2.939962266117612799e-01,-2.939962266117612799e-01,-2.939962266117612799e-01,-2.939962266117612799e-01,-2.939962266117612799e-01,-2.939962266117612799e-01,-2.939962266117612799e-01,-2.808713950665933656e-01,-2.598716645943247028e-01,-2.395281756993144495e-01,-2.185284452270457867e-01,-1.981849563320355334e-01,-1.771852258597668706e-01,-1.568417369647566173e-01,-1.358420064924879544e-01,-1.154985175974776734e-01,-9.515502870246742018e-02,-7.415529823019872957e-02,-5.381180933518847631e-02,-3.281207886291981346e-02,-1.246858996790956020e-02,-1.110223024625156540e-16,-1.224984277549012734e-02,-4.389526994550607686e-02,-7.656151734681287957e-02,-1.082069445168288291e-01,-1.408731919181356318e-01,-1.725186190881516091e-01,-2.051848664894584118e-01,-2.368302936594743890e-01,-2.684757208294903386e-01,-2.939962266117612799e-01,-2.939962266117612799e-01,-2.939962266117612799e-01,-2.939962266117612799e-01,-2.939962266117612799e-01,-2.939962266117612799e-01,-2.939962266117612799e-01,-2.939962266117612799e-01
-2.939962266117612799e-01,-2.939962266117612799e-01,-2.939962266117612799e-01,-2.939962266117612799e-01,-2.939962266117612799e-01,-2.939962266117612799e-01,-2.939962266117612799e-01,-2.939962266117612799e-01,-2.939962266117612799e-01,-2.939962266117612799e-01,-2.939962266117612799e-01,-2.939962266117612799e-01,-2.939962266117612799e-01,-2.939962266117612799e-01,-2.939962266117612799e-01,-2.769339456030430191e-01,-2.559342151307743563e-01,-2.355907262357640752e-01,-2.145909957634954124e-01,-1.942475068684851314e-01,-1.732477763962164963e-01,-1.529042875012062153e-01,-1.325607986061959620e-01,-1.115610681339272992e-01,-9.121757923891701814e-02,-7.021784876664835529e-02,-4.987435987163810203e-02,-2.887462939936946693e-02,-8.531140504359213672e-03,-5.551115123125782702e-17,-1.837476416323513551e-02,-5.002019133325108502e-02,-8.268643873455788773e-02,-1.143318659045738372e-01,-1.469981133058806677e-01,-1.786435404758966450e-01,-2.113097878772034477e-01,-2.429552150472193972e-01,-2.746006422172353467e-01,-2.939962266117612799e-01,-2.939962266117612799e-01,-2.939962266117612799e-01,-2.939962266117612799e-01,-2.939962266117612799e-01,-2.939962266117612799e-01,-2.939962266117612799e-01,-2.939962266117612799e-01
-2.939962266117612799e-01,-2.939962266117612799e-01,-2.939962266117612799e-01,-2.939962266117612799e-01,-2.939962266117612799e-01,-2.939962266117612799e-01,-2.939962266117612799e-01,-2.939962266117612799e-01,-2.939962266117612799e-01,-2.939962266117612799e-01,-2.939962266117612799e-01,-2.939962266117612799e-01,-2.939962266117612799e-01,-2.939962266117612799e-01,-2.933399850345028703e-01,-2.729964961394926171e-01,-2.519967656672239542e-01,-2.316532767722137010e-01,-2.106535462999450381e-01,-1.903100574049347848e-01,-1.693103269326661220e-01,-1.489668380376558410e-01,-1.286233491426455877e-01,-1.076236186703769249e-01,-8.728012977536667161e-02,-6.628039930309798100e-02,-4.593691040808775550e-02,-2.493717993581912040e-02,-4.593691040808811632e-03,0.000000000000000000e+00,-2.449968555098014367e-02,-5.614511272099612094e-02,-8.881136012230295140e-02,-1.204567872923189009e-01,-1.531230346936256759e-01,-1.847684618636416531e-01,-2.174347092649484559e-01,-2.490801364349644331e-01,-2.807255636049804104e-01,-2.939962266117612799e-01,-2.939962266117612799e-01,-2.939962266117612799e-01,-2.939962266117612799e-01,-2.939962266117612799e-01,-2.939962266117612799e-01,-2.939962266117612799e-01,-2.939962266117612799e-01
-2.939962266117612799e-01,-2.939962266117612799e-01,-2.939962266117612799e-01,-2.939962266117612799e-01,-2.939962266117612799e-01,-2.939962266117612799e-01,-2.939962266117612799e-01,-2.939962266117612799e-01,-2.939962266117612799e-01,-2.939962266117612799e-01,-2.939962266117612799e-01,-2.939962266117612799e-01,-2.939962266117612799e-01,-2.939962266117612799e-01,-2.894025355709525238e-01,-2.690590466759422705e-01,-2.480593162036736077e-01,-2.277158273086632989e-01,-2.067160968363946638e-01,-1.863726079413843828e-01,-1.653728774691157477e-01,-1.450293885741054667e-01,-1.246858996790952134e-01,-1.036861692068265506e-01,-8.334268031181626957e-02,-6.234294983954760672e-02,-4.199946094453738121e-02,-2.099973047226871836e-02,-6.562415772584651030e-04,-5.551115123125782702e-17,-3.062460693872520734e-02,-6.227003410874115685e-02,-9.493628151004795956e-02,-1.265817086800639091e-01,-1.592479560813707118e-01,-1.908933832513866891e-01,-2.235596306526934918e-01,-2.552050578227094690e-01,-2.868504849927254186e-01,-2.939962266117612799e-01,-2.939962266117612799e-01,-2.939962266117612799e-01,-2.939962266117612799e-01,-2.939962266117612799e-01,-2.939962266117612799e-01,-2.939962266117612799e-01,-2.939962266117612799e-01
-2.939962266117612799e-01,-2.939962266117612799e-01,-2.939962266117612799e-01,-2.939962266117612799e-01,-2.939962266117612799e-01,-2.939962266117612799e-01,-2.939962266117612799e-01,-2.939962266117612799e-01,-2.939962266117612799e-01,-2.939962266117612799e-01,-2.939962266117612799e-01,-2.939962266117612799e-01,-2.939962266117612799e-01,-2.939962266117612799e-01,-2.854650861074021218e-01,-2.651215972123918685e-01,-2.441218667401232056e-01,-2.237783778451129524e-01,-2.027786473728442895e-01,-1.824351584778340363e-01,-1.614354280055653734e-01,-1.410919391105550924e-01,-1.207484502155448391e-01,-9.974871974327617630e-02,-7.940523084826589528e-02,-5.840550037599723243e-02,-3.806201148098703468e-02,-1.706228100871831632e-02,-5.551115123125782702e-17,-4.083280925163412789e-03,-3.674952832647021550e-02,-6.839495549648616501e-02,-1.010612028977929677e-01,-1.327066300678089450e-01,-1.653728774691157477e-01,-1.970183046391316972e-01,-2.296845520404385277e-01,-2.613299792104544772e-01,-2.929754063804704267e-01,-2.939962266117612799e-01,-2.939962266117612799e-01,-2.939962266117612799e-01,-2.939962266117612799e-01,-2.939962266117612799e-01,-2.939962266117612799e-01,-2.939962266117612799e-01,-2.939962266117612799e-01
-2.939962266117612799e-01,-2.939962266117612799e-01,-2.939962266117612799e-01,-2.939962266117612799e-01,-2.939962266117612799e-01,-2.939962266117612799e-01,-2.939962266117612799e-01,-2.939962266117612799e-01,-2.939962266117612799e-01,-2.939962266117612799e-01,-2.939962266117612799e-01,-2.939962266117612799e-01,-2.939962266117612799e-01,-2.939962266117612799e-01,-2.815276366438517752e-01,-2.611841477488414665e-01,-2.401844172765728591e-01,-2.198409283815625781e-01,-1.988411979092939152e-01,-1.784977090142836620e-01,-1.574979785420149991e-01,-1.371544896470047181e-01,-1.168110007519944926e-01,-9.581127027972577426e-02,-7.546778138471554875e-02,-5.446805091244688590e-02,-3.412456201743663264e-02,-1.312483154516796979e-02,-5.551115123125782702e-17,-1.020820231290842095e-02,-4.287444971421522366e-02,-7.451987688423117318e-02,-1.071861242855379759e-01,-1.388315514555539809e-01,-1.714977988568607836e-01,-2.031432260268767331e-01,-2.358094734281835358e-01,-2.674549005981994854e-01,-2.939962266117612799e-01,-2.939962266117612799e-01,-2.939962266117612799e-01,-2.939962266117612799e-01,-2.939962266117612799e-01,-2.939962266117612799e-01,-2.939962266117612799e-01,-2.939962266117612799e-01,-2.939962266117612799e-01
-2.939962266117612799e-01,-2.939962266117612799e-01,-2.939962266117612799e-01,-2.939962266117612799e-01,-2.939962266117612799e-01,-2.939962266117612799e-01,-2.939962266117612799e-01,-2.939962266117612799e-01,-2.939962266117612799e-01,-2.939962266117612799e-01,-2.939962266117612799e-01,-2.939962266117612799e-01,-2.939962266117612799e-01,-2.939962266117612799e-01,-2.775901871803013732e-01,-2.572466982852911199e-01,-2.362469678130224571e-01,-2.159034789180122038e-01,-1.949037484457435410e-01,-1.745602595507332877e-01,-1.535605290784646249e-01,-1.332170401834543716e-01,-1.128735512884441183e-01,-9.187382081617542773e-02,-7.153033192116514671e-02,-5.053060144889651162e-02,-3.018711255388628611e-02,-9.187382081617623264e-03,-5.551115123125782702e-17,-1.633312370065342911e-02,-4.899937110196028733e-02,-8.064479827197623685e-02,-1.133110456732830396e-01,-1.449564728432989891e-01,-1.776227202446057918e-01,-2.092681474146217691e-01,-2.419343948159285718e-01,-2.735798219859445490e-01,-2.939962266117612799e-01,-2.939962266117612799e-01,-2.939962266117612799e-01,-2.939962266117612799e-01,-2.939962266117612799e-01,-2.939962266117612799e-01,-2.939962266117612799e-01,-2.939962266117612799e-01,-2.939962266117612799e-01
-2.939962266117612799e-01,-2.939962266117612799e-01,-2.939962266117612799e-01,-2.939962266117612799e-01,-2.939962266117612799e-01,-2.939962266117612799e-01,-2.939962266117612799e-01,-2.939962266117612799e-01,-2.939962266117612799e-01,-2.939962266117612799e-01,-2.939962266117612799e-01,-2.939962266117612799e-01,-2.939962266117612799e-01,-2.939962266117612799e-01,-2.736527377167510267e-01,-2.533092488217407734e-01,-2.323095183494721105e-01,-2.119660294544618295e-01,-1.909662989821931667e-01,-1.706228100871829134e-01,-1.496230796149142506e-01,-1.292795907199039973e-01,-1.089361018248937163e-01,-8.793637135262505344e-02,-6.759288245761480018e-02,-4.659315198534613733e-02,-2.624966309033588407e-02,-5.249932618067221224e-03,-5.551115123125782702e-17,-2.245804508839849278e-02,-5.512429248970529549e-02,-8.676971965972124501e-02,-1.194359670610280477e-01,-1.510813942310440250e-01,-1.837476416323508277e-01,-2.153930688023668050e-01,-2.470384959723827545e-01,-2.797047433736895572e-01,-2.939962266117612799e-01,-2.939962266117612799e-01,-2.939962266117612799e-01,-2.939962266117612799e-01,-2.939962266117612799e-01,-2.939962266117612799e-01,-2.939962266117612799e-01,-2.939962266117612799e-01,-2.939962266117612799e-01
-2.939962266117612799e-01,-2.939962266117612799e-01,-2.939962266117612799e-01,-2.939962266117612799e-01,-2.939962266117612799e-01,-2.939962266117612799e-01,-2.939962266117612799e-01,-2.939962266117612799e-01,-2.939962266117612799e-01,-2.939962266117612799e-01,-2.939962266117612799e-01,-2.939962266117612799e-01,-2.939962266117612799e-01,-2.900587771482109334e-01,-2.697152882532006246e-01,-2.493717993581903714e-01,-2.283720688859217085e-01,-2.080285799909114552e-01,-1.870288495186427924e-01,-1.666853606236325391e-01,-1.456856301513638763e-01,-1.253421412563536230e-01,-1.049986523613433420e-01,-8.399892188907467916e-02,-6.365543299406442590e-02,-4.265570252179573529e-02,-2.231221362678548203e-02,-1.312483154516874695e-03,-5.551115123125782702e-17,-2.858296647614350094e-02,-6.124921387745030366e-02,-9.289464104746625317e-02,-1.255608884487730836e-01,-1.572063156187890609e-01,-1.898725630200958636e-01,-2.215179901901118131e-01,-2.531634173601277626e-01,-2.858296647614345654e-01,-2.939962266117612799e-01,-2.939962266117612799e-01,-2.939962266117612799e-01,-2.939962266117612799e-01,-2.939962266117612799e-01,-2.939962266117612799e-01,-2.939962266117612799e-01,-2.939962266117612799e-01,-2.939962266117612799e-01
-2.939962266117612799e-01,-2.939962266117612799e-01,-2.939962266117612799e-01,-2.939962266117612799e-01,-2.939962266117612799e-01,-2.939962266117612799e-01,-2.939962266117612799e-01,-2.939962266117612799e-01,-2.939962266117612799e-01,-2.939962266117612799e-01,-2.939962266117612799e-01,-2.939962266117612799e-01,-2.939962266117612799e-01,-2.861213276846605313e-01,-2.657778387896502781e-01,-2.454343498946400248e-01,-2.244346194223713620e-01,-2.040911305273610810e-01,-1.830914000550924181e-01,-1.627479111600821648e-01,-1.417481806878135020e-01,-1.214046917928032487e-01,-1.010612028977929677e-01,-8.006147242552430487e-02,-5.971798353051402386e-02,-3.871825305824538876e-02,-1.837476416323513551e-02,-5.551115123125782702e-17,-3.062460693872559592e-03,-3.470788786388856462e-02,-6.737413526519533957e-02,-9.901956243521126133e-02,-1.316858098365180918e-01,-1.633312370065340691e-01,-1.959974844078408718e-01,-2.276429115778568490e-01,-2.592883387478728263e-01,-2.919545861491796290e-01,-2.939962266117612799e-01,-2.939962266117612799e-01,-2.939962266117612799e-01,-2.939962266117612799e-01,-2.939962266117612799e-01,-2.939962266117612799e-01,-2.939962266117612799e-01,-2.939962266117612799e-01,-2.939962266117612799e-01
-2.939962266117612799e-01,-2.939962266117612799e-01,-2.939962266117612799e-01,-2.939962266117612799e-01,-2.939962266117612799e-01,-2.939962266117612799e-01,-2.939962266117612799e-01,-2.939962266117612799e-01,-2.939962266117612799e-01,-2.939962266117612799e-01,-2.939962266117612799e-01,-2.939962266117612799e-01,-2.939962266117612799e-01,-2.828401197983685389e-01,-2.618403893260998760e-01,-2.414969004310896228e-01,-2.204971699588209599e-01,-2.001536810638107067e-01,-1.791539505915420438e-01,-1.588104616965317906e-01,-1.378107312242631277e-01,-1.174672423292528745e-01,-9.712375343424262120e-02,-7.612402296197393059e-02,-5.578053406696364958e-02,-3.478080359469498672e-02,-1.443731469968478898e-02,-5.551115123125782702e-17,-9.187382081617567753e-03,-4.083280925163357278e-02,-7.349905665294034773e-02,-1.051444838229563528e-01,-1.378107312242631277e-01,-1.694561583942790772e-01,-2.021224057955858799e-01,-2.337678329656018572e-01,-2.654132601356178345e-01,-2.939962266117612799e-01,-2.939962266117612799e-01,-2.939962266117612799e-01,-2.939962266117612799e-01,-2.939962266117612799e-01,-2.939962266117612799e-01,-2.939962266117612799e-01,-2.939962266117612799e-01,-2.939962266117612799e-01,-2.939962266117612799e-01
-2.939962266117612799e-01,-2.939962266117612799e-01,-2.939962266117612799e-01,-2.939962266117612799e-01,-2.939962266117612799e-01,-2.939962266117612799e-01,-2.939962266117612799e-01,-2.939962266117612799e-01,-2.939962266117612799e-01,-2.939962266117612799e-01,-2.939962266117612799e-01,-2.939962266117612799e-01,-2.939962266117612799e-01,-2.789026703348181924e-01,-2.579029398625495295e-01,-2.375594509675392763e-01,-2.165597204952706134e-01,-1.962162316002603324e-01,-1.752165011279916695e-01,-1.548730122329814163e-01,-1.338732817607127534e-01,-1.135297928657024724e-01,-9.318630397069221916e-02,-7.218657349842355631e-02,-5.184308460341333080e-02,-3.084335413114464020e-02,-1.049986523613438694e-02,-5.551115123125782702e-17,-1.531230346936263143e-02,-4.695773063937860869e-02,-7.962397804068538365e-02,-1.112694052107013332e-01,-1.439356526120081359e-01,-1.755810797820241131e-01,-2.082473271833309159e-01,-2.398927543533468931e-01,-2.715381815233628426e-01,-2.939962266117612799e-01,-2.939962266117612799e-01,-2.939962266117612799e-01,-2.939962266117612799e-01,-2.939962266117612799e-01,-2.939962266117612799e-01,-2.939962266117612799e-01,-2.939962266117612799e-01,-2.939962266117612799e-01,-2.939962266117612799e-01
-2.939962266117612799e-01,-2.939962266117612799e-01,-2.939962266117612799e-01,-2.939962266117612799e-01,-2.939962266117612799e-01,-2.939962266117612799e-01,-2.939962266117612799e-01,-2.939962266117612799e-01,-2.939962266117612799e-01,-2.939962266117612799e-01,-2.939962266117612799e-01,-2.939962266117612799e-01,-2.939962266117612799e-01,-2.749652208712677903e-01,-2.539654903989991275e-01,-2.336220015039888742e-01,-2.126222710317202114e-01,-1.922787821367099581e-01,-1.712790516644412953e-01,-1.509355627694310420e-01,-1.299358322971623791e-01,-1.095923434021520981e-01,-8.924885450714184487e-02,-6.824912403487320978e-02,-4.790563513986295652e-02,-2.690590466759423816e-02,-6.562415772583984896e-03,-5.551115123125782702e-17,-2.143722485710763959e-02,-5.308265202712358910e-02,-8.574889942843041957e-02,-1.173943265984463968e-01,-1.500605739997531718e-01,-1.817060011697691491e-01,-2.143722485710759518e-01,-2.460176757410919013e-01,-2.776631029111078508e-01,-2.939962266117612799e-01,-2.939962266117612799e-01,-2.939962266117612799e-01,-2.939962266117612799e-01,-2.939962266117612799e-01,-2.939962266117612799e-01,-2.939962266117612799e-01,-2.939962266117612799e-01,-2.939962266117612799e-01,-2.939962266117612799e-01
-2.939962266117612799e-01,-2.939962266117612799e-01,-2.939962266117612799e-01,-2.939962266117612799e-01,-2.939962266117612799e-01,-2.939962266117612799e-01,-2.939962266117612799e-01,-2.939962266117612799e-01,-2.939962266117612799e-01,-2.939962266117612799e-01,-2.939962266117612799e-01,-2.939962266117612799e-01,-2.913712603027276971e-01,-2.710277714077174438e-01,-2.500280409354487809e-01,-2.296845520404385277e-01,-2.086848215681698648e-01,-1.883413326731596116e-01,-1.673416022008909487e-01,-1.469981133058806677e-01,-1.266546244108704145e-01,-1.056548939386017238e-01,-8.531140504359147059e-02,-6.431167457132280774e-02,-4.396818567631255448e-02,-2.296845520404389163e-02,-2.624966309033638368e-03,-5.551115123125782702e-17,-2.756214624485264775e-02,-5.920757341486862502e-02,-9.187382081617545548e-02,-1.235192479861914050e-01,-1.561854953874982077e-01,-1.878309225575141572e-01,-2.204971699588209599e-01,-2.521425971288369094e-01,-2.837880242988529145e-01,-2.939962266117612799e-01,-2.939962266117612799e-01,-2.939962266117612799e-01,-2.939962266117612799e-01,-2.939962266117612799e-01,-2.939962266117612799e-01,-2.939962266117612799e-01,-2.939962266117612799e-01,-2.939962266117612799e-01,-2.939962266117612799e-01
-2.939962266117612799e-01,-2.939962266117612799e-01,-2.939962266117612799e-01,-2.939962266117612799e-01,-2.939962266117612799e-01,-2.939962266117612799e-01,-2.939962266117612799e-01,-2.939962266117612799e-01,-2.939962266117612799e-01,-2.939962266117612799e-01,-2.939962266117612799e-01,-2.939962266117612799e-01,-2.917403961899355247e-01,-2.797024647571018652e-01,-2.595640513549848372e-01,-2.321454579551575081e-01,-2.047473721046194906e-01,-1.844038832096092095e-01,-1.634041527373405744e-01,-1.430606638423302934e-01,-1.227171749473200124e-01,-1.017174444750513496e-01,-8.137395558004106855e-02,-6.037422510777243345e-02,-4.003073621276220795e-02,-1.903100574049354510e-02,-5.551115123125782702e-17,-2.041640462581761906e-03,-3.368706763259771142e-02,-6.533249480261366093e-02,-9.799874220392046364e-02,-1.296441693739364409e-01,-1.623104167752432436e-01,-1.939558439452591931e-01,-2.266220913465659959e-01,-2.582675185165819731e-01,-2.899129456865979226e-01,-2.939962266117612799e-01,-2.939962266117612799e-01,-2.939962266117612799e-01,-2.939962266117612799e-01,-2.939962266117612799e-01,-2.939962266117612799e-01,-2.939962266117612799e-01,-2.939962266117612799e-01,-2.939962266117612799e-01,-2.939962266117612799e-01
-2.939962266117612799e-01,-2.939962266117612799e-01,-2.939962266117612799e-01,-2.939962266117612799e-01,-2.939962266117612799e-01,-2.939962266117612799e-01,-2.939962266117612799e-01,-2.939962266117612799e-01,-2.939962266117612799e-01,-2.939962266117612799e-01,-2.939962266117612799e-01,-2.939962266117612799e-01,-2.939962266117612799e-01,-2.939962266117612799e-01,-2.939962266117612799e-01,-2.939962266117612799e-01,-2.852600106145088965e-01,-2.620659723682824405e-01,-2.309355125470873293e-01,-1.923608123338672593e-01,-1.461573037850183443e-01,-9.777999501150100303e-02,-7.743650611649072202e-02,-5.643677564422208692e-02,-3.609328674921180591e-02,-1.509355627694314306e-02,-5.551115123125782702e-17,-8.166561850326770067e-03,-3.981198902034271958e-02,-7.145741619035866909e-02,-1.041236635916654996e-01,-1.357690907616814768e-01,-1.684353381629882795e-01,-2.000807653330042291e-01,-2.327470127343110318e-01,-2.643924399043269813e-01,-2.939962266117612799e-01,-2.939962266117612799e-01,-2.939962266117612799e-01,-2.939962266117612799e-01,-2.939962266117612799e-01,-2.939962266117612799e-01,-2.939962266117612799e-01,-2.939962266117612799e-01,-2.939962266117612799e-01,-2.939962266117612799e-01,-2.939962266117612799e-01
