-1.230405344339574186e-01,-1.230405344339574186e-01,-1.230405344339574186e-01,-1.230405344339574186e-01,-1.230405344339574186e-01,-1.230405344339574186e-01,-1.230405344339574186e-01,-1.230405344339574186e-01,-1.230405344339574186e-01,-1.230405344339574186e-01,-1.230405344339574186e-01,-1.230405344339574186e-01,-1.230405344339574186e-01,-1.230405344339574186e-01,-1.230405344339574186e-01,-1.230405344339574186e-01,-1.230405344339574186e-01,-9.650156046467653348e-02,-7.059993980725630391e-02,-4.831347072202948900e-02,-5.332870989732665934e-02,-5.834394907262382968e-02,-6.335918824792100001e-02,-6.837442742321819811e-02,-7.338966659851536845e-02,-7.840490577381253878e-02,-8.342014494910972300e-02,-8.843538412440689334e-02,-9.361779793888064249e-02,-9.863303711417782671e-02,-1.036482762894750109e-01,-1.086635154647721813e-01,-1.136787546400693516e-01,-1.186939938153665358e-01,-1.230405344339574186e-01,-1.230405344339574186e-01,-1.230405344339574186e-01,-1.230405344339574186e-01,-1.230405344339574186e-01,-1.230405344339574186e-01,-1.230405344339574186e-01,-1.230405344339574186e-01,-1.230405344339574186e-01,-1.230405344339574186e-01,-1.230405344339574186e-01,-1.230405344339574186e-01,-1.230405344339574186e-01
-1.230405344339574186e-01,-1.230405344339574186e-01,-1.230405344339574186e-01,-1.230405344339574186e-01,-1.230405344339574186e-01,-1.230405344339574186e-01,-1.230405344339574186e-01,-1.230405344339574186e-01,-1.230405344339574186e-01,-1.230405344339574186e-01,-1.230405344339574186e-01,-1.230405344339574186e-01,-1.230405344339574186e-01,-1.230405344339574186e-01,-9.758819561932424724e-02,-6.556902800953634536e-02,-3.699783733276522379e-02,-3.627689670131624411e-02,-4.145931051579000715e-02,-4.647454969108717748e-02,-5.148978886638437558e-02,-5.650502804168153204e-02,-6.152026721697871625e-02,-6.653550639227590047e-02,-7.155074556757307080e-02,-7.656598474287024114e-02,-8.158122391816742536e-02,-8.676363773264117452e-02,-9.177887690793834485e-02,-9.679411608323552907e-02,-1.018093552585327133e-01,-1.068245944338298836e-01,-1.118398336091270540e-01,-1.168550727844242382e-01,-1.218703119597214085e-01,-1.230405344339574186e-01,-1.230405344339574186e-01,-1.230405344339574186e-01,-1.230405344339574186e-01,-1.230405344339574186e-01,-1.230405344339574186e-01,-1.230405344339574186e-01,-1.230405344339574186e-01,-1.230405344339574186e-01,-1.230405344339574186e-01,-1.230405344339574186e-01,-1.230405344339574186e-01
-1.230405344339574186e-01,-1.230405344339574186e-01,-1.230405344339574186e-01,-1.230405344339574186e-01,-1.230405344339574186e-01,-1.230405344339574186e-01,-1.230405344339574186e-01,-1.230405344339574186e-01,-1.230405344339574186e-01,-1.230405344339574186e-01,-1.230405344339574186e-01,-1.007854105935761940e-01,-6.264869603142057819e-02,-3.135569326055591410e-02,-1.939225814448242158e-02,-2.440749731977960579e-02,-2.958991113425336883e-02,-3.460515030955051141e-02,-3.962038948484770950e-02,-4.463562866014487984e-02,-4.965086783544206406e-02,-5.466610701073924827e-02,-5.968134618603641861e-02,-6.469658536133358895e-02,-6.971182453663077316e-02,-7.489423835110452232e-02,-7.990947752640170654e-02,-8.492471670169887688e-02,-8.993995587699604721e-02,-9.495519505229323143e-02,-9.997043422759040177e-02,-1.049856734028875860e-01,-1.100009125781847563e-01,-1.150161517534819405e-01,-1.201985655679556897e-01,-1.230405344339574186e-01,-1.230405344339574186e-01,-1.230405344339574186e-01,-1.230405344339574186e-01,-1.230405344339574186e-01,-1.230405344339574186e-01,-1.230405344339574186e-01,-1.230405344339574186e-01,-1.230405344339574186e-01,-1.230405344339574186e-01,-1.230405344339574186e-01,-1.230405344339574186e-01
-1.230405344339574186e-01,-1.230405344339574186e-01,-1.230405344339574186e-01,-1.230405344339574186e-01,-1.230405344339574186e-01,-1.230405344339574186e-01,-1.230405344339574186e-01,-1.230405344339574186e-01,-1.117698292289718703e-01,-6.921030061910105058e-02,-2.691511690742819096e-02,-2.507619587648599047e-03,-1.804543451555634670e-01,-1.854695843308606373e-01,-1.904848235061578077e-01,-1.956672373206315707e-01,-2.006824764959287410e-01,-3.276622927860824153e-02,-3.778146845390541186e-02,-4.279670762920258220e-02,-4.781194680449975254e-02,-5.282718597979695063e-02,-5.784242515509412097e-02,-6.285766433039129131e-02,-6.804007814486504047e-02,-7.305531732016222468e-02,-7.807055649545940890e-02,-8.308579567075657923e-02,-8.810103484605374957e-02,-9.311627402135093379e-02,-9.813151319664810412e-02,-1.031467523719452883e-01,-1.081619915472424587e-01,-1.133444053617162078e-01,-1.183596445370133921e-01,-1.230405344339574186e-01,-1.230405344339574186e-01,-1.230405344339574186e-01,-1.230405344339574186e-01,-1.230405344339574186e-01,-1.230405344339574186e-01,-1.230405344339574186e-01,-1.230405344339574186e-01,-1.230405344339574186e-01,-1.230405344339574186e-01,-1.230405344339574186e-01,-1.230405344339574186e-01
-1.230405344339574186e-01,-1.230405344339574186e-01,-1.230405344339574186e-01,-1.230405344339574186e-01,-1.230405344339574186e-01,-1.200926882964771930e-01,-8.478261825839879251e-02,-4.418565025636127241e-02,-5.639357828223071079e-03,-1.387778780781445676e-17,-1.387778780781445676e-17,-6.686985567063014058e-04,-1.786154241246211694e-01,-1.837978379390949046e-01,-1.888130771143921027e-01,-1.938283162896892731e-01,-1.988435554649864434e-01,-3.092730824766594389e-02,-3.594254742296311422e-02,-4.095778659826028456e-02,-4.597302577355746878e-02,-5.098826494885465299e-02,-5.617067876332838827e-02,-6.118591793862556555e-02,-6.620115711392274283e-02,-7.121639628921992704e-02,-7.623163546451711126e-02,-8.124687463981428159e-02,-8.626211381511145193e-02,-9.127735299040862227e-02,-9.629259216570580648e-02,-1.014750059801795556e-01,-1.064902451554767399e-01,-1.115054843307739102e-01,-1.165207235060710944e-01,-1.215359626813682647e-01,-1.230405344339574186e-01,-1.230405344339574186e-01,-1.230405344339574186e-01,-1.230405344339574186e-01,-1.230405344339574186e-01,-1.230405344339574186e-01,-1.230405344339574186e-01,-1.230405344339574186e-01,-1.230405344339574186e-01,-1.230405344339574186e-01,-1.230405344339574186e-01
-1.230405344339574186e-01,-1.230405344339574186e-01,-1.230405344339574186e-01,-1.016285976799230356e-01,-7.065218188199899607e-02,-3.438886812011583693e-02,-2.383910354657926833e-02,-1.614907014445692013e-02,-8.459036742334571923e-03,-7.690033402122514739e-04,-2.775557561562891351e-17,-1.387778780781445676e-17,-1.769436777328554367e-01,-1.819589169081526070e-01,-1.869741560834497773e-01,-1.919893952587469754e-01,-1.970046344340441458e-01,-2.908838721672364624e-02,-3.410362639202081658e-02,-3.911886556731798692e-02,-4.430127938179173608e-02,-4.931651855708892029e-02,-5.433175773238609063e-02,-5.934699690768327485e-02,-6.436223608298044518e-02,-6.937747525827762940e-02,-7.439271443357479974e-02,-7.940795360887198395e-02,-8.442319278416915429e-02,-8.960560659864290345e-02,-9.462084577394008766e-02,-9.963608494923725800e-02,-1.046513241245344283e-01,-1.096665632998316126e-01,-1.146818024751287968e-01,-1.196970416504259671e-01,-1.230405344339574186e-01,-1.230405344339574186e-01,-1.230405344339574186e-01,-1.230405344339574186e-01,-1.230405344339574186e-01,-1.230405344339574186e-01,-1.230405344339574186e-01,-1.230405344339574186e-01,-1.230405344339574186e-01,-1.230405344339574186e-01,-1.230405344339574186e-01
-1.121062681903147173e-01,-9.045401789246401703e-02,-6.357094279087800726e-02,-4.972888266705779992e-02,-4.203884926493546559e-02,-3.434881586281313126e-02,-2.665878246069078306e-02,-1.896874905856844873e-02,-1.127871565644610052e-02,-3.588682254323780074e-03,-1.387778780781445676e-17,-1.387778780781445676e-17,-1.751047567019131113e-01,-1.801199958772103094e-01,-1.851352350525075074e-01,-1.901504742278046778e-01,-1.951657134031018481e-01,-2.724946618578133473e-02,-3.226470536107850506e-02,-3.744711917555226810e-02,-4.246235835084942456e-02,-4.747759752614662265e-02,-5.249283670144380687e-02,-5.750807587674097721e-02,-6.252331505203814754e-02,-6.753855422733531788e-02,-7.255379340263251597e-02,-7.756903257792968631e-02,-8.275144639240343547e-02,-8.776668556770061969e-02,-9.278192474299779002e-02,-9.779716391829496036e-02,-1.028124030935921307e-01,-1.078276422688893149e-01,-1.128428814441864991e-01,-1.178581206194836695e-01,-1.228733597947808398e-01,-1.230405344339574186e-01,-1.230405344339574186e-01,-1.230405344339574186e-01,-1.230405344339574186e-01,-1.230405344339574186e-01,-1.230405344339574186e-01,-1.230405344339574186e-01,-1.230405344339574186e-01,-1.230405344339574186e-01,-1.230405344339574186e-01
-7.561866178753633150e-02,-6.792862838541399717e-02,-6.023859498329166284e-02,-5.254856158116932852e-02,-4.485852817904699419e-02,-3.716849477692464598e-02,-2.947846137480231166e-02,-2.178842797267997733e-02,-1.409839457055762912e-02,-6.152026721697886891e-03,-1.387778780781445676e-17,-1.387778780781445676e-17,-1.732658356709708691e-01,-1.782810748462679840e-01,-1.832963140215652098e-01,-1.883115531968623801e-01,-1.933267923721595505e-01,-2.557771979401561591e-02,-3.059295896931278624e-02,-3.560819814460995658e-02,-4.062343731990715467e-02,-4.563867649520432501e-02,-5.065391567050149535e-02,-5.566915484579867957e-02,-6.068439402109584990e-02,-6.569963319639302024e-02,-7.088204701086678328e-02,-7.589728618616395361e-02,-8.091252536146113783e-02,-8.592776453675830817e-02,-9.094300371205549238e-02,-9.595824288735266272e-02,-1.009734820626498331e-01,-1.059887212379470173e-01,-1.110039604132442015e-01,-1.161863742277179368e-01,-1.212016134030151210e-01,-1.230405344339574186e-01,-1.230405344339574186e-01,-1.230405344339574186e-01,-1.230405344339574186e-01,-1.230405344339574186e-01,-1.230405344339574186e-01,-1.230405344339574186e-01,-1.230405344339574186e-01,-1.230405344339574186e-01,-1.230405344339574186e-01
-7.843834070164787398e-02,-7.074830729952552577e-02,-6.305827389740317757e-02,-5.536824049528084324e-02,-4.767820709315850891e-02,-3.998817369103617458e-02,-3.229814028891384026e-02,-2.435177244005408415e-02,-1.666173903793174982e-02,-8.971705635809387736e-03,-1.281672233687067286e-03,0.000000000000000000e+00,-1.387778780781445676e-17,-3.510667422708044216e-03,-8.525906598005214554e-03,-1.354114577330238489e-02,-1.872355958777614793e-02,-2.373879876307331827e-02,-2.875403793837048860e-02,-3.376927711366765894e-02,-3.878451628896484316e-02,-4.379975546426201349e-02,-4.881499463955919771e-02,-5.383023381485638192e-02,-5.884547299015355226e-02,-6.402788680462728754e-02,-6.904312597992448564e-02,-7.405836515522165597e-02,-7.907360433051882631e-02,-8.408884350581601053e-02,-8.910408268111319474e-02,-9.411932185641036508e-02,-9.913456103170753542e-02,-1.041498002070047196e-01,-1.093322140214784688e-01,-1.143474531967756391e-01,-1.193626923720728233e-01,-1.230405344339574186e-01,-1.230405344339574186e-01,-1.230405344339574186e-01,-1.230405344339574186e-01,-1.230405344339574186e-01,-1.230405344339574186e-01,-1.230405344339574186e-01,-1.230405344339574186e-01,-1.230405344339574186e-01,-1.230405344339574186e-01
-8.125801961575937482e-02,-7.356798621363704049e-02,-6.587795281151470617e-02,-5.818791940939237184e-02,-5.049788600727003751e-02,-4.280785260514770318e-02,-3.486148475628794707e-02,-2.717145135416559887e-02,-1.948141795204327842e-02,-1.179138454992093021e-02,-4.101351147798595886e-03,-1.387778780781445676e-17,-1.387778780781445676e-17,-1.671746391765732698e-03,-6.854160206239481856e-03,-1.186939938153666607e-02,-1.688463855683385029e-02,-2.189987773213102062e-02,-2.691511690742820484e-02,-3.193035608272536130e-02,-3.694559525802254552e-02,-4.196083443331971585e-02,-4.697607360861690007e-02,-5.215848742309066310e-02,-5.717372659838783344e-02,-6.218896577368500378e-02,-6.720420494898218799e-02,-7.221944412427935833e-02,-7.723468329957652867e-02,-8.224992247487371289e-02,-8.726516165017089710e-02,-9.228040082546806744e-02,-9.746281463994181660e-02,-1.024780538152390008e-01,-1.074932929905361711e-01,-1.125085321658333415e-01,-1.175237713411305257e-01,-1.225390105164276960e-01,-1.230405344339574186e-01,-1.230405344339574186e-01,-1.230405344339574186e-01,-1.230405344339574186e-01,-1.230405344339574186e-01,-1.230405344339574186e-01,-1.230405344339574186e-01,-1.230405344339574186e-01,-1.230405344339574186e-01
-8.407769852987090342e-02,-7.638766512774856909e-02,-6.869763172562622089e-02,-6.100759832350388656e-02,-5.306123047464415821e-02,-4.537119707252181000e-02,-3.768116367039947567e-02,-2.999113026827711359e-02,-2.230109686615479314e-02,-1.461106346403245881e-02,-6.921030061910110609e-03,-1.387778780781445676e-17,-1.387778780781445676e-17,-1.387778780781445676e-17,-5.015239175297184215e-03,-1.003047835059436843e-02,-1.504571752589153877e-02,-2.006095670118872298e-02,-2.507619587648589332e-02,-3.009143505178306366e-02,-3.510667422708024787e-02,-4.012191340237741821e-02,-4.530432721685118125e-02,-5.031956639214836546e-02,-5.533480556744553580e-02,-6.035004474274270614e-02,-6.536528391803989035e-02,-7.038052309333706069e-02,-7.539576226863423103e-02,-8.041100144393141524e-02,-8.559341525840516440e-02,-9.060865443370233474e-02,-9.562389360899951896e-02,-1.006391327842967032e-01,-1.056543719595938735e-01,-1.106696111348910438e-01,-1.156848503101882281e-01,-1.207000894854853984e-01,-1.230405344339574186e-01,-1.230405344339574186e-01,-1.230405344339574186e-01,-1.230405344339574186e-01,-1.230405344339574186e-01,-1.230405344339574186e-01,-1.230405344339574186e-01,-1.230405344339574186e-01,-1.230405344339574186e-01
-8.689737744398243202e-02,-7.920734404186008382e-02,-7.151731063973776337e-02,-6.357094279087799338e-02,-5.588090938875567293e-02,-4.819087598663333860e-02,-4.050084258451099040e-02,-3.281080918238865607e-02,-2.512077578026632174e-02,-1.743074237814397354e-02,-9.740708976021639209e-03,-1.794341127161883098e-03,-1.387778780781445676e-17,-1.387778780781445676e-17,-3.176318144354886575e-03,-8.191557319652056912e-03,-1.320679649494925501e-02,-1.822203567024641147e-02,-2.323727484554360956e-02,-2.825251402084077990e-02,-3.343492783531452905e-02,-3.845016701061171327e-02,-4.346540618590886973e-02,-4.848064536120605394e-02,-5.349588453650323816e-02,-5.851112371180040850e-02,-6.352636288709757884e-02,-6.854160206239476305e-02,-7.355684123769193339e-02,-7.873925505216569642e-02,-8.375449422746286676e-02,-8.876973340276003710e-02,-9.378497257805722132e-02,-9.880021175335439165e-02,-1.038154509286515759e-01,-1.088306901039487462e-01,-1.138459292792459304e-01,-1.188611684545431008e-01,-1.230405344339574186e-01,-1.230405344339574186e-01,-1.230405344339574186e-01,-1.230405344339574186e-01,-3.211911085449858372e-01,-3.211911085449858372e-01,-3.211911085449858372e-01,-1.230405344339574186e-01,-1.230405344339574186e-01
-8.971705635809396062e-02,-8.177068850923421839e-02,-7.408065510711187018e-02,-6.639062170498952198e-02,-5.870058830286720153e-02,-5.101055490074486720e-02,-4.332052149862251900e-02,-3.563048809650018467e-02,-2.794045469437783646e-02,-2.025042129225550214e-02,-1.230405344339575990e-02,-4.614020041273411699e-03,-1.387778780781445676e-17,-1.387778780781445676e-17,-1.337397113412588934e-03,-6.352636288709773149e-03,-1.136787546400694349e-02,-1.638311463930412770e-02,-2.139835381460129804e-02,-2.658076762907506108e-02,-3.159600680437221754e-02,-3.661124597966940175e-02,-4.162648515496658597e-02,-4.664172433026375630e-02,-5.165696350556094052e-02,-5.667220268085811086e-02,-6.168744185615528119e-02,-6.686985567062903035e-02,-7.188509484592622845e-02,-7.690033402122339878e-02,-8.191557319652056912e-02,-8.693081237181773946e-02,-9.194605154711492367e-02,-9.696129072241209401e-02,-1.019765298977092782e-01,-1.069917690730064486e-01,-1.121741828874801977e-01,-1.171894220627773819e-01,-1.222046612380745523e-01,-1.230405344339574186e-01,-1.230405344339574186e-01,-1.230405344339574186e-01,-3.211911085449858372e-01,-3.211911085449858372e-01,-3.211911085449858372e-01,-1.230405344339574186e-01,-1.230405344339574186e-01
-9.228040082546806744e-02,-8.459036742334571923e-02,-7.690033402122339878e-02,-6.921030061910105058e-02,-6.152026721697871625e-02,-5.383023381485638192e-02,-4.614020041273404760e-02,-3.845016701061169939e-02,-3.050379916175195716e-02,-2.281376575962960895e-02,-1.512373235750728850e-02,-7.433698955384926421e-03,-1.387778780781445676e-17,-2.775557561562891351e-17,-1.387778780781445676e-17,-4.513715257767475508e-03,-9.528954433064645846e-03,-1.471136824753840888e-02,-1.972660742283556534e-02,-2.474184659813274956e-02,-2.975708577342993377e-02,-3.477232494872710411e-02,-3.978756412402427445e-02,-4.480280329932145866e-02,-4.981804247461864288e-02,-5.483328164991581322e-02,-6.001569546438956237e-02,-6.503093463968673271e-02,-7.004617381498391693e-02,-7.506141299028108727e-02,-8.007665216557827148e-02,-8.509189134087544182e-02,-9.010713051617262603e-02,-9.512236969146981025e-02,-1.001376088667669806e-01,-1.053200226812407297e-01,-1.103352618565379001e-01,-1.153505010318350843e-01,-1.203657402071322546e-01,-1.230405344339574186e-01,-1.230405344339574186e-01,-1.230405344339574186e-01,-3.211911085449858372e-01,-3.211911085449858372e-01,-3.211911085449858372e-01,-1.230405344339574186e-01,-1.230405344339574186e-01
-9.510007973957959604e-02,-8.741004633745724783e-02,-7.972001293533492738e-02,-7.202997953321257918e-02,-6.433994613109023097e-02,-5.664991272896789665e-02,-4.895987932684557620e-02,-4.101351147798582009e-02,-3.332347807586347188e-02,-2.563344467374115143e-02,-1.794341127161881710e-02,-1.025337786949644114e-02,-2.563344467374120694e-03,-1.387778780781445676e-17,-1.387778780781445676e-17,-2.674794226825177867e-03,-7.857208041298913148e-03,-1.287244721659609736e-02,-1.788768639189326770e-02,-2.290292556719043804e-02,-2.791816474248763613e-02,-3.293340391778480647e-02,-3.794864309308197681e-02,-4.296388226837916102e-02,-4.814629608285291018e-02,-5.316153525815009440e-02,-5.817677443344726473e-02,-6.319201360874443507e-02,-6.820725278404161929e-02,-7.322249195933880350e-02,-7.823773113463597384e-02,-8.325297030993314418e-02,-8.826820948523032839e-02,-9.345062329970407755e-02,-9.846586247500124789e-02,-1.034811016502984321e-01,-1.084963408255956024e-01,-1.135115800008927867e-01,-1.185268191761899570e-01,-1.230405344339574186e-01,-1.230405344339574186e-01,-1.230405344339574186e-01,-1.230405344339574186e-01,-1.230405344339574186e-01,-1.230405344339574186e-01,-1.230405344339574186e-01,-1.230405344339574186e-01
-9.791975865369112464e-02,-9.022972525156877643e-02,-8.253969184944645598e-02,-7.484965844732409390e-02,-6.715962504520175957e-02,-5.921325719634200346e-02,-5.152322379421968301e-02,-4.383319039209734869e-02,-3.614315698997501436e-02,-2.845312358785266615e-02,-2.076309018573033183e-02,-1.307305678360799750e-02,-5.383023381485649295e-03,-1.387778780781445676e-17,-1.387778780781445676e-17,-1.003047835059445170e-03,-6.018287010356629385e-03,-1.103352618565379972e-02,-1.604876536095098394e-02,-2.106400453624815428e-02,-2.607924371154535237e-02,-3.109448288684250883e-02,-3.610972206213969304e-02,-4.129213587661342832e-02,-4.630737505191061254e-02,-5.132261422720779676e-02,-5.633785340250496709e-02,-6.135309257780214437e-02,-6.636833175309930777e-02,-7.138357092839650586e-02,-7.639881010369367620e-02,-8.158122391816742536e-02,-8.659646309346459570e-02,-9.161170226876177991e-02,-9.662694144405895025e-02,-1.016421806193561345e-01,-1.066574197946533048e-01,-1.116726589699504890e-01,-1.166878981452476594e-01,-1.217031373205448436e-01,-1.230405344339574186e-01,-1.230405344339574186e-01,-1.230405344339574186e-01,-1.230405344339574186e-01,-1.230405344339574186e-01,-1.230405344339574186e-01,-1.230405344339574186e-01
-1.007394375678026394e-01,-9.304940416568030503e-02,-8.535937076355797071e-02,-7.766933736143563638e-02,-6.972296951257586639e-02,-6.203293611045353206e-02,-5.434290270833121161e-02,-4.665286930620886341e-02,-3.896283590408652908e-02,-3.127280250196419475e-02,-2.358276909984184655e-02,-1.589273569771951222e-02,-7.946367848859756111e-03,-2.563344467374217839e-04,-2.775557561562891351e-17,-1.387778780781445676e-17,-4.179365979414317867e-03,-9.194605154711502082e-03,-1.420984433000868630e-02,-1.922508350530587051e-02,-2.424032268060302697e-02,-2.942273649507677613e-02,-3.443797567037396035e-02,-3.945321484567113068e-02,-4.446845402096831490e-02,-4.948369319626549911e-02,-5.449893237156266945e-02,-5.951417154685985367e-02,-6.452941072215701013e-02,-6.954464989745420822e-02,-7.472706371192794350e-02,-7.974230288722512772e-02,-8.475754206252229805e-02,-8.977278123781948227e-02,-9.478802041311665261e-02,-9.980325958841383682e-02,-1.048184987637110072e-01,-1.098337379390081914e-01,-1.148489771143053617e-01,-1.200313909287791109e-01,-1.230405344339574186e-01,-1.230405344339574186e-01,-1.230405344339574186e-01,-1.230405344339574186e-01,-1.230405344339574186e-01,-1.230405344339574186e-01,-1.230405344339574186e-01
-1.035591164819141541e-01,-9.586908307979183363e-02,-8.792271523093207752e-02,-8.023268182880974320e-02,-7.254264842668739499e-02,-6.485261502456504679e-02,-5.716258162244271246e-02,-4.947254822032039201e-02,-4.178251481819804380e-02,-3.409248141607570948e-02,-2.640244801395336127e-02,-1.845608016509361904e-02,-1.076604676297128471e-02,-3.076013360848936506e-03,-1.387778780781445676e-17,-1.387778780781445676e-17,-2.340444948472034103e-03,-7.355684123769204441e-03,-1.237092329906637478e-02,-1.738616247436357287e-02,-2.256857628883730815e-02,-2.758381546413449237e-02,-3.259905463943166271e-02,-3.761429381472884692e-02,-4.262953299002600338e-02,-4.764477216532318760e-02,-5.266001134062037181e-02,-5.767525051591755603e-02,-6.285766433039130519e-02,-6.787290350568847552e-02,-7.288814268098564586e-02,-7.790338185628283008e-02,-8.291862103158001429e-02,-8.793386020687718463e-02,-9.294909938217435497e-02,-9.796433855747152530e-02,-1.029795777327687095e-01,-1.081619915472424587e-01,-1.131772307225396429e-01,-1.181924698978368132e-01,-1.230405344339574186e-01,-1.230405344339574186e-01,-1.230405344339574186e-01,-1.230405344339574186e-01,-1.230405344339574186e-01,-1.230405344339574186e-01,-1.230405344339574186e-01
-1.063787953960256827e-01,-9.843242754716594045e-02,-9.074239414504359225e-02,-8.305236074292125792e-02,-7.536232734079892359e-02,-6.767229393867657539e-02,-5.998226053655424106e-02,-5.229222713443192061e-02,-4.460219373230957240e-02,-3.665582588344983017e-02,-2.896579248132748197e-02,-2.127575907920514764e-02,-1.358572567708281331e-02,-5.895692274960465107e-03,-1.387778780781445676e-17,-1.387778780781445676e-17,-5.015239175297364627e-04,-5.516763092826879045e-03,-1.069917690730065596e-02,-1.571441608259784017e-02,-2.072965525789502439e-02,-2.574489443319218085e-02,-3.076013360848937894e-02,-3.577537278378654928e-02,-4.079061195908371962e-02,-4.580585113438088996e-02,-5.082109030967807417e-02,-5.600350412415182333e-02,-6.101874329944899367e-02,-6.603398247474616400e-02,-7.104922165004334822e-02,-7.606446082534053243e-02,-8.107970000063770277e-02,-8.609493917593488699e-02,-9.111017835123205733e-02,-9.612541752652924154e-02,-1.013078313410029907e-01,-1.063230705163001610e-01,-1.113383096915973314e-01,-1.163535488668945156e-01,-1.213687880421916998e-01,-1.230405344339574186e-01,-1.230405344339574186e-01,-1.230405344339574186e-01,-1.230405344339574186e-01,-1.230405344339574186e-01,-1.230405344339574186e-01
-1.089421398633998034e-01,-1.012521064612774691e-01,-9.356207305915512085e-02,-8.587203965703278652e-02,-7.818200625491045219e-02,-7.049197285278810399e-02,-6.280193945066575578e-02,-5.511190604854344921e-02,-4.716553819968369310e-02,-3.947550479756134489e-02,-3.178547139543901057e-02,-2.409543799331667624e-02,-1.640540459119434191e-02,-8.715371189071993707e-03,-1.025337786949645502e-03,-1.387778780781445676e-17,-1.387778780781445676e-17,-3.845016701061187980e-03,-8.860255876358358318e-03,-1.387549505165554253e-02,-1.889073422695271287e-02,-2.390597340224989709e-02,-2.892121257754706742e-02,-3.393645175284425164e-02,-3.895169092814142198e-02,-4.413410474261515726e-02,-4.914934391791234147e-02,-5.416458309320952569e-02,-5.917982226850669603e-02,-6.419506144380388024e-02,-6.921030061910105058e-02,-7.422553979439823479e-02,-7.924077896969541901e-02,-8.425601814499258935e-02,-8.943843195946632463e-02,-9.445367113476350884e-02,-9.946891031006069306e-02,-1.044841494853578634e-01,-1.094993886606550476e-01,-1.145146278359522179e-01,-1.195298670112493883e-01,-1.230405344339574186e-01,-1.230405344339574186e-01,-1.230405344339574186e-01,-1.230405344339574186e-01,-1.230405344339574186e-01,-1.230405344339574186e-01
-1.117618187775113181e-01,-1.040717853753889838e-01,-9.638175197326664945e-02,-8.869171857114430124e-02,-8.100168516902198079e-02,-7.331165176689963259e-02,-6.536528391803987648e-02,-5.767525051591754215e-02,-4.998521711379522170e-02,-4.229518371167287349e-02,-3.460515030955052529e-02,-2.691511690742819096e-02,-1.922508350530585663e-02,-1.153505010318352231e-02,-3.845016701061174103e-03,-1.387778780781445676e-17,-1.387778780781445676e-17,-2.006095670118876462e-03,-7.021334845416060677e-03,-1.203657402071323101e-02,-1.705181319601041523e-02,-2.206705237130758557e-02,-2.708229154660476978e-02,-3.209753072190194012e-02,-3.727994453637568928e-02,-4.229518371167287349e-02,-4.731042288697004383e-02,-5.232566206226722805e-02,-5.734090123756441226e-02,-6.235614041286157566e-02,-6.737137958815875294e-02,-7.238661876345593715e-02,-7.740185793875312137e-02,-8.258427175322685665e-02,-8.759951092852402699e-02,-9.261475010382121120e-02,-9.762998927911839542e-02,-1.026452284544155658e-01,-1.076604676297127361e-01,-1.126757068050099203e-01,-1.176909459803070906e-01,-1.228733597947808398e-01,-1.230405344339574186e-01,-1.230405344339574186e-01,-1.230405344339574186e-01,-1.230405344339574186e-01,-1.230405344339574186e-01
-1.145814976916228467e-01,-1.068914642895005124e-01,-9.920143088737817805e-02,-9.151139748525582984e-02,-8.382136408313349552e-02,-7.587499623427373940e-02,-6.818496283215140508e-02,-6.049492943002907075e-02,-5.280489602790673642e-02,-4.511486262578440209e-02,-3.742482922366206777e-02,-2.973479582153971956e-02,-2.204476241941739911e-02,-1.435472901729505091e-02,-6.408361168435280919e-03,-1.387778780781445676e-17,-1.387778780781445676e-17,-1.671746391765926987e-04,-5.182413814473735281e-03,-1.019765298977093337e-02,-1.521289216506811759e-02,-2.022813134036528793e-02,-2.541054515483903709e-02,-3.042578433013620742e-02,-3.544102350543340552e-02,-4.045626268073056198e-02,-4.547150185602776007e-02,-5.048674103132493041e-02,-5.550198020662210074e-02,-6.051721938191927108e-02,-6.553245855721645530e-02,-7.071487237169021833e-02,-7.573011154698738867e-02,-8.074535072228455901e-02,-8.576058989758172935e-02,-9.077582907287891356e-02,-9.579106824817609778e-02,-1.008063074234732681e-01,-1.058215465987704385e-01,-1.108367857740676227e-01,-1.160191995885413718e-01,-1.210344387638385422e-01,-1.230405344339574186e-01,-1.230405344339574186e-01,-1.230405344339574186e-01,-1.230405344339574186e-01,-1.230405344339574186e-01
-1.174011766057343753e-01,-1.097111432036120271e-01,-1.020211098014896928e-01,-9.407474195262995054e-02,-8.638470855050761621e-02,-7.869467514838526800e-02,-7.100464174626291980e-02,-6.331460834414058547e-02,-5.562457494201826502e-02,-4.793454153989591682e-02,-4.024450813777358249e-02,-3.255447473565124816e-02,-2.460810688679149205e-02,-1.691807348466915772e-02,-9.228040082546809519e-03,-1.538006680424489070e-03,-1.387778780781445676e-17,-1.387778780781445676e-17,-3.343492783531451518e-03,-8.358731958828635733e-03,-1.337397113412581995e-02,-1.855638494859956911e-02,-2.357162412389673944e-02,-2.858686329919390978e-02,-3.360210247449109400e-02,-3.861734164978826434e-02,-4.363258082508544855e-02,-4.864782000038263277e-02,-5.366305917567981698e-02,-5.867829835097698732e-02,-6.386071216545072260e-02,-6.887595134074792069e-02,-7.389119051604509103e-02,-7.890642969134226137e-02,-8.392166886663944558e-02,-8.893690804193660204e-02,-9.395214721723380014e-02,-9.896738639253097047e-02,-1.041498002070047196e-01,-1.091650393823019038e-01,-1.141802785575990742e-01,-1.191955177328962445e-01,-1.230405344339574186e-01,-1.230405344339574186e-01,-1.230405344339574186e-01,-1.230405344339574186e-01,-1.230405344339574186e-01
-1.202208555198458900e-01,-1.125308221177235557e-01,-1.045844542688638135e-01,-9.689442086674146526e-02,-8.920438746461913093e-02,-8.151435406249679660e-02,-7.382432066037444840e-02,-6.613428725825211407e-02,-5.844425385612977975e-02,-5.075422045400744542e-02,-4.306418705188511109e-02,-3.511781920302536886e-02,-2.742778580090302065e-02,-1.973775239878068632e-02,-1.204771899665833812e-02,-4.357685594535989915e-03,-1.387778780781445676e-17,-1.387778780781445676e-17,-1.504571752589153877e-03,-6.686985567062916913e-03,-1.170222474236008725e-02,-1.671746391765727147e-02,-2.173270309295444180e-02,-2.674794226825162602e-02,-3.176318144354879636e-02,-3.677842061884598057e-02,-4.179365979414315091e-02,-4.680889896944033512e-02,-5.199131278391408428e-02,-5.700655195921125462e-02,-6.202179113450843190e-02,-6.703703030980560917e-02,-7.205226948510279339e-02,-7.706750866039996373e-02,-8.208274783569713406e-02,-8.709798701099431828e-02,-9.211322618629150250e-02,-9.729564000076523778e-02,-1.023108791760624220e-01,-1.073261183513595923e-01,-1.123413575266567765e-01,-1.173565967019539469e-01,-1.223718358772511311e-01,-1.230405344339574186e-01,-1.230405344339574186e-01,-1.230405344339574186e-01,-1.230405344339574186e-01
-1.227841999872200107e-01,-1.150941665850976625e-01,-1.074041331829753282e-01,-9.971409978085299386e-02,-9.202406637873065953e-02,-8.433403297660832520e-02,-7.664399957448597700e-02,-6.895396617236364267e-02,-6.126393277024129447e-02,-5.331756492138155223e-02,-4.562753151925921791e-02,-3.793749811713688358e-02,-3.024746471501454925e-02,-2.255743131289221493e-02,-1.486739791076986672e-02,-7.177364508647518515e-03,-1.387778780781445676e-17,-1.387778780781445676e-17,-1.387778780781445676e-17,-4.848064536120619272e-03,-9.863303711417789610e-03,-1.487854288671497383e-02,-1.989378206201214416e-02,-2.490902123730932838e-02,-2.992426041260649872e-02,-3.493949958790368293e-02,-3.995473876320086715e-02,-4.513715257767460243e-02,-5.015239175297178664e-02,-5.516763092826897086e-02,-6.018287010356612732e-02,-6.519810927886329766e-02,-7.021334845416049575e-02,-7.522858762945766609e-02,-8.024382680475483642e-02,-8.542624061922859946e-02,-9.044147979452576980e-02,-9.545671896982294014e-02,-1.004719581451201244e-01,-1.054871973204172947e-01,-1.105024364957144789e-01,-1.155176756710116492e-01,-1.205329148463088335e-01,-1.230405344339574186e-01,-1.230405344339574186e-01,-1.230405344339574186e-01,-1.230405344339574186e-01
-1.230405344339574186e-01,-1.179138454992091911e-01,-1.102238120970868568e-01,-1.025337786949645225e-01,-9.484374529284217425e-02,-8.715371189071983993e-02,-7.946367848859750560e-02,-7.151731063973776337e-02,-6.382727723761541516e-02,-5.613724383549308083e-02,-4.844721043337074651e-02,-4.075717703124841218e-02,-3.306714362912605010e-02,-2.537711022700374353e-02,-1.768707682488140920e-02,-9.997043422759047115e-03,-2.050675573899291004e-03,-1.387778780781445676e-17,-2.775557561562891351e-17,-3.009143505178307754e-03,-8.024382680475491969e-03,-1.303962185577269006e-02,-1.805486103106986040e-02,-2.307010020636703074e-02,-2.808533938166420107e-02,-3.326775319613795023e-02,-3.828299237143513445e-02,-4.329823154673230479e-02,-4.831347072202947512e-02,-5.332870989732665934e-02,-5.834394907262384355e-02,-6.335918824792101389e-02,-6.837442742321818423e-02,-7.338966659851536845e-02,-7.857208041298911760e-02,-8.358731958828630182e-02,-8.860255876358347216e-02,-9.361779793888064249e-02,-9.863303711417782671e-02,-1.036482762894750109e-01,-1.086635154647721813e-01,-1.136787546400693516e-01,-1.188611684545431008e-01,-1.230405344339574186e-01,-1.230405344339574186e-01,-1.230405344339574186e-01,-1.230405344339574186e-01
-1.230405344339574186e-01,-1.207335244133207197e-01,-1.130434910111983715e-01,-1.053534576090760372e-01,-9.766342420695370286e-02,-8.997339080483136853e-02,-8.202702295597161242e-02,-7.433698955384927809e-02,-6.664695615172692988e-02,-5.895692274960460944e-02,-5.126688934748226123e-02,-4.357685594535992690e-02,-3.588682254323759258e-02,-2.819678914111524437e-02,-2.050675573899292392e-02,-1.256038789013315393e-02,-4.870354488010805727e-03,-1.387778780781445676e-17,-2.775557561562891351e-17,-1.170222474236023991e-03,-6.185461649533194328e-03,-1.120070082483036467e-02,-1.621594000012756276e-02,-2.139835381460129804e-02,-2.641359298989848226e-02,-3.142883216519563871e-02,-3.644407134049283681e-02,-4.145931051579000715e-02,-4.647454969108719136e-02,-5.148978886638436170e-02,-5.650502804168154591e-02,-6.152026721697870931e-02,-6.670268103145246541e-02,-7.171792020674964963e-02,-7.673315938204681996e-02,-8.174839855734400418e-02,-8.676363773264117452e-02,-9.177887690793834485e-02,-9.679411608323552907e-02,-1.018093552585326994e-01,-1.068245944338298836e-01,-1.120070082483036328e-01,-1.170222474236008031e-01,-1.220374865988979873e-01,-1.230405344339574186e-01,-1.230405344339574186e-01,-1.230405344339574186e-01
-1.230405344339574186e-01,-1.230405344339574186e-01,-1.158631699253099001e-01,-1.081731365231875658e-01,-1.002267686743278097e-01,-9.253673527220547534e-02,-8.484670187008314102e-02,-7.715666846796080669e-02,-6.946663506583845848e-02,-6.177660166371612416e-02,-5.408656826159378983e-02,-4.639653485947146938e-02,-3.870650145734912118e-02,-3.076013360848936506e-02,-2.307010020636703074e-02,-1.538006680424469641e-02,-7.690033402122334327e-03,-1.387778780781445676e-17,-2.775557561562891351e-17,0.000000000000000000e+00,-4.346540618590896687e-03,-9.361779793888080903e-03,-1.454419360836183006e-02,-1.955943278365900040e-02,-2.457467195895618461e-02,-2.958991113425334107e-02,-3.460515030955052529e-02,-3.962038948484770950e-02,-4.463562866014487984e-02,-4.965086783544207794e-02,-5.466610701073924827e-02,-5.984852082521298355e-02,-6.486376000051016777e-02,-6.987899917580733811e-02,-7.489423835110452232e-02,-7.990947752640170654e-02,-8.492471670169887688e-02,-8.993995587699604721e-02,-9.495519505229323143e-02,-1.001376088667669806e-01,-1.051528480420641509e-01,-1.101680872173613351e-01,-1.151833263926585055e-01,-1.201985655679556897e-01,-1.230405344339574186e-01,-1.230405344339574186e-01,-1.230405344339574186e-01
-1.230405344339574186e-01,-1.230405344339574186e-01,-1.186828488394214287e-01,-1.107364809905616726e-01,-1.030464475884393383e-01,-9.535641418631700394e-02,-8.766638078419466962e-02,-7.997634738207232141e-02,-7.228631397994998709e-02,-6.459628057782765276e-02,-5.690624717570530455e-02,-4.921621377358298410e-02,-4.126984592472322799e-02,-3.357981252260089367e-02,-2.588977912047855934e-02,-1.819974571835622501e-02,-1.050971231623389068e-02,-2.819678914111542478e-03,-1.387778780781445676e-17,-1.387778780781445676e-17,-2.674794226825177867e-03,-7.690033402122348205e-03,-1.270527257741953242e-02,-1.772051175271670276e-02,-2.273575092801388697e-02,-2.775099010331105731e-02,-3.276622927860822765e-02,-3.778146845390541186e-02,-4.279670762920258220e-02,-4.797912144367633136e-02,-5.299436061897351558e-02,-5.800959979427069979e-02,-6.302483896956787013e-02,-6.804007814486504047e-02,-7.305531732016222468e-02,-7.807055649545940890e-02,-8.308579567075657923e-02,-8.810103484605374957e-02,-9.328344866052751261e-02,-9.829868783582468295e-02,-1.033139270111218533e-01,-1.083291661864190375e-01,-1.133444053617162078e-01,-1.183596445370133921e-01,-1.230405344339574186e-01,-1.230405344339574186e-01,-1.230405344339574186e-01
-1.230405344339574186e-01,-1.230405344339574186e-01,-1.212461933067955355e-01,-1.135561599046732012e-01,-1.058661265025508669e-01,-9.817609310042851867e-02,-9.048605969830619822e-02,-8.279602629618385001e-02,-7.510599289406151569e-02,-6.741595949193916748e-02,-5.946959164307942525e-02,-5.177955824095709092e-02,-4.408952483883475659e-02,-3.639949143671242227e-02,-2.870945803459007406e-02,-2.101942463246773973e-02,-1.332939123034539153e-02,-5.639357828223043323e-03,-1.387778780781445676e-17,-1.387778780781445676e-17,-8.358731958828663489e-04,-5.851112371180050564e-03,-1.086635154647723478e-02,-1.588159072177440512e-02,-2.089682989707157545e-02,-2.591206907236877355e-02,-3.092730824766594389e-02,-3.594254742296311422e-02,-4.112496123743686338e-02,-4.614020041273404760e-02,-5.115543958803121793e-02,-5.617067876332840215e-02,-6.118591793862556555e-02,-6.620115711392274283e-02,-7.121639628921992704e-02,-7.623163546451709738e-02,-8.141404927899084654e-02,-8.642928845428803075e-02,-9.144452762958520109e-02,-9.645976680488238530e-02,-1.014750059801795556e-01,-1.064902451554767399e-01,-1.115054843307739102e-01,-1.165207235060710944e-01,-1.215359626813682647e-01,-1.230405344339574186e-01,-1.230405344339574186e-01
-1.230405344339574186e-01,-1.230405344339574186e-01,-1.230405344339574186e-01,-1.163758388187847298e-01,-1.086858054166623955e-01,-1.009957720145400473e-01,-9.330573861241771294e-02,-8.561570521029537861e-02,-7.766933736143563638e-02,-6.997930395931328817e-02,-6.228927055719095385e-02,-5.459923715506861952e-02,-4.690920375294628519e-02,-3.921917035082393699e-02,-3.152913694870158878e-02,-2.383910354657926833e-02,-1.614907014445693401e-02,-8.202702295597177895e-03,-5.126688934748296900e-04,0.000000000000000000e+00,-2.775557561562891351e-17,-4.012191340237752923e-03,-9.027430515534923261e-03,-1.404266969083210748e-02,-1.905790886612927781e-02,-2.407314804142646203e-02,-2.925556185590021119e-02,-3.427080103119738153e-02,-3.928604020649456574e-02,-4.430127938179172220e-02,-4.931651855708892029e-02,-5.433175773238609063e-02,-5.934699690768326097e-02,-6.436223608298044518e-02,-6.937747525827762940e-02,-7.455988907275137856e-02,-7.957512824804854890e-02,-8.459036742334573311e-02,-8.960560659864290345e-02,-9.462084577394008766e-02,-9.963608494923725800e-02,-1.046513241245344283e-01,-1.096665632998316126e-01,-1.146818024751287968e-01,-1.198642162896025459e-01,-1.230405344339574186e-01,-1.230405344339574186e-01
-1.230405344339574186e-01,-1.230405344339574186e-01,-1.230405344339574186e-01,-1.191955177328962445e-01,-1.115054843307739102e-01,-1.038154509286515759e-01,-9.612541752652922766e-02,-8.817904967766948543e-02,-8.048901627554715110e-02,-7.279898287342481678e-02,-6.510894947130246857e-02,-5.741891606918013424e-02,-4.972888266705779992e-02,-4.203884926493547947e-02,-3.434881586281313126e-02,-2.665878246069078306e-02,-1.871241461183104082e-02,-1.102238120970867874e-02,-3.332347807586358290e-03,0.000000000000000000e+00,-1.387778780781445676e-17,-2.173270309295469160e-03,-7.188509484592625620e-03,-1.220374865988980984e-02,-1.721898783518699405e-02,-2.240140164966072933e-02,-2.741664082495791355e-02,-3.243188000025508388e-02,-3.744711917555225422e-02,-4.246235835084942456e-02,-4.747759752614662265e-02,-5.249283670144379299e-02,-5.750807587674097721e-02,-6.269048969121471249e-02,-6.770572886651191058e-02,-7.272096804180908092e-02,-7.773620721710625125e-02,-8.275144639240342159e-02,-8.776668556770060581e-02,-9.278192474299779002e-02,-9.779716391829496036e-02,-1.028124030935921307e-01,-1.079948169080658937e-01,-1.130100560833630641e-01,-1.180252952586602483e-01,-1.230405344339574186e-01,-1.230405344339574186e-01
-1.230405344339574186e-01,-1.230405344339574186e-01,-1.230405344339574186e-01,-1.220151966470077731e-01,-1.143251632448854388e-01,-1.063787953960256827e-01,-9.868876199390334836e-02,-9.099872859178101403e-02,-8.330869518965866583e-02,-7.561866178753633150e-02,-6.792862838541399717e-02,-6.023859498329164897e-02,-5.254856158116931464e-02,-4.485852817904698031e-02,-3.691216033018723808e-02,-2.922212692806490375e-02,-2.153209352594255555e-02,-1.384206012382023510e-02,-6.152026721697886891e-03,-1.387778780781445676e-17,-1.387778780781445676e-17,-3.343492783531715196e-04,-5.349588453650327979e-03,-1.053200226812406326e-02,-1.554724144342127523e-02,-2.056248061871844557e-02,-2.557771979401561591e-02,-3.059295896931278624e-02,-3.560819814460997046e-02,-4.062343731990714080e-02,-4.563867649520432501e-02,-5.065391567050149535e-02,-5.583632948497525839e-02,-6.085156866027242178e-02,-6.586680783556959906e-02,-7.088204701086678328e-02,-7.589728618616395361e-02,-8.091252536146112395e-02,-8.592776453675830817e-02,-9.094300371205549238e-02,-9.595824288735266272e-02,-1.011406567018264119e-01,-1.061558958771235961e-01,-1.111711350524207664e-01,-1.161863742277179368e-01,-1.212016134030151210e-01,-1.230405344339574186e-01
-1.230405344339574186e-01,-1.230405344339574186e-01,-1.230405344339574186e-01,-1.230405344339574186e-01,-1.168885077122595456e-01,-1.091984743101372113e-01,-1.015084409080148770e-01,-9.381840750589254263e-02,-8.612837410377019443e-02,-7.843834070164786010e-02,-7.074830729952552577e-02,-6.305827389740317757e-02,-5.511190604854343533e-02,-4.742187264642110101e-02,-3.973183924429875280e-02,-3.204180584217641847e-02,-2.435177244005408415e-02,-1.666173903793174982e-02,-8.971705635809401613e-03,-1.281672233687067286e-03,0.000000000000000000e+00,-1.387778780781445676e-17,-3.677842061884609159e-03,-8.693081237181779497e-03,-1.370832041247896371e-02,-1.872355958777614793e-02,-2.373879876307331827e-02,-2.875403793837048860e-02,-3.376927711366765894e-02,-3.878451628896484316e-02,-4.396693010343859231e-02,-4.898216927873576265e-02,-5.399740845403294687e-02,-5.901264762933013108e-02,-6.402788680462728754e-02,-6.904312597992448564e-02,-7.405836515522165597e-02,-7.907360433051884019e-02,-8.408884350581601053e-02,-8.927125732028975968e-02,-9.428649649558694390e-02,-9.930173567088411424e-02,-1.043169748461812985e-01,-1.093322140214784688e-01,-1.143474531967756391e-01,-1.193626923720728233e-01,-1.230405344339574186e-01
-1.230405344339574186e-01,-1.230405344339574186e-01,-1.230405344339574186e-01,-1.230405344339574186e-01,-1.197081866263710742e-01,-1.120181532242487399e-01,-1.043281198221263917e-01,-9.663808642000405735e-02,-8.894805301788172303e-02,-8.125801961575937482e-02,-7.356798621363705437e-02,-6.562161836477729826e-02,-5.793158496265495006e-02,-5.024155156053262961e-02,-4.255151815841029528e-02,-3.486148475628794707e-02,-2.717145135416559887e-02,-1.948141795204327842e-02,-1.179138454992094409e-02,-4.101351147798595886e-03,-1.387778780781445676e-17,-1.387778780781445676e-17,-1.838921030942311519e-03,-6.854160206239481856e-03,-1.186939938153666607e-02,-1.688463855683385029e-02,-2.189987773213102062e-02,-2.691511690742820484e-02,-3.193035608272537518e-02,-3.711276989719912434e-02,-4.212800907249629467e-02,-4.714324824779346501e-02,-5.215848742309066310e-02,-5.717372659838783344e-02,-6.218896577368500378e-02,-6.720420494898218799e-02,-7.221944412427935833e-02,-7.723468329957652867e-02,-8.241709711405029171e-02,-8.743233628934746204e-02,-9.244757546464463238e-02,-9.746281463994181660e-02,-1.024780538152390008e-01,-1.074932929905361711e-01,-1.125085321658333415e-01,-1.175237713411305257e-01,-1.227061851556042749e-01
-1.230405344339574186e-01,-1.230405344339574186e-01,-1.230405344339574186e-01,-1.230405344339574186e-01,-1.225278655404826028e-01,-1.148378321383602546e-01,-1.071477987362379203e-01,-9.945776533411558595e-02,-9.176773193199325163e-02,-8.382136408313350939e-02,-7.613133068101116119e-02,-6.844129727888881298e-02,-6.075126387676647866e-02,-5.306123047464414433e-02,-4.537119707252182388e-02,-3.768116367039947567e-02,-2.999113026827714135e-02,-2.230109686615479314e-02,-1.435472901729505091e-02,-6.664695615172702703e-03,-1.387778780781445676e-17,-1.387778780781445676e-17,-1.387778780781445676e-17,-5.015239175297184215e-03,-1.003047835059436843e-02,-1.504571752589155265e-02,-2.006095670118873686e-02,-2.524337051566248602e-02,-3.025860969095965636e-02,-3.527384886625682670e-02,-4.028908804155399703e-02,-4.530432721685116737e-02,-5.031956639214835159e-02,-5.533480556744553580e-02,-6.035004474274270614e-02,-6.536528391803987648e-02,-7.054769773251363951e-02,-7.556293690781082373e-02,-8.057817608310799407e-02,-8.559341525840516440e-02,-9.060865443370233474e-02,-9.562389360899951896e-02,-1.006391327842967032e-01,-1.056543719595938735e-01,-1.106696111348910438e-01,-1.158520249493647930e-01,-1.208672641246619772e-01
-1.230405344339574186e-01,-1.230405344339574186e-01,-1.230405344339574186e-01,-1.230405344339574186e-01,-1.230405344339574186e-01,-1.176575110524717832e-01,-1.099674776503494489e-01,-1.022774442482271007e-01,-9.433107639936735844e-02,-8.664104299724502412e-02,-7.895100959512267591e-02,-7.126097619300034158e-02,-6.357094279087799338e-02,-5.588090938875565905e-02,-4.819087598663332472e-02,-4.050084258451099040e-02,-3.281080918238865607e-02,-2.486444133352889996e-02,-1.717440793140657951e-02,-9.484374529284217425e-03,-1.794341127161896976e-03,-1.387778780781445676e-17,-1.387778780781445676e-17,-3.176318144354872697e-03,-8.191557319652056912e-03,-1.320679649494925501e-02,-1.838921030942300416e-02,-2.340444948472017450e-02,-2.841968866001735872e-02,-3.343492783531452905e-02,-3.845016701061169939e-02,-4.346540618590886973e-02,-4.848064536120606782e-02,-5.349588453650323816e-02,-5.851112371180040850e-02,-6.369353752627415766e-02,-6.870877670157134187e-02,-7.372401587686851221e-02,-7.873925505216569642e-02,-8.375449422746286676e-02,-8.876973340276003710e-02,-9.378497257805722132e-02,-9.880021175335440553e-02,-1.039826255678281408e-01,-1.089978647431253250e-01,-1.140131039184224954e-01,-1.190283430937196796e-01
-1.230405344339574186e-01,-1.230405344339574186e-01,-1.230405344339574186e-01,-1.230405344339574186e-01,-1.230405344339574186e-01,-1.204771899665833118e-01,-1.125308221177235557e-01,-1.048407887156012214e-01,-9.715075531347888704e-02,-8.946072191135653884e-02,-8.177068850923420451e-02,-7.408065510711187018e-02,-6.639062170498952198e-02,-5.870058830286718765e-02,-5.101055490074485332e-02,-4.306418705188511109e-02,-3.537415364976276289e-02,-2.768412024764042856e-02,-1.999408684551809423e-02,-1.230405344339575990e-02,-4.614020041273411699e-03,-1.387778780781445676e-17,-1.387778780781445676e-17,-1.337397113412588934e-03,-6.519810927886338092e-03,-1.153505010318352231e-02,-1.655028927848070652e-02,-2.156552845377786298e-02,-2.658076762907504720e-02,-3.159600680437223141e-02,-3.661124597966941563e-02,-4.162648515496657209e-02,-4.664172433026375630e-02,-5.182413814473750546e-02,-5.683937732003467580e-02,-6.185461649533186002e-02,-6.686985567062903035e-02,-7.188509484592621457e-02,-7.690033402122339878e-02,-8.191557319652056912e-02,-8.693081237181773946e-02,-9.194605154711492367e-02,-9.712846536158867283e-02,-1.021437045368858432e-01,-1.071589437121830274e-01,-1.121741828874801977e-01,-1.171894220627773819e-01
-1.230405344339574186e-01,-1.230405344339574186e-01,-1.230405344339574186e-01,-1.230405344339574186e-01,-1.230405344339574186e-01,-1.230405344339574186e-01,-1.153505010318350843e-01,-1.076604676297127361e-01,-9.997043422759040177e-02,-9.228040082546806744e-02,-8.459036742334573311e-02,-7.690033402122339878e-02,-6.921030061910105058e-02,-6.152026721697871625e-02,-5.357389936811896014e-02,-4.588386596599663969e-02,-3.819383256387429149e-02,-3.050379916175195716e-02,-2.281376575962960895e-02,-1.512373235750727463e-02,-7.433698955384926421e-03,0.000000000000000000e+00,-1.387778780781445676e-17,0.000000000000000000e+00,-4.680889896944054329e-03,-9.696129072241224667e-03,-1.471136824753839500e-02,-1.972660742283556534e-02,-2.474184659813274956e-02,-2.975708577342993377e-02,-3.477232494872710411e-02,-3.995473876320083939e-02,-4.496997793849803748e-02,-4.998521711379520782e-02,-5.500045628909237816e-02,-6.001569546438956237e-02,-6.503093463968673271e-02,-7.004617381498391693e-02,-7.506141299028110114e-02,-8.007665216557827148e-02,-3.119845701753527489e-01,-3.169998093506499193e-01,-3.220150485259470896e-01,-1.003047835059435455e-01,-1.053200226812407297e-01,-1.103352618565379001e-01,-1.153505010318350843e-01
-1.230405344339574186e-01,-1.230405344339574186e-01,-1.230405344339574186e-01,-1.230405344339574186e-01,-1.230405344339574186e-01,-1.230405344339574186e-01,-1.181701799459465990e-01,-1.104801465438242647e-01,-1.027901131417019304e-01,-9.510007973957959604e-02,-8.741004633745724783e-02,-7.972001293533491351e-02,-7.177364508647515740e-02,-6.408361168435282307e-02,-5.639357828223048874e-02,-4.870354488010815441e-02,-4.101351147798582009e-02,-3.332347807586347188e-02,-2.563344467374113755e-02,-1.794341127161881710e-02,-1.025337786949645502e-02,-2.307010020636712788e-03,-1.387778780781445676e-17,-2.775557561562891351e-17,-2.841968866001742811e-03,-7.857208041298927026e-03,-1.287244721659609736e-02,-1.788768639189328158e-02,-2.290292556719045192e-02,-2.791816474248763613e-02,-3.310057855696137141e-02,-3.811581773225855563e-02,-4.313105690755573984e-02,-4.814629608285291018e-02,-5.316153525815009440e-02,-5.817677443344726473e-02,-6.319201360874443507e-02,-6.820725278404161929e-02,-7.322249195933880350e-02,-7.840490577381253878e-02,-3.101456491444104513e-01,-3.151608883197076216e-01,-3.201761274950047920e-01,-9.846586247500124789e-02,-1.034811016502984321e-01,-1.084963408255956024e-01,-1.135115800008927867e-01
-1.230405344339574186e-01,-1.230405344339574186e-01,-1.230405344339574186e-01,-1.230405344339574186e-01,-1.230405344339574186e-01,-1.230405344339574186e-01,-1.209898588600581276e-01,-1.132998254579357933e-01,-1.056097920558134451e-01,-9.791975865369111076e-02,-9.022972525156877643e-02,-8.228335740270903420e-02,-7.459332400058668600e-02,-6.690329059846433779e-02,-5.921325719634200346e-02,-5.152322379421968301e-02,-4.383319039209734869e-02,-3.614315698997500048e-02,-2.845312358785266615e-02,-2.050675573899292392e-02,-1.281672233687057572e-02,-5.126688934748227511e-03,-1.387778780781445676e-17,-1.387778780781445676e-17,-1.003047835059445170e-03,-6.018287010356615507e-03,-1.103352618565379972e-02,-1.604876536095099782e-02,-2.123117917542471922e-02,-2.624641835072190343e-02,-3.126165752601908765e-02,-3.627689670131624411e-02,-4.129213587661344220e-02,-4.630737505191061254e-02,-5.132261422720778288e-02,-5.633785340250496709e-02,-6.135309257780213743e-02,-6.653550639227588659e-02,-7.155074556757307080e-02,-7.656598474287024114e-02,-3.083067281134681537e-01,-3.133219672887653240e-01,-3.183372064640624943e-01,-9.662694144405895025e-02,-1.036482762894749970e-01,-1.138250324493488563e-01,-1.205903811285257698e-01
-1.230405344339574186e-01,-1.230405344339574186e-01,-1.230405344339574186e-01,-1.230405344339574186e-01,-1.230405344339574186e-01,-1.230405344339574186e-01,-1.230405344339574186e-01,-1.161195043720473219e-01,-1.084294709699249737e-01,-1.004831031210652315e-01,-9.279306971894288325e-02,-8.510303631682056280e-02,-7.741300291469821460e-02,-6.972296951257588027e-02,-6.203293611045353206e-02,-5.434290270833121161e-02,-4.665286930620886341e-02,-3.896283590408652908e-02,-3.101646805522678685e-02,-2.332643465310443864e-02,-1.563640125098210432e-02,-7.946367848859742233e-03,-2.563344467374217839e-04,-1.387778780781445676e-17,-1.387778780781445676e-17,-4.179365979414331744e-03,-9.194605154711502082e-03,-1.437701896918526512e-02,-1.939225814448243546e-02,-2.440749731977960579e-02,-2.942273649507679001e-02,-3.443797567037396035e-02,-3.945321484567114456e-02,-4.446845402096831490e-02,-4.948369319626548524e-02,-5.449893237156268333e-02,-5.968134618603641861e-02,-6.469658536133358895e-02,-6.971182453663077316e-02,-7.472706371192794350e-02,-7.974230288722514159e-02,-8.595388557412965425e-02,-1.022481886863711997e-01,-1.150945148655959510e-01,-1.230405344339574186e-01,-1.230405344339574186e-01,-1.230405344339574186e-01
-1.230405344339574186e-01,-1.230405344339574186e-01,-1.230405344339574186e-01,-1.230405344339574186e-01,-1.230405344339574186e-01,-1.230405344339574186e-01,-1.230405344339574186e-01,-1.189391832861588366e-01,-1.109928154372990944e-01,-1.033027820351767601e-01,-9.561274863305441185e-02,-8.792271523093207752e-02,-8.023268182880974320e-02,-7.254264842668739499e-02,-6.485261502456506066e-02,-5.716258162244272634e-02,-4.921621377358298410e-02,-4.152618037146063590e-02,-3.383614696933830157e-02,-2.614611356721595337e-02,-1.845608016509363292e-02,-1.076604676297128471e-02,-3.076013360848950384e-03,-1.387778780781445676e-17,-1.387778780781445676e-17,-2.507619587648599047e-03,-7.522858762945769384e-03,-1.253809793824295360e-02,-1.755333711354013781e-02,-2.256857628883730815e-02,-2.758381546413447849e-02,-3.259905463943164883e-02,-3.761429381472884692e-02,-4.262953299002600338e-02,-4.781194680449976642e-02,-5.282718597979695063e-02,-5.784242515509412097e-02,-6.285766433039129131e-02,-6.787290350568847552e-02,-8.699350286150896172e-02,-1.061141022173294479e-01,-1.217867246401331260e-01,-1.230405344339574186e-01,-1.230405344339574186e-01,-1.230405344339574186e-01,-1.230405344339574186e-01,-1.230405344339574186e-01
-1.230405344339574186e-01,-1.230405344339574186e-01,-1.230405344339574186e-01,-1.230405344339574186e-01,-1.230405344339574186e-01,-1.230405344339574186e-01,-1.230405344339574186e-01,-1.215025277535329573e-01,-1.138124943514106091e-01,-1.061224609492882748e-01,-9.843242754716594045e-02,-9.074239414504359225e-02,-8.305236074292125792e-02,-7.536232734079892359e-02,-6.767229393867657539e-02,-5.972592608981683315e-02,-5.203589268769451270e-02,-4.434585928557216450e-02,-3.665582588344983017e-02,-2.896579248132748197e-02,-2.127575907920516152e-02,-1.358572567708279943e-02,-5.895692274960451229e-03,-1.387778780781445676e-17,-1.387778780781445676e-17,-6.686985567063014058e-04,-5.683937732003471743e-03,-1.069917690730065596e-02,-1.571441608259782630e-02,-2.072965525789501051e-02,-2.574489443319218085e-02,-3.076013360848936506e-02,-3.594254742296311422e-02,-4.095778659826028456e-02,-4.597302577355746878e-02,-5.098826494885465299e-02,-7.066785450442179817e-02,-9.590600081260998444e-02,-1.176961701877813626e-01,-1.230405344339574186e-01,-1.230405344339574186e-01,-1.230405344339574186e-01,-1.230405344339574186e-01,-1.230405344339574186e-01,-1.230405344339574186e-01,-1.230405344339574186e-01,-1.230405344339574186e-01
-1.230405344339574186e-01,-1.230405344339574186e-01,-1.230405344339574186e-01,-1.230405344339574186e-01,-1.230405344339574186e-01,-1.230405344339574186e-01,-1.230405344339574186e-01,-1.230405344339574186e-01,-1.166321732655221377e-01,-1.089421398633998034e-01,-1.012521064612774691e-01,-9.356207305915512085e-02,-8.587203965703278652e-02,-7.792567180817304429e-02,-7.023563840605069608e-02,-6.254560500392836175e-02,-5.485557160180602743e-02,-4.716553819968369310e-02,-3.947550479756134489e-02,-3.178547139543901057e-02,-2.409543799331667624e-02,-1.640540459119434191e-02,-8.459036742334571923e-03,-7.690033402122514739e-04,-1.387778780781445676e-17,-1.387778780781445676e-17,-3.845016701061174103e-03,-8.860255876358358318e-03,-1.387549505165554253e-02,-1.889073422695271287e-02,-2.390597340224989709e-02,-2.908838721672364624e-02,-3.410362639202081658e-02,-5.223162632773040159e-02,-8.112149366043185095e-02,-1.091859362121989641e-01,-1.230405344339574186e-01,-1.230405344339574186e-01,-1.230405344339574186e-01,-1.230405344339574186e-01,-1.230405344339574186e-01,-1.230405344339574186e-01,-1.230405344339574186e-01,-1.230405344339574186e-01,-1.230405344339574186e-01,-1.230405344339574186e-01,-1.230405344339574186e-01
-1.230405344339574186e-01,-1.230405344339574186e-01,-1.230405344339574186e-01,-1.230405344339574186e-01,-1.230405344339574186e-01,-1.230405344339574186e-01,-1.230405344339574186e-01,-1.230405344339574186e-01,-1.194518521796336663e-01,-1.117618187775113181e-01,-1.040717853753889838e-01,-9.638175197326664945e-02,-8.843538412440690721e-02,-8.074535072228455901e-02,-7.305531732016222468e-02,-6.536528391803987648e-02,-5.767525051591754215e-02,-4.998521711379523558e-02,-4.229518371167287349e-02,-3.460515030955053917e-02,-2.665878246069078306e-02,-1.896874905856844873e-02,-1.127871565644610052e-02,-3.588682254323780074e-03,-2.775557561562891351e-17,0.000000000000000000e+00,-2.006095670118876462e-03,-7.021334845416046799e-03,-1.203657402071323101e-02,-1.721898783518698017e-02,-2.853462122445123150e-02,-6.616458766160288052e-02,-1.003465771657376937e-01,-1.230405344339574186e-01,-1.230405344339574186e-01,-1.230405344339574186e-01,-1.230405344339574186e-01,-1.230405344339574186e-01,-1.230405344339574186e-01,-1.230405344339574186e-01,-1.230405344339574186e-01,-1.230405344339574186e-01,-1.230405344339574186e-01,-1.230405344339574186e-01,-1.230405344339574186e-01,-1.230405344339574186e-01,-1.230405344339574186e-01
-1.230405344339574186e-01,-1.230405344339574186e-01,-1.230405344339574186e-01,-1.230405344339574186e-01,-1.230405344339574186e-01,-1.230405344339574186e-01,-1.230405344339574186e-01,-1.230405344339574186e-01,-1.222715310937451810e-01,-1.145814976916228467e-01,-1.066351298427631045e-01,-9.894509644064075626e-02,-9.125506303851842194e-02,-8.356502963639608761e-02,-7.587499623427373940e-02,-6.818496283215140508e-02,-6.049492943002907075e-02,-5.280489602790673642e-02,-4.511486262578440209e-02,-3.716849477692464598e-02,-2.947846137480232553e-02,-2.178842797267997733e-02,-1.409839457055764300e-02,-6.408361168435280919e-03,-1.387778780781445676e-17,-1.387778780781445676e-17,-1.671746391765788209e-04,-5.182413814473749158e-03,-4.909710184316966319e-02,-8.939663829967219033e-02,-1.230405344339574186e-01,-1.230405344339574186e-01,-1.230405344339574186e-01,-1.230405344339574186e-01,-1.230405344339574186e-01,-1.230405344339574186e-01,-1.230405344339574186e-01,-1.230405344339574186e-01,-1.230405344339574186e-01,-1.230405344339574186e-01,-1.230405344339574186e-01,-1.230405344339574186e-01,-1.230405344339574186e-01,-1.230405344339574186e-01,-1.230405344339574186e-01,-1.230405344339574186e-01,-1.230405344339574186e-01
