-2.586841029357397348e-01,-2.586841029357397348e-01,-2.586841029357397348e-01,-2.586841029357397348e-01,-2.586841029357397348e-01,-2.586841029357397348e-01,-2.586841029357397348e-01,-2.586841029357397348e-01,-2.586841029357397348e-01,-2.586841029357397348e-01,-2.586841029357397348e-01,-2.586841029357397348e-01,-2.586841029357397348e-01,-2.586841029357397348e-01,-2.586841029357397348e-01,-2.586841029357397348e-01,-2.586841029357397348e-01,-2.586841029357397348e-01,-2.586841029357397348e-01,-2.586841029357397348e-01,-2.586841029357397348e-01,-2.586841029357397348e-01,-2.586841029357397348e-01,-2.586841029357397348e-01,-2.586841029357397348e-01,-2.586841029357397348e-01,-2.586841029357397348e-01,-2.586841029357397348e-01,-2.586841029357397348e-01,-2.586841029357397348e-01,-2.586841029357397348e-01,-2.586841029357397348e-01,-2.586841029357397348e-01,-2.586841029357397348e-01,-2.586841029357397348e-01,-2.586841029357397348e-01,-2.586841029357397348e-01,-2.586841029357397348e-01,-2.586841029357397348e-01,-2.586841029357397348e-01,-2.586841029357397348e-01,-2.586841029357397348e-01,-2.586841029357397348e-01,-2.586841029357397348e-01,-2.586841029357397348e-01,-2.586841029357397348e-01,-2.586841029357397348e-01
-2.586841029357397348e-01,-2.586841029357397348e-01,-2.586841029357397348e-01,-2.586841029357397348e-01,-2.586841029357397348e-01,-2.586841029357397348e-01,-2.586841029357397348e-01,-2.586841029357397348e-01,-2.586841029357397348e-01,-2.586841029357397348e-01,-2.586841029357397348e-01,-2.586841029357397348e-01,-2.586841029357397348e-01,-2.586841029357397348e-01,-2.586841029357397348e-01,-2.586841029357397348e-01,-2.586841029357397348e-01,-2.586841029357397348e-01,-2.586841029357397348e-01,-2.586841029357397348e-01,-2.586841029357397348e-01,-2.586841029357397348e-01,-2.586841029357397348e-01,-2.586841029357397348e-01,-2.586841029357397348e-01,-2.586841029357397348e-01,-2.586841029357397348e-01,-2.586841029357397348e-01,-2.586841029357397348e-01,-2.586841029357397348e-01,-2.586841029357397348e-01,-2.586841029357397348e-01,-2.586841029357397348e-01,-2.586841029357397348e-01,-2.586841029357397348e-01,-2.586841029357397348e-01,-2.586841029357397348e-01,-2.586841029357397348e-01,-2.586841029357397348e-01,-2.586841029357397348e-01,-2.586841029357397348e-01,-2.586841029357397348e-01,-2.586841029357397348e-01,-2.586841029357397348e-01,-2.586841029357397348e-01,-2.586841029357397348e-01,-2.586841029357397348e-01
-2.586841029357397348e-01,-2.586841029357397348e-01,-2.586841029357397348e-01,-2.586841029357397348e-01,-2.586841029357397348e-01,-2.586841029357397348e-01,-2.586841029357397348e-01,-2.586841029357397348e-01,-2.586841029357397348e-01,-2.586841029357397348e-01,-2.586841029357397348e-01,-2.586841029357397348e-01,-2.586841029357397348e-01,-2.586841029357397348e-01,-2.586841029357397348e-01,-2.586841029357397348e-01,-2.586841029357397348e-01,-2.586841029357397348e-01,-2.586841029357397348e-01,-2.586841029357397348e-01,-2.586841029357397348e-01,-2.586841029357397348e-01,-2.586841029357397348e-01,-2.586841029357397348e-01,-2.586841029357397348e-01,-2.586841029357397348e-01,-2.586841029357397348e-01,-2.586841029357397348e-01,-2.586841029357397348e-01,-2.586841029357397348e-01,-2.586841029357397348e-01,-2.586841029357397348e-01,-2.586841029357397348e-01,-2.586841029357397348e-01,-2.586841029357397348e-01,-2.586841029357397348e-01,-2.586841029357397348e-01,-2.586841029357397348e-01,-2.586841029357397348e-01,-2.586841029357397348e-01,-2.586841029357397348e-01,-2.586841029357397348e-01,-2.586841029357397348e-01,-2.586841029357397348e-01,-2.586841029357397348e-01,-2.586841029357397348e-01,-2.586841029357397348e-01
-2.586841029357397348e-01,-2.586841029357397348e-01,-3.341206374106185373e-01,-3.341206374106185373e-01,-3.341206374106185373e-01,-2.586841029357397348e-01,-2.586841029357397348e-01,-2.586841029357397348e-01,-2.586841029357397348e-01,-2.586841029357397348e-01,-2.586841029357397348e-01,-2.586841029357397348e-01,-2.586841029357397348e-01,-2.586841029357397348e-01,-2.586841029357397348e-01,-2.586841029357397348e-01,-2.586841029357397348e-01,-2.586841029357397348e-01,-2.586841029357397348e-01,-2.586841029357397348e-01,-2.586841029357397348e-01,-2.586841029357397348e-01,-2.586841029357397348e-01,-2.586841029357397348e-01,-2.586841029357397348e-01,-2.586841029357397348e-01,-2.586841029357397348e-01,-2.586841029357397348e-01,-2.586841029357397348e-01,-2.586841029357397348e-01,-2.586841029357397348e-01,-2.586841029357397348e-01,-2.586841029357397348e-01,-2.586841029357397348e-01,-2.586841029357397348e-01,-2.586841029357397348e-01,-2.586841029357397348e-01,-2.586841029357397348e-01,-2.586841029357397348e-01,-2.586841029357397348e-01,-2.586841029357397348e-01,-2.586841029357397348e-01,-2.586841029357397348e-01,-2.586841029357397348e-01,-2.586841029357397348e-01,-2.586841029357397348e-01,-2.586841029357397348e-01
-2.586841029357397348e-01,-2.586841029357397348e-01,-3.341206374106185373e-01,-3.341206374106185373e-01,-3.341206374106185373e-01,-2.586841029357397348e-01,-2.586841029357397348e-01,-2.586841029357397348e-01,-2.586841029357397348e-01,-2.586841029357397348e-01,-2.586841029357397348e-01,-2.586841029357397348e-01,-2.586841029357397348e-01,-2.586841029357397348e-01,-2.586841029357397348e-01,-2.586841029357397348e-01,-2.586841029357397348e-01,-2.586841029357397348e-01,-2.586841029357397348e-01,-2.586841029357397348e-01,-2.586841029357397348e-01,-2.586841029357397348e-01,-2.586841029357397348e-01,-2.586841029357397348e-01,-2.586841029357397348e-01,-2.586841029357397348e-01,-2.586841029357397348e-01,-2.586841029357397348e-01,-2.586841029357397348e-01,-2.586841029357397348e-01,-2.586841029357397348e-01,-2.586841029357397348e-01,-2.586841029357397348e-01,-2.586841029357397348e-01,-2.586841029357397348e-01,-2.586841029357397348e-01,-2.586841029357397348e-01,-2.586841029357397348e-01,-2.586841029357397348e-01,-2.586841029357397348e-01,-2.586841029357397348e-01,-2.586841029357397348e-01,-2.586841029357397348e-01,-2.586841029357397348e-01,-2.586841029357397348e-01,-2.586841029357397348e-01,-2.586841029357397348e-01
-2.586841029357397348e-01,-2.586841029357397348e-01,-3.341206374106185373e-01,-3.341206374106185373e-01,-3.341206374106185373e-01,-2.586841029357397348e-01,-2.586841029357397348e-01,-2.586841029357397348e-01,-2.586841029357397348e-01,-2.586841029357397348e-01,-2.586841029357397348e-01,-2.586841029357397348e-01,-2.586841029357397348e-01,-2.586841029357397348e-01,-2.586841029357397348e-01,-2.586841029357397348e-01,-2.586841029357397348e-01,-2.586841029357397348e-01,-2.586841029357397348e-01,-2.586841029357397348e-01,-2.586841029357397348e-01,-2.586841029357397348e-01,-2.586841029357397348e-01,-2.586841029357397348e-01,-2.586841029357397348e-01,-2.586841029357397348e-01,-2.586841029357397348e-01,-2.586841029357397348e-01,-2.586841029357397348e-01,-2.586841029357397348e-01,-2.586841029357397348e-01,-2.586841029357397348e-01,-2.586841029357397348e-01,-2.586841029357397348e-01,-2.586841029357397348e-01,-2.586841029357397348e-01,-2.586841029357397348e-01,-2.586841029357397348e-01,-2.586841029357397348e-01,-2.586841029357397348e-01,-2.586841029357397348e-01,-2.586841029357397348e-01,-2.586841029357397348e-01,-2.586841029357397348e-01,-2.586841029357397348e-01,-2.586841029357397348e-01,-2.586841029357397348e-01
-2.586841029357397348e-01,-2.586841029357397348e-01,-2.586841029357397348e-01,-2.586841029357397348e-01,-2.586841029357397348e-01,-2.586841029357397348e-01,-2.586841029357397348e-01,-2.586841029357397348e-01,-2.586841029357397348e-01,-2.586841029357397348e-01,-2.586841029357397348e-01,-2.586841029357397348e-01,-2.586841029357397348e-01,-2.586841029357397348e-01,-2.586841029357397348e-01,-2.586841029357397348e-01,-2.586841029357397348e-01,-2.586841029357397348e-01,-2.586841029357397348e-01,-2.586841029357397348e-01,-2.586841029357397348e-01,-2.586841029357397348e-01,-2.586841029357397348e-01,-2.586841029357397348e-01,-2.586841029357397348e-01,-2.586841029357397348e-01,-2.586841029357397348e-01,-2.586841029357397348e-01,-2.586841029357397348e-01,-2.586841029357397348e-01,-2.586841029357397348e-01,-2.586841029357397348e-01,-2.586841029357397348e-01,-2.586841029357397348e-01,-2.586841029357397348e-01,-2.586841029357397348e-01,-2.586841029357397348e-01,-2.586841029357397348e-01,-2.586841029357397348e-01,-2.586841029357397348e-01,-2.586841029357397348e-01,-2.586841029357397348e-01,-2.586841029357397348e-01,-2.586841029357397348e-01,-2.586841029357397348e-01,-2.586841029357397348e-01,-2.586841029357397348e-01
-2.586841029357397348e-01,-2.586841029357397348e-01,-2.586841029357397348e-01,-2.586841029357397348e-01,-2.586841029357397348e-01,-2.586841029357397348e-01,-2.586841029357397348e-01,-2.586841029357397348e-01,-2.586841029357397348e-01,-2.586841029357397348e-01,-2.586841029357397348e-01,-2.586841029357397348e-01,-2.586841029357397348e-01,-2.586841029357397348e-01,-2.586841029357397348e-01,-2.586841029357397348e-01,-2.586841029357397348e-01,-2.586841029357397348e-01,-2.586841029357397348e-01,-2.586841029357397348e-01,-2.586841029357397348e-01,-2.586841029357397348e-01,-2.586841029357397348e-01,-2.586841029357397348e-01,-2.586841029357397348e-01,-2.586841029357397348e-01,-2.586841029357397348e-01,-2.586841029357397348e-01,-2.586841029357397348e-01,-2.586841029357397348e-01,-2.586841029357397348e-01,-2.586841029357397348e-01,-2.586841029357397348e-01,-2.586841029357397348e-01,-2.586841029357397348e-01,-2.586841029357397348e-01,-2.586841029357397348e-01,-2.586841029357397348e-01,-2.586841029357397348e-01,-2.586841029357397348e-01,-2.586841029357397348e-01,-2.586841029357397348e-01,-2.586841029357397348e-01,-2.586841029357397348e-01,-2.586841029357397348e-01,-2.586841029357397348e-01,-2.586841029357397348e-01
-2.586841029357397348e-01,-2.586841029357397348e-01,-2.586841029357397348e-01,-2.586841029357397348e-01,-2.586841029357397348e-01,-2.586841029357397348e-01,-2.586841029357397348e-01,-2.586841029357397348e-01,-2.586841029357397348e-01,-2.586841029357397348e-01,-2.586841029357397348e-01,-2.586841029357397348e-01,-2.586841029357397348e-01,-2.586841029357397348e-01,-2.586841029357397348e-01,-2.586841029357397348e-01,-2.586841029357397348e-01,-2.586841029357397348e-01,-2.586841029357397348e-01,-2.586841029357397348e-01,-2.586841029357397348e-01,-2.586841029357397348e-01,-2.586841029357397348e-01,-2.586841029357397348e-01,-2.586841029357397348e-01,-2.586841029357397348e-01,-2.586841029357397348e-01,-2.586841029357397348e-01,-2.586841029357397348e-01,-2.586841029357397348e-01,-2.586841029357397348e-01,-2.586841029357397348e-01,-2.586841029357397348e-01,-2.586841029357397348e-01,-2.586841029357397348e-01,-2.586841029357397348e-01,-2.586841029357397348e-01,-2.586841029357397348e-01,-2.586841029357397348e-01,-2.586841029357397348e-01,-2.586841029357397348e-01,-2.586841029357397348e-01,-2.586841029357397348e-01,-2.586841029357397348e-01,-2.586841029357397348e-01,-2.586841029357397348e-01,-2.586841029357397348e-01
-2.586841029357397348e-01,-2.586841029357397348e-01,-2.586841029357397348e-01,-2.586841029357397348e-01,-2.586841029357397348e-01,-2.586841029357397348e-01,-2.586841029357397348e-01,-2.586841029357397348e-01,-2.586841029357397348e-01,-2.586841029357397348e-01,-2.586841029357397348e-01,-2.586841029357397348e-01,-2.586841029357397348e-01,-2.586841029357397348e-01,-2.586841029357397348e-01,-2.586841029357397348e-01,-2.586841029357397348e-01,-2.586841029357397348e-01,-2.586841029357397348e-01,-2.586841029357397348e-01,-2.586841029357397348e-01,-2.586841029357397348e-01,-2.586841029357397348e-01,-2.586841029357397348e-01,-2.586841029357397348e-01,-2.586841029357397348e-01,-2.586841029357397348e-01,-2.586841029357397348e-01,-2.586841029357397348e-01,-2.586841029357397348e-01,-2.586841029357397348e-01,-2.586841029357397348e-01,-2.586841029357397348e-01,-2.586841029357397348e-01,-2.586841029357397348e-01,-2.586841029357397348e-01,-2.586841029357397348e-01,-2.586841029357397348e-01,-2.586841029357397348e-01,-2.586841029357397348e-01,-2.586841029357397348e-01,-2.586841029357397348e-01,-2.586841029357397348e-01,-2.586841029357397348e-01,-2.586841029357397348e-01,-2.586841029357397348e-01,-2.586841029357397348e-01
-2.586841029357397348e-01,-2.586841029357397348e-01,-2.586841029357397348e-01,-2.586841029357397348e-01,-2.586841029357397348e-01,-2.586841029357397348e-01,-2.586841029357397348e-01,-2.586841029357397348e-01,-2.586841029357397348e-01,-2.586841029357397348e-01,-2.586841029357397348e-01,-2.586841029357397348e-01,-2.586841029357397348e-01,-2.586841029357397348e-01,-2.586841029357397348e-01,-2.586841029357397348e-01,-2.586841029357397348e-01,-2.586841029357397348e-01,-2.586841029357397348e-01,-2.586841029357397348e-01,-2.586841029357397348e-01,-2.586841029357397348e-01,-2.586841029357397348e-01,-2.586841029357397348e-01,-2.586841029357397348e-01,-2.586841029357397348e-01,-2.586841029357397348e-01,-2.586841029357397348e-01,-2.586841029357397348e-01,-2.586841029357397348e-01,-2.586841029357397348e-01,-2.586841029357397348e-01,-2.586841029357397348e-01,-2.586841029357397348e-01,-2.586841029357397348e-01,-2.586841029357397348e-01,-2.586841029357397348e-01,-2.586841029357397348e-01,-2.586841029357397348e-01,-2.586841029357397348e-01,-2.586841029357397348e-01,-2.586841029357397348e-01,-2.586841029357397348e-01,-2.586841029357397348e-01,-2.586841029357397348e-01,-2.586841029357397348e-01,-2.586841029357397348e-01
-2.586841029357397348e-01,-2.500228048463734587e-01,-2.494453849737490181e-01,-2.517550644642467250e-01,-2.534873240821199913e-01,-2.557970035726176428e-01,-2.581066830631152942e-01,-2.586841029357397348e-01,-2.586841029357397348e-01,-2.586841029357397348e-01,-2.586841029357397348e-01,-2.586841029357397348e-01,-2.586841029357397348e-01,-2.586841029357397348e-01,-2.586841029357397348e-01,-2.586841029357397348e-01,-2.586841029357397348e-01,-2.586841029357397348e-01,-2.586841029357397348e-01,-2.586841029357397348e-01,-2.586841029357397348e-01,-2.586841029357397348e-01,-2.586841029357397348e-01,-2.586841029357397348e-01,-2.586841029357397348e-01,-2.586841029357397348e-01,-2.586841029357397348e-01,-2.586841029357397348e-01,-2.586841029357397348e-01,-2.586841029357397348e-01,-2.586841029357397348e-01,-2.586841029357397348e-01,-2.586841029357397348e-01,-2.586841029357397348e-01,-2.586841029357397348e-01,-2.586841029357397348e-01,-2.586841029357397348e-01,-2.586841029357397348e-01,-2.586841029357397348e-01,-2.586841029357397348e-01,-2.586841029357397348e-01,-2.586841029357397348e-01,-2.586841029357397348e-01,-2.586841029357397348e-01,-2.586841029357397348e-01,-2.586841029357397348e-01,-2.586841029357397348e-01
-2.586841029357397348e-01,-2.324114987313286584e-01,-2.309679490497676402e-01,-2.332776285402652916e-01,-2.350098881581385579e-01,-2.373195676486362371e-01,-2.396292471391339163e-01,-2.419389266296315955e-01,-2.436711862475048340e-01,-2.459808657380025132e-01,-2.482905452285001924e-01,-2.500228048463734587e-01,-2.523324843368711101e-01,-2.546421638273688171e-01,-2.563744234452420834e-01,-2.586841029357397348e-01,-2.586841029357397348e-01,-2.586841029357397348e-01,-2.586841029357397348e-01,-2.586841029357397348e-01,-2.586841029357397348e-01,-2.586841029357397348e-01,-2.586841029357397348e-01,-2.586841029357397348e-01,-2.586841029357397348e-01,-2.586841029357397348e-01,-2.586841029357397348e-01,-2.586841029357397348e-01,-2.586841029357397348e-01,-2.586841029357397348e-01,-2.586841029357397348e-01,-2.586841029357397348e-01,-2.586841029357397348e-01,-2.586841029357397348e-01,-2.586841029357397348e-01,-2.586841029357397348e-01,-2.586841029357397348e-01,-2.586841029357397348e-01,-2.586841029357397348e-01,-2.586841029357397348e-01,-2.586841029357397348e-01,-2.586841029357397348e-01,-2.586841029357397348e-01,-2.586841029357397348e-01,-2.586841029357397348e-01,-2.586841029357397348e-01,-2.586841029357397348e-01
-2.586841029357397348e-01,-2.107582535079129682e-01,-2.124905131257862068e-01,-2.148001926162838859e-01,-2.171098721067815651e-01,-2.188421317246548314e-01,-2.211518112151525106e-01,-2.234614907056501898e-01,-2.251937503235234284e-01,-2.275034298140211075e-01,-2.298131093045187867e-01,-2.321227887950164659e-01,-2.338550484128897322e-01,-2.361647279033873836e-01,-2.384744073938850906e-01,-2.402066670117583291e-01,-2.425163465022560083e-01,-2.448260259927536875e-01,-2.465582856106269261e-01,-2.488679651011246052e-01,-2.511776445916222844e-01,-2.529099042094955507e-01,-2.552195836999932022e-01,-2.575292631904909091e-01,-2.586841029357397348e-01,-2.586841029357397348e-01,-2.586841029357397348e-01,-2.586841029357397348e-01,-2.586841029357397348e-01,-2.586841029357397348e-01,-2.586841029357397348e-01,-2.586841029357397348e-01,-2.586841029357397348e-01,-2.586841029357397348e-01,-2.586841029357397348e-01,-2.586841029357397348e-01,-2.586841029357397348e-01,-2.586841029357397348e-01,-2.586841029357397348e-01,-2.586841029357397348e-01,-2.586841029357397348e-01,-2.586841029357397348e-01,-2.586841029357397348e-01,-2.586841029357397348e-01,-2.586841029357397348e-01,-2.586841029357397348e-01,-2.586841029357397348e-01
-2.500949823304515207e-01,-1.922808175839315625e-01,-1.940130772018048011e-01,-1.963227566923024803e-01,-1.986324361828001595e-01,-2.009421156732978386e-01,-2.026743752911711050e-01,-2.049840547816687564e-01,-2.072937342721664356e-01,-2.090259938900397019e-01,-2.113356733805373810e-01,-2.136453528710350602e-01,-2.153776124889082988e-01,-2.176872919794059780e-01,-2.199969714699036571e-01,-2.223066509604013363e-01,-2.240389105782746026e-01,-2.263485900687722818e-01,-2.286582695592699610e-01,-2.303905291771431996e-01,-2.327002086676408787e-01,-2.350098881581385579e-01,-2.367421477760118242e-01,-2.390518272665095034e-01,-2.413615067570071826e-01,-2.430937663748804212e-01,-2.454034458653781003e-01,-2.477131253558757795e-01,-2.500228048463734587e-01,-2.517550644642467250e-01,-2.540647439547443764e-01,-2.563744234452420834e-01,-2.581066830631152942e-01,-2.586841029357397348e-01,-2.586841029357397348e-01,-2.586841029357397348e-01,-2.586841029357397348e-01,-2.586841029357397348e-01,-2.586841029357397348e-01,-2.586841029357397348e-01,-2.586841029357397348e-01,-2.586841029357397348e-01,-2.586841029357397348e-01,-2.586841029357397348e-01,-2.586841029357397348e-01,-2.586841029357397348e-01,-2.586841029357397348e-01
-2.396112027681144008e-01,-1.738033816599501569e-01,-1.761130611504478360e-01,-1.778453207683211024e-01,-1.801550002588187538e-01,-1.824646797493164330e-01,-1.841969393671896993e-01,-1.865066188576873785e-01,-1.888162983481850299e-01,-1.911259778386827091e-01,-1.928582374565559754e-01,-1.951679169470536546e-01,-1.974775964375513337e-01,-1.992098560554245723e-01,-2.015195355459222515e-01,-2.038292150364199307e-01,-2.055614746542931970e-01,-2.078711541447908484e-01,-2.101808336352885276e-01,-2.119130932531617939e-01,-2.142227727436594731e-01,-2.165324522341571523e-01,-2.188421317246548314e-01,-2.205743913425280978e-01,-2.228840708330257492e-01,-2.251937503235234284e-01,-2.269260099413966947e-01,-2.292356894318943739e-01,-2.315453689223920530e-01,-2.332776285402652916e-01,-2.355873080307629708e-01,-2.378969875212606500e-01,-2.402066670117583291e-01,-2.419389266296315955e-01,-2.442486061201292746e-01,-2.465582856106269261e-01,-2.482905452285001924e-01,-2.506002247189978438e-01,-2.529099042094955507e-01,-2.546421638273688171e-01,-2.569518433178664685e-01,-2.586841029357397348e-01,-2.586841029357397348e-01,-2.586841029357397348e-01,-2.586841029357397348e-01,-2.586841029357397348e-01,-2.586841029357397348e-01
-2.225592721546745256e-01,-1.553259457359687512e-01,-1.576356252264664026e-01,-1.599453047169641096e-01,-1.616775643348373759e-01,-1.639872438253350273e-01,-1.662969233158327065e-01,-1.680291829337059450e-01,-1.703388624242036520e-01,-1.726485419147013034e-01,-1.743808015325745697e-01,-1.766904810230722489e-01,-1.790001605135699281e-01,-1.813098400040676073e-01,-1.830420996219408458e-01,-1.853517791124385250e-01,-1.876614586029362042e-01,-1.893937182208094705e-01,-1.917033977113071219e-01,-1.940130772018048289e-01,-1.957453368196780674e-01,-1.980550163101757466e-01,-2.003646958006734258e-01,-2.020969554185466643e-01,-2.044066349090443713e-01,-2.067163143995420227e-01,-2.090259938900397019e-01,-2.107582535079129682e-01,-2.130679329984106474e-01,-2.153776124889082988e-01,-2.171098721067815651e-01,-2.194195515972792443e-01,-2.217292310877769235e-01,-2.234614907056501898e-01,-2.257711701961478412e-01,-2.280808496866455481e-01,-2.303905291771431996e-01,-2.321227887950164659e-01,-2.344324682855141451e-01,-2.367421477760118242e-01,-2.384744073938850906e-01,-2.407840868843827420e-01,-2.430937663748804212e-01,-2.448260259927536875e-01,-2.471357054832513667e-01,-2.494453849737490181e-01,-2.511776445916222844e-01
-2.007616719631027113e-01,-1.368485098119873178e-01,-1.391581893024850247e-01,-1.414678687929826761e-01,-1.437775482834803553e-01,-1.455098079013536216e-01,-1.478194873918513008e-01,-1.501291668823489800e-01,-1.518614265002222186e-01,-1.541711059907198977e-01,-1.564807854812175769e-01,-1.582130450990908432e-01,-1.605227245895884947e-01,-1.628324040800862016e-01,-1.645646636979594402e-01,-1.668743431884571193e-01,-1.691840226789547985e-01,-1.714937021694524777e-01,-1.732259617873257440e-01,-1.755356412778233954e-01,-1.778453207683210746e-01,-1.795775803861943409e-01,-1.818872598766920201e-01,-1.841969393671896993e-01,-1.859291989850629379e-01,-1.882388784755606448e-01,-1.905485579660582962e-01,-1.922808175839315625e-01,-1.945904970744292140e-01,-1.969001765649269209e-01,-1.992098560554245723e-01,-2.009421156732978386e-01,-2.032517951637955178e-01,-2.055614746542931970e-01,-2.072937342721664356e-01,-2.096034137626641147e-01,-2.119130932531617939e-01,-2.136453528710350602e-01,-2.159550323615327394e-01,-2.182647118520303908e-01,-2.199969714699036571e-01,-2.223066509604013363e-01,-2.246163304508990155e-01,-2.269260099413966947e-01,-2.286582695592699610e-01,-2.309679490497676402e-01,-2.332776285402652916e-01
-1.787836280613357698e-01,-1.189484937606303527e-01,-1.206807533785036191e-01,-1.229904328690012982e-01,-1.253001123594989774e-01,-1.270323719773722160e-01,-1.293420514678698952e-01,-1.316517309583675743e-01,-1.339614104488652535e-01,-1.356936700667384921e-01,-1.380033495572361713e-01,-1.403130290477338504e-01,-1.420452886656071168e-01,-1.443549681561047682e-01,-1.466646476466024474e-01,-1.483969072644757137e-01,-1.507065867549733928e-01,-1.530162662454710720e-01,-1.547485258633443106e-01,-1.570582053538419898e-01,-1.593678848443396689e-01,-1.616775643348373759e-01,-1.634098239527106144e-01,-1.657195034432082936e-01,-1.680291829337059728e-01,-1.697614425515792114e-01,-1.720711220420768905e-01,-1.743808015325745697e-01,-1.761130611504478360e-01,-1.784227406409454875e-01,-1.807324201314431944e-01,-1.824646797493164330e-01,-1.847743592398141121e-01,-1.870840387303117913e-01,-1.893937182208094705e-01,-1.911259778386827091e-01,-1.934356573291803882e-01,-1.957453368196780674e-01,-1.974775964375513337e-01,-1.997872759280490129e-01,-2.020969554185466643e-01,-2.038292150364199307e-01,-2.061388945269176098e-01,-2.084485740174152890e-01,-2.101808336352885553e-01,-2.124905131257862068e-01,-2.148001926162838859e-01
-1.483247297803976794e-01,-1.004710578366489471e-01,-1.027807373271466262e-01,-1.045129969450198648e-01,-1.068226764355175440e-01,-1.091323559260152232e-01,-1.108646155438884895e-01,-1.131742950343861687e-01,-1.154839745248838478e-01,-1.172162341427570864e-01,-1.195259136332547656e-01,-1.218355931237524448e-01,-1.235678527416256833e-01,-1.258775322321233625e-01,-1.281872117226210417e-01,-1.304968912131187486e-01,-1.322291508309919872e-01,-1.345388303214896664e-01,-1.368485098119873178e-01,-1.385807694298605841e-01,-1.408904489203582910e-01,-1.432001284108559425e-01,-1.449323880287291810e-01,-1.472420675192268602e-01,-1.495517470097245394e-01,-1.518614265002222186e-01,-1.535936861180954849e-01,-1.559033656085931641e-01,-1.582130450990908432e-01,-1.599453047169641096e-01,-1.622549842074617610e-01,-1.645646636979594679e-01,-1.662969233158327065e-01,-1.686066028063303857e-01,-1.709162822968280648e-01,-1.726485419147013034e-01,-1.749582214051990103e-01,-1.772679008956966618e-01,-1.795775803861943409e-01,-1.813098400040675795e-01,-1.836195194945652864e-01,-1.859291989850629379e-01,-1.876614586029362042e-01,-1.899711380934338834e-01,-1.922808175839315625e-01,-1.940130772018048289e-01,-1.963227566923024803e-01
-1.132464725184642029e-01,-8.199362191266756916e-02,-8.430330140316522058e-02,-8.603556102103848691e-02,-8.834524051153616608e-02,-9.065492000203381751e-02,-9.296459949253149668e-02,-9.469685911040476300e-02,-9.700653860090241443e-02,-9.931621809140012136e-02,-1.010484777092733877e-01,-1.033581571997710391e-01,-1.056678366902687460e-01,-1.074000963081419846e-01,-1.097097757986396638e-01,-1.120194552891373430e-01,-1.137517149070105815e-01,-1.160613943975082607e-01,-1.183710738880059399e-01,-1.206807533785035913e-01,-1.224130129963768576e-01,-1.247226924868745368e-01,-1.270323719773722160e-01,-1.287646315952455101e-01,-1.310743110857431337e-01,-1.333839905762408407e-01,-1.351162501941140792e-01,-1.374259296846117584e-01,-1.397356091751094098e-01,-1.414678687929826761e-01,-1.437775482834803831e-01,-1.460872277739780345e-01,-1.483969072644757137e-01,-1.501291668823489800e-01,-1.524388463728466314e-01,-1.547485258633443106e-01,-1.564807854812175769e-01,-1.587904649717152561e-01,-1.611001444622129353e-01,-1.628324040800862016e-01,-1.651420835705838530e-01,-1.674517630610815599e-01,-1.697614425515792114e-01,-1.714937021694524777e-01,-1.738033816599501569e-01,-1.761130611504478360e-01,-1.778453207683211024e-01
-7.409018740612080545e-02,-6.351618598868613574e-02,-6.582586547918378717e-02,-6.813554496968149410e-02,-6.986780458755473266e-02,-7.217748407805241184e-02,-7.448716356855009102e-02,-7.621942318642332959e-02,-7.852910267692103652e-02,-8.083878216741868794e-02,-8.314846165791639487e-02,-8.488072127578966120e-02,-8.719040076628731262e-02,-8.950008025678499179e-02,-9.123233987465825812e-02,-9.354201936515590954e-02,-9.585169885565358872e-02,-9.758395847352685504e-02,-9.989363796402453421e-02,-1.022033174545221856e-01,-1.039355770723954520e-01,-1.062452565628931311e-01,-1.085549360533908103e-01,-1.108646155438884895e-01,-1.125968751617617558e-01,-1.149065546522594072e-01,-1.172162341427571142e-01,-1.189484937606303527e-01,-1.212581732511280319e-01,-1.235678527416257111e-01,-1.253001123594989774e-01,-1.276097918499966566e-01,-1.299194713404943080e-01,-1.316517309583675743e-01,-1.339614104488652258e-01,-1.362710899393629049e-01,-1.385807694298606119e-01,-1.403130290477338504e-01,-1.426227085382315296e-01,-1.449323880287292088e-01,-1.466646476466024474e-01,-1.489743271371001265e-01,-1.512840066275978057e-01,-1.530162662454710720e-01,-1.553259457359687512e-01,-1.576356252264664026e-01,-1.593678848443396689e-01
-4.330649044683143600e-02,-4.561616993732914294e-02,-4.734842955520238150e-02,-4.965810904570006068e-02,-5.196778853619773986e-02,-5.370004815407100618e-02,-5.600972764456868536e-02,-5.831940713506636453e-02,-6.005166675293960310e-02,-6.236134624343731003e-02,-6.467102573393496145e-02,-6.640328535180822778e-02,-6.871296484230593471e-02,-7.102264433280358613e-02,-7.333232382330126531e-02,-7.506458344117450388e-02,-7.737426293167218305e-02,-7.968394242216986223e-02,-8.141620204004312855e-02,-8.372588153054077997e-02,-8.603556102103848691e-02,-8.776782063891175323e-02,-9.007750012940940465e-02,-9.238717961990708383e-02,-9.411943923778032239e-02,-9.642911872827802933e-02,-9.873879821877568075e-02,-1.010484777092733599e-01,-1.027807373271466262e-01,-1.050904168176443054e-01,-1.074000963081419846e-01,-1.091323559260152232e-01,-1.114420354165129023e-01,-1.137517149070105815e-01,-1.154839745248838478e-01,-1.177936540153814993e-01,-1.201033335058791784e-01,-1.218355931237524448e-01,-1.241452726142501239e-01,-1.264549521047478031e-01,-1.287646315952454823e-01,-1.304968912131187209e-01,-1.328065707036164000e-01,-1.351162501941140792e-01,-1.368485098119873178e-01,-1.391581893024850247e-01,-1.414678687929826761e-01
-2.482905452285008585e-02,-2.713873401334773727e-02,-2.887099363122097584e-02,-3.118067312171865502e-02,-3.349035261221633419e-02,-3.580003210271398562e-02,-3.753229172058725194e-02,-3.984197121108493111e-02,-4.215165070158261029e-02,-4.388391031945587661e-02,-4.619358980995355579e-02,-4.850326930045123497e-02,-5.023552891832450129e-02,-5.254520840882215271e-02,-5.485488789931983189e-02,-5.658714751719309821e-02,-5.889682700769080514e-02,-6.120650649818845657e-02,-6.351618598868610799e-02,-6.524844560655937431e-02,-6.755812509705708124e-02,-6.986780458755473266e-02,-7.160006420542799899e-02,-7.390974369592567816e-02,-7.621942318642335734e-02,-7.795168280429659591e-02,-8.026136229479430284e-02,-8.257104178529195426e-02,-8.430330140316522058e-02,-8.661298089366287201e-02,-8.892266038416055118e-02,-9.123233987465823036e-02,-9.296459949253149668e-02,-9.527427898302920362e-02,-9.758395847352685504e-02,-9.931621809140012136e-02,-1.016258975818977728e-01,-1.039355770723954520e-01,-1.056678366902687183e-01,-1.079775161807663975e-01,-1.102871956712640766e-01,-1.120194552891373152e-01,-1.143291347796349944e-01,-1.166388142701326736e-01,-1.189484937606303527e-01,-1.206807533785035913e-01,-1.229904328690012982e-01
-6.351618598868680188e-03,-8.661298089366331610e-03,-1.097097757986398303e-02,-1.270323719773724935e-02,-1.501291668823492853e-02,-1.732259617873260771e-02,-1.905485579660587403e-02,-2.136453528710358096e-02,-2.367421477760123238e-02,-2.598389426809888381e-02,-2.771615388597215013e-02,-3.002583337646982931e-02,-3.233551286696748073e-02,-3.406777248484074705e-02,-3.637745197533842623e-02,-3.868713146583610540e-02,-4.041939108370934397e-02,-4.272907057420705090e-02,-4.503875006470473008e-02,-4.677100968257796865e-02,-4.908068917307564782e-02,-5.139036866357332700e-02,-5.370004815407097842e-02,-5.543230777194427250e-02,-5.774198726244195168e-02,-6.005166675293963086e-02,-6.178392637081286942e-02,-6.409360586131057635e-02,-6.640328535180822778e-02,-6.813554496968149410e-02,-7.044522446017914552e-02,-7.275490395067682470e-02,-7.448716356855009102e-02,-7.679684305904777020e-02,-7.910652254954544937e-02,-8.141620204004312855e-02,-8.314846165791639487e-02,-8.545814114841404630e-02,-8.776782063891172547e-02,-8.950008025678499179e-02,-9.180975974728267097e-02,-9.411943923778035015e-02,-9.585169885565358872e-02,-9.816137834615126789e-02,-1.004710578366489471e-01,-1.022033174545222134e-01,-1.045129969450198648e-01
-5.551115123125782702e-17,-5.551115123125782702e-17,-5.551115123125782702e-17,-5.551115123125782702e-17,-5.551115123125782702e-17,-5.551115123125782702e-17,-1.154839745248881222e-03,-2.887099363122147544e-03,-5.196778853619798966e-03,-7.506458344117505899e-03,-9.238717961990744465e-03,-1.154839745248842364e-02,-1.385807694298610282e-02,-1.559033656085936914e-02,-1.790001605135704832e-02,-2.020969554185472750e-02,-2.251937503235237892e-02,-2.425163465022564524e-02,-2.656131414072332442e-02,-2.887099363122097584e-02,-3.060325324909421441e-02,-3.291293273959192134e-02,-3.522261223008957276e-02,-3.695487184796286684e-02,-3.926455133846049050e-02,-4.157423082895819744e-02,-4.388391031945587661e-02,-4.561616993732914294e-02,-4.792584942782682211e-02,-5.023552891832447354e-02,-5.196778853619776761e-02,-5.427746802669541903e-02,-5.658714751719309821e-02,-5.831940713506636453e-02,-6.062908662556404371e-02,-6.293876611606172289e-02,-6.467102573393496145e-02,-6.698070522443264063e-02,-6.929038471493034756e-02,-7.160006420542797123e-02,-7.333232382330126531e-02,-7.564200331379894449e-02,-7.795168280429659591e-02,-7.968394242216986223e-02,-8.199362191266754141e-02,-8.430330140316522058e-02,-9.682609489070731490e-02
-5.551115123125782702e-17,-5.551115123125782702e-17,-5.551115123125782702e-17,-5.551115123125782702e-17,-5.551115123125782702e-17,-5.551115123125782702e-17,-5.551115123125782702e-17,-5.551115123125782702e-17,-5.551115123125782702e-17,-5.551115123125782702e-17,-5.551115123125782702e-17,-5.551115123125782702e-17,-5.551115123125782702e-17,-5.551115123125782702e-17,-1.110223024625156540e-16,-1.732259617873266322e-03,-4.041939108370973255e-03,-5.774198726244239577e-03,-8.083878216741890999e-03,-1.039355770723959793e-02,-1.270323719773724935e-02,-1.443549681561051568e-02,-1.674517630610819485e-02,-1.905485579660587403e-02,-2.078711541447911260e-02,-2.309679490497679177e-02,-2.540647439547447095e-02,-2.713873401334770952e-02,-2.944841350384541645e-02,-3.175809299434309563e-02,-3.349035261221633419e-02,-3.580003210271398562e-02,-3.810971159321166479e-02,-4.041939108370934397e-02,-4.215165070158261029e-02,-4.446133019208028947e-02,-4.677100968257796865e-02,-4.850326930045123497e-02,-5.081294879094891415e-02,-5.312262828144656557e-02,-5.485488789931983189e-02,-5.716456738981753882e-02,-5.947424688031519024e-02,-6.120650649818845657e-02,-6.351618598868613574e-02,-6.582586547918381492e-02,-1.038633995883174177e-01
-5.551115123125782702e-17,-5.551115123125782702e-17,-5.551115123125782702e-17,-5.551115123125782702e-17,-5.551115123125782702e-17,-5.551115123125782702e-17,-5.551115123125782702e-17,-5.551115123125782702e-17,-5.551115123125782702e-17,-5.551115123125782702e-17,-5.551115123125782702e-17,-5.551115123125782702e-17,-5.551115123125782702e-17,-5.551115123125782702e-17,-5.551115123125782702e-17,-5.551115123125782702e-17,-5.551115123125782702e-17,-1.110223024625156540e-16,-5.551115123125782702e-17,-5.551115123125782702e-17,-5.551115123125782702e-17,-5.551115123125782702e-17,-5.551115123125782702e-17,-5.774198726244961222e-04,-2.887099363122147544e-03,-4.619358980995413866e-03,-6.929038471493065288e-03,-9.238717961990772221e-03,-1.097097757986403854e-02,-1.328065707036168996e-02,-1.559033656085936914e-02,-1.732259617873260771e-02,-1.963227566923031464e-02,-2.194195515972796606e-02,-2.367421477760123238e-02,-2.598389426809888381e-02,-2.829357375859659074e-02,-3.060325324909421441e-02,-3.233551286696750848e-02,-3.464519235746518766e-02,-3.695487184796283908e-02,-3.868713146583613316e-02,-4.099681095633378458e-02,-4.330649044683146376e-02,-4.503875006470470233e-02,-4.734842955520240926e-02,-1.149787321363374692e-01
-5.551115123125782702e-17,-5.551115123125782702e-17,-5.551115123125782702e-17,-5.551115123125782702e-17,-5.551115123125782702e-17,-5.551115123125782702e-17,-5.551115123125782702e-17,-5.551115123125782702e-17,-5.551115123125782702e-17,-5.551115123125782702e-17,-5.551115123125782702e-17,-5.551115123125782702e-17,-5.551115123125782702e-17,-5.551115123125782702e-17,-5.551115123125782702e-17,-5.551115123125782702e-17,-5.551115123125782702e-17,0.000000000000000000e+00,-5.551115123125782702e-17,-5.551115123125782702e-17,-5.551115123125782702e-17,-5.551115123125782702e-17,0.000000000000000000e+00,-5.551115123125782702e-17,-5.551115123125782702e-17,-5.551115123125782702e-17,-5.551115123125782702e-17,-5.551115123125782702e-17,-5.551115123125782702e-17,-5.551115123125782702e-17,-5.551115123125782702e-17,-5.551115123125782702e-17,-1.154839745248881222e-03,-3.464519235746532644e-03,-5.774198726244239577e-03,-7.506458344117505899e-03,-9.816137834615185076e-03,-1.212581732511289201e-02,-1.385807694298613058e-02,-1.616775643348378200e-02,-1.847743592398148893e-02,-2.078711541447914035e-02,-2.251937503235240667e-02,-2.482905452285005810e-02,-2.713873401334773727e-02,-2.887099363122097584e-02,-1.307134236653528792e-01
-5.551115123125782702e-17,-5.551115123125782702e-17,-5.551115123125782702e-17,-5.551115123125782702e-17,-5.551115123125782702e-17,-1.110223024625156540e-16,-5.551115123125782702e-17,-5.551115123125782702e-17,-5.551115123125782702e-17,-5.551115123125782702e-17,-5.551115123125782702e-17,-5.551115123125782702e-17,-5.551115123125782702e-17,-5.551115123125782702e-17,-5.551115123125782702e-17,-5.551115123125782702e-17,-5.551115123125782702e-17,-5.551115123125782702e-17,-5.551115123125782702e-17,-5.551115123125782702e-17,-5.551115123125782702e-17,-1.110223024625156540e-16,-5.551115123125782702e-17,-5.551115123125782702e-17,-5.551115123125782702e-17,-5.551115123125782702e-17,-5.551115123125782702e-17,-5.551115123125782702e-17,-5.551115123125782702e-17,-5.551115123125782702e-17,-5.551115123125782702e-17,0.000000000000000000e+00,-5.551115123125782702e-17,-5.551115123125782702e-17,-5.551115123125782702e-17,-5.551115123125782702e-17,-5.551115123125782702e-17,-5.551115123125782702e-17,-5.551115123125782702e-17,-5.551115123125782702e-17,-5.551115123125782702e-17,-2.309679490497762444e-03,-4.041939108370973255e-03,-6.351618598868680188e-03,-8.661298089366331610e-03,-1.097097757986401079e-02,-1.433805721210510975e-01
-5.551115123125782702e-17,-5.551115123125782702e-17,-5.551115123125782702e-17,0.000000000000000000e+00,-5.551115123125782702e-17,-5.551115123125782702e-17,-5.551115123125782702e-17,-5.551115123125782702e-17,-5.551115123125782702e-17,-5.551115123125782702e-17,-5.551115123125782702e-17,-5.551115123125782702e-17,-5.551115123125782702e-17,-5.551115123125782702e-17,-5.551115123125782702e-17,-5.551115123125782702e-17,-5.551115123125782702e-17,-5.551115123125782702e-17,-5.551115123125782702e-17,-5.551115123125782702e-17,-5.551115123125782702e-17,-5.551115123125782702e-17,-5.551115123125782702e-17,-5.551115123125782702e-17,-5.551115123125782702e-17,-5.551115123125782702e-17,-5.551115123125782702e-17,-5.551115123125782702e-17,0.000000000000000000e+00,-5.551115123125782702e-17,-5.551115123125782702e-17,-1.110223024625156540e-16,-5.551115123125782702e-17,-5.551115123125782702e-17,-5.551115123125782702e-17,-5.551115123125782702e-17,-5.551115123125782702e-17,-5.551115123125782702e-17,-1.110223024625156540e-16,-5.551115123125782702e-17,-5.551115123125782702e-17,-5.551115123125782702e-17,-5.551115123125782702e-17,-5.551115123125782702e-17,-5.551115123125782702e-17,-5.551115123125782702e-17,-1.697614425515792114e-01
-5.551115123125782702e-17,-5.551115123125782702e-17,-5.551115123125782702e-17,-5.551115123125782702e-17,-5.551115123125782702e-17,-5.551115123125782702e-17,-5.551115123125782702e-17,-5.551115123125782702e-17,-5.551115123125782702e-17,-5.551115123125782702e-17,-5.551115123125782702e-17,-5.551115123125782702e-17,-5.551115123125782702e-17,-5.551115123125782702e-17,-5.551115123125782702e-17,-5.551115123125782702e-17,-5.551115123125782702e-17,-5.551115123125782702e-17,-5.551115123125782702e-17,-5.551115123125782702e-17,-5.551115123125782702e-17,-5.551115123125782702e-17,-5.551115123125782702e-17,-5.551115123125782702e-17,-5.551115123125782702e-17,-5.551115123125782702e-17,-5.551115123125782702e-17,-5.551115123125782702e-17,0.000000000000000000e+00,-5.551115123125782702e-17,-5.551115123125782702e-17,-5.551115123125782702e-17,-5.551115123125782702e-17,-5.551115123125782702e-17,-5.551115123125782702e-17,-5.551115123125782702e-17,-5.551115123125782702e-17,-5.551115123125782702e-17,-5.551115123125782702e-17,-5.551115123125782702e-17,-5.551115123125782702e-17,-5.551115123125782702e-17,-5.551115123125782702e-17,0.000000000000000000e+00,-5.551115123125782702e-17,-5.551115123125782702e-17,-2.020969554185466643e-01
-5.551115123125782702e-17,-5.551115123125782702e-17,-5.551115123125782702e-17,-5.551115123125782702e-17,-5.551115123125782702e-17,0.000000000000000000e+00,-5.551115123125782702e-17,-5.551115123125782702e-17,-5.551115123125782702e-17,-5.551115123125782702e-17,-5.551115123125782702e-17,-5.551115123125782702e-17,-5.551115123125782702e-17,0.000000000000000000e+00,-5.551115123125782702e-17,-5.551115123125782702e-17,-5.551115123125782702e-17,-1.110223024625156540e-16,-5.551115123125782702e-17,-5.551115123125782702e-17,-5.551115123125782702e-17,-5.551115123125782702e-17,-5.551115123125782702e-17,-5.551115123125782702e-17,-5.551115123125782702e-17,-5.551115123125782702e-17,-1.110223024625156540e-16,-5.551115123125782702e-17,-5.551115123125782702e-17,-5.551115123125782702e-17,-5.551115123125782702e-17,-5.551115123125782702e-17,-5.551115123125782702e-17,-5.551115123125782702e-17,-5.551115123125782702e-17,-5.551115123125782702e-17,-5.551115123125782702e-17,-5.551115123125782702e-17,-5.551115123125782702e-17,-5.551115123125782702e-17,-5.551115123125782702e-17,-5.551115123125782702e-17,-5.551115123125782702e-17,-5.551115123125782702e-17,-5.551115123125782702e-17,0.000000000000000000e+00,-2.263485900687722818e-01
-5.551115123125782702e-17,-5.551115123125782702e-17,-5.551115123125782702e-17,-5.551115123125782702e-17,-5.551115123125782702e-17,-5.551115123125782702e-17,-5.551115123125782702e-17,-5.551115123125782702e-17,-5.551115123125782702e-17,-5.551115123125782702e-17,-5.551115123125782702e-17,-5.551115123125782702e-17,-5.551115123125782702e-17,-5.551115123125782702e-17,-5.551115123125782702e-17,-5.551115123125782702e-17,-5.551115123125782702e-17,-5.551115123125782702e-17,-5.551115123125782702e-17,-5.551115123125782702e-17,-5.551115123125782702e-17,-5.551115123125782702e-17,-5.551115123125782702e-17,-5.551115123125782702e-17,-5.551115123125782702e-17,-5.551115123125782702e-17,-5.551115123125782702e-17,-5.551115123125782702e-17,-5.551115123125782702e-17,-5.551115123125782702e-17,-5.551115123125782702e-17,-5.551115123125782702e-17,-5.551115123125782702e-17,-5.551115123125782702e-17,-5.551115123125782702e-17,-5.551115123125782702e-17,-5.551115123125782702e-17,-5.551115123125782702e-17,-5.551115123125782702e-17,-1.110223024625156540e-16,-5.551115123125782702e-17,0.000000000000000000e+00,-5.551115123125782702e-17,0.000000000000000000e+00,-5.551115123125782702e-17,-5.551115123125782702e-17,-2.586841029357397348e-01
-5.551115123125782702e-17,-5.551115123125782702e-17,-5.551115123125782702e-17,-5.551115123125782702e-17,-5.551115123125782702e-17,-5.551115123125782702e-17,-5.551115123125782702e-17,0.000000000000000000e+00,-5.551115123125782702e-17,-5.551115123125782702e-17,-5.551115123125782702e-17,-5.551115123125782702e-17,-5.551115123125782702e-17,-5.551115123125782702e-17,-5.551115123125782702e-17,-5.551115123125782702e-17,-5.551115123125782702e-17,-5.551115123125782702e-17,-5.551115123125782702e-17,-5.551115123125782702e-17,-5.551115123125782702e-17,-5.551115123125782702e-17,-5.551115123125782702e-17,-5.551115123125782702e-17,0.000000000000000000e+00,-5.551115123125782702e-17,-5.551115123125782702e-17,-5.551115123125782702e-17,-5.551115123125782702e-17,-5.551115123125782702e-17,-5.551115123125782702e-17,-5.551115123125782702e-17,-5.551115123125782702e-17,-5.551115123125782702e-17,-5.551115123125782702e-17,-5.551115123125782702e-17,-5.551115123125782702e-17,0.000000000000000000e+00,0.000000000000000000e+00,-5.551115123125782702e-17,-5.551115123125782702e-17,-5.551115123125782702e-17,-5.551115123125782702e-17,-5.551115123125782702e-17,-5.551115123125782702e-17,-3.233551286696750848e-02,-2.586841029357397348e-01
-5.551115123125782702e-17,-5.551115123125782702e-17,-5.551115123125782702e-17,-5.551115123125782702e-17,-5.551115123125782702e-17,-5.551115123125782702e-17,-5.551115123125782702e-17,-5.551115123125782702e-17,-1.110223024625156540e-16,-5.551115123125782702e-17,-5.551115123125782702e-17,-5.551115123125782702e-17,-5.551115123125782702e-17,-5.551115123125782702e-17,-5.551115123125782702e-17,-5.551115123125782702e-17,-5.551115123125782702e-17,-5.551115123125782702e-17,-1.831136437339522249e-01,-1.831136437339522249e-01,-1.831136437339522249e-01,-1.831136437339522249e-01,-1.831136437339522804e-01,-5.551115123125782702e-17,-5.551115123125782702e-17,0.000000000000000000e+00,-5.551115123125782702e-17,-5.551115123125782702e-17,-5.551115123125782702e-17,-5.551115123125782702e-17,-5.551115123125782702e-17,-5.551115123125782702e-17,-5.551115123125782702e-17,-5.551115123125782702e-17,-5.551115123125782702e-17,-5.551115123125782702e-17,-5.551115123125782702e-17,-5.551115123125782702e-17,-5.551115123125782702e-17,-5.551115123125782702e-17,-5.551115123125782702e-17,-5.551115123125782702e-17,-5.551115123125782702e-17,-5.551115123125782702e-17,-5.551115123125782702e-17,-6.467102573393496145e-02,-2.586841029357397348e-01
-5.551115123125782702e-17,-5.551115123125782702e-17,-5.551115123125782702e-17,-5.551115123125782702e-17,-1.110223024625156540e-16,-5.551115123125782702e-17,-5.551115123125782702e-17,-5.551115123125782702e-17,-5.551115123125782702e-17,-5.551115123125782702e-17,-5.551115123125782702e-17,-5.551115123125782702e-17,-5.551115123125782702e-17,-5.551115123125782702e-17,-5.551115123125782702e-17,-5.551115123125782702e-17,-5.551115123125782702e-17,-5.551115123125782702e-17,-1.831136437339522249e-01,-1.831136437339522249e-01,-1.831136437339522249e-01,-1.831136437339522249e-01,-1.831136437339522804e-01,-5.551115123125782702e-17,-5.551115123125782702e-17,-5.551115123125782702e-17,-5.551115123125782702e-17,-5.551115123125782702e-17,-5.551115123125782702e-17,-5.551115123125782702e-17,-5.551115123125782702e-17,-5.551115123125782702e-17,-5.551115123125782702e-17,-5.551115123125782702e-17,-5.551115123125782702e-17,-5.551115123125782702e-17,-5.551115123125782702e-17,-5.551115123125782702e-17,-5.551115123125782702e-17,-5.551115123125782702e-17,-5.551115123125782702e-17,-5.551115123125782702e-17,-5.551115123125782702e-17,-5.551115123125782702e-17,-5.551115123125782702e-17,-8.892266038416057894e-02,-2.586841029357397348e-01
-5.551115123125782702e-17,-5.551115123125782702e-17,-5.551115123125782702e-17,-5.551115123125782702e-17,-5.551115123125782702e-17,-5.551115123125782702e-17,-5.551115123125782702e-17,-5.551115123125782702e-17,-5.551115123125782702e-17,-5.551115123125782702e-17,-5.551115123125782702e-17,-1.110223024625156540e-16,-5.551115123125782702e-17,-5.551115123125782702e-17,-5.551115123125782702e-17,-5.551115123125782702e-17,-5.551115123125782702e-17,-5.551115123125782702e-17,-1.831136437339522249e-01,-1.831136437339522249e-01,-1.831136437339522249e-01,-1.831136437339522249e-01,-1.831136437339521694e-01,-5.551115123125782702e-17,-5.551115123125782702e-17,-5.551115123125782702e-17,-5.551115123125782702e-17,-5.551115123125782702e-17,-5.551115123125782702e-17,-5.551115123125782702e-17,-5.551115123125782702e-17,-5.551115123125782702e-17,-5.551115123125782702e-17,-5.551115123125782702e-17,-5.551115123125782702e-17,-5.551115123125782702e-17,-5.551115123125782702e-17,-5.551115123125782702e-17,-5.551115123125782702e-17,0.000000000000000000e+00,-5.551115123125782702e-17,-5.551115123125782702e-17,-5.551115123125782702e-17,-5.551115123125782702e-17,-5.551115123125782702e-17,-1.212581732511280319e-01,-2.586841029357397348e-01
-5.551115123125782702e-17,-5.551115123125782702e-17,-5.551115123125782702e-17,-5.551115123125782702e-17,-5.551115123125782702e-17,-5.551115123125782702e-17,-5.551115123125782702e-17,-5.551115123125782702e-17,-5.551115123125782702e-17,-5.551115123125782702e-17,-5.551115123125782702e-17,-5.551115123125782702e-17,-5.551115123125782702e-17,-5.551115123125782702e-17,-5.551115123125782702e-17,-5.551115123125782702e-17,-5.551115123125782702e-17,-5.551115123125782702e-17,-1.831136437339522249e-01,-1.831136437339522249e-01,-1.831136437339522249e-01,-1.831136437339522249e-01,-1.831136437339522804e-01,-5.551115123125782702e-17,-5.551115123125782702e-17,-5.551115123125782702e-17,-5.551115123125782702e-17,-5.551115123125782702e-17,-5.551115123125782702e-17,-5.551115123125782702e-17,-5.551115123125782702e-17,-5.551115123125782702e-17,-5.551115123125782702e-17,0.000000000000000000e+00,-5.551115123125782702e-17,-5.551115123125782702e-17,-5.551115123125782702e-17,-5.551115123125782702e-17,-5.551115123125782702e-17,-5.551115123125782702e-17,-5.551115123125782702e-17,-5.551115123125782702e-17,-5.551115123125782702e-17,-5.551115123125782702e-17,-5.551115123125782702e-17,-1.535936861180954849e-01,-2.586841029357397348e-01
-4.850326930045123497e-02,-3.772476501146210248e-02,-2.694626072247294224e-02,-1.616775643348380975e-02,-8.083878216741890999e-03,-5.551115123125782702e-17,-5.551115123125782702e-17,-5.551115123125782702e-17,-5.551115123125782702e-17,-5.551115123125782702e-17,-5.551115123125782702e-17,-5.551115123125782702e-17,-5.551115123125782702e-17,-1.488028933767808204e-01,-1.488028933767808204e-01,-1.488028933767808204e-01,-1.488028933767808204e-01,-1.488028933767808204e-01,-1.831136437339522249e-01,-1.831136437339522249e-01,-1.831136437339522249e-01,-1.831136437339522249e-01,-1.831136437339522249e-01,-5.551115123125782702e-17,-5.551115123125782702e-17,-5.551115123125782702e-17,-5.551115123125782702e-17,-5.551115123125782702e-17,-5.551115123125782702e-17,-5.551115123125782702e-17,-5.551115123125782702e-17,-5.551115123125782702e-17,-5.551115123125782702e-17,-5.551115123125782702e-17,0.000000000000000000e+00,-5.551115123125782702e-17,-5.551115123125782702e-17,-5.551115123125782702e-17,-5.551115123125782702e-17,-5.551115123125782702e-17,-5.551115123125782702e-17,-5.551115123125782702e-17,-5.551115123125782702e-17,-5.551115123125782702e-17,-5.551115123125782702e-17,-1.778453207683211024e-01,-2.586841029357397348e-01
-1.320366775401171644e-01,-1.239527993233753289e-01,-1.131742950343861409e-01,-1.023957907453970084e-01,-9.431191252865517294e-02,-8.353340823966598494e-02,-7.275490395067685245e-02,-6.197639966168769221e-02,-5.389252144494582897e-02,-4.311401715595666873e-02,-3.233551286696750848e-02,-2.425163465022564524e-02,-1.347313036123648500e-02,-1.514975194490280619e-01,-1.488028933767808204e-01,-1.488028933767808204e-01,-1.488028933767808204e-01,-1.488028933767808204e-01,-5.551115123125782702e-17,-5.551115123125782702e-17,-5.551115123125782702e-17,-5.551115123125782702e-17,-5.551115123125782702e-17,-5.551115123125782702e-17,-5.551115123125782702e-17,-5.551115123125782702e-17,-5.551115123125782702e-17,-5.551115123125782702e-17,-5.551115123125782702e-17,-5.551115123125782702e-17,-5.551115123125782702e-17,-5.551115123125782702e-17,-5.551115123125782702e-17,-5.551115123125782702e-17,-5.551115123125782702e-17,-5.551115123125782702e-17,0.000000000000000000e+00,-5.551115123125782702e-17,-5.551115123125782702e-17,0.000000000000000000e+00,-5.551115123125782702e-17,-5.551115123125782702e-17,-5.551115123125782702e-17,-5.551115123125782702e-17,-5.551115123125782702e-17,-2.101808336352885553e-01,-2.586841029357397348e-01
-2.182647118520303908e-01,-2.074862075630412583e-01,-1.994023293462993951e-01,-1.886238250573102349e-01,-1.778453207683210746e-01,-1.697614425515792114e-01,-1.589829382625900789e-01,-1.482044339736009186e-01,-1.401205557568590554e-01,-1.293420514678698952e-01,-1.185635471788807349e-01,-1.077850428898916024e-01,-9.970116467314973918e-02,-2.377255537609413161e-01,-2.269470494719521836e-01,-2.188631712552103203e-01,-2.080846669662211601e-01,-1.973061626772319999e-01,-4.041939108370937173e-02,-2.964088679472023924e-02,-1.886238250573105124e-02,-1.077850428898921575e-02,-5.551115123125782702e-17,-5.551115123125782702e-17,-5.551115123125782702e-17,-1.110223024625156540e-16,-5.551115123125782702e-17,-5.551115123125782702e-17,-5.551115123125782702e-17,-1.110223024625156540e-16,-5.551115123125782702e-17,-5.551115123125782702e-17,0.000000000000000000e+00,-5.551115123125782702e-17,-5.551115123125782702e-17,-5.551115123125782702e-17,-5.551115123125782702e-17,-5.551115123125782702e-17,-5.551115123125782702e-17,-5.551115123125782702e-17,-5.551115123125782702e-17,-5.551115123125782702e-17,-5.551115123125782702e-17,-5.551115123125782702e-17,-5.551115123125782702e-17,-2.425163465022560083e-01,-2.586841029357397348e-01
-2.586841029357397348e-01,-2.586841029357397348e-01,-2.586841029357397348e-01,-2.586841029357397348e-01,-2.586841029357397348e-01,-2.532948507912451408e-01,-2.452109725745033053e-01,-2.344324682855141451e-01,-2.236539639965249848e-01,-2.155700857797831216e-01,-2.047915814907939613e-01,-1.940130772018048289e-01,-1.859291989850629379e-01,-3.239535880728545703e-01,-3.131750837838653823e-01,-3.023965794948762498e-01,-2.943127012781343588e-01,-2.835341969891452263e-01,-1.239527993233753012e-01,-1.158689211066334657e-01,-1.050904168176443332e-01,-9.431191252865514518e-02,-8.622803431191328194e-02,-7.544953002292412170e-02,-6.467102573393498921e-02,-5.658714751719309821e-02,-4.580864322820396572e-02,-3.503013893921480548e-02,-2.425163465022567300e-02,-1.616775643348375424e-02,-5.389252144494649510e-03,-5.551115123125782702e-17,-5.551115123125782702e-17,-5.551115123125782702e-17,-2.393950120922188618e-01,-2.393950120922188618e-01,-2.393950120922188618e-01,-1.110223024625156540e-16,-5.551115123125782702e-17,-1.110223024625156540e-16,-5.551115123125782702e-17,-5.551115123125782702e-17,-5.551115123125782702e-17,-5.551115123125782702e-17,-1.616775643348378200e-02,-2.586841029357397348e-01,-2.586841029357397348e-01
-2.586841029357397348e-01,-2.586841029357397348e-01,-2.586841029357397348e-01,-2.586841029357397348e-01,-2.586841029357397348e-01,-2.586841029357397348e-01,-2.586841029357397348e-01,-2.586841029357397348e-01,-2.586841029357397348e-01,-2.586841029357397348e-01,-2.586841029357397348e-01,-2.586841029357397348e-01,-2.586841029357397348e-01,-4.074869963125204997e-01,-3.994031180957786642e-01,-3.886246138067894762e-01,-3.805407355900476407e-01,-3.697622313010584527e-01,-2.101808336352885553e-01,-2.020969554185466643e-01,-1.913184511295575319e-01,-1.805399468405683716e-01,-1.697614425515792114e-01,-1.616775643348373481e-01,-1.508990600458481879e-01,-1.401205557568590554e-01,-1.320366775401171644e-01,-1.212581732511280319e-01,-1.104796689621388717e-01,-1.023957907453970084e-01,-9.161728645640784818e-02,-8.083878216741871570e-02,-7.006027787842955545e-02,-6.197639966168769221e-02,-2.905929074649173383e-01,-2.798144031759282058e-01,-2.717305249591862593e-01,-2.155700857797834824e-02,-1.077850428898918800e-02,-2.694626072247352511e-03,-5.551115123125782702e-17,-5.551115123125782702e-17,-5.551115123125782702e-17,-5.551115123125782702e-17,-4.041939108370939948e-02,-2.586841029357397348e-01,-2.586841029357397348e-01
-2.586841029357397348e-01,-2.586841029357397348e-01,-2.586841029357397348e-01,-2.586841029357397348e-01,-2.586841029357397348e-01,-2.586841029357397348e-01,-2.586841029357397348e-01,-2.586841029357397348e-01,-2.586841029357397348e-01,-2.586841029357397348e-01,-2.586841029357397348e-01,-2.586841029357397348e-01,-2.586841029357397348e-01,-2.586841029357397348e-01,-2.586841029357397348e-01,-2.586841029357397348e-01,-2.586841029357397348e-01,-2.586841029357397348e-01,-2.586841029357397348e-01,-2.586841029357397348e-01,-2.586841029357397348e-01,-2.586841029357397348e-01,-2.559894768634924378e-01,-2.479055986467505746e-01,-2.371270943577614143e-01,-2.263485900687722818e-01,-2.155700857797831216e-01,-2.074862075630412583e-01,-1.967077032740520981e-01,-1.859291989850629379e-01,-1.778453207683210746e-01,-1.670668164793319144e-01,-1.562883121903427819e-01,-1.482044339736009186e-01,-3.768209417768305647e-01,-3.660424374878413767e-01,-3.552639331988522997e-01,-1.077850428898915747e-01,-9.700653860090244218e-02,-8.622803431191328194e-02,-7.814415609517141870e-02,-6.736565180618225845e-02,-5.658714751719312597e-02,-4.850326930045123497e-02,-9.986957880266517096e-02,-2.586841029357397348e-01,-2.586841029357397348e-01
-2.586841029357397348e-01,-2.586841029357397348e-01,-2.586841029357397348e-01,-2.586841029357397348e-01,-2.586841029357397348e-01,-2.586841029357397348e-01,-2.586841029357397348e-01,-2.586841029357397348e-01,-2.586841029357397348e-01,-2.586841029357397348e-01,-2.586841029357397348e-01,-2.586841029357397348e-01,-2.586841029357397348e-01,-2.586841029357397348e-01,-2.586841029357397348e-01,-2.586841029357397348e-01,-2.586841029357397348e-01,-2.586841029357397348e-01,-2.586841029357397348e-01,-2.586841029357397348e-01,-2.586841029357397348e-01,-2.586841029357397348e-01,-2.586841029357397348e-01,-2.586841029357397348e-01,-2.586841029357397348e-01,-2.586841029357397348e-01,-2.586841029357397348e-01,-2.586841029357397348e-01,-2.586841029357397348e-01,-2.586841029357397348e-01,-2.586841029357397348e-01,-2.532948507912451408e-01,-2.425163465022560083e-01,-2.317378422132668481e-01,-2.236539639965249848e-01,-2.128754597075358246e-01,-2.020969554185466643e-01,-1.940130772018048289e-01,-1.832345729128156686e-01,-1.724560686238265084e-01,-1.643721904070846451e-01,-1.535936861180954849e-01,-1.428151818291063524e-01,-1.320366775401171922e-01,-1.786873914158983723e-01,-2.586841029357397348e-01,-2.586841029357397348e-01
-2.586841029357397348e-01,-2.586841029357397348e-01,-2.586841029357397348e-01,-2.586841029357397348e-01,-2.586841029357397348e-01,-2.586841029357397348e-01,-2.586841029357397348e-01,-2.586841029357397348e-01,-2.586841029357397348e-01,-2.586841029357397348e-01,-2.586841029357397348e-01,-2.586841029357397348e-01,-2.586841029357397348e-01,-2.586841029357397348e-01,-2.586841029357397348e-01,-2.586841029357397348e-01,-2.586841029357397348e-01,-2.586841029357397348e-01,-2.586841029357397348e-01,-2.586841029357397348e-01,-2.586841029357397348e-01,-2.586841029357397348e-01,-2.586841029357397348e-01,-2.586841029357397348e-01,-2.586841029357397348e-01,-2.586841029357397348e-01,-2.586841029357397348e-01,-2.586841029357397348e-01,-2.586841029357397348e-01,-2.586841029357397348e-01,-2.586841029357397348e-01,-2.586841029357397348e-01,-2.586841029357397348e-01,-2.586841029357397348e-01,-2.586841029357397348e-01,-2.586841029357397348e-01,-2.586841029357397348e-01,-2.586841029357397348e-01,-2.586841029357397348e-01,-2.586841029357397348e-01,-2.479055986467505746e-01,-2.398217204300087113e-01,-2.290432161410195788e-01,-2.182647118520303908e-01,-2.344324682855141451e-01,-2.586841029357397348e-01,-2.586841029357397348e-01
