8.078238268775642106e-03,8.078238268775642106e-03,8.078238268775642106e-03,8.078238268775642106e-03,8.078238268775642106e-03,8.078238268775642106e-03,8.078238268775642106e-03,8.078238268775642106e-03,8.078238268775642106e-03,8.078238268775642106e-03,8.078238268775642106e-03,8.078238268775642106e-03,8.078238268775642106e-03,8.078238268775642106e-03,8.078238268775642106e-03,8.078238268775642106e-03,8.078238268775642106e-03,8.078238268775642106e-03,8.078238268775642106e-03,8.078238268775642106e-03,8.078238268775642106e-03,8.078238268775642106e-03,8.078238268775642106e-03,8.078238268775642106e-03,8.078238268775642106e-03,8.078238268775642106e-03,8.078238268775642106e-03,8.078238268775642106e-03,8.078238268775642106e-03,8.078238268775642106e-03,8.078238268775642106e-03,7.423245976712752534e-03,3.493292224335413365e-03,-2.183307640209637690e-04,-4.148284516398301203e-03,-7.859907504754678337e-03,-3.097567714547415016e-03,8.078238268775642106e-03,8.078238268775642106e-03,8.078238268775642106e-03,8.078238268775642106e-03,8.078238268775642106e-03,8.078238268775642106e-03,8.078238268775642106e-03,8.078238268775642106e-03,8.078238268775642106e-03,8.078238268775642106e-03
8.078238268775642106e-03,8.078238268775642106e-03,8.078238268775642106e-03,8.078238268775642106e-03,8.078238268775642106e-03,8.078238268775642106e-03,8.078238268775642106e-03,8.078238268775642106e-03,8.078238268775642106e-03,8.078238268775642106e-03,8.078238268775642106e-03,8.078238268775642106e-03,8.078238268775642106e-03,8.078238268775642106e-03,8.078238268775642106e-03,8.078238268775642106e-03,8.078238268775642106e-03,8.078238268775642106e-03,8.078238268775642106e-03,8.078238268775642106e-03,8.078238268775642106e-03,8.078238268775642106e-03,8.078238268775642106e-03,8.078238268775642106e-03,8.078238268775642106e-03,8.078238268775642106e-03,8.078238268775642106e-03,8.078238268775642106e-03,8.078238268775642106e-03,8.078238268775642106e-03,5.239938336503120048e-03,1.528315348146743781e-03,-2.183307640209630751e-03,-6.113261392586971654e-03,-9.824884380943345319e-03,-1.375483813332068275e-02,-1.746646112167706336e-02,7.095749830681313819e-04,8.078238268775642106e-03,8.078238268775642106e-03,8.078238268775642106e-03,8.078238268775642106e-03,8.078238268775642106e-03,8.078238268775642106e-03,8.078238268775642106e-03,8.078238268775642106e-03,8.078238268775642106e-03
8.078238268775642106e-03,8.078238268775642106e-03,8.078238268775642106e-03,8.078238268775642106e-03,8.078238268775642106e-03,8.078238268775642106e-03,8.078238268775642106e-03,8.078238268775642106e-03,8.078238268775642106e-03,8.078238268775642106e-03,8.078238268775642106e-03,8.078238268775642106e-03,8.078238268775642106e-03,8.078238268775642106e-03,8.078238268775642106e-03,8.078238268775642106e-03,8.078238268775642106e-03,8.078238268775642106e-03,8.078238268775642106e-03,8.078238268775642106e-03,8.078238268775642106e-03,8.078238268775642106e-03,8.078238268775642106e-03,8.078238268775642106e-03,8.078238268775642106e-03,8.078238268775642106e-03,8.078238268775642106e-03,8.078238268775642106e-03,7.204915212691788765e-03,3.274961460314449596e-03,-4.366615280419258033e-04,-4.366615280419264972e-03,-8.078238268775642106e-03,-1.200819202115297954e-02,-1.571981500950935667e-02,-1.964976876188669064e-02,-2.336139175024307124e-02,-2.065954854548365111e-02,8.078238268775642106e-03,8.078238268775642106e-03,8.078238268775642106e-03,8.078238268775642106e-03,8.078238268775642106e-03,8.078238268775642106e-03,8.078238268775642106e-03,8.078238268775642106e-03,8.078238268775642106e-03
8.078238268775642106e-03,8.078238268775642106e-03,8.078238268775642106e-03,8.078238268775642106e-03,8.078238268775642106e-03,8.078238268775642106e-03,8.078238268775642106e-03,8.078238268775642106e-03,8.078238268775642106e-03,8.078238268775642106e-03,8.078238268775642106e-03,8.078238268775642106e-03,8.078238268775642106e-03,8.078238268775642106e-03,8.078238268775642106e-03,8.078238268775642106e-03,8.078238268775642106e-03,8.078238268775642106e-03,8.078238268775642106e-03,8.078238268775642106e-03,8.078238268775642106e-03,8.078238268775642106e-03,8.078238268775642106e-03,8.078238268775642106e-03,8.078238268775642106e-03,8.078238268775642106e-03,8.078238268775642106e-03,5.021607572482156279e-03,1.309984584125780879e-03,-2.619969168251558289e-03,-6.331592156607935423e-03,-1.026154590898527286e-02,-1.397316889734164652e-02,-1.790312264971898742e-02,-2.161474563807536456e-02,-2.532636862643174169e-02,-2.925632237880907566e-02,-3.296794536716545626e-02,-1.440983042538357406e-02,8.078238268775642106e-03,8.078238268775642106e-03,8.078238268775642106e-03,8.078238268775642106e-03,8.078238268775642106e-03,8.078238268775642106e-03,8.078238268775642106e-03,8.078238268775642106e-03
8.078238268775642106e-03,8.078238268775642106e-03,8.078238268775642106e-03,8.078238268775642106e-03,8.078238268775642106e-03,8.078238268775642106e-03,8.078238268775642106e-03,8.078238268775642106e-03,8.078238268775642106e-03,8.078238268775642106e-03,8.078238268775642106e-03,8.078238268775642106e-03,8.078238268775642106e-03,8.078238268775642106e-03,8.078238268775642106e-03,8.078238268775642106e-03,8.078238268775642106e-03,8.078238268775642106e-03,8.078238268775642106e-03,8.078238268775642106e-03,8.078238268775642106e-03,8.078238268775642106e-03,8.078238268775642106e-03,8.078238268775642106e-03,8.078238268775642106e-03,6.768253684649862961e-03,3.056630696293486694e-03,-8.733230560838533413e-04,-4.584946044440228741e-03,-8.296569032796602405e-03,-1.222652278517393984e-02,-1.593814577353031697e-02,-1.986809952590765788e-02,-2.357972251426403154e-02,-2.750967626664137244e-02,-3.122129925499774611e-02,-3.515125300737508701e-02,-3.886287599573146068e-02,-4.082785287192013113e-02,-2.619969168251558289e-03,8.078238268775642106e-03,8.078238268775642106e-03,8.078238268775642106e-03,8.078238268775642106e-03,8.078238268775642106e-03,8.078238268775642106e-03,8.078238268775642106e-03
8.078238268775642106e-03,8.078238268775642106e-03,8.078238268775642106e-03,8.078238268775642106e-03,8.078238268775642106e-03,8.078238268775642106e-03,8.078238268775642106e-03,8.078238268775642106e-03,8.078238268775642106e-03,8.078238268775642106e-03,8.078238268775642106e-03,8.078238268775642106e-03,8.078238268775642106e-03,8.078238268775642106e-03,8.078238268775642106e-03,8.078238268775642106e-03,8.078238268775642106e-03,8.078238268775642106e-03,8.078238268775642106e-03,8.078238268775642106e-03,8.078238268775642106e-03,8.078238268775642106e-03,8.078238268775642106e-03,8.078238268775642106e-03,4.803276808461192510e-03,1.091653820104817110e-03,-2.838299932272522058e-03,-6.549922920628897458e-03,-1.047987667300623663e-02,-1.419149966136261029e-02,-1.812145341373994772e-02,-2.183307640209632833e-02,-2.576303015447366229e-02,-2.947465314283004290e-02,-3.340460689520737686e-02,-3.711622988356375746e-02,-4.082785287192013113e-02,-4.082785287192013113e-02,-4.082785287192013113e-02,-3.012964543489293073e-02,8.078238268775642106e-03,8.078238268775642106e-03,8.078238268775642106e-03,8.078238268775642106e-03,8.078238268775642106e-03,8.078238268775642106e-03,8.078238268775642106e-03
8.078238268775642106e-03,8.078238268775642106e-03,8.078238268775642106e-03,8.078238268775642106e-03,8.078238268775642106e-03,8.078238268775642106e-03,8.078238268775642106e-03,8.078238268775642106e-03,8.078238268775642106e-03,8.078238268775642106e-03,8.078238268775642106e-03,8.078238268775642106e-03,8.078238268775642106e-03,8.078238268775642106e-03,8.078238268775642106e-03,8.078238268775642106e-03,8.078238268775642106e-03,8.078238268775642106e-03,8.078238268775642106e-03,8.078238268775642106e-03,8.078238268775642106e-03,8.078238268775642106e-03,6.549922920628899192e-03,2.838299932272522925e-03,-1.091653820104815376e-03,-4.803276808461190775e-03,-8.733230560838529943e-03,-1.244485354919490361e-02,-1.637480730157224451e-02,-2.008643028992862165e-02,-2.401638404230596602e-02,-2.772800703066233968e-02,-3.143963001901871335e-02,-3.536958377139605425e-02,-3.908120675975242098e-02,-4.082785287192013113e-02,-4.082785287192011725e-02,-4.082785287192013113e-02,-4.082785287192013113e-02,-4.082785287192013113e-02,-1.484649195342550160e-02,8.078238268775642106e-03,8.078238268775642106e-03,8.078238268775642106e-03,8.078238268775642106e-03,8.078238268775642106e-03,8.078238268775642106e-03
8.078238268775642106e-03,8.078238268775642106e-03,8.078238268775642106e-03,8.078238268775642106e-03,8.078238268775642106e-03,8.078238268775642106e-03,8.078238268775642106e-03,8.078238268775642106e-03,8.078238268775642106e-03,8.078238268775642106e-03,8.078238268775642106e-03,8.078238268775642106e-03,8.078238268775642106e-03,8.078238268775642106e-03,8.078238268775642106e-03,8.078238268775642106e-03,8.078238268775642106e-03,8.078238268775642106e-03,8.078238268775642106e-03,8.078238268775642106e-03,8.078238268775642106e-03,4.584946044440229608e-03,6.549922920628904396e-04,-3.056630696293485827e-03,-6.986584448670823261e-03,-1.069820743702720039e-02,-1.440983042538357406e-02,-1.833978417776091496e-02,-2.205140716611729210e-02,-2.598136091849463647e-02,-2.969298390685100320e-02,-3.362293765922834410e-02,-3.733456064758471776e-02,-4.082785287192013113e-02,-4.082785287192012419e-02,-4.082785287192013113e-02,-4.082785287192013113e-02,-4.082785287192013113e-02,-4.082785287192013113e-02,-4.082785287192013113e-02,-4.082785287192013113e-02,-1.091653820104815376e-03,8.078238268775642106e-03,8.078238268775642106e-03,8.078238268775642106e-03,8.078238268775642106e-03,8.078238268775642106e-03
8.078238268775642106e-03,8.078238268775642106e-03,8.078238268775642106e-03,8.078238268775642106e-03,8.078238268775642106e-03,8.078238268775642106e-03,8.078238268775642106e-03,8.078238268775642106e-03,8.078238268775642106e-03,8.078238268775642106e-03,8.078238268775642106e-03,8.078238268775642106e-03,8.078238268775642106e-03,8.078238268775642106e-03,8.078238268775642106e-03,8.078238268775642106e-03,8.078238268775642106e-03,8.078238268775642106e-03,8.078238268775642106e-03,6.331592156607935423e-03,2.619969168251560024e-03,-1.309984584125779145e-03,-5.021607572482152809e-03,-8.951561324859493712e-03,-1.266318431321586738e-02,-1.659313806559320828e-02,-2.030476105394958541e-02,-2.423471480632692632e-02,-2.794633779468329998e-02,-3.187629154706064089e-02,-3.558791453541701455e-02,-3.951786828779434851e-02,-4.082785287192013113e-02,-4.082785287192013113e-02,-4.082785287192013113e-02,-4.082785287192013113e-02,-4.082785287192013113e-02,-4.082785287192013113e-02,-4.082785287192013113e-02,-4.082785287192013113e-02,-4.082785287192013113e-02,-2.707301473859944491e-02,8.078238268775642106e-03,8.078238268775642106e-03,8.078238268775642106e-03,8.078238268775642106e-03,8.078238268775642106e-03
8.078238268775642106e-03,8.078238268775642106e-03,8.078238268775642106e-03,8.078238268775642106e-03,8.078238268775642106e-03,8.078238268775642106e-03,8.078238268775642106e-03,8.078238268775642106e-03,8.078238268775642106e-03,8.078238268775642106e-03,8.078238268775642106e-03,8.078238268775642106e-03,8.078238268775642106e-03,8.078238268775642106e-03,8.078238268775642106e-03,8.078238268775642106e-03,8.078238268775642106e-03,8.078238268775642106e-03,4.366615280419266706e-03,4.366615280419275380e-04,-3.274961460314449596e-03,-7.204915212691787030e-03,-1.091653820104816069e-02,-1.484649195342550507e-02,-1.855811494178187873e-02,-2.248806869415922310e-02,-2.619969168251559677e-02,-3.012964543489293073e-02,-3.384126842324930440e-02,-3.777122217562664530e-02,-4.082785287192013113e-02,-4.082785287192013113e-02,-4.082785287192013113e-02,-4.082785287192013113e-02,-4.082785287192013113e-02,-4.082785287192013113e-02,-4.082785287192013113e-02,-4.082785287192013113e-02,-4.082785287192013113e-02,-4.082785287192013113e-02,-4.082785287192013113e-02,-4.082785287192013113e-02,-1.331817660527875868e-02,8.078238268775642106e-03,8.078238268775642106e-03,8.078238268775642106e-03,8.078238268775642106e-03
8.078238268775642106e-03,8.078238268775642106e-03,8.078238268775642106e-03,8.078238268775642106e-03,8.078238268775642106e-03,8.078238268775642106e-03,8.078238268775642106e-03,8.078238268775642106e-03,8.078238268775642106e-03,8.078238268775642106e-03,8.078238268775642106e-03,8.078238268775642106e-03,8.078238268775642106e-03,8.078238268775642106e-03,8.078238268775642106e-03,8.078238268775642106e-03,6.113261392586972522e-03,2.183307640209633353e-03,-1.528315348146742914e-03,-5.458269100524082082e-03,-9.169892088880457481e-03,-1.309984584125779492e-02,-1.681146882961417205e-02,-2.052309181797054918e-02,-2.445304557034789356e-02,-2.816466855870426722e-02,-3.209462231108160812e-02,-3.580624529943797485e-02,-3.973619905181531575e-02,-4.082785287192013113e-02,-4.082785287192013113e-02,-4.082785287192013807e-02,-4.082785287192013113e-02,-4.082785287192013113e-02,-4.082785287192013113e-02,-4.082785287192013113e-02,-4.082785287192013113e-02,-4.082785287192013113e-02,-4.082785287192013113e-02,-4.082785287192013113e-02,-4.082785287192013113e-02,-4.082785287192013113e-02,-4.082785287192013113e-02,4.366615280419275380e-04,8.078238268775642106e-03,8.078238268775642106e-03,8.078238268775642106e-03
8.078238268775642106e-03,8.078238268775642106e-03,8.078238268775642106e-03,8.078238268775642106e-03,8.078238268775642106e-03,8.078238268775642106e-03,8.078238268775642106e-03,8.078238268775642106e-03,8.078238268775642106e-03,8.078238268775642106e-03,8.078238268775642106e-03,8.078238268775642106e-03,8.078238268775642106e-03,8.078238268775642106e-03,7.859907504754678337e-03,4.148284516398302937e-03,2.183307640209637690e-04,-3.493292224335411630e-03,-7.423245976712750799e-03,-1.113486896506912793e-02,-1.506482271744646537e-02,-1.877644570580284250e-02,-2.270639945818018340e-02,-2.641802244653655707e-02,-3.034797619891389797e-02,-3.405959918727026470e-02,-3.798955293964760560e-02,-4.082785287192013113e-02,-4.082785287192013113e-02,-4.082785287192013113e-02,-4.082785287192013113e-02,-4.082785287192013113e-02,-4.082785287192013113e-02,-4.082785287192013807e-02,-4.082785287192013113e-02,-4.082785287192013113e-02,-4.082785287192013113e-02,-4.082785287192013113e-02,-4.082785287192013113e-02,-4.082785287192013113e-02,-4.082785287192013113e-02,-4.082785287192013113e-02,-4.082785287192013113e-02,-2.554469939045270199e-02,8.078238268775642106e-03,8.078238268775642106e-03,8.078238268775642106e-03
8.078238268775642106e-03,8.078238268775642106e-03,8.078238268775642106e-03,8.078238268775642106e-03,8.078238268775642106e-03,8.078238268775642106e-03,8.078238268775642106e-03,8.078238268775642106e-03,8.078238268775642106e-03,8.078238268775642106e-03,8.078238268775642106e-03,8.078238268775642106e-03,8.078238268775642106e-03,5.894930628566009620e-03,1.964976876188670452e-03,-1.746646112167706683e-03,-5.676599864545044116e-03,-9.388222852901421250e-03,-1.331817660527875868e-02,-1.702979959363513929e-02,-2.095975334601247325e-02,-2.467137633436885386e-02,-2.860133008674618782e-02,-3.231295307510256148e-02,-3.624290682747990239e-02,-3.995452981583627605e-02,-4.082785287192013113e-02,-4.082785287192013113e-02,-4.082785287192013113e-02,-4.082785287192013113e-02,-4.082785287192013807e-02,-4.082785287192013113e-02,-4.082785287192013113e-02,-4.082785287192013113e-02,-4.082785287192013113e-02,-4.082785287192013113e-02,-4.082785287192013113e-02,-4.082785287192013113e-02,-4.082785287192013113e-02,-4.082785287192013113e-02,-4.082785287192013113e-02,-4.082785287192013113e-02,-4.082785287192013113e-02,-4.082785287192013113e-02,-1.178986125713201577e-02,8.078238268775642106e-03,8.078238268775642106e-03
8.078238268775642106e-03,8.078238268775642106e-03,8.078238268775642106e-03,8.078238268775642106e-03,8.078238268775642106e-03,8.078238268775642106e-03,8.078238268775642106e-03,8.078238268775642106e-03,8.078238268775642106e-03,8.078238268775642106e-03,8.078238268775642106e-03,7.641576740733715435e-03,3.711622988356376267e-03,0.000000000000000000e+00,-3.929953752377337434e-03,-7.641576740733714568e-03,-1.157153049311105547e-02,-1.528315348146742914e-02,-1.921310723384477004e-02,-2.292473022220114370e-02,-2.663635321055752431e-02,-3.056630696293485827e-02,-3.427792995129123194e-02,-3.820788370366857284e-02,-4.082785287192013113e-02,-4.082785287192013113e-02,-4.082785287192013113e-02,-4.082785287192013113e-02,-4.082785287192013113e-02,-4.082785287192013113e-02,-4.082785287192013113e-02,-4.082785287192013113e-02,-4.082785287192013113e-02,-4.082785287192013113e-02,-4.082785287192013113e-02,-4.082785287192013113e-02,-4.082785287192013113e-02,-4.082785287192013113e-02,-4.082785287192013113e-02,-4.082785287192013113e-02,-4.082785287192013113e-02,-4.082785287192013113e-02,-4.082785287192013113e-02,-4.082785287192013113e-02,-3.777122217562664530e-02,1.964976876188670452e-03,8.078238268775642106e-03
8.078238268775642106e-03,8.078238268775642106e-03,8.078238268775642106e-03,8.078238268775642106e-03,8.078238268775642106e-03,8.078238268775642106e-03,8.078238268775642106e-03,8.078238268775642106e-03,8.078238268775642106e-03,8.078238268775642106e-03,5.458269100524082082e-03,1.746646112167706683e-03,-2.183307640209632486e-03,-5.894930628566007885e-03,-9.606553616922381550e-03,-1.353650736929972245e-02,-1.724813035765609612e-02,-2.117808411003343702e-02,-2.488970709838981415e-02,-2.881966085076715506e-02,-3.253128383912352872e-02,-3.646123759150086963e-02,-4.017286057985724329e-02,-4.082785287192013113e-02,-4.082785287192013113e-02,-4.082785287192013113e-02,-4.082785287192013113e-02,-4.082785287192013113e-02,-4.082785287192013113e-02,-4.082785287192013113e-02,-4.082785287192012419e-02,-4.082785287192013113e-02,-4.082785287192013113e-02,-4.082785287192013807e-02,-4.082785287192013113e-02,-4.082785287192013113e-02,-4.082785287192013113e-02,-4.082785287192013113e-02,-4.082785287192013113e-02,-4.082785287192013113e-02,-4.082785287192013113e-02,-4.082785287192013113e-02,-4.082785287192013113e-02,-4.082785287192013113e-02,-4.082785287192013113e-02,-2.401638404230595908e-02,8.078238268775642106e-03
8.078238268775642106e-03,8.078238268775642106e-03,8.078238268775642106e-03,8.078238268775642106e-03,8.078238268775642106e-03,8.078238268775642106e-03,8.078238268775642106e-03,8.078238268775642106e-03,7.423245976712752534e-03,3.493292224335413365e-03,-2.183307640209620343e-04,-4.148284516398301203e-03,-7.859907504754674867e-03,-1.178986125713201577e-02,-1.550148424548839290e-02,-1.943143799786573381e-02,-2.314306098622210747e-02,-2.707301473859944491e-02,-3.078463772695581857e-02,-3.471459147933315947e-02,-3.842621446768954008e-02,-4.082785287192013113e-02,-4.082785287192013113e-02,-4.082785287192013113e-02,-4.082785287192013113e-02,-4.082785287192013113e-02,-4.082785287192013113e-02,-4.082785287192013113e-02,-4.082785287192013113e-02,-4.082785287192013113e-02,-4.082785287192013113e-02,-4.082785287192013113e-02,-4.082785287192013113e-02,-4.082785287192013113e-02,-4.082785287192013113e-02,-4.082785287192013113e-02,-4.082785287192013113e-02,-4.082785287192013113e-02,-4.082785287192013113e-02,-4.082785287192013113e-02,-4.082785287192013113e-02,-4.082785287192013113e-02,-4.082785287192013113e-02,-4.082785287192013113e-02,-4.082785287192013113e-02,-3.973619905181531575e-02,-9.156246416129144861e-03
8.078238268775642106e-03,8.078238268775642106e-03,8.078238268775642106e-03,8.078238268775642106e-03,8.078238268775642106e-03,8.078238268775642106e-03,8.078238268775642106e-03,5.239938336503119180e-03,1.528315348146743781e-03,-2.401638404230594520e-03,-6.113261392586971654e-03,-1.004321514496430909e-02,-1.375483813332068622e-02,-1.768479188569802713e-02,-2.139641487405440079e-02,-2.532636862643174169e-02,-2.903799161478811536e-02,-3.274961460314448902e-02,-3.667956835552182993e-02,-4.039119134387820359e-02,-4.082785287192013113e-02,-4.082785287192013113e-02,-4.082785287192013113e-02,-4.082785287192013113e-02,-4.082785287192013113e-02,-4.082785287192013113e-02,-4.082785287192013113e-02,-4.082785287192013113e-02,-4.082785287192013113e-02,-4.082785287192013807e-02,-4.082785287192013113e-02,-4.082785287192013113e-02,-4.082785287192013113e-02,-4.082785287192013113e-02,-4.082785287192013113e-02,-4.082785287192013113e-02,-4.082785287192012419e-02,-4.082785287192013113e-02,-4.082785287192013113e-02,-4.082785287192013113e-02,-4.082785287192013113e-02,-4.082785287192013113e-02,-4.082785287192013113e-02,-4.060952210789917083e-02,-3.875371061372098747e-02,-3.678873373753230314e-02,-3.090062594534195850e-02
8.078238268775642106e-03,8.078238268775642106e-03,8.078238268775642106e-03,8.078238268775642106e-03,8.078238268775642106e-03,6.986584448670825863e-03,3.274961460314450463e-03,-6.549922920628895723e-04,-4.366615280419264972e-03,-8.296569032796602405e-03,-1.200819202115297954e-02,-1.571981500950935667e-02,-1.964976876188669758e-02,-2.336139175024307818e-02,-2.729134550262041214e-02,-3.100296849097678581e-02,-3.493292224335411977e-02,-3.864454523171049344e-02,-4.082785287192013113e-02,-4.082785287192013113e-02,-4.082785287192013113e-02,-4.082785287192013113e-02,-4.082785287192013113e-02,-4.082785287192013807e-02,-4.082785287192013113e-02,-4.082785287192013113e-02,-4.082785287192013113e-02,-4.082785287192013113e-02,-4.082785287192013113e-02,-4.082785287192013113e-02,-4.082785287192013113e-02,-4.082785287192013113e-02,-4.082785287192013113e-02,-4.082785287192013113e-02,-4.082785287192013113e-02,-4.082785287192013113e-02,-4.082785287192013113e-02,-4.082785287192013113e-02,-4.082785287192013113e-02,-4.082785287192013113e-02,-4.082785287192013113e-02,-4.082785287192013113e-02,-3.962703366980482866e-02,-3.766205679361615821e-02,-3.580624529943797485e-02,-3.384126842324930440e-02,-3.198545692907112103e-02
8.078238268775642106e-03,8.078238268775642106e-03,8.078238268775642106e-03,8.078238268775642106e-03,5.021607572482156279e-03,1.309984584125780879e-03,-2.619969168251558289e-03,-6.331592156607933689e-03,-1.026154590898527286e-02,-1.397316889734164652e-02,-1.790312264971898742e-02,-2.161474563807536456e-02,-2.554469939045270199e-02,-2.925632237880907566e-02,-3.318627613118640962e-02,-3.689789911954279022e-02,-4.082785287192013113e-02,-4.082785287192013113e-02,-4.082785287192013113e-02,-4.082785287192013113e-02,-4.082785287192013113e-02,-4.082785287192013113e-02,-4.082785287192013113e-02,-4.082785287192013113e-02,-4.082785287192013807e-02,-4.082785287192013113e-02,-4.082785287192013113e-02,-4.082785287192013113e-02,-4.082785287192013807e-02,-4.082785287192013113e-02,-4.082785287192013113e-02,-4.082785287192013113e-02,-4.082785287192013113e-02,-4.082785287192013113e-02,-4.082785287192012419e-02,-4.082785287192012419e-02,-4.082785287192013113e-02,-4.082785287192013113e-02,-4.082785287192013113e-02,-4.082785287192013113e-02,-4.050035672588868374e-02,-3.864454523171049344e-02,-3.667956835552182993e-02,-3.482375686134363962e-02,-3.285877998515497611e-02,-3.100296849097678581e-02,-2.903799161478811536e-02
8.078238268775642106e-03,8.078238268775642106e-03,6.768253684649862961e-03,3.056630696293486694e-03,-8.733230560838533413e-04,-4.584946044440227006e-03,-8.514899796817562705e-03,-1.222652278517393984e-02,-1.615647653755128074e-02,-1.986809952590765788e-02,-2.379805327828499878e-02,-2.750967626664137244e-02,-3.143963001901871335e-02,-3.515125300737508701e-02,-3.886287599573146068e-02,-4.082785287192013113e-02,-4.082785287192013113e-02,-4.082785287192013113e-02,-4.082785287192013113e-02,-4.082785287192013113e-02,-4.082785287192013113e-02,-4.082785287192013113e-02,-4.082785287192013113e-02,-4.082785287192013113e-02,-4.082785287192013113e-02,-4.082785287192013113e-02,-4.082785287192013807e-02,-4.082785287192013113e-02,-4.082785287192013113e-02,-4.082785287192013113e-02,-4.082785287192013113e-02,-4.082785287192013113e-02,-4.082785287192013113e-02,-4.082785287192013113e-02,-4.082785287192013113e-02,-4.082785287192013113e-02,-4.082785287192013113e-02,-4.082785287192013113e-02,-4.082785287192013113e-02,-3.951786828779434851e-02,-3.755289141160568500e-02,-3.569707991742748776e-02,-3.373210304123882425e-02,-3.187629154706063395e-02,-2.991131467087196349e-02,-2.805550317669378013e-02,-2.609052630050510968e-02
8.078238268775642106e-03,4.803276808461192510e-03,8.733230560838533413e-04,-2.838299932272522058e-03,-6.768253684649861227e-03,-1.047987667300623663e-02,-1.440983042538357406e-02,-1.812145341373995119e-02,-2.183307640209632833e-02,-2.576303015447366923e-02,-2.947465314283004983e-02,-3.340460689520737686e-02,-3.711622988356375052e-02,-4.082785287192013113e-02,-4.082785287192013113e-02,-4.082785287192013113e-02,-4.082785287192013113e-02,-4.082785287192013113e-02,-4.082785287192013113e-02,-4.082785287192013113e-02,-4.082785287192013113e-02,-4.082785287192012419e-02,-4.082785287192013113e-02,-4.082785287192013113e-02,-4.082785287192013113e-02,-4.082785287192013113e-02,-4.082785287192013113e-02,-4.082785287192013113e-02,-4.082785287192013113e-02,-4.082785287192013113e-02,-4.082785287192013113e-02,-4.082785287192013113e-02,-4.082785287192013113e-02,-4.082785287192013113e-02,-4.082785287192013113e-02,-4.082785287192013113e-02,-4.082785287192013113e-02,-4.039119134387820359e-02,-3.842621446768953314e-02,-3.657040297351134978e-02,-3.460542609732267239e-02,-3.274961460314448902e-02,-3.078463772695581857e-02,-2.892882623277763521e-02,-2.707301473859945184e-02,-2.510803786241078139e-02,-2.325222636823258415e-02
2.838299932272523793e-03,-1.091653820104815376e-03,-4.803276808461190775e-03,-8.733230560838529943e-03,-1.244485354919490708e-02,-1.637480730157224451e-02,-2.008643028992861818e-02,-2.401638404230596602e-02,-2.772800703066233274e-02,-3.165796078303967365e-02,-3.536958377139604731e-02,-3.929953752377338821e-02,-4.082785287192013113e-02,-4.082785287192013113e-02,-4.082785287192013113e-02,-4.082785287192013113e-02,-4.082785287192013113e-02,-4.082785287192013113e-02,-4.082785287192013113e-02,-4.082785287192013113e-02,-4.082785287192012419e-02,-4.082785287192013113e-02,-4.082785287192013113e-02,-4.082785287192013113e-02,-9.768071851369250491e-02,-9.768071851369249103e-02,-9.768071851369250491e-02,-9.768071851369250491e-02,-4.082785287192013113e-02,-4.082785287192013113e-02,-4.082785287192013113e-02,-4.082785287192013113e-02,-4.082785287192013113e-02,-4.082785287192013113e-02,-4.082785287192013113e-02,-4.082785287192013113e-02,-3.929953752377338821e-02,-3.744372602959519791e-02,-3.558791453541701455e-02,-3.362293765922834410e-02,-3.176712616505015380e-02,-2.980214928886148334e-02,-2.794633779468329998e-02,-2.598136091849462953e-02,-2.412554942431643923e-02,-2.216057254812777572e-02,-2.030476105394958541e-02
-3.056630696293485827e-03,-6.986584448670823261e-03,-1.069820743702720039e-02,-1.462816118940453436e-02,-1.833978417776091496e-02,-2.226973793013825240e-02,-2.598136091849462953e-02,-2.991131467087196349e-02,-3.362293765922835104e-02,-3.755289141160568500e-02,-4.082785287192013113e-02,-4.082785287192013113e-02,-4.082785287192013113e-02,-4.082785287192013113e-02,-4.082785287192013113e-02,-4.082785287192013113e-02,-4.082785287192013113e-02,-4.082785287192013113e-02,-4.082785287192013113e-02,-4.082785287192013113e-02,-4.082785287192013113e-02,-4.082785287192013113e-02,-4.082785287192013113e-02,-4.082785287192013113e-02,-9.768071851369250491e-02,-9.768071851369250491e-02,-9.768071851369250491e-02,-9.768071851369250491e-02,-4.082785287192013807e-02,-4.082785287192013113e-02,-4.082785287192013113e-02,-4.082785287192013113e-02,-4.082785287192013113e-02,-4.082785287192013113e-02,-4.028202596186772344e-02,-3.831704908567905299e-02,-3.646123759150086269e-02,-3.449626071531218530e-02,-3.264044922113400193e-02,-3.067547234494533842e-02,-2.881966085076715506e-02,-2.685468397457848461e-02,-2.499887248040029430e-02,-2.303389560421162732e-02,-2.117808411003344049e-02,-1.921310723384477004e-02,-1.735729573966657974e-02
-8.951561324859493712e-03,-1.288151507723683115e-02,-1.659313806559320481e-02,-2.052309181797054918e-02,-2.423471480632692632e-02,-2.794633779468329998e-02,-3.187629154706063395e-02,-3.558791453541701455e-02,-3.951786828779434851e-02,-4.082785287192013113e-02,-4.082785287192014501e-02,-4.082785287192013113e-02,-4.082785287192013113e-02,-4.082785287192013113e-02,-4.082785287192013113e-02,-4.082785287192013113e-02,-4.082785287192013113e-02,-4.082785287192013807e-02,-4.082785287192013113e-02,-4.082785287192013807e-02,-4.082785287192013113e-02,-4.082785287192013113e-02,-4.082785287192013113e-02,-4.082785287192013113e-02,-9.768071851369250491e-02,-9.768071851369250491e-02,-9.768071851369250491e-02,-9.768071851369250491e-02,-4.082785287192013113e-02,-4.082785287192013113e-02,-4.082785287192013113e-02,-4.082785287192013113e-02,-4.082785287192013113e-02,-3.919037214176290806e-02,-3.733456064758472470e-02,-3.536958377139604731e-02,-3.351377227721786395e-02,-3.154879540102918656e-02,-2.969298390685100320e-02,-2.772800703066233968e-02,-2.587219553648414938e-02,-2.390721866029547893e-02,-2.205140716611728863e-02,-2.019559567193910180e-02,-1.823061879575043134e-02,-1.637480730157224451e-02,-1.440983042538357406e-02
-1.484649195342550160e-02,-1.855811494178188220e-02,-2.248806869415921963e-02,-2.619969168251559677e-02,-3.012964543489293073e-02,-3.384126842324930440e-02,-3.777122217562664530e-02,-4.082785287192013113e-02,-4.082785287192013113e-02,-4.082785287192013113e-02,-4.082785287192013113e-02,-4.082785287192013113e-02,-4.082785287192013113e-02,-4.082785287192013113e-02,-4.082785287192013113e-02,-4.082785287192013113e-02,-4.082785287192013113e-02,-4.082785287192013113e-02,-4.082785287192013113e-02,-4.082785287192013113e-02,-4.082785287192013113e-02,-4.082785287192013113e-02,-4.082785287192013113e-02,-4.082785287192013113e-02,-9.768071851369250491e-02,-9.768071851369250491e-02,-9.768071851369250491e-02,-9.768071851369250491e-02,-4.082785287192013113e-02,-4.082785287192013113e-02,-4.082785287192013113e-02,-4.006369519784676314e-02,-3.820788370366857284e-02,-3.624290682747990239e-02,-3.438709533330171209e-02,-3.253128383912352178e-02,-3.056630696293485133e-02,-2.871049546875667491e-02,-2.674551859256800446e-02,-2.488970709838981415e-02,-2.292473022220114370e-02,-2.106891872802295340e-02,-1.910394185183428295e-02,-1.724813035765609959e-02,-1.528315348146742914e-02,-1.342734198728923883e-02,-1.146236511110056838e-02
-2.074142258199150948e-02,-2.445304557034788662e-02,-2.838299932272522752e-02,-3.209462231108160118e-02,-3.602457606345893515e-02,-3.973619905181530881e-02,-4.082785287192013113e-02,-4.082785287192013113e-02,-4.082785287192013113e-02,-4.082785287192013113e-02,-4.082785287192013113e-02,-4.082785287192013113e-02,-4.082785287192013113e-02,-4.082785287192013113e-02,-4.082785287192013113e-02,-4.082785287192013113e-02,-4.082785287192013113e-02,-4.082785287192012419e-02,-4.082785287192013113e-02,-4.082785287192013113e-02,-4.082785287192013113e-02,-4.082785287192013113e-02,-4.082785287192013113e-02,-4.082785287192013113e-02,-4.082785287192013113e-02,-4.082785287192013113e-02,-4.082785287192013113e-02,-4.082785287192013113e-02,-4.082785287192013113e-02,-4.082785287192013113e-02,-3.908120675975243485e-02,-3.722539526557423761e-02,-3.526041838938556716e-02,-3.340460689520737686e-02,-3.143963001901870641e-02,-2.958381852484052305e-02,-2.761884164865185259e-02,-2.576303015447366923e-02,-2.379805327828499878e-02,-2.194224178410680848e-02,-1.997726490791813803e-02,-1.812145341373995119e-02,-1.615647653755127727e-02,-1.430066504337309044e-02,-1.233568816718442346e-02,-1.047987667300623663e-02,-8.624065178828049794e-03
-2.663635321055752431e-02,-3.034797619891389797e-02,-3.405959918727026470e-02,-3.798955293964760560e-02,-4.082785287192013113e-02,-4.082785287192013113e-02,-1.354445106273913235e-01,-1.354445106273913235e-01,-1.354445106273913235e-01,-1.354445106273913235e-01,-1.354445106273913235e-01,-4.082785287192013113e-02,-4.082785287192013113e-02,-4.082785287192013113e-02,-4.082785287192013113e-02,-4.082785287192013113e-02,-4.082785287192013113e-02,-4.082785287192013113e-02,-4.082785287192013113e-02,-4.082785287192013113e-02,-4.082785287192013113e-02,-4.082785287192013113e-02,-4.082785287192013113e-02,-4.082785287192013113e-02,-4.082785287192013113e-02,-4.082785287192013113e-02,-4.082785287192013113e-02,-4.082785287192013113e-02,-3.995452981583627605e-02,-3.809871832165808575e-02,-3.613374144546942224e-02,-3.427792995129123194e-02,-3.231295307510256842e-02,-3.045714158092437812e-02,-2.849216470473570767e-02,-2.663635321055751737e-02,-2.467137633436885386e-02,-2.281556484019066355e-02,-2.095975334601247672e-02,-1.899477646982380280e-02,-1.713896497564561597e-02,-1.517398809945694899e-02,-1.331817660527875868e-02,-1.135319972909008823e-02,-9.497388234911904870e-03,-7.532411358723230949e-03,-5.676599864545044116e-03
-3.231295307510256148e-02,-3.624290682747990239e-02,-3.995452981583627605e-02,-4.082785287192013113e-02,-4.082785287192013113e-02,-4.082785287192013113e-02,-1.354445106273913235e-01,-1.354445106273913235e-01,-1.354445106273913235e-01,-1.354445106273913235e-01,-1.354445106273913235e-01,-4.082785287192013113e-02,-4.082785287192013113e-02,-4.082785287192013113e-02,-4.082785287192013113e-02,-4.082785287192013113e-02,-4.082785287192013113e-02,-4.082785287192013113e-02,-4.082785287192013113e-02,-4.082785287192013113e-02,-4.082785287192013113e-02,-4.082785287192013113e-02,-4.082785287192013113e-02,-4.082785287192013113e-02,-4.082785287192013113e-02,-4.082785287192013113e-02,-4.082785287192013113e-02,-3.897204137774194083e-02,-3.700706450155327731e-02,-3.515125300737508007e-02,-3.318627613118641656e-02,-3.133046463700822626e-02,-2.947465314283003596e-02,-2.750967626664137244e-02,-2.565386477246318908e-02,-2.368888789627451863e-02,-2.183307640209632486e-02,-1.986809952590765788e-02,-1.801228803172946757e-02,-1.604731115554080059e-02,-1.419149966136261029e-02,-1.222652278517394331e-02,-1.037071129099575301e-02,-8.405734414807086025e-03,-6.549922920628899192e-03,-4.584946044440228741e-03,-2.729134550262038439e-03
-3.820788370366857284e-02,-4.082785287192013113e-02,-4.082785287192013113e-02,-4.082785287192013113e-02,-4.082785287192013113e-02,-4.082785287192013113e-02,-1.354445106273913235e-01,-1.354445106273913235e-01,-1.354445106273913235e-01,-1.354445106273913235e-01,-1.354445106273913235e-01,-4.082785287192013113e-02,-4.082785287192013113e-02,-4.082785287192013113e-02,-4.082785287192013113e-02,-4.082785287192013113e-02,-4.082785287192013113e-02,-4.082785287192013113e-02,-4.082785287192013113e-02,-4.082785287192013113e-02,-4.082785287192013113e-02,-4.082785287192013113e-02,-4.082785287192013113e-02,-4.082785287192013113e-02,-4.082785287192013113e-02,-3.984536443382579590e-02,-3.798955293964760560e-02,-3.602457606345893515e-02,-3.416876456928074485e-02,-3.220378769309208133e-02,-3.034797619891389103e-02,-2.838299932272522058e-02,-2.652718782854704416e-02,-2.456221095235836677e-02,-2.270639945818018340e-02,-2.074142258199150948e-02,-1.888561108781332265e-02,-1.692063421162465220e-02,-1.506482271744646537e-02,-1.309984584125779492e-02,-1.124403434707960808e-02,-9.279057470890937631e-03,-7.423245976712750799e-03,-5.567434482534562232e-03,-3.602457606345893515e-03,-1.746646112167704948e-03,2.183307640209637690e-04
-4.082785287192013113e-02,-4.082785287192013113e-02,-4.082785287192013113e-02,-4.082785287192013113e-02,-4.082785287192013807e-02,-4.082785287192013113e-02,-1.354445106273913235e-01,-1.354445106273913235e-01,-1.354445106273913235e-01,-1.354445106273913235e-01,-1.354445106273913235e-01,-4.082785287192013113e-02,-4.082785287192013113e-02,-4.082785287192013113e-02,-4.082785287192013113e-02,-4.082785287192013113e-02,-4.082785287192013113e-02,-4.082785287192013113e-02,-4.082785287192013113e-02,-4.082785287192013113e-02,-4.082785287192013113e-02,-4.082785287192013113e-02,-4.082785287192013113e-02,-4.071868748990965792e-02,-3.886287599573146068e-02,-3.689789911954279022e-02,-3.504208762536459992e-02,-3.307711074917593641e-02,-3.122129925499774611e-02,-2.925632237880907566e-02,-2.740051088463088536e-02,-2.543553400844222878e-02,-2.357972251426403154e-02,-2.161474563807536456e-02,-1.975893414389717773e-02,-1.779395726770850381e-02,-1.593814577353031697e-02,-1.408233427935213014e-02,-1.211735740316345969e-02,-1.026154590898527286e-02,-8.296569032796605875e-03,-6.440757538618415573e-03,-4.475780662429745121e-03,-2.619969168251558289e-03,-6.549922920628878376e-04,1.200819202115298995e-03,3.165796078303968579e-03
-3.624290682747990239e-02,-4.082785287192013113e-02,-4.082785287192013113e-02,-4.082785287192013113e-02,-4.082785287192013113e-02,-4.082785287192013113e-02,-1.354445106273913235e-01,-1.354445106273913235e-01,-1.354445106273913235e-01,-1.354445106273913235e-01,-1.354445106273913235e-01,-4.082785287192013113e-02,-4.082785287192013113e-02,-4.082785287192013113e-02,-4.082785287192013113e-02,-4.082785287192013113e-02,-4.082785287192013113e-02,-4.082785287192013113e-02,-4.082785287192013113e-02,-4.082785287192013113e-02,-4.082785287192012419e-02,-4.082785287192013113e-02,-3.973619905181531575e-02,-3.777122217562664530e-02,-3.591541068144846194e-02,-3.395043380525978455e-02,-3.209462231108160118e-02,-3.012964543489293073e-02,-2.827383394071474043e-02,-2.641802244653655707e-02,-2.445304557034789356e-02,-2.259723407616969978e-02,-2.063225719998102933e-02,-1.877644570580283903e-02,-1.681146882961417205e-02,-1.495565733543598175e-02,-1.299068045924731130e-02,-1.113486896506912793e-02,-9.169892088880457481e-03,-7.314080594702270649e-03,-5.349103718513600197e-03,-3.493292224335411630e-03,-1.528315348146741179e-03,3.274961460314456535e-04,2.292473022220115238e-03,4.148284516398302937e-03,6.113261392586972522e-03
-1.026154590898527286e-02,-4.082785287192013113e-02,-4.082785287192013113e-02,-4.082785287192013113e-02,-4.082785287192013113e-02,-4.082785287192013113e-02,-4.082785287192013113e-02,-4.082785287192013113e-02,-4.082785287192013113e-02,-4.082785287192013113e-02,-4.082785287192013113e-02,-4.082785287192013113e-02,-4.082785287192013113e-02,-4.082785287192013113e-02,-4.082785287192013113e-02,-4.082785287192013113e-02,-4.082785287192013113e-02,-4.082785287192013113e-02,-4.082785287192013113e-02,-4.082785287192013113e-02,-4.060952210789916389e-02,-3.864454523171049344e-02,-3.678873373753231008e-02,-3.493292224335411977e-02,-3.296794536716544932e-02,-3.111213387298725902e-02,-2.914715699679859551e-02,-2.729134550262040521e-02,-2.532636862643174169e-02,-2.347055713225355139e-02,-2.150558025606488094e-02,-1.964976876188669758e-02,-1.768479188569802366e-02,-1.582898039151983682e-02,-1.386400351533116637e-02,-1.200819202115297954e-02,-1.004321514496430909e-02,-8.187403650786122256e-03,-6.222426774597453539e-03,-4.366615280419264972e-03,-2.401638404230594520e-03,-5.458269100524076878e-04,1.309984584125780879e-03,3.274961460314449596e-03,5.130772954492638163e-03,7.095749830681306880e-03,8.078238268775642106e-03
8.078238268775642106e-03,-2.401638404230595908e-02,-4.082785287192013113e-02,-4.082785287192013113e-02,-4.082785287192013113e-02,-4.082785287192013113e-02,-4.082785287192013113e-02,-4.082785287192013113e-02,-4.082785287192013113e-02,-4.082785287192013113e-02,-4.082785287192013113e-02,-4.082785287192013113e-02,-4.082785287192013113e-02,-4.082785287192013113e-02,-4.082785287192013113e-02,-4.082785287192013113e-02,-4.082785287192013113e-02,-4.082785287192013113e-02,-4.082785287192013113e-02,-3.962703366980483560e-02,-3.766205679361616515e-02,-3.580624529943797485e-02,-3.384126842324930440e-02,-3.198545692907112103e-02,-3.002048005288245058e-02,-2.816466855870426028e-02,-2.619969168251559677e-02,-2.434388018833740647e-02,-2.237890331214873602e-02,-2.052309181797054571e-02,-1.855811494178187526e-02,-1.670230344760368843e-02,-1.473732657141502145e-02,-1.288151507723683115e-02,-1.102570358305864431e-02,-9.060726706869977332e-03,-7.204915212691788765e-03,-5.239938336503118313e-03,-3.384126842324929746e-03,-1.419149966136259294e-03,4.366615280419266706e-04,2.401638404230596255e-03,4.257449898408784822e-03,6.222426774597454406e-03,8.078238268775642106e-03,8.078238268775642106e-03,8.078238268775642106e-03
8.078238268775642106e-03,3.493292224335413365e-03,-3.777122217562664530e-02,-4.082785287192013113e-02,-4.082785287192013113e-02,-4.082785287192013113e-02,-4.082785287192013113e-02,-4.082785287192013113e-02,-4.082785287192013113e-02,-4.082785287192013113e-02,-4.082785287192013113e-02,-4.082785287192013113e-02,-4.082785287192013113e-02,-4.082785287192013113e-02,-4.082785287192013113e-02,-4.082785287192013113e-02,-4.082785287192012419e-02,-4.050035672588868374e-02,-3.853537984970001329e-02,-3.667956835552182993e-02,-3.471459147933315253e-02,-3.285877998515496917e-02,-3.089380310896629872e-02,-2.903799161478810842e-02,-2.707301473859945184e-02,-2.521720324442126154e-02,-2.336139175024307124e-02,-2.139641487405440079e-02,-1.954060337987621049e-02,-1.757562650368754004e-02,-1.571981500950935667e-02,-1.375483813332068622e-02,-1.189902663914249592e-02,-9.934049762953828938e-03,-8.078238268775642106e-03,-6.113261392586971654e-03,-4.257449898408781352e-03,-2.292473022220112636e-03,-4.366615280419258033e-04,1.528315348146743781e-03,3.384126842324931481e-03,5.349103718513601065e-03,7.204915212691788765e-03,8.078238268775642106e-03,8.078238268775642106e-03,8.078238268775642106e-03,8.078238268775642106e-03
8.078238268775642106e-03,8.078238268775642106e-03,-1.178986125713201577e-02,-4.082785287192013113e-02,-4.082785287192013113e-02,-4.082785287192013113e-02,-4.082785287192013113e-02,-4.082785287192013113e-02,-4.082785287192013113e-02,-4.082785287192013113e-02,-4.082785287192013113e-02,-4.082785287192013113e-02,-4.082785287192013113e-02,-4.082785287192013113e-02,-4.082785287192013113e-02,-4.082785287192013113e-02,-3.940870290578386836e-02,-3.755289141160568500e-02,-3.558791453541700761e-02,-3.373210304123882425e-02,-3.187629154706063395e-02,-2.991131467087196349e-02,-2.805550317669378013e-02,-2.609052630050510968e-02,-2.423471480632692632e-02,-2.226973793013825587e-02,-2.041392643596006903e-02,-1.844894955977139511e-02,-1.659313806559320828e-02,-1.462816118940453783e-02,-1.277234969522634753e-02,-1.080737281903768054e-02,-8.951561324859497182e-03,-6.986584448670824996e-03,-5.130772954492636428e-03,-3.165796078303965977e-03,-1.309984584125779145e-03,5.458269100524094225e-04,2.510803786241078139e-03,4.366615280419266706e-03,6.331592156607935423e-03,8.078238268775642106e-03,8.078238268775642106e-03,8.078238268775642106e-03,8.078238268775642106e-03,8.078238268775642106e-03,8.078238268775642106e-03
8.078238268775642106e-03,8.078238268775642106e-03,8.078238268775642106e-03,-2.554469939045270199e-02,-4.082785287192013113e-02,-4.082785287192013113e-02,-4.082785287192013113e-02,-4.082785287192013113e-02,-4.082785287192013113e-02,-4.082785287192013113e-02,-4.082785287192013113e-02,-4.082785287192013113e-02,-4.082785287192013113e-02,-4.082785287192013113e-02,-4.039119134387820359e-02,-3.842621446768952620e-02,-3.657040297351134284e-02,-3.460542609732267932e-02,-3.274961460314448902e-02,-3.078463772695581857e-02,-2.892882623277763521e-02,-2.696384935658897170e-02,-2.510803786241078139e-02,-2.314306098622210747e-02,-2.128724949204391717e-02,-1.932227261585525019e-02,-1.746646112167705989e-02,-1.550148424548838944e-02,-1.364567275131020260e-02,-1.168069587512153215e-02,-9.824884380943345319e-03,-7.969072886765158487e-03,-6.004096010576489770e-03,-4.148284516398301203e-03,-2.183307640209630751e-03,-3.274961460314439188e-04,1.637480730157224798e-03,3.493292224335413365e-03,5.458269100524082949e-03,7.314080594702270649e-03,8.078238268775642106e-03,8.078238268775642106e-03,8.078238268775642106e-03,8.078238268775642106e-03,8.078238268775642106e-03,8.078238268775642106e-03,8.078238268775642106e-03
8.078238268775642106e-03,8.078238268775642106e-03,8.078238268775642106e-03,4.366615280419275380e-04,-3.929953752377338821e-02,-4.082785287192013113e-02,-4.082785287192013113e-02,-4.082785287192013113e-02,-4.082785287192013113e-02,-4.082785287192013113e-02,-4.082785287192013113e-02,-4.082785287192013113e-02,-4.082785287192013113e-02,-3.929953752377338821e-02,-3.744372602959520485e-02,-3.547874915340652746e-02,-3.362293765922833716e-02,-3.165796078303967365e-02,-2.980214928886149028e-02,-2.783717241267281983e-02,-2.598136091849463647e-02,-2.401638404230596602e-02,-2.216057254812777225e-02,-2.030476105394958194e-02,-1.833978417776091496e-02,-1.648397268358272466e-02,-1.451899580739405421e-02,-1.266318431321586738e-02,-1.069820743702720039e-02,-8.842395942849010093e-03,-6.877419066660343111e-03,-5.021607572482156279e-03,-3.056630696293485827e-03,-1.200819202115297260e-03,7.641576740733714568e-04,2.619969168251560024e-03,4.584946044440229608e-03,6.440757538618417308e-03,8.078238268775642106e-03,8.078238268775642106e-03,8.078238268775642106e-03,8.078238268775642106e-03,8.078238268775642106e-03,8.078238268775642106e-03,8.078238268775642106e-03,8.078238268775642106e-03,8.078238268775642106e-03
8.078238268775642106e-03,8.078238268775642106e-03,8.078238268775642106e-03,8.078238268775642106e-03,-1.331817660527875868e-02,-4.082785287192013807e-02,-4.082785287192013113e-02,-4.082785287192013113e-02,-4.082785287192013113e-02,-4.082785287192013113e-02,-4.082785287192013113e-02,-4.017286057985724329e-02,-3.831704908567905299e-02,-3.635207220949038254e-02,-3.449626071531218530e-02,-3.253128383912352178e-02,-3.067547234494533842e-02,-2.881966085076714812e-02,-2.685468397457848461e-02,-2.499887248040029430e-02,-2.303389560421162385e-02,-2.117808411003344049e-02,-1.921310723384476657e-02,-1.735729573966657974e-02,-1.539231886347790929e-02,-1.353650736929972245e-02,-1.157153049311105200e-02,-9.715718998932865169e-03,-7.750742122744194718e-03,-5.894930628566007885e-03,-3.929953752377337434e-03,-2.074142258199150601e-03,-1.091653820104818845e-04,1.746646112167707550e-03,3.711622988356377134e-03,5.567434482534563966e-03,7.423245976712752534e-03,8.078238268775642106e-03,8.078238268775642106e-03,8.078238268775642106e-03,8.078238268775642106e-03,8.078238268775642106e-03,8.078238268775642106e-03,8.078238268775642106e-03,8.078238268775642106e-03,8.078238268775642106e-03,8.078238268775642106e-03
8.078238268775642106e-03,8.078238268775642106e-03,8.078238268775642106e-03,8.078238268775642106e-03,8.078238268775642106e-03,-2.707301473859944491e-02,-4.082785287192013113e-02,-4.082785287192013113e-02,-4.082785287192013113e-02,-4.082785287192014501e-02,-3.919037214176290806e-02,-3.733456064758471776e-02,-3.536958377139605425e-02,-3.351377227721785701e-02,-3.154879540102918656e-02,-2.969298390685100320e-02,-2.772800703066233968e-02,-2.587219553648414938e-02,-2.390721866029547893e-02,-2.205140716611728863e-02,-2.008643028992862165e-02,-1.823061879575043481e-02,-1.626564191956176436e-02,-1.440983042538357406e-02,-1.244485354919490361e-02,-1.058904205501672025e-02,-8.624065178828049794e-03,-6.768253684649861227e-03,-4.912442190471672659e-03,-2.947465314283002208e-03,-1.091653820104815376e-03,8.733230560838542086e-04,2.729134550262041908e-03,4.694111426450710625e-03,6.549922920628899192e-03,8.078238268775642106e-03,8.078238268775642106e-03,8.078238268775642106e-03,8.078238268775642106e-03,8.078238268775642106e-03,8.078238268775642106e-03,8.078238268775642106e-03,8.078238268775642106e-03,8.078238268775642106e-03,8.078238268775642106e-03,8.078238268775642106e-03,8.078238268775642106e-03
8.078238268775642106e-03,8.078238268775642106e-03,8.078238268775642106e-03,8.078238268775642106e-03,8.078238268775642106e-03,-1.091653820104815376e-03,-4.082785287192013113e-02,-4.082785287192013113e-02,-4.006369519784675620e-02,-3.820788370366856590e-02,-3.624290682747990239e-02,-3.438709533330171209e-02,-3.242211845711304163e-02,-3.056630696293485827e-02,-2.860133008674618782e-02,-2.674551859256800446e-02,-2.478054171637933401e-02,-2.292473022220114370e-02,-2.095975334601247672e-02,-1.910394185183428295e-02,-1.713896497564561597e-02,-1.528315348146742914e-02,-1.342734198728923883e-02,-1.146236511110056838e-02,-9.606553616922385019e-03,-7.641576740733714568e-03,-5.785765246555527735e-03,-3.820788370366857284e-03,-1.964976876188668717e-03,0.000000000000000000e+00,1.855811494178188567e-03,3.820788370366858151e-03,5.676599864545045851e-03,7.641576740733715435e-03,8.078238268775642106e-03,8.078238268775642106e-03,8.078238268775642106e-03,8.078238268775642106e-03,8.078238268775642106e-03,8.078238268775642106e-03,8.078238268775642106e-03,8.078238268775642106e-03,8.078238268775642106e-03,8.078238268775642106e-03,8.078238268775642106e-03,8.078238268775642106e-03,8.078238268775642106e-03
8.078238268775642106e-03,8.078238268775642106e-03,8.078238268775642106e-03,8.078238268775642106e-03,8.078238268775642106e-03,8.078238268775642106e-03,-1.484649195342550160e-02,-3.908120675975242098e-02,-3.711622988356375746e-02,-3.526041838938556716e-02,-3.329544151319689671e-02,-3.143963001901870641e-02,-2.947465314283003596e-02,-2.761884164865185259e-02,-2.576303015447366923e-02,-2.379805327828499878e-02,-2.194224178410681195e-02,-1.997726490791813803e-02,-1.812145341373995119e-02,-1.615647653755128074e-02,-1.430066504337309391e-02,-1.233568816718442346e-02,-1.047987667300623663e-02,-8.514899796817566174e-03,-6.659088302639379342e-03,-4.694111426450708890e-03,-2.838299932272522058e-03,-8.733230560838516066e-04,9.824884380943360931e-04,2.947465314283004810e-03,4.803276808461192510e-03,6.768253684649862961e-03,8.078238268775642106e-03,8.078238268775642106e-03,8.078238268775642106e-03,8.078238268775642106e-03,8.078238268775642106e-03,8.078238268775642106e-03,8.078238268775642106e-03,8.078238268775642106e-03,8.078238268775642106e-03,8.078238268775642106e-03,8.078238268775642106e-03,8.078238268775642106e-03,8.078238268775642106e-03,8.078238268775642106e-03,8.078238268775642106e-03
8.078238268775642106e-03,8.078238268775642106e-03,8.078238268775642106e-03,8.078238268775642106e-03,8.078238268775642106e-03,8.078238268775642106e-03,8.078238268775642106e-03,-2.646237088297831441e-02,-3.427792995129123194e-02,-3.231295307510256842e-02,-3.045714158092437812e-02,-2.849216470473570767e-02,-2.663635321055752431e-02,-2.467137633436885386e-02,-2.281556484019066355e-02,-2.085058796400199310e-02,-1.899477646982380280e-02,-1.702979959363513235e-02,-1.517398809945694552e-02,-1.320901122326827506e-02,-1.135319972909008823e-02,-9.388222852901421250e-03,-7.532411358723232683e-03,-5.567434482534563966e-03,-3.711622988356373665e-03,-1.855811494178186832e-03,1.091653820104836192e-04,1.964976876188670452e-03,3.929953752377339168e-03,5.785765246555527735e-03,7.750742122744197320e-03,8.078238268775642106e-03,8.078238268775642106e-03,8.078238268775642106e-03,8.078238268775642106e-03,8.078238268775642106e-03,8.078238268775642106e-03,8.078238268775642106e-03,8.078238268775642106e-03,8.078238268775642106e-03,8.078238268775642106e-03,8.078238268775642106e-03,8.078238268775642106e-03,8.078238268775642106e-03,8.078238268775642106e-03,8.078238268775642106e-03,8.078238268775642106e-03
8.078238268775642106e-03,8.078238268775642106e-03,8.078238268775642106e-03,8.078238268775642106e-03,8.078238268775642106e-03,8.078238268775642106e-03,8.078238268775642106e-03,-9.483742562160571432e-04,-3.133046463700822626e-02,-2.936548776081956275e-02,-2.750967626664137244e-02,-2.554469939045270199e-02,-2.368888789627451169e-02,-2.172391102008584471e-02,-1.986809952590765788e-02,-1.790312264971898742e-02,-1.604731115554080059e-02,-1.419149966136261029e-02,-1.222652278517394331e-02,-1.037071129099575648e-02,-8.405734414807086025e-03,-6.549922920628899192e-03,-4.584946044440227006e-03,-2.729134550262038439e-03,-7.641576740733714568e-04,1.091653820104817110e-03,3.056630696293486694e-03,4.912442190471674394e-03,6.877419066660343978e-03,8.078238268775642106e-03,8.078238268775642106e-03,8.078238268775642106e-03,8.078238268775642106e-03,8.078238268775642106e-03,8.078238268775642106e-03,8.078238268775642106e-03,8.078238268775642106e-03,8.078238268775642106e-03,8.078238268775642106e-03,8.078238268775642106e-03,8.078238268775642106e-03,8.078238268775642106e-03,8.078238268775642106e-03,8.078238268775642106e-03,8.078238268775642106e-03,8.078238268775642106e-03,8.078238268775642106e-03
8.078238268775642106e-03,8.078238268775642106e-03,8.078238268775642106e-03,8.078238268775642106e-03,8.078238268775642106e-03,8.078238268775642106e-03,8.078238268775642106e-03,8.078238268775642106e-03,-1.015238052697479271e-02,-2.641802244653655707e-02,-2.456221095235837371e-02,-2.270639945818017993e-02,-2.074142258199150948e-02,-1.888561108781332265e-02,-1.692063421162465220e-02,-1.506482271744646537e-02,-1.309984584125779492e-02,-1.124403434707960808e-02,-9.279057470890937631e-03,-7.423245976712752534e-03,-5.458269100524080347e-03,-3.602457606345893515e-03,-1.637480730157223063e-03,2.183307640209637690e-04,2.183307640209633353e-03,4.039119134387821053e-03,6.004096010576490637e-03,7.859907504754678337e-03,8.078238268775642106e-03,8.078238268775642106e-03,8.078238268775642106e-03,8.078238268775642106e-03,8.078238268775642106e-03,8.078238268775642106e-03,8.078238268775642106e-03,8.078238268775642106e-03,8.078238268775642106e-03,8.078238268775642106e-03,8.078238268775642106e-03,8.078238268775642106e-03,8.078238268775642106e-03,8.078238268775642106e-03,8.078238268775642106e-03,8.078238268775642106e-03,8.078238268775642106e-03,8.078238268775642106e-03,8.078238268775642106e-03
8.078238268775642106e-03,8.078238268775642106e-03,8.078238268775642106e-03,8.078238268775642106e-03,8.078238268775642106e-03,8.078238268775642106e-03,8.078238268775642106e-03,8.078238268775642106e-03,8.078238268775642106e-03,-1.764385486744409620e-02,-2.161474563807536109e-02,-1.975893414389717773e-02,-1.779395726770850727e-02,-1.593814577353031697e-02,-1.397316889734164652e-02,-1.211735740316345622e-02,-1.015238052697479271e-02,-8.296569032796605875e-03,-6.331592156607933689e-03,-4.475780662429745121e-03,-2.510803786241078139e-03,-6.549922920628878376e-04,1.200819202115298995e-03,3.165796078303967712e-03,5.021607572482156279e-03,6.986584448670825863e-03,8.078238268775642106e-03,8.078238268775642106e-03,8.078238268775642106e-03,8.078238268775642106e-03,8.078238268775642106e-03,8.078238268775642106e-03,8.078238268775642106e-03,8.078238268775642106e-03,8.078238268775642106e-03,8.078238268775642106e-03,8.078238268775642106e-03,8.078238268775642106e-03,8.078238268775642106e-03,8.078238268775642106e-03,8.078238268775642106e-03,8.078238268775642106e-03,8.078238268775642106e-03,8.078238268775642106e-03,8.078238268775642106e-03,8.078238268775642106e-03,8.078238268775642106e-03
8.078238268775642106e-03,8.078238268775642106e-03,8.078238268775642106e-03,8.078238268775642106e-03,8.078238268775642106e-03,8.078238268775642106e-03,8.078238268775642106e-03,8.078238268775642106e-03,8.078238268775642106e-03,9.006144015864742461e-04,-1.866728032379235888e-02,-1.681146882961417205e-02,-1.484649195342550160e-02,-1.299068045924731477e-02,-1.102570358305864431e-02,-9.169892088880457481e-03,-7.314080594702267180e-03,-5.349103718513598463e-03,-3.493292224335409896e-03,-1.528315348146741179e-03,3.274961460314465209e-04,2.292473022220115238e-03,4.148284516398302937e-03,6.113261392586972522e-03,7.969072886765160221e-03,8.078238268775642106e-03,8.078238268775642106e-03,8.078238268775642106e-03,8.078238268775642106e-03,8.078238268775642106e-03,8.078238268775642106e-03,8.078238268775642106e-03,8.078238268775642106e-03,8.078238268775642106e-03,8.078238268775642106e-03,8.078238268775642106e-03,8.078238268775642106e-03,8.078238268775642106e-03,8.078238268775642106e-03,8.078238268775642106e-03,8.078238268775642106e-03,8.078238268775642106e-03,8.078238268775642106e-03,8.078238268775642106e-03,8.078238268775642106e-03,8.078238268775642106e-03,8.078238268775642106e-03
8.078238268775642106e-03,8.078238268775642106e-03,8.078238268775642106e-03,8.078238268775642106e-03,8.078238268775642106e-03,8.078238268775642106e-03,8.078238268775642106e-03,8.078238268775642106e-03,8.078238268775642106e-03,8.078238268775642106e-03,-5.369572227640563925e-03,-1.386400351533116637e-02,-1.200819202115297954e-02,-1.004321514496430909e-02,-8.187403650786122256e-03,-6.222426774597453539e-03,-4.366615280419264972e-03,-2.401638404230594520e-03,-5.458269100524076878e-04,1.419149966136261896e-03,3.274961460314450463e-03,5.239938336503120048e-03,7.095749830681306880e-03,8.078238268775642106e-03,8.078238268775642106e-03,8.078238268775642106e-03,8.078238268775642106e-03,8.078238268775642106e-03,8.078238268775642106e-03,8.078238268775642106e-03,8.078238268775642106e-03,8.078238268775642106e-03,8.078238268775642106e-03,8.078238268775642106e-03,8.078238268775642106e-03,8.078238268775642106e-03,8.078238268775642106e-03,8.078238268775642106e-03,8.078238268775642106e-03,8.078238268775642106e-03,8.078238268775642106e-03,8.078238268775642106e-03,8.078238268775642106e-03,8.078238268775642106e-03,8.078238268775642106e-03,8.078238268775642106e-03,8.078238268775642106e-03
