-6.083171762162942892e-02,-6.083171762162942892e-02,-6.083171762162942892e-02,-6.083171762162942892e-02,-6.083171762162942892e-02,-6.083171762162942892e-02,-6.083171762162942892e-02,-6.083171762162942892e-02,-6.083171762162942892e-02,-6.083171762162942892e-02,-6.083171762162942892e-02,-6.083171762162942892e-02,-6.083171762162942892e-02,-6.083171762162942892e-02,-6.083171762162942892e-02,-6.083171762162942892e-02,-5.923713620782232459e-02,-4.128089883626508139e-02,-2.557896185559983826e-02,-1.870975525533669082e-02,-2.161126810242098434e-02,-2.461283311664612394e-02,-2.761439813087126355e-02,-3.051591097795555707e-02,-3.351747599218068974e-02,-3.651904100640582240e-02,-3.952060602063096895e-02,-4.242211886771526247e-02,-4.542368388194040207e-02,-4.842524889616553474e-02,-5.132676174324983520e-02,-5.432832675747496787e-02,-5.732989177170010053e-02,-6.033145678592524014e-02,-6.083171762162942892e-02,-6.083171762162942892e-02,-6.083171762162942892e-02,-6.083171762162942892e-02,-6.083171762162942892e-02,-6.083171762162942892e-02,-6.083171762162942892e-02,-6.083171762162942892e-02,-6.083171762162942892e-02,-6.083171762162942892e-02,-6.083171762162942892e-02,-6.083171762162942892e-02,-6.083171762162942892e-02
-6.083171762162942892e-02,-6.083171762162942892e-02,-6.083171762162942892e-02,-6.083171762162942892e-02,-6.083171762162942892e-02,-6.083171762162942892e-02,-6.083171762162942892e-02,-6.083171762162942892e-02,-6.083171762162942892e-02,-6.083171762162942892e-02,-6.083171762162942892e-02,-6.083171762162942892e-02,-6.083171762162942892e-02,-6.083171762162942892e-02,-4.809382609251150464e-02,-2.803961984121981776e-02,-1.023658735059698038e-02,-1.150599922119635576e-02,-1.450756423542149537e-02,-1.750912924964663497e-02,-2.041064209673093544e-02,-2.341220711095607504e-02,-2.641377212518120077e-02,-2.941533713940634037e-02,-3.231684998649063389e-02,-3.531841500071577350e-02,-3.831998001494091310e-02,-4.122149286202520663e-02,-4.422305787625034623e-02,-4.722462289047547890e-02,-5.022618790470061156e-02,-5.312770075178491203e-02,-2.367642690017543461e-01,-2.397658340159794788e-01,-2.414667208573737234e-01,-2.414667208573737234e-01,-6.083171762162942892e-02,-6.083171762162942892e-02,-6.083171762162942892e-02,-6.083171762162942892e-02,-6.083171762162942892e-02,-6.083171762162942892e-02,-6.083171762162942892e-02,-6.083171762162942892e-02,-6.083171762162942892e-02,-6.083171762162942892e-02,-6.083171762162942892e-02
-6.083171762162942892e-02,-6.083171762162942892e-02,-6.083171762162942892e-02,-6.083171762162942892e-02,-6.083171762162942892e-02,-6.083171762162942892e-02,-6.083171762162942892e-02,-6.083171762162942892e-02,-6.083171762162942892e-02,-6.083171762162942892e-02,-6.083171762162942892e-02,-5.893072644595351295e-02,-3.611883233784247971e-02,-1.330693822973143953e-02,-1.400730339971741067e-03,-4.402295354196873733e-03,-7.403860368421999461e-03,-1.030537321550630686e-02,-1.330693822973143953e-02,-1.630850324395657913e-02,-1.931006825818171874e-02,-2.221158110526601920e-02,-2.521314611949115186e-02,-2.821471113371628453e-02,-3.111622398080058499e-02,-3.411778899502572460e-02,-3.711935400925085726e-02,-4.012091902347598993e-02,-4.302243187056029039e-02,-4.602399688478542306e-02,-4.902556189901056266e-02,-5.192707474609485618e-02,-2.355636429960642764e-01,-2.385652080102894368e-01,-2.414667208573737234e-01,-2.414667208573737234e-01,-6.083171762162942892e-02,-6.083171762162942892e-02,-6.083171762162942892e-02,-6.083171762162942892e-02,-6.083171762162942892e-02,-6.083171762162942892e-02,-6.083171762162942892e-02,-6.083171762162942892e-02,-6.083171762162942892e-02,-6.083171762162942892e-02,-6.083171762162942892e-02
-6.083171762162942892e-02,-6.083171762162942892e-02,-6.083171762162942892e-02,-6.083171762162942892e-02,-6.083171762162942892e-02,-6.083171762162942892e-02,-6.083171762162942892e-02,-6.083171762162942892e-02,-6.083171762162942892e-02,-4.805943316005684141e-02,-2.471288528378695615e-02,-1.900991175675929845e-03,-6.938893903907228378e-18,-6.938893903907228378e-18,-2.001043342816852255e-04,-3.201669348506817891e-03,-6.203234362731936680e-03,-9.204799376957083223e-03,-1.210631222404139062e-02,-1.510787723826653023e-02,-1.810944225249166289e-02,-2.101095509957596336e-02,-2.401252011380109602e-02,-2.701408512802622869e-02,-3.001565014225136829e-02,-3.291716298933566875e-02,-3.591872800356080142e-02,-3.892029301778593409e-02,-4.182180586487023455e-02,-4.482337087909536721e-02,-4.782493589332050682e-02,-5.072644874040480034e-02,-2.343630169903742344e-01,-2.373645820045993671e-01,-2.403661470188244997e-01,-2.414667208573737234e-01,-6.083171762162942892e-02,-6.083171762162942892e-02,-6.083171762162942892e-02,-6.083171762162942892e-02,-6.083171762162942892e-02,-6.083171762162942892e-02,-6.083171762162942892e-02,-6.083171762162942892e-02,-6.083171762162942892e-02,-6.083171762162942892e-02,-6.083171762162942892e-02
-6.083171762162942892e-02,-6.083171762162942892e-02,-6.083171762162942892e-02,-6.083171762162942892e-02,-6.083171762162942892e-02,-6.083171762162942892e-02,-5.943567722699242412e-02,-4.102831178038050808e-02,-1.967186404114635440e-02,-4.073552519305544128e-03,-6.938893903907228378e-18,-6.938893903907228378e-18,-1.387778780781445676e-17,0.000000000000000000e+00,-6.938893903907228378e-18,-2.001043342816762050e-03,-5.002608357041901654e-03,-8.004173371267027381e-03,-1.090568621835133478e-02,-1.390725123257646745e-02,-1.690881624680160705e-02,-1.981032909388590751e-02,-2.281189410811104018e-02,-2.581345912233617285e-02,-2.881502413656131245e-02,-3.171653698364561291e-02,-3.471810199787074558e-02,-3.771966701209588518e-02,-4.062117985918017871e-02,-4.362274487340531831e-02,-4.662430988763045098e-02,-4.962587490185559058e-02,-2.331623909846841924e-01,-2.361639559989093251e-01,-2.391655210131344578e-01,-2.414667208573737234e-01,-6.083171762162942892e-02,-6.083171762162942892e-02,-6.083171762162942892e-02,-6.083171762162942892e-02,-6.083171762162942892e-02,-6.083171762162942892e-02,-6.083171762162942892e-02,-6.083171762162942892e-02,-6.083171762162942892e-02,-6.083171762162942892e-02,-6.083171762162942892e-02
-6.083171762162942892e-02,-6.083171762162942892e-02,-6.083171762162942892e-02,-6.083171762162942892e-02,-5.316834694468587641e-02,-3.769309065519909491e-02,-1.913296698911321619e-02,-1.371429348166200435e-02,-9.776526046333305908e-03,-5.702973527027754841e-03,-1.629421007722224590e-03,-6.938893903907228378e-18,-6.938893903907228378e-18,-6.938893903907228378e-18,-6.938893903907228378e-18,-8.004173371267131465e-04,-3.801982351351845812e-03,-6.803547365576971540e-03,-9.705060212661278940e-03,-1.270662522688641161e-02,-1.570819024111155121e-02,-1.870975525533669082e-02,-2.161126810242099128e-02,-2.461283311664612394e-02,-2.761439813087125661e-02,-3.051591097795555707e-02,-3.351747599218068974e-02,-3.651904100640582934e-02,-3.952060602063096895e-02,-4.242211886771526247e-02,-4.542368388194040207e-02,-4.842524889616553474e-02,-5.132676174324983520e-02,-5.432832675747496787e-02,-5.732989177170010053e-02,-6.033145678592524014e-02,-6.083171762162942892e-02,-6.083171762162942892e-02,-6.083171762162942892e-02,-6.083171762162942892e-02,-6.083171762162942892e-02,-6.083171762162942892e-02,-6.083171762162942892e-02,-6.083171762162942892e-02,-6.083171762162942892e-02,-6.083171762162942892e-02,-6.083171762162942892e-02
-6.083171762162942892e-02,-6.016552205336800352e-02,-5.057145721362860114e-02,-3.791798470053575620e-02,-2.742858696332398788e-02,-2.349081952799529638e-02,-1.941726700868975225e-02,-1.534371448938421506e-02,-1.140594705405553050e-02,-7.332394534749979431e-03,-3.258842015444435303e-03,-6.938893903907228378e-18,-6.938893903907228378e-18,-1.387778780781445676e-17,-6.938893903907228378e-18,-6.938893903907228378e-18,-2.601356345661789971e-03,-5.602921359886915698e-03,-8.604486374112062241e-03,-1.150599922119635576e-02,-1.450756423542149537e-02,-1.750912924964663497e-02,-2.041064209673093544e-02,-2.341220711095606810e-02,-2.641377212518120771e-02,-2.941533713940634037e-02,-3.231684998649063389e-02,-3.531841500071577350e-02,-3.831998001494091310e-02,-4.122149286202520663e-02,-4.422305787625034623e-02,-4.722462289047547890e-02,-5.022618790470061156e-02,-5.312770075178491203e-02,-5.612926576601005163e-02,-5.913083078023518430e-02,-6.083171762162942892e-02,-6.083171762162942892e-02,-6.083171762162942892e-02,-6.083171762162942892e-02,-6.083171762162942892e-02,-6.083171762162942892e-02,-6.083171762162942892e-02,-6.083171762162942892e-02,-6.083171762162942892e-02,-6.083171762162942892e-02,-6.083171762162942892e-02
-5.156014235633504805e-02,-4.175815660675608748e-02,-3.720511300965728685e-02,-3.313156049035174966e-02,-2.905800797104620553e-02,-2.512024053571751403e-02,-2.104668801641196990e-02,-1.697313549710642577e-02,-1.289958297780088858e-02,-8.961815542472204021e-03,-4.888263023166659893e-03,-8.147105038611157646e-04,-6.938893903907228378e-18,-6.938893903907228378e-18,-6.938893903907228378e-18,-6.938893903907228378e-18,-1.400730339971727190e-03,-4.402295354196866795e-03,-7.403860368422006399e-03,-1.030537321550630686e-02,-1.330693822973143953e-02,-1.630850324395658607e-02,-1.931006825818171874e-02,-2.221158110526601920e-02,-2.521314611949115186e-02,-2.821471113371628453e-02,-3.111622398080058152e-02,-3.411778899502571766e-02,-3.711935400925085726e-02,-4.002086685633515772e-02,-4.302243187056029039e-02,-4.602399688478542306e-02,-4.902556189901056266e-02,-5.192707474609485618e-02,-5.492863976031999579e-02,-5.793020477454512845e-02,-6.083171762162942892e-02,-6.083171762162942892e-02,-6.083171762162942892e-02,-6.083171762162942892e-02,-6.083171762162942892e-02,-6.083171762162942892e-02,-6.083171762162942892e-02,-6.083171762162942892e-02,-6.083171762162942892e-02,-6.083171762162942892e-02,-6.083171762162942892e-02
-4.684585397201374013e-02,-4.277230145270819600e-02,-3.883453401737950450e-02,-3.476098149807396037e-02,-3.068742897876841971e-02,-2.661387645946287905e-02,-2.267610902413418755e-02,-1.860255650482864342e-02,-1.452900398552310623e-02,-1.059123655019441473e-02,-6.517684030888877544e-03,-2.444131511583333416e-03,-6.938893903907228378e-18,-6.938893903907228378e-18,-6.938893903907228378e-18,-6.938893903907228378e-18,-2.001043342816852255e-04,-3.201669348506817891e-03,-6.203234362731943619e-03,-9.204799376957083223e-03,-1.210631222404138368e-02,-1.510787723826653023e-02,-1.810944225249166289e-02,-2.101095509957596336e-02,-2.401252011380109602e-02,-2.701408512802622869e-02,-2.991559797511052915e-02,-3.291716298933566182e-02,-3.591872800356080142e-02,-3.892029301778594103e-02,-4.182180586487023455e-02,-4.482337087909536721e-02,-4.782493589332050682e-02,-5.072644874040480728e-02,-5.372801375462993995e-02,-5.672957876885507955e-02,-5.973114378308021222e-02,-6.083171762162942892e-02,-6.083171762162942892e-02,-6.083171762162942892e-02,-6.083171762162942892e-02,-6.083171762162942892e-02,-6.083171762162942892e-02,-6.083171762162942892e-02,-6.083171762162942892e-02,-6.083171762162942892e-02,-6.083171762162942892e-02
-4.847527497973595084e-02,-4.440172246043041365e-02,-4.032816994112486952e-02,-3.639040250579617802e-02,-3.231684998649064083e-02,-2.824329746718509671e-02,-2.430553003185640520e-02,-2.023197751255086108e-02,-1.615842499324531695e-02,-1.208487247393977976e-02,-8.147105038611088257e-03,-4.073552519305544128e-03,-6.938893903907228378e-18,-1.387778780781445676e-17,-6.938893903907228378e-18,0.000000000000000000e+00,-6.938893903907228378e-18,-2.001043342816762050e-03,-5.002608357041901654e-03,-8.004173371267034320e-03,-1.090568621835133478e-02,-1.390725123257646745e-02,-1.690881624680160705e-02,-1.981032909388590751e-02,-2.281189410811104018e-02,-2.581345912233617285e-02,-2.881502413656131245e-02,-3.171653698364561291e-02,-3.471810199787074558e-02,-3.771966701209587824e-02,-4.062117985918017871e-02,-4.362274487340531831e-02,-4.662430988763045098e-02,-4.962587490185559058e-02,-5.252738774893988410e-02,-5.552895276316502371e-02,-5.853051777739015638e-02,-6.083171762162942892e-02,-6.083171762162942892e-02,-6.083171762162942892e-02,-6.083171762162942892e-02,-6.083171762162942892e-02,-6.083171762162942892e-02,-6.083171762162942892e-02,-6.083171762162942892e-02,-6.083171762162942892e-02,-6.083171762162942892e-02
-5.010469598745816849e-02,-4.603114346815262437e-02,-4.195759094884708718e-02,-3.801982351351839567e-02,-3.394627099421285155e-02,-2.987271847490731436e-02,-2.579916595560177023e-02,-2.186139852027307179e-02,-1.778784600096754154e-02,-1.371429348166199741e-02,-9.776526046333305908e-03,-5.702973527027768719e-03,-1.629421007722224590e-03,-6.938893903907228378e-18,-6.938893903907228378e-18,-6.938893903907228378e-18,-6.938893903907228378e-18,-8.004173371267062076e-04,-3.801982351351838874e-03,-6.803547365576971540e-03,-9.705060212661278940e-03,-1.270662522688641161e-02,-1.570819024111155815e-02,-1.870975525533669082e-02,-2.161126810242098434e-02,-2.461283311664612394e-02,-2.761439813087125661e-02,-3.051591097795555707e-02,-3.351747599218068974e-02,-3.651904100640582240e-02,-3.952060602063096895e-02,-4.242211886771526247e-02,-4.542368388194040207e-02,-4.842524889616553474e-02,-5.132676174324983520e-02,-5.432832675747496787e-02,-5.732989177170010053e-02,-6.023140461878440099e-02,-6.083171762162942892e-02,-6.083171762162942892e-02,-6.083171762162942892e-02,-6.083171762162942892e-02,-6.083171762162942892e-02,-6.083171762162942892e-02,-6.083171762162942892e-02,-6.083171762162942892e-02,-6.083171762162942892e-02
-5.173411699518038614e-02,-4.766056447587484202e-02,-4.358701195656930483e-02,-3.964924452124061333e-02,-3.557569200193506920e-02,-3.150213948262953201e-02,-2.742858696332398788e-02,-2.349081952799529638e-02,-1.941726700868974531e-02,-1.534371448938421506e-02,-1.140594705405553050e-02,-7.332394534749979431e-03,-3.258842015444435303e-03,-6.938893903907228378e-18,-6.938893903907228378e-18,-6.938893903907228378e-18,-1.387778780781445676e-17,-6.938893903907228378e-18,-2.601356345661789971e-03,-5.602921359886915698e-03,-8.604486374112062241e-03,-1.150599922119635576e-02,-1.450756423542149537e-02,-1.750912924964663497e-02,-2.041064209673092850e-02,-2.341220711095606810e-02,-2.641377212518120771e-02,-2.931528497226550123e-02,-3.231684998649063389e-02,-3.531841500071577350e-02,-3.831998001494091310e-02,-4.122149286202520663e-02,-4.422305787625034623e-02,-4.722462289047547890e-02,-5.012613573755977936e-02,-5.312770075178491203e-02,-5.612926576601005163e-02,-5.913083078023518430e-02,-6.083171762162942892e-02,-6.083171762162942892e-02,-6.083171762162942892e-02,-6.083171762162942892e-02,-6.083171762162942892e-02,-6.083171762162942892e-02,-6.083171762162942892e-02,-6.083171762162942892e-02,-6.083171762162942892e-02
-5.336353800290260380e-02,-4.928998548359705967e-02,-4.521643296429152248e-02,-4.114288044498597141e-02,-3.720511300965728685e-02,-3.313156049035174966e-02,-2.905800797104620553e-02,-2.512024053571751403e-02,-2.104668801641196990e-02,-1.697313549710643271e-02,-1.289958297780088858e-02,-8.961815542472197083e-03,-4.888263023166659893e-03,-8.147105038611157646e-04,-6.938893903907228378e-18,-6.938893903907228378e-18,-6.938893903907228378e-18,-6.938893903907228378e-18,-1.400730339971734129e-03,-4.402295354196866795e-03,-7.403860368422006399e-03,-1.030537321550630686e-02,-1.330693822973143953e-02,-1.630850324395657913e-02,-1.921001609104087959e-02,-2.221158110526601226e-02,-2.521314611949115186e-02,-2.821471113371628453e-02,-3.111622398080058499e-02,-3.411778899502571766e-02,-3.711935400925085726e-02,-4.002086685633515772e-02,-4.302243187056029039e-02,-4.602399688478542306e-02,-4.902556189901056266e-02,-5.192707474609485618e-02,-5.492863976031999579e-02,-5.793020477454512845e-02,-6.083171762162942892e-02,-6.083171762162942892e-02,-6.083171762162942892e-02,-6.083171762162942892e-02,-6.083171762162942892e-02,-6.083171762162942892e-02,-6.083171762162942892e-02,-6.083171762162942892e-02,-6.083171762162942892e-02
-5.485717392664796882e-02,-5.091940649131927732e-02,-4.684585397201374013e-02,-4.277230145270819600e-02,-3.883453401737950450e-02,-3.476098149807396731e-02,-3.068742897876842318e-02,-2.661387645946287905e-02,-2.267610902413418755e-02,-1.860255650482864342e-02,-1.452900398552309930e-02,-1.059123655019442167e-02,-6.517684030888877544e-03,-2.444131511583333416e-03,-6.938893903907228378e-18,-6.938893903907228378e-18,-1.387778780781445676e-17,-6.938893903907228378e-18,-2.001043342816852255e-04,-3.201669348506817891e-03,-6.203234362731943619e-03,-9.104747209816251019e-03,-1.210631222404139062e-02,-1.510787723826653023e-02,-1.810944225249166289e-02,-2.101095509957596336e-02,-2.401252011380109602e-02,-2.701408512802622869e-02,-2.991559797511052568e-02,-3.291716298933566182e-02,-3.591872800356080142e-02,-3.892029301778593409e-02,-4.182180586487023455e-02,-4.482337087909536721e-02,-4.782493589332050682e-02,-5.072644874040480728e-02,-5.372801375462993995e-02,-5.672957876885507955e-02,-5.973114378308021222e-02,-6.083171762162942892e-02,-6.083171762162942892e-02,-6.083171762162942892e-02,-6.083171762162942892e-02,-6.083171762162942892e-02,-6.083171762162942892e-02,-6.083171762162942892e-02,-6.083171762162942892e-02
-5.648659493437018647e-02,-5.254882749904149497e-02,-4.847527497973595778e-02,-4.440172246043041365e-02,-4.032816994112486952e-02,-3.639040250579617802e-02,-3.231684998649063389e-02,-2.824329746718509671e-02,-2.430553003185640520e-02,-2.023197751255086108e-02,-1.615842499324532389e-02,-1.222065755791663239e-02,-8.147105038611095196e-03,-4.073552519305551067e-03,-6.938893903907228378e-18,-6.938893903907228378e-18,-1.387778780781445676e-17,-6.938893903907228378e-18,0.000000000000000000e+00,-2.001043342816762050e-03,-5.002608357041894716e-03,-8.004173371267027381e-03,-1.090568621835133478e-02,-1.390725123257646745e-02,-1.690881624680161399e-02,-1.981032909388590751e-02,-2.281189410811104018e-02,-2.581345912233617285e-02,-2.881502413656131245e-02,-3.171653698364561291e-02,-3.471810199787074558e-02,-3.771966701209588518e-02,-4.062117985918017871e-02,-4.362274487340531831e-02,-4.662430988763045098e-02,-4.962587490185559058e-02,-5.252738774893988410e-02,-5.552895276316502371e-02,-5.853051777739015638e-02,-6.083171762162942892e-02,-6.083171762162942892e-02,-6.083171762162942892e-02,-6.083171762162942892e-02,-6.083171762162942892e-02,-6.083171762162942892e-02,-6.083171762162942892e-02,-6.083171762162942892e-02
-5.811601594209240412e-02,-5.404246342278685999e-02,-5.010469598745816849e-02,-4.603114346815262437e-02,-4.195759094884708718e-02,-3.801982351351839567e-02,-3.394627099421285155e-02,-2.987271847490731436e-02,-2.593495103957862979e-02,-2.186139852027308567e-02,-1.778784600096754154e-02,-1.371429348166199741e-02,-9.776526046333312847e-03,-5.702973527027761780e-03,-1.629421007722224590e-03,-6.938893903907228378e-18,-6.938893903907228378e-18,-6.938893903907228378e-18,-6.938893903907228378e-18,-8.004173371267062076e-04,-3.801982351351838874e-03,-6.803547365576971540e-03,-9.705060212661278940e-03,-1.270662522688641161e-02,-1.570819024111155815e-02,-1.870975525533668388e-02,-2.161126810242099128e-02,-2.461283311664612394e-02,-2.761439813087125661e-02,-3.051591097795555707e-02,-3.351747599218068974e-02,-3.651904100640582240e-02,-3.942055385349012286e-02,-4.242211886771526247e-02,-4.542368388194039514e-02,-4.842524889616553474e-02,-5.132676174324983520e-02,-5.432832675747496787e-02,-5.732989177170010053e-02,-6.023140461878440099e-02,-6.083171762162942892e-02,-6.083171762162942892e-02,-6.083171762162942892e-02,-6.083171762162942892e-02,-6.083171762162942892e-02,-6.083171762162942892e-02,-6.083171762162942892e-02
-5.974543694981461484e-02,-5.567188443050907765e-02,-5.173411699518038614e-02,-4.766056447587484202e-02,-4.358701195656930483e-02,-3.964924452124061333e-02,-3.557569200193506920e-02,-3.150213948262953201e-02,-2.742858696332398788e-02,-2.349081952799529638e-02,-1.941726700868975225e-02,-1.534371448938421506e-02,-1.140594705405553050e-02,-7.332394534749979431e-03,-3.258842015444442242e-03,-6.938893903907228378e-18,-6.938893903907228378e-18,-6.938893903907228378e-18,-1.387778780781445676e-17,-6.938893903907228378e-18,-2.601356345661789971e-03,-5.602921359886922636e-03,-8.604486374112062241e-03,-1.150599922119635576e-02,-1.450756423542149537e-02,-1.750912924964662803e-02,-2.041064209673092850e-02,-2.341220711095606810e-02,-2.641377212518120077e-02,-2.931528497226550123e-02,-3.231684998649063389e-02,-3.531841500071577350e-02,-3.831998001494091310e-02,-4.122149286202521357e-02,-4.422305787625034623e-02,-4.722462289047547890e-02,-5.012613573755977936e-02,-5.312770075178491203e-02,-5.612926576601005163e-02,-5.913083078023518430e-02,-6.083171762162942892e-02,-6.083171762162942892e-02,-6.083171762162942892e-02,-6.083171762162942892e-02,-6.083171762162942892e-02,-6.083171762162942892e-02,-6.083171762162942892e-02
-6.083171762162942892e-02,-5.730130543823129530e-02,-5.336353800290260380e-02,-4.928998548359705967e-02,-4.521643296429152248e-02,-4.114288044498597835e-02,-3.720511300965728685e-02,-3.313156049035174966e-02,-2.905800797104620553e-02,-2.512024053571751403e-02,-2.104668801641196990e-02,-1.697313549710642577e-02,-1.289958297780089552e-02,-8.961815542472197083e-03,-4.888263023166659893e-03,-8.147105038611157646e-04,-1.387778780781445676e-17,-6.938893903907228378e-18,-1.387778780781445676e-17,-6.938893903907228378e-18,-1.400730339971734129e-03,-4.402295354196866795e-03,-7.403860368422006399e-03,-1.030537321550630686e-02,-1.330693822973143953e-02,-1.630850324395657913e-02,-1.921001609104087959e-02,-2.221158110526601920e-02,-2.521314611949115186e-02,-2.821471113371628453e-02,-3.111622398080058499e-02,-3.411778899502571766e-02,-3.711935400925085726e-02,-4.002086685633515772e-02,-4.302243187056029039e-02,-4.602399688478542306e-02,-4.902556189901056266e-02,-5.192707474609485618e-02,-5.492863976031999579e-02,-5.793020477454512845e-02,-6.083171762162942892e-02,-6.083171762162942892e-02,-6.083171762162942892e-02,-6.083171762162942892e-02,-6.083171762162942892e-02,-6.083171762162942892e-02,-6.083171762162942892e-02
-6.083171762162942892e-02,-5.893072644595351295e-02,-5.485717392664796882e-02,-5.091940649131927732e-02,-4.684585397201374013e-02,-4.277230145270819600e-02,-3.883453401737950450e-02,-3.476098149807396731e-02,-3.068742897876841971e-02,-2.661387645946287905e-02,-2.267610902413418755e-02,-1.860255650482864342e-02,-1.452900398552310623e-02,-1.059123655019442167e-02,-6.517684030888877544e-03,-2.444131511583326477e-03,-6.938893903907228378e-18,-6.938893903907228378e-18,0.000000000000000000e+00,-6.938893903907228378e-18,-2.001043342816852255e-04,-3.201669348506817891e-03,-6.203234362731950557e-03,-9.104747209816251019e-03,-1.210631222404138368e-02,-1.510787723826652329e-02,-1.810944225249166289e-02,-2.101095509957596336e-02,-2.401252011380109602e-02,-2.701408512802622869e-02,-2.991559797511052915e-02,-3.291716298933566875e-02,-3.591872800356080142e-02,-3.892029301778594103e-02,-4.182180586487023455e-02,-4.482337087909536721e-02,-4.782493589332050682e-02,-5.072644874040480034e-02,-5.372801375462993995e-02,-5.672957876885507955e-02,-5.963109161593937307e-02,-6.083171762162942892e-02,-6.083171762162942892e-02,-6.083171762162942892e-02,-6.083171762162942892e-02,-6.083171762162942892e-02,-6.083171762162942892e-02
-6.083171762162942892e-02,-6.056014745367572366e-02,-5.648659493437018647e-02,-5.254882749904149497e-02,-4.847527497973595778e-02,-4.440172246043041365e-02,-4.046395502510172215e-02,-3.639040250579617802e-02,-3.231684998649063389e-02,-2.824329746718509671e-02,-2.430553003185640520e-02,-2.023197751255086108e-02,-1.615842499324532389e-02,-1.222065755791663239e-02,-8.147105038611095196e-03,-4.073552519305544128e-03,-6.938893903907228378e-18,-6.938893903907228378e-18,-3.065865825171242356e-02,-3.065865825171241663e-02,-3.065865825171241663e-02,-2.001043342816762050e-03,-5.002608357041894716e-03,-8.004173371267027381e-03,-1.090568621835133478e-02,-1.390725123257646745e-02,-1.690881624680161399e-02,-1.981032909388590751e-02,-2.281189410811104018e-02,-2.581345912233617285e-02,-2.871497196942047331e-02,-3.171653698364561291e-02,-3.471810199787074558e-02,-3.771966701209588518e-02,-4.062117985918017871e-02,-4.362274487340531831e-02,-4.662430988763045098e-02,-4.952582273471475144e-02,-5.252738774893988410e-02,-5.552895276316502371e-02,-5.853051777739015638e-02,-6.083171762162942892e-02,-6.083171762162942892e-02,-6.083171762162942892e-02,-6.083171762162942892e-02,-6.083171762162942892e-02,-6.083171762162942892e-02
-6.083171762162942892e-02,-6.083171762162942892e-02,-5.811601594209240412e-02,-5.417824850676371262e-02,-5.010469598745816849e-02,-4.603114346815262437e-02,-4.195759094884708718e-02,-3.801982351351839567e-02,-3.394627099421285155e-02,-2.987271847490731436e-02,-2.593495103957862286e-02,-2.186139852027307179e-02,-1.778784600096754154e-02,-1.371429348166199047e-02,-9.776526046333312847e-03,-5.702973527027761780e-03,-1.629421007722217651e-03,-6.938893903907228378e-18,-3.065865825171241663e-02,-3.065865825171241663e-02,-3.065865825171241663e-02,-8.004173371267062076e-04,-3.801982351351838874e-03,-6.803547365576971540e-03,-9.705060212661272001e-03,-1.270662522688641161e-02,-1.570819024111155121e-02,-1.860970308819585167e-02,-2.161126810242099128e-02,-2.461283311664612394e-02,-2.761439813087126355e-02,-3.051591097795555707e-02,-3.351747599218068974e-02,-3.651904100640582934e-02,-3.942055385349012286e-02,-4.242211886771526247e-02,-4.542368388194040207e-02,-4.842524889616553474e-02,-5.132676174324983520e-02,-5.432832675747496787e-02,-5.732989177170010053e-02,-6.023140461878440099e-02,-6.083171762162942892e-02,-6.083171762162942892e-02,-6.083171762162942892e-02,-6.083171762162942892e-02,-6.083171762162942892e-02
-6.083171762162942892e-02,-6.083171762162942892e-02,-5.974543694981461484e-02,-5.567188443050907765e-02,-5.173411699518038614e-02,-4.766056447587484202e-02,-4.358701195656930483e-02,-3.964924452124061333e-02,-3.557569200193506920e-02,-3.150213948262953201e-02,-2.742858696332398788e-02,-2.349081952799529638e-02,-1.941726700868975919e-02,-1.534371448938421506e-02,-1.140594705405553050e-02,-7.332394534749979431e-03,-3.258842015444442242e-03,-6.938893903907228378e-18,-3.065865825171242356e-02,-3.065865825171241663e-02,-3.065865825171240969e-02,-6.938893903907228378e-18,-2.601356345661789971e-03,-5.602921359886922636e-03,-8.504434206971216159e-03,-1.150599922119636270e-02,-1.450756423542149537e-02,-1.750912924964663497e-02,-2.041064209673092850e-02,-2.341220711095606810e-02,-2.641377212518120771e-02,-2.931528497226550123e-02,-3.231684998649063389e-02,-3.531841500071577350e-02,-3.831998001494091310e-02,-4.122149286202520663e-02,-4.422305787625034623e-02,-4.722462289047547890e-02,-5.012613573755977936e-02,-5.312770075178491203e-02,-5.612926576601005163e-02,-5.913083078023518430e-02,-6.083171762162942892e-02,-6.083171762162942892e-02,-6.083171762162942892e-02,-6.083171762162942892e-02,-6.083171762162942892e-02
-6.083171762162942892e-02,-6.083171762162942892e-02,-6.083171762162942892e-02,-5.730130543823129530e-02,-5.336353800290260380e-02,-4.928998548359705967e-02,-4.521643296429152248e-02,-4.114288044498597835e-02,-3.720511300965728685e-02,-3.313156049035174966e-02,-2.905800797104620553e-02,-2.512024053571752097e-02,-2.104668801641196990e-02,-1.697313549710643271e-02,-1.289958297780088858e-02,-8.961815542472204021e-03,-4.888263023166659893e-03,-8.147105038611088257e-04,-1.387778780781445676e-17,-6.938893903907228378e-18,0.000000000000000000e+00,-6.938893903907228378e-18,-1.400730339971734129e-03,-4.402295354196873733e-03,-7.403860368421999461e-03,-1.030537321550630686e-02,-1.330693822973143953e-02,-1.630850324395657913e-02,-1.921001609104087959e-02,-2.221158110526601920e-02,-2.521314611949115186e-02,-2.821471113371628453e-02,-3.111622398080058152e-02,-3.411778899502571766e-02,-3.711935400925085726e-02,-4.002086685633515772e-02,-4.302243187056029039e-02,-4.602399688478542306e-02,-4.902556189901055572e-02,-5.192707474609485618e-02,-5.492863976031999579e-02,-5.793020477454512845e-02,-6.083171762162942892e-02,-6.083171762162942892e-02,-6.083171762162942892e-02,-6.083171762162942892e-02,-6.083171762162942892e-02
-6.083171762162942892e-02,-6.083171762162942892e-02,-6.083171762162942892e-02,-5.893072644595351295e-02,-5.485717392664796882e-02,-5.091940649131927732e-02,-4.684585397201374013e-02,-4.277230145270818906e-02,-3.883453401737950450e-02,-3.476098149807396731e-02,-3.068742897876842318e-02,-2.674966154343973168e-02,-2.267610902413418755e-02,-1.860255650482864342e-02,-1.452900398552310623e-02,-1.059123655019442167e-02,-6.517684030888877544e-03,-2.444131511583326477e-03,-6.938893903907228378e-18,-1.387778780781445676e-17,-6.938893903907228378e-18,-1.387778780781445676e-17,-2.001043342816852255e-04,-3.201669348506817891e-03,-6.203234362731950557e-03,-9.104747209816244080e-03,-1.210631222404139062e-02,-1.510787723826653023e-02,-1.810944225249166289e-02,-2.101095509957596336e-02,-2.401252011380109602e-02,-2.701408512802622869e-02,-2.991559797511052915e-02,-3.291716298933566182e-02,-3.591872800356080142e-02,-3.882024085064510188e-02,-4.182180586487023455e-02,-4.482337087909536721e-02,-4.782493589332050682e-02,-5.072644874040480728e-02,-5.372801375462993995e-02,-5.672957876885507955e-02,-5.963109161593937307e-02,-6.083171762162942892e-02,-6.083171762162942892e-02,-6.083171762162942892e-02,-6.083171762162942892e-02
-6.083171762162942892e-02,-6.083171762162942892e-02,-6.083171762162942892e-02,-6.056014745367572366e-02,-5.648659493437018647e-02,-5.254882749904149497e-02,-4.847527497973595778e-02,-4.440172246043041365e-02,-4.046395502510172215e-02,-3.639040250579617802e-02,-3.231684998649064083e-02,-2.824329746718509671e-02,-2.430553003185640520e-02,-2.023197751255085414e-02,-1.615842499324532389e-02,-1.222065755791663239e-02,-8.147105038611095196e-03,-4.073552519305544128e-03,-6.938893903907228378e-18,-6.938893903907228378e-18,-6.938893903907228378e-18,-6.938893903907228378e-18,-6.938893903907228378e-18,-2.001043342816768988e-03,-5.002608357041894716e-03,-8.004173371267034320e-03,-1.090568621835133478e-02,-1.390725123257646051e-02,-1.690881624680160705e-02,-1.981032909388590058e-02,-2.281189410811104018e-02,-2.581345912233617285e-02,-2.871497196942047331e-02,-3.171653698364561291e-02,-3.471810199787074558e-02,-3.771966701209588518e-02,-4.062117985918017871e-02,-4.362274487340531137e-02,-4.662430988763045098e-02,-4.952582273471474450e-02,-5.252738774893988410e-02,-5.552895276316502371e-02,-5.853051777739015638e-02,-6.083171762162942892e-02,-6.083171762162942892e-02,-6.083171762162942892e-02,-6.083171762162942892e-02
-6.083171762162942892e-02,-6.083171762162942892e-02,-6.083171762162942892e-02,-6.083171762162942892e-02,-5.811601594209240412e-02,-5.417824850676371262e-02,-5.010469598745816849e-02,-4.603114346815262437e-02,-4.195759094884708718e-02,-3.801982351351839567e-02,-3.394627099421285155e-02,-2.987271847490731436e-02,-2.593495103957862286e-02,-2.186139852027307873e-02,-1.778784600096753460e-02,-1.371429348166199741e-02,-9.776526046333312847e-03,-5.702973527027761780e-03,-1.629421007722224590e-03,0.000000000000000000e+00,-6.938893903907228378e-18,-1.387778780781445676e-17,-6.938893903907228378e-18,-8.004173371267131465e-04,-3.801982351351838874e-03,-6.803547365576971540e-03,-9.705060212661278940e-03,-1.270662522688641161e-02,-1.570819024111155121e-02,-1.860970308819585861e-02,-2.161126810242099128e-02,-2.461283311664611700e-02,-2.761439813087125661e-02,-3.051591097795555707e-02,-3.351747599218068974e-02,-3.651904100640582934e-02,-3.942055385349012286e-02,-4.242211886771526247e-02,-4.542368388194040207e-02,-4.842524889616553474e-02,-5.132676174324983520e-02,-5.432832675747496787e-02,-5.732989177170010053e-02,-6.023140461878440099e-02,-6.083171762162942892e-02,-6.083171762162942892e-02,-6.083171762162942892e-02
-6.083171762162942892e-02,-6.083171762162942892e-02,-6.083171762162942892e-02,-6.083171762162942892e-02,-5.974543694981461484e-02,-5.567188443050907765e-02,-5.173411699518038614e-02,-4.766056447587484202e-02,-4.358701195656930483e-02,-3.964924452124060639e-02,-3.557569200193506920e-02,-3.150213948262953201e-02,-2.742858696332398788e-02,-2.349081952799529638e-02,-1.941726700868975225e-02,-1.534371448938420812e-02,-1.140594705405552356e-02,-7.332394534749979431e-03,-3.258842015444442242e-03,-6.938893903907228378e-18,-6.938893903907228378e-18,0.000000000000000000e+00,0.000000000000000000e+00,-6.938893903907228378e-18,-2.601356345661789971e-03,-5.602921359886922636e-03,-8.504434206971230037e-03,-1.150599922119635576e-02,-1.450756423542149537e-02,-1.750912924964663497e-02,-2.041064209673092850e-02,-2.341220711095606810e-02,-2.641377212518120077e-02,-2.931528497226550123e-02,-3.231684998649063389e-02,-3.531841500071577350e-02,-3.831998001494091310e-02,-4.122149286202520663e-02,-4.422305787625034623e-02,-4.722462289047547890e-02,-5.012613573755977936e-02,-5.312770075178491203e-02,-5.612926576601005163e-02,-5.903077861309434515e-02,-6.083171762162942892e-02,-6.083171762162942892e-02,-6.083171762162942892e-02
-6.083171762162942892e-02,-6.083171762162942892e-02,-6.083171762162942892e-02,-6.083171762162942892e-02,-6.083171762162942892e-02,-5.730130543823129530e-02,-5.336353800290260380e-02,-4.928998548359705967e-02,-4.521643296429152248e-02,-4.127866552896283098e-02,-3.720511300965728685e-02,-3.313156049035174966e-02,-2.905800797104620553e-02,-2.512024053571751403e-02,-2.104668801641196990e-02,-1.697313549710643271e-02,-1.303536806177774121e-02,-8.961815542472204021e-03,-4.888263023166652954e-03,-8.147105038611157646e-04,-6.938893903907228378e-18,-1.387778780781445676e-17,-6.938893903907228378e-18,-6.938893903907228378e-18,-1.400730339971741067e-03,-4.402295354196866795e-03,-7.403860368422006399e-03,-1.030537321550630686e-02,-1.330693822973143953e-02,-1.630850324395658607e-02,-1.921001609104087959e-02,-2.221158110526601920e-02,-2.521314611949115186e-02,-2.811465896657544539e-02,-3.111622398080058152e-02,-3.411778899502571766e-02,-3.711935400925085726e-02,-4.002086685633515772e-02,-4.302243187056029039e-02,-4.602399688478542306e-02,-4.892550973186972352e-02,-5.192707474609485618e-02,-5.492863976031999579e-02,-5.793020477454512845e-02,-6.083171762162942892e-02,-6.083171762162942892e-02,-6.083171762162942892e-02
-6.083171762162942892e-02,-6.083171762162942892e-02,-6.083171762162942892e-02,-6.083171762162942892e-02,-6.083171762162942892e-02,-5.893072644595351295e-02,-5.499295901062482145e-02,-5.091940649131927732e-02,-4.684585397201374013e-02,-4.277230145270819600e-02,-3.883453401737950450e-02,-3.476098149807396731e-02,-3.068742897876841971e-02,-2.674966154343973168e-02,-2.267610902413418755e-02,-1.860255650482864342e-02,-1.452900398552310623e-02,-1.059123655019441473e-02,-6.517684030888870605e-03,-2.444131511583333416e-03,-6.938893903907228378e-18,-6.938893903907228378e-18,-1.387778780781445676e-17,-6.938893903907228378e-18,-2.001043342816852255e-04,-3.201669348506817891e-03,-6.203234362731950557e-03,-9.104747209816244080e-03,-1.210631222404138368e-02,-1.510787723826652329e-02,-1.800939008535082375e-02,-2.101095509957596336e-02,-2.401252011380109602e-02,-2.701408512802622869e-02,-2.991559797511052915e-02,-3.291716298933566875e-02,-3.591872800356080142e-02,-3.882024085064510188e-02,-4.182180586487023455e-02,-4.482337087909536721e-02,-4.782493589332050682e-02,-5.072644874040480728e-02,-5.372801375462993995e-02,-5.672957876885507955e-02,-5.963109161593937307e-02,-6.083171762162942892e-02,-6.083171762162942892e-02
-6.083171762162942892e-02,-6.083171762162942892e-02,-6.083171762162942892e-02,-6.083171762162942892e-02,-6.083171762162942892e-02,-6.056014745367572366e-02,-5.648659493437018647e-02,-5.254882749904149497e-02,-4.847527497973595084e-02,-4.440172246043040671e-02,-4.046395502510172215e-02,-3.639040250579618496e-02,-3.231684998649063389e-02,-2.824329746718509671e-02,-2.430553003185640520e-02,-2.023197751255086801e-02,-1.615842499324532389e-02,-1.222065755791663239e-02,-8.147105038611088257e-03,-4.073552519305544128e-03,-6.938893903907228378e-18,-6.938893903907228378e-18,-6.938893903907228378e-18,0.000000000000000000e+00,-6.938893903907228378e-18,-2.001043342816755111e-03,-5.002608357041894716e-03,-7.904121204126188238e-03,-1.090568621835134172e-02,-1.390725123257646745e-02,-1.690881624680160705e-02,-1.981032909388590751e-02,-2.281189410811104018e-02,-2.581345912233617285e-02,-2.871497196942047331e-02,-3.171653698364561291e-02,-3.471810199787074558e-02,-3.771966701209588518e-02,-4.062117985918017871e-02,-4.362274487340531831e-02,-4.662430988763045098e-02,-4.952582273471475144e-02,-5.252738774893988410e-02,-5.552895276316502371e-02,-5.853051777739015638e-02,-6.083171762162942892e-02,-6.083171762162942892e-02
-6.083171762162942892e-02,-6.083171762162942892e-02,-6.083171762162942892e-02,-6.083171762162942892e-02,-6.083171762162942892e-02,-6.083171762162942892e-02,-5.811601594209240412e-02,-5.417824850676371262e-02,-5.010469598745816849e-02,-4.603114346815262437e-02,-4.195759094884708718e-02,-3.801982351351838874e-02,-3.394627099421285849e-02,-2.987271847490731436e-02,-2.593495103957862286e-02,-2.186139852027308567e-02,-1.778784600096754154e-02,-1.371429348166199741e-02,-9.776526046333305908e-03,-5.702973527027761780e-03,-1.629421007722224590e-03,0.000000000000000000e+00,-6.938893903907228378e-18,-6.938893903907228378e-18,-6.938893903907228378e-18,-8.004173371267131465e-04,-3.801982351351845812e-03,-6.803547365576978478e-03,-9.705060212661278940e-03,-1.270662522688641854e-02,-1.570819024111155121e-02,-1.860970308819584473e-02,-2.161126810242099128e-02,-2.461283311664611700e-02,-2.761439813087125661e-02,-3.051591097795555707e-02,-3.351747599218068974e-02,-3.651904100640582934e-02,-3.942055385349012286e-02,-4.242211886771526247e-02,-4.542368388194039514e-02,-4.842524889616553474e-02,-5.132676174324983520e-02,-5.432832675747496787e-02,-5.732989177170010053e-02,-6.023140461878440099e-02,-6.083171762162942892e-02
-6.083171762162942892e-02,-6.083171762162942892e-02,-6.083171762162942892e-02,-6.083171762162942892e-02,-6.083171762162942892e-02,-6.083171762162942892e-02,-5.974543694981461484e-02,-5.567188443050907765e-02,-5.173411699518038614e-02,-4.766056447587484202e-02,-4.358701195656930483e-02,-3.964924452124061333e-02,-3.557569200193506920e-02,-3.150213948262953201e-02,-2.756437204730084051e-02,-2.349081952799529638e-02,-1.941726700868975225e-02,-1.534371448938420812e-02,-1.140594705405552356e-02,-7.332394534749979431e-03,-3.258842015444435303e-03,-6.938893903907228378e-18,0.000000000000000000e+00,-6.938893903907228378e-18,-6.938893903907228378e-18,-1.387778780781445676e-17,-2.601356345661796909e-03,-5.602921359886915698e-03,-8.504434206971223098e-03,-1.150599922119636270e-02,-1.450756423542149537e-02,-1.750912924964663497e-02,-2.041064209673092850e-02,-2.341220711095607504e-02,-2.641377212518120771e-02,-2.931528497226550123e-02,-3.231684998649064083e-02,-3.531841500071577350e-02,-3.821992784780007396e-02,-4.122149286202521357e-02,-4.422305787625034623e-02,-4.722462289047547890e-02,-5.012613573755977936e-02,-5.312770075178491203e-02,-5.612926576601005163e-02,-5.903077861309434515e-02,-6.083171762162942892e-02
-6.083171762162942892e-02,-6.083171762162942892e-02,-6.083171762162942892e-02,-6.083171762162942892e-02,-6.083171762162942892e-02,-6.083171762162942892e-02,-6.083171762162942892e-02,-5.730130543823129530e-02,-5.336353800290260380e-02,-4.928998548359705967e-02,-4.521643296429152248e-02,-4.127866552896283098e-02,-3.720511300965728685e-02,-3.313156049035174966e-02,-2.905800797104620553e-02,-2.512024053571752097e-02,-2.104668801641196990e-02,-1.697313549710643271e-02,-1.303536806177774121e-02,-8.961815542472197083e-03,-4.888263023166659893e-03,-8.147105038611157646e-04,-6.938893903907228378e-18,-6.938893903907228378e-18,-6.938893903907228378e-18,-6.938893903907228378e-18,-1.400730339971727190e-03,-4.402295354196866795e-03,-7.403860368422006399e-03,-1.030537321550630686e-02,-1.330693822973143953e-02,-1.630850324395657913e-02,-1.921001609104087959e-02,-2.221158110526601226e-02,-2.521314611949115186e-02,-2.811465896657544539e-02,-3.111622398080058152e-02,-3.411778899502571766e-02,-3.711935400925085726e-02,-4.002086685633515772e-02,-4.302243187056029039e-02,-4.602399688478542306e-02,-4.892550973186972352e-02,-5.192707474609485618e-02,-5.492863976031999579e-02,-5.793020477454512845e-02,-6.083171762162942892e-02
-6.083171762162942892e-02,-6.083171762162942892e-02,-6.083171762162942892e-02,-6.083171762162942892e-02,-6.083171762162942892e-02,-6.083171762162942892e-02,-6.083171762162942892e-02,-5.893072644595351295e-02,-5.499295901062482145e-02,-5.091940649131927732e-02,-4.684585397201374013e-02,-4.277230145270819600e-02,-3.883453401737950450e-02,-3.476098149807396731e-02,-3.068742897876841971e-02,-2.674966154343973168e-02,-2.267610902413418755e-02,-1.860255650482865036e-02,-1.452900398552309930e-02,-1.059123655019442167e-02,-6.517684030888870605e-03,-2.444131511583333416e-03,-6.938893903907228378e-18,-1.387778780781445676e-17,-6.938893903907228378e-18,-6.938893903907228378e-18,-2.001043342816852255e-04,-3.201669348506817891e-03,-6.203234362731936680e-03,-9.104747209816244080e-03,-1.210631222404139062e-02,-1.510787723826653023e-02,-1.800939008535083069e-02,-2.101095509957596336e-02,-2.401252011380109602e-02,-2.701408512802622869e-02,-2.991559797511052915e-02,-3.291716298933566875e-02,-3.591872800356080142e-02,-3.882024085064510188e-02,-4.182180586487023455e-02,-4.482337087909536721e-02,-4.782493589332050682e-02,-5.072644874040480728e-02,-5.372801375462993995e-02,-5.672957876885507955e-02,-5.963109161593937307e-02
-6.083171762162942892e-02,-6.083171762162942892e-02,-6.083171762162942892e-02,-6.083171762162942892e-02,-6.083171762162942892e-02,-6.083171762162942892e-02,-6.083171762162942892e-02,-6.056014745367572366e-02,-5.648659493437018647e-02,-5.254882749904149497e-02,-4.847527497973595084e-02,-4.440172246043041365e-02,-4.046395502510172215e-02,-3.639040250579618496e-02,-3.231684998649064083e-02,-2.824329746718509671e-02,-2.430553003185640520e-02,-2.023197751255086108e-02,-1.615842499324532389e-02,-1.222065755791663239e-02,-8.147105038611095196e-03,-4.073552519305544128e-03,-1.357850839768665052e-04,-6.938893903907228378e-18,-6.938893903907228378e-18,0.000000000000000000e+00,-6.938893903907228378e-18,-2.001043342816762050e-03,-5.002608357041894716e-03,-7.904121204126195177e-03,-1.090568621835132784e-02,-1.390725123257647439e-02,-1.690881624680160705e-02,-1.981032909388590751e-02,-2.281189410811104018e-02,-2.581345912233617979e-02,-2.871497196942047331e-02,-3.171653698364561291e-02,-3.471810199787074558e-02,-3.771966701209588518e-02,-4.062117985918017871e-02,-4.362274487340531137e-02,-4.662430988763045098e-02,-4.952582273471475144e-02,-5.252738774893988410e-02,-5.552895276316502371e-02,-5.843046561024931723e-02
-6.083171762162942892e-02,-6.083171762162942892e-02,-6.083171762162942892e-02,-6.083171762162942892e-02,-6.083171762162942892e-02,-6.083171762162942892e-02,-6.083171762162942892e-02,-6.083171762162942892e-02,-5.811601594209240412e-02,-5.417824850676371262e-02,-5.010469598745816849e-02,-4.603114346815262437e-02,-4.209337603282393980e-02,-3.801982351351839567e-02,-3.394627099421285849e-02,-2.987271847490731436e-02,-2.593495103957862286e-02,-2.186139852027307873e-02,-1.778784600096753460e-02,-1.385007856563885004e-02,-9.776526046333305908e-03,-5.702973527027768719e-03,-1.629421007722224590e-03,-6.938893903907228378e-18,0.000000000000000000e+00,-6.938893903907228378e-18,-6.938893903907228378e-18,-8.004173371267062076e-04,-3.801982351351838874e-03,-6.803547365576971540e-03,-9.705060212661272001e-03,-1.270662522688641161e-02,-1.570819024111155815e-02,-1.860970308819585167e-02,-2.161126810242098434e-02,-2.461283311664612394e-02,-2.751434596373041747e-02,-3.051591097795555707e-02,-3.351747599218068974e-02,-3.651904100640582934e-02,-3.942055385349012286e-02,-4.242211886771526247e-02,-4.542368388194040207e-02,-4.832519672902469560e-02,-5.132676174324983520e-02,-5.432832675747496787e-02,-5.732989177170010053e-02
-6.083171762162942892e-02,-6.083171762162942892e-02,-6.083171762162942892e-02,-6.083171762162942892e-02,-6.083171762162942892e-02,-6.083171762162942892e-02,-6.083171762162942892e-02,-6.083171762162942892e-02,-5.974543694981461484e-02,-5.580766951448593027e-02,-5.173411699518038614e-02,-4.766056447587484202e-02,-4.358701195656930483e-02,-3.964924452124061333e-02,-3.557569200193506920e-02,-3.150213948262953201e-02,-2.756437204730084051e-02,-2.349081952799529638e-02,-1.941726700868975919e-02,-1.534371448938420812e-02,-1.140594705405552356e-02,-7.332394534749986370e-03,-3.258842015444435303e-03,-6.938893903907228378e-18,-6.938893903907228378e-18,-6.938893903907228378e-18,-6.938893903907228378e-18,-6.938893903907228378e-18,-2.601356345661789971e-03,-5.602921359886915698e-03,-8.504434206971223098e-03,-1.150599922119636270e-02,-1.450756423542149537e-02,-1.740907708250579583e-02,-2.041064209673093544e-02,-2.341220711095606810e-02,-2.641377212518120771e-02,-2.931528497226550123e-02,-3.231684998649063389e-02,-3.531841500071577350e-02,-3.821992784780007396e-02,-4.122149286202521357e-02,-4.422305787625034623e-02,-4.722462289047547890e-02,-5.012613573755977936e-02,-5.312770075178491203e-02,-5.612926576601005163e-02
-6.083171762162942892e-02,-6.083171762162942892e-02,-6.083171762162942892e-02,-6.083171762162942892e-02,-6.083171762162942892e-02,-6.083171762162942892e-02,-6.083171762162942892e-02,-6.083171762162942892e-02,-6.083171762162942892e-02,-5.730130543823129530e-02,-5.336353800290260380e-02,-4.928998548359705967e-02,-4.521643296429152248e-02,-4.127866552896283098e-02,-3.720511300965728685e-02,-3.313156049035174966e-02,-2.905800797104620553e-02,-2.512024053571751403e-02,-2.104668801641196990e-02,-1.697313549710643271e-02,-1.303536806177774121e-02,-8.961815542472204021e-03,-4.888263023166652954e-03,-8.147105038611157646e-04,-6.938893903907228378e-18,-6.938893903907228378e-18,-1.387778780781445676e-17,-6.938893903907228378e-18,-1.400730339971741067e-03,-4.402295354196866795e-03,-7.303808201281167256e-03,-1.030537321550630686e-02,-1.330693822973144647e-02,-1.630850324395657913e-02,-1.921001609104087959e-02,-2.221158110526601226e-02,-2.521314611949115186e-02,-2.811465896657544539e-02,-3.111622398080058152e-02,-3.411778899502571766e-02,-3.711935400925085726e-02,-4.002086685633515772e-02,-4.302243187056029039e-02,-4.602399688478542306e-02,-4.892550973186972352e-02,-5.192707474609485618e-02,-5.492863976031999579e-02
-6.083171762162942892e-02,-6.083171762162942892e-02,-6.083171762162942892e-02,-6.083171762162942892e-02,-6.083171762162942892e-02,-6.083171762162942892e-02,-6.083171762162942892e-02,-6.083171762162942892e-02,-6.083171762162942892e-02,-5.893072644595351295e-02,-5.499295901062482145e-02,-5.091940649131927732e-02,-4.684585397201374013e-02,-4.277230145270819600e-02,-3.883453401737950450e-02,-3.476098149807396731e-02,-3.068742897876842318e-02,-2.674966154343973168e-02,-2.267610902413418755e-02,-1.860255650482865036e-02,-1.452900398552311317e-02,-1.059123655019442167e-02,-6.517684030888877544e-03,-2.444131511583326477e-03,-6.938893903907228378e-18,-6.938893903907228378e-18,0.000000000000000000e+00,-6.938893903907228378e-18,-2.001043342816852255e-04,-3.201669348506817891e-03,-6.203234362731943619e-03,-9.104747209816251019e-03,-1.210631222404138368e-02,-1.510787723826653023e-02,-1.800939008535082375e-02,-2.101095509957596336e-02,-2.401252011380109602e-02,-2.701408512802622869e-02,-2.991559797511052915e-02,-3.291716298933566875e-02,-3.591872800356080142e-02,-3.882024085064510188e-02,-4.182180586487023455e-02,-4.482337087909536721e-02,-4.782493589332050682e-02,-5.072644874040480728e-02,-5.372801375462993995e-02
-6.083171762162942892e-02,-6.083171762162942892e-02,-6.083171762162942892e-02,-6.083171762162942892e-02,-6.083171762162942892e-02,-6.083171762162942892e-02,-6.083171762162942892e-02,-6.083171762162942892e-02,-6.083171762162942892e-02,-6.056014745367572366e-02,-5.648659493437018647e-02,-5.254882749904149497e-02,-4.847527497973595778e-02,-4.440172246043041365e-02,-4.046395502510172215e-02,-3.639040250579618496e-02,-3.231684998649064083e-02,-2.837908255116194933e-02,-2.430553003185640520e-02,-2.023197751255086108e-02,-1.615842499324531695e-02,-1.222065755791663239e-02,-8.147105038611095196e-03,-4.073552519305544128e-03,-1.357850839768595663e-04,-6.938893903907228378e-18,-1.387778780781445676e-17,0.000000000000000000e+00,-6.938893903907228378e-18,-2.001043342816762050e-03,-5.002608357041894716e-03,-7.904121204126195177e-03,-1.090568621835132784e-02,-1.390725123257646745e-02,-1.690881624680160705e-02,-1.981032909388590751e-02,-2.281189410811104018e-02,-2.581345912233617979e-02,-2.871497196942047331e-02,-3.171653698364561291e-02,-3.471810199787074558e-02,-3.761961484495504604e-02,-4.062117985918017871e-02,-4.362274487340531831e-02,-4.662430988763045098e-02,-4.987913194993083554e-02,-5.590102175972001125e-02
-6.083171762162942892e-02,-6.083171762162942892e-02,-6.083171762162942892e-02,-6.083171762162942892e-02,-6.083171762162942892e-02,-6.083171762162942892e-02,-6.083171762162942892e-02,-6.083171762162942892e-02,-6.083171762162942892e-02,-6.083171762162942892e-02,-5.811601594209240412e-02,-5.417824850676371262e-02,-5.010469598745816849e-02,-4.603114346815263130e-02,-4.209337603282393980e-02,-3.801982351351839567e-02,-3.394627099421285849e-02,-2.987271847490731436e-02,-2.593495103957862286e-02,-2.186139852027307179e-02,-1.778784600096754154e-02,-1.385007856563885004e-02,-9.776526046333305908e-03,-5.702973527027768719e-03,-1.629421007722224590e-03,-1.387778780781445676e-17,-6.938893903907228378e-18,-6.938893903907228378e-18,-6.938893903907228378e-18,-8.004173371267062076e-04,-3.801982351351845812e-03,-6.803547365576971540e-03,-9.705060212661278940e-03,-1.270662522688640467e-02,-1.570819024111155121e-02,-1.860970308819585861e-02,-2.161126810242099128e-02,-2.461283311664612394e-02,-2.751434596373042440e-02,-3.051591097795555360e-02,-3.351747599218068974e-02,-3.651904100640582240e-02,-3.942055385349012980e-02,-4.644921859513398421e-02,-5.457220391488076111e-02,-6.044088884373553100e-02,-6.083171762162942892e-02
-6.083171762162942892e-02,-6.083171762162942892e-02,-6.083171762162942892e-02,-6.083171762162942892e-02,-6.083171762162942892e-02,-6.083171762162942892e-02,-6.083171762162942892e-02,-6.083171762162942892e-02,-6.083171762162942892e-02,-6.083171762162942892e-02,-5.974543694981461484e-02,-5.580766951448593027e-02,-5.173411699518038614e-02,-4.766056447587484202e-02,-4.358701195656930483e-02,-3.964924452124060639e-02,-3.557569200193506920e-02,-3.150213948262953201e-02,-2.756437204730084051e-02,-2.349081952799529638e-02,-1.941726700868975225e-02,-1.534371448938421506e-02,-1.140594705405552356e-02,-7.332394534749979431e-03,-3.258842015444435303e-03,-6.938893903907228378e-18,-6.938893903907228378e-18,0.000000000000000000e+00,-6.938893903907228378e-18,-6.938893903907228378e-18,-2.601356345661789971e-03,-5.602921359886915698e-03,-8.504434206971223098e-03,-1.150599922119636270e-02,-1.450756423542149537e-02,-1.740907708250579583e-02,-2.041064209673093544e-02,-2.341220711095606810e-02,-2.641377212518120771e-02,-2.931528497226550123e-02,-3.320793960008872059e-02,-4.568319419046194818e-02,-5.588538860860425839e-02,-6.083171762162942892e-02,-6.083171762162942892e-02,-6.083171762162942892e-02,-6.083171762162942892e-02
-6.083171762162942892e-02,-6.083171762162942892e-02,-6.083171762162942892e-02,-6.083171762162942892e-02,-6.083171762162942892e-02,-6.083171762162942892e-02,-6.083171762162942892e-02,-6.083171762162942892e-02,-6.083171762162942892e-02,-6.083171762162942892e-02,-6.083171762162942892e-02,-5.730130543823129530e-02,-5.336353800290260380e-02,-4.928998548359705967e-02,-4.521643296429152248e-02,-4.127866552896283098e-02,-3.720511300965728685e-02,-3.313156049035174966e-02,-2.905800797104620553e-02,-2.512024053571751403e-02,-2.104668801641196990e-02,-1.697313549710643271e-02,-1.303536806177774121e-02,-8.961815542472197083e-03,-4.888263023166659893e-03,-9.504955878379683920e-04,-1.387778780781445676e-17,0.000000000000000000e+00,-6.938893903907228378e-18,-6.938893903907228378e-18,-1.400730339971734129e-03,-4.402295354196873733e-03,-7.303808201281167256e-03,-1.030537321550630686e-02,-1.330693822973143953e-02,-1.630850324395657913e-02,-1.921001609104087959e-02,-2.221158110526601920e-02,-3.300470863558389867e-02,-4.754041254301374919e-02,-5.990310844535352841e-02,-6.083171762162942892e-02,-6.083171762162942892e-02,-6.083171762162942892e-02,-6.083171762162942892e-02,-6.083171762162942892e-02,-6.083171762162942892e-02
-6.083171762162942892e-02,-6.083171762162942892e-02,-6.083171762162942892e-02,-6.083171762162942892e-02,-6.083171762162942892e-02,-6.083171762162942892e-02,-6.083171762162942892e-02,-6.083171762162942892e-02,-6.083171762162942892e-02,-6.083171762162942892e-02,-6.083171762162942892e-02,-5.893072644595351295e-02,-5.499295901062482145e-02,-5.091940649131927732e-02,-4.684585397201374013e-02,-4.290808653668504863e-02,-3.883453401737950450e-02,-3.476098149807396037e-02,-3.068742897876841624e-02,-2.674966154343973168e-02,-2.267610902413418755e-02,-1.860255650482865036e-02,-1.466478906949995886e-02,-1.059123655019442167e-02,-6.517684030888877544e-03,-2.444131511583326477e-03,-6.938893903907228378e-18,0.000000000000000000e+00,-6.938893903907228378e-18,-6.938893903907228378e-18,-2.001043342816852255e-04,-3.201669348506817891e-03,-6.203234362731950557e-03,-9.104747209816251019e-03,-1.210631222404139062e-02,-1.653674725024661951e-02,-3.540596064696401035e-02,-5.212092581993023332e-02,-6.083171762162942892e-02,-6.083171762162942892e-02,-6.083171762162942892e-02,-6.083171762162942892e-02,-6.083171762162942892e-02,-6.083171762162942892e-02,-6.083171762162942892e-02,-6.083171762162942892e-02,-6.083171762162942892e-02
-6.083171762162942892e-02,-6.083171762162942892e-02,-6.083171762162942892e-02,-6.083171762162942892e-02,-6.083171762162942892e-02,-6.083171762162942892e-02,-6.083171762162942892e-02,-6.083171762162942892e-02,-6.083171762162942892e-02,-6.083171762162942892e-02,-6.083171762162942892e-02,-6.056014745367572366e-02,-5.662238001834703216e-02,-5.254882749904149497e-02,-4.847527497973595778e-02,-4.440172246043041365e-02,-4.046395502510172215e-02,-3.639040250579617802e-02,-3.231684998649063389e-02,-2.837908255116194239e-02,-2.430553003185640520e-02,-2.023197751255086108e-02,-1.615842499324532389e-02,-1.222065755791663239e-02,-8.147105038611095196e-03,-4.073552519305544128e-03,-1.357850839768526274e-04,-6.938893903907228378e-18,-1.387778780781445676e-17,-1.387778780781445676e-17,-6.938893903907228378e-18,-2.001043342816762050e-03,-5.002608357041894716e-03,-1.948203292045502105e-02,-4.054926736404770166e-02,-5.936532804697152582e-02,-6.083171762162942892e-02,-6.083171762162942892e-02,-6.083171762162942892e-02,-6.083171762162942892e-02,-6.083171762162942892e-02,-6.083171762162942892e-02,-6.083171762162942892e-02,-6.083171762162942892e-02,-6.083171762162942892e-02,-6.083171762162942892e-02,-6.083171762162942892e-02
-6.083171762162942892e-02,-6.083171762162942892e-02,-6.083171762162942892e-02,-6.083171762162942892e-02,-6.083171762162942892e-02,-6.083171762162942892e-02,-6.083171762162942892e-02,-6.083171762162942892e-02,-6.083171762162942892e-02,-6.083171762162942892e-02,-6.083171762162942892e-02,-6.083171762162942892e-02,-5.811601594209240412e-02,-5.417824850676371262e-02,-5.010469598745816849e-02,-4.603114346815262437e-02,-4.209337603282393980e-02,-3.801982351351839567e-02,-3.394627099421285155e-02,-2.987271847490731436e-02,-2.593495103957862286e-02,-2.186139852027307179e-02,-1.778784600096754154e-02,-1.385007856563885698e-02,-9.776526046333305908e-03,-5.702973527027761780e-03,-1.629421007722217651e-03,-6.938893903907228378e-18,0.000000000000000000e+00,-6.938893903907228378e-18,-1.900991175675929845e-03,-2.518813307770594034e-02,-4.835646303125620826e-02,-6.083171762162942892e-02,-6.083171762162942892e-02,-6.083171762162942892e-02,-6.083171762162942892e-02,-6.083171762162942892e-02,-6.083171762162942892e-02,-6.083171762162942892e-02,-6.083171762162942892e-02,-6.083171762162942892e-02,-6.083171762162942892e-02,-6.083171762162942892e-02,-6.083171762162942892e-02,-6.083171762162942892e-02,-6.083171762162942892e-02
-6.083171762162942892e-02,-6.083171762162942892e-02,-6.083171762162942892e-02,-6.083171762162942892e-02,-6.083171762162942892e-02,-6.083171762162942892e-02,-6.083171762162942892e-02,-6.083171762162942892e-02,-6.083171762162942892e-02,-6.083171762162942892e-02,-6.083171762162942892e-02,-6.083171762162942892e-02,-5.974543694981461484e-02,-5.580766951448593027e-02,-5.173411699518038614e-02,-4.766056447587484202e-02,-4.358701195656930483e-02,-3.964924452124061333e-02,-3.557569200193506920e-02,-3.150213948262953201e-02,-2.756437204730083357e-02,-2.349081952799529638e-02,-1.941726700868975225e-02,-1.534371448938421506e-02,-1.140594705405553050e-02,-7.332394534749979431e-03,-3.258842015444435303e-03,-6.938893903907228378e-18,-1.330693822973144647e-02,-3.611883233784247971e-02,-5.893072644595351295e-02,-6.083171762162942892e-02,-6.083171762162942892e-02,-6.083171762162942892e-02,-6.083171762162942892e-02,-6.083171762162942892e-02,-6.083171762162942892e-02,-6.083171762162942892e-02,-6.083171762162942892e-02,-6.083171762162942892e-02,-6.083171762162942892e-02,-6.083171762162942892e-02,-6.083171762162942892e-02,-6.083171762162942892e-02,-6.083171762162942892e-02,-6.083171762162942892e-02,-6.083171762162942892e-02
