-1.519348895024030532e-01,-1.519348895024030532e-01,-1.519348895024030532e-01,-1.519348895024030532e-01,-1.519348895024030532e-01,-1.519348895024030532e-01,-1.519348895024030532e-01,-1.519348895024030532e-01,-1.519348895024030532e-01,-1.519348895024030532e-01,-1.519348895024030532e-01,-1.519348895024030532e-01,-1.519348895024030532e-01,-1.519348895024030532e-01,-1.519348895024030532e-01,-1.519348895024030532e-01,-1.519348895024030532e-01,-1.519348895024030532e-01,-1.519348895024030532e-01,-1.519348895024030532e-01,-1.519348895024030532e-01,-1.519348895024030532e-01,-1.519348895024030532e-01,-1.519348895024030532e-01,-1.519348895024030532e-01,-1.519348895024030532e-01,-1.519348895024030532e-01,-1.519348895024030532e-01,-1.519348895024030532e-01,-1.519348895024030532e-01,-1.519348895024030532e-01,-1.519348895024030532e-01,-1.519348895024030532e-01,-1.519348895024030532e-01,-1.519348895024030532e-01,-1.519348895024030532e-01,-1.519348895024030532e-01,-1.519348895024030532e-01,-1.519348895024030532e-01,-1.519348895024030532e-01,-1.519348895024030532e-01,-1.519348895024030532e-01,-1.519348895024030532e-01,-1.519348895024030532e-01,-1.519348895024030532e-01,-1.519348895024030532e-01,-1.519348895024030532e-01
-1.519348895024030532e-01,-1.519348895024030532e-01,-1.519348895024030532e-01,-1.519348895024030532e-01,-1.519348895024030532e-01,-1.519348895024030532e-01,-1.519348895024030532e-01,-1.519348895024030532e-01,-1.519348895024030532e-01,-1.519348895024030532e-01,-1.519348895024030532e-01,-1.519348895024030532e-01,-1.519348895024030532e-01,-1.519348895024030532e-01,-1.519348895024030532e-01,-1.519348895024030532e-01,-1.519348895024030532e-01,-1.519348895024030532e-01,-1.519348895024030532e-01,-1.519348895024030532e-01,-1.519348895024030532e-01,-1.519348895024030532e-01,-1.519348895024030532e-01,-1.519348895024030532e-01,-1.519348895024030532e-01,-1.519348895024030532e-01,-1.519348895024030532e-01,-1.519348895024030532e-01,-1.519348895024030532e-01,-1.519348895024030532e-01,-1.519348895024030532e-01,-1.519348895024030532e-01,-1.519348895024030532e-01,-1.519348895024030532e-01,-1.519348895024030532e-01,-1.519348895024030532e-01,-1.519348895024030532e-01,-1.519348895024030532e-01,-1.519348895024030532e-01,-1.519348895024030532e-01,-1.519348895024030532e-01,-1.519348895024030532e-01,-1.519348895024030532e-01,-1.519348895024030532e-01,-1.519348895024030532e-01,-1.519348895024030532e-01,-1.519348895024030532e-01
-1.519348895024030532e-01,-1.519348895024030532e-01,-1.519348895024030532e-01,-1.519348895024030532e-01,-1.519348895024030532e-01,-1.518514291749175904e-01,-1.519348895024030532e-01,-1.519348895024030532e-01,-1.519348895024030532e-01,-1.519348895024030532e-01,-1.519348895024030532e-01,-1.519348895024030532e-01,-1.519348895024030532e-01,-1.519348895024030532e-01,-1.519348895024030532e-01,-1.519348895024030532e-01,-1.519348895024030532e-01,-1.519348895024030532e-01,-1.519348895024030532e-01,-1.519348895024030532e-01,-1.519348895024030532e-01,-1.519348895024030532e-01,-1.519348895024030532e-01,-1.519348895024030532e-01,-1.519348895024030532e-01,-1.519348895024030532e-01,-1.519348895024030532e-01,-1.519348895024030532e-01,-1.519348895024030532e-01,-1.519348895024030532e-01,-1.519348895024030532e-01,-1.519348895024030532e-01,-2.706246375565616313e-01,-2.706246375565616313e-01,-2.706246375565616313e-01,-2.706246375565616313e-01,-1.519348895024030532e-01,-1.519348895024030532e-01,-1.519348895024030532e-01,-1.519348895024030532e-01,-1.519348895024030532e-01,-1.519348895024030532e-01,-1.519348895024030532e-01,-1.519348895024030532e-01,-1.519348895024030532e-01,-1.519348895024030532e-01,-1.519348895024030532e-01
-1.519348895024030532e-01,-1.519348895024030532e-01,-1.519348895024030532e-01,-1.519348895024030532e-01,-1.519348895024030532e-01,-1.479566138922632224e-01,-1.451096893880372829e-01,-1.483739155296904810e-01,-1.513413938402843051e-01,-1.519348895024030532e-01,-1.519348895024030532e-01,-1.519348895024030532e-01,-1.519348895024030532e-01,-1.519348895024030532e-01,-1.519348895024030532e-01,-1.519348895024030532e-01,-1.519348895024030532e-01,-1.519348895024030532e-01,-1.519348895024030532e-01,-1.519348895024030532e-01,-1.519348895024030532e-01,-1.519348895024030532e-01,-1.519348895024030532e-01,-1.519348895024030532e-01,-1.519348895024030532e-01,-1.519348895024030532e-01,-1.519348895024030532e-01,-1.519348895024030532e-01,-1.519348895024030532e-01,-1.519348895024030532e-01,-1.519348895024030532e-01,-1.519348895024030532e-01,-2.706246375565616313e-01,-2.706246375565616313e-01,-2.706246375565616313e-01,-2.706246375565616313e-01,-1.519348895024030532e-01,-1.519348895024030532e-01,-1.519348895024030532e-01,-1.519348895024030532e-01,-1.519348895024030532e-01,-1.519348895024030532e-01,-1.519348895024030532e-01,-1.519348895024030532e-01,-1.519348895024030532e-01,-1.519348895024030532e-01,-1.519348895024030532e-01
-1.519348895024030532e-01,-1.519348895024030532e-01,-1.519348895024030532e-01,-1.519348895024030532e-01,-1.519348895024030532e-01,-1.379135544848472950e-01,-1.362072544562558662e-01,-1.394714805979090644e-01,-1.424389589085028607e-01,-1.457031850501560588e-01,-1.486706633607498551e-01,-1.519348895024030532e-01,-1.519348895024030532e-01,-1.519348895024030532e-01,-1.519348895024030532e-01,-1.519348895024030532e-01,-1.519348895024030532e-01,-1.519348895024030532e-01,-1.519348895024030532e-01,-1.519348895024030532e-01,-1.519348895024030532e-01,-1.519348895024030532e-01,-1.519348895024030532e-01,-1.519348895024030532e-01,-1.519348895024030532e-01,-1.519348895024030532e-01,-1.519348895024030532e-01,-1.519348895024030532e-01,-1.519348895024030532e-01,-1.519348895024030532e-01,-1.519348895024030532e-01,-1.519348895024030532e-01,-2.706246375565616313e-01,-2.706246375565616313e-01,-2.706246375565616313e-01,-2.706246375565616313e-01,-1.519348895024030532e-01,-1.519348895024030532e-01,-1.519348895024030532e-01,-1.519348895024030532e-01,-1.519348895024030532e-01,-1.519348895024030532e-01,-1.519348895024030532e-01,-1.519348895024030532e-01,-1.519348895024030532e-01,-1.519348895024030532e-01,-1.519348895024030532e-01
-1.519348895024030532e-01,-1.519348895024030532e-01,-1.519348895024030532e-01,-1.519348895024030532e-01,-1.480771676986311070e-01,-1.240405933828212515e-01,-1.273048195244744218e-01,-1.305690456661276200e-01,-1.335365239767214440e-01,-1.368007501183746144e-01,-1.397682284289684385e-01,-1.430324545706216366e-01,-1.459999328812154329e-01,-1.492641590228686310e-01,-1.519348895024030532e-01,-1.519348895024030532e-01,-1.519348895024030532e-01,-1.519348895024030532e-01,-1.519348895024030532e-01,-1.519348895024030532e-01,-1.519348895024030532e-01,-1.519348895024030532e-01,-1.519348895024030532e-01,-1.519348895024030532e-01,-1.519348895024030532e-01,-1.519348895024030532e-01,-1.519348895024030532e-01,-1.519348895024030532e-01,-1.519348895024030532e-01,-1.519348895024030532e-01,-1.519348895024030532e-01,-1.519348895024030532e-01,-2.706246375565616313e-01,-2.706246375565616313e-01,-2.706246375565616313e-01,-2.706246375565616313e-01,-1.519348895024030532e-01,-1.519348895024030532e-01,-1.519348895024030532e-01,-1.519348895024030532e-01,-1.519348895024030532e-01,-1.519348895024030532e-01,-1.519348895024030532e-01,-1.519348895024030532e-01,-1.519348895024030532e-01,-1.519348895024030532e-01,-1.519348895024030532e-01
-1.519348895024030532e-01,-1.519348895024030532e-01,-1.519348895024030532e-01,-1.519348895024030532e-01,-1.332954163639856748e-01,-1.151381584510398209e-01,-1.184023845926930052e-01,-1.213698629032868292e-01,-1.246340890449400135e-01,-1.276015673555338237e-01,-1.308657934971870218e-01,-1.338332718077808181e-01,-1.370974979494340162e-01,-1.400649762600278125e-01,-1.433292024016810107e-01,-1.465934285433342088e-01,-1.495609068539280051e-01,-1.519348895024030532e-01,-1.519348895024030532e-01,-1.519348895024030532e-01,-1.519348895024030532e-01,-1.519348895024030532e-01,-1.519348895024030532e-01,-1.519348895024030532e-01,-1.519348895024030532e-01,-1.519348895024030532e-01,-1.519348895024030532e-01,-1.519348895024030532e-01,-1.519348895024030532e-01,-1.519348895024030532e-01,-1.519348895024030532e-01,-1.519348895024030532e-01,-1.519348895024030532e-01,-1.519348895024030532e-01,-1.519348895024030532e-01,-1.519348895024030532e-01,-1.519348895024030532e-01,-1.519348895024030532e-01,-1.519348895024030532e-01,-1.519348895024030532e-01,-1.519348895024030532e-01,-1.519348895024030532e-01,-1.519348895024030532e-01,-1.519348895024030532e-01,-1.519348895024030532e-01,-1.519348895024030532e-01,-1.519348895024030532e-01
-1.519348895024030532e-01,-1.519348895024030532e-01,-1.519348895024030532e-01,-1.519348895024030532e-01,-1.139140736479198751e-01,-1.062357235192583904e-01,-1.094999496609115885e-01,-1.124674279715053848e-01,-1.157316541131585830e-01,-1.186991324237523932e-01,-1.219633585654055774e-01,-1.249308368759993876e-01,-1.281950630176525718e-01,-1.311625413282463959e-01,-1.344267674698995940e-01,-1.373942457804933903e-01,-1.406584719221465885e-01,-1.436259502327403847e-01,-1.468901763743935829e-01,-1.498576546849873792e-01,-1.519348895024030532e-01,-1.519348895024030532e-01,-1.519348895024030532e-01,-1.519348895024030532e-01,-1.519348895024030532e-01,-1.519348895024030532e-01,-1.519348895024030532e-01,-1.519348895024030532e-01,-1.519348895024030532e-01,-1.519348895024030532e-01,-1.519348895024030532e-01,-1.519348895024030532e-01,-1.519348895024030532e-01,-1.519348895024030532e-01,-1.519348895024030532e-01,-1.519348895024030532e-01,-1.519348895024030532e-01,-1.519348895024030532e-01,-1.519348895024030532e-01,-1.519348895024030532e-01,-1.519348895024030532e-01,-1.519348895024030532e-01,-1.519348895024030532e-01,-1.519348895024030532e-01,-1.519348895024030532e-01,-1.519348895024030532e-01,-1.519348895024030532e-01
-1.519348895024030532e-01,-1.519348895024030532e-01,-1.519348895024030532e-01,-1.405286447460581123e-01,-9.406906244582377563e-02,-9.733328858747697376e-02,-1.003007668980707701e-01,-1.035649930397239682e-01,-1.065324713503177645e-01,-1.097966974919709626e-01,-1.127641758025647728e-01,-1.160284019442179571e-01,-1.192926280858711552e-01,-1.222601063964649654e-01,-1.255243325381181496e-01,-1.284918108487119737e-01,-1.317560369903651440e-01,-1.347235153009589681e-01,-1.379877414426121385e-01,-1.409552197532059625e-01,-1.442194458948591607e-01,-1.471869242054529570e-01,-1.504511503471061551e-01,-1.519348895024030532e-01,-1.519348895024030532e-01,-1.519348895024030532e-01,-1.519348895024030532e-01,-1.519348895024030532e-01,-1.519348895024030532e-01,-1.519348895024030532e-01,-1.519348895024030532e-01,-1.519348895024030532e-01,-1.519348895024030532e-01,-1.519348895024030532e-01,-1.519348895024030532e-01,-1.519348895024030532e-01,-1.519348895024030532e-01,-1.519348895024030532e-01,-1.519348895024030532e-01,-1.519348895024030532e-01,-1.519348895024030532e-01,-1.519348895024030532e-01,-1.519348895024030532e-01,-1.519348895024030532e-01,-1.519348895024030532e-01,-1.519348895024030532e-01,-1.519348895024030532e-01
-1.519348895024030532e-01,-1.519348895024030532e-01,-1.519348895024030532e-01,-1.170670193529257941e-01,-8.516662751404235898e-02,-8.843085365569552936e-02,-9.139833196628935341e-02,-9.466255810794253767e-02,-9.763003641853634784e-02,-1.008942625601895321e-01,-1.038617408707833423e-01,-1.071259670124365404e-01,-1.100934453230303367e-01,-1.133576714646835348e-01,-1.163251497752773450e-01,-1.195893759169305293e-01,-1.225568542275243394e-01,-1.258210803691775237e-01,-1.287885586797713477e-01,-1.320527848214245181e-01,-1.353170109630777163e-01,-1.382844892736715403e-01,-1.415487154153247107e-01,-1.445161937259185347e-01,-1.477804198675717329e-01,-1.507478981781655292e-01,-1.519348895024030532e-01,-1.519348895024030532e-01,-1.519348895024030532e-01,-1.519348895024030532e-01,-1.519348895024030532e-01,-1.519348895024030532e-01,-1.519348895024030532e-01,-1.519348895024030532e-01,-1.519348895024030532e-01,-1.519348895024030532e-01,-1.519348895024030532e-01,-1.519348895024030532e-01,-1.519348895024030532e-01,-1.519348895024030532e-01,-1.519348895024030532e-01,-1.519348895024030532e-01,-1.519348895024030532e-01,-1.519348895024030532e-01,-1.519348895024030532e-01,-1.519348895024030532e-01,-1.519348895024030532e-01
-1.519348895024030532e-01,-1.519348895024030532e-01,-1.519348895024030532e-01,-8.533354816901325690e-02,-7.626419258226091458e-02,-7.923167089285472475e-02,-8.249589703450792288e-02,-8.546337534510173306e-02,-8.872760148675493119e-02,-9.169507979734872749e-02,-9.495930593900192562e-02,-9.822353208065510988e-02,-1.011910103912489201e-01,-1.044552365329021043e-01,-1.074227148434959145e-01,-1.106869409851491126e-01,-1.136544192957429089e-01,-1.169186454373961070e-01,-1.198861237479899172e-01,-1.231503498896431015e-01,-1.261178282002369255e-01,-1.293820543418900959e-01,-1.323495326524839200e-01,-1.356137587941371181e-01,-1.385812371047309144e-01,-1.418454632463841125e-01,-1.448129415569779088e-01,-1.480771676986311070e-01,-1.513413938402843051e-01,-1.519348895024030532e-01,-1.519348895024030532e-01,-1.519348895024030532e-01,-1.519348895024030532e-01,-1.519348895024030532e-01,-1.519348895024030532e-01,-1.519348895024030532e-01,-1.519348895024030532e-01,-1.519348895024030532e-01,-1.519348895024030532e-01,-1.519348895024030532e-01,-1.519348895024030532e-01,-1.519348895024030532e-01,-1.519348895024030532e-01,-1.519348895024030532e-01,-1.519348895024030532e-01,-1.519348895024030532e-01,-1.519348895024030532e-01
-1.519348895024030532e-01,-1.519348895024030532e-01,-1.320713315608657568e-01,-6.409753150882629980e-02,-6.736175765047948405e-02,-7.032923596107329423e-02,-7.359346210272649236e-02,-7.656094041332031641e-02,-7.982516655497348679e-02,-8.279264486556731084e-02,-8.605687100722049510e-02,-8.902434931781430527e-02,-9.228857545946748953e-02,-9.525605377006129970e-02,-9.852027991171449783e-02,-1.014877582223082941e-01,-1.047519843639614923e-01,-1.077194626745552886e-01,-1.109836888162084867e-01,-1.142479149578616848e-01,-1.172153932684554811e-01,-1.204796194101086793e-01,-1.234470977207024894e-01,-1.267113238623556737e-01,-1.296788021729494700e-01,-1.329430283146026681e-01,-1.359105066251964922e-01,-1.391747327668496625e-01,-1.421422110774434866e-01,-1.454064372190966847e-01,-1.483739155296904810e-01,-1.516381416713436792e-01,-1.519348895024030532e-01,-1.519348895024030532e-01,-1.519348895024030532e-01,-1.519348895024030532e-01,-1.519348895024030532e-01,-1.519348895024030532e-01,-1.519348895024030532e-01,-1.519348895024030532e-01,-1.519348895024030532e-01,-1.519348895024030532e-01,-1.519348895024030532e-01,-1.519348895024030532e-01,-1.519348895024030532e-01,-1.519348895024030532e-01,-1.519348895024030532e-01
-1.519348895024030532e-01,-1.519348895024030532e-01,-9.568262877720914994e-02,-5.519509657704488315e-02,-5.816257488763867944e-02,-6.142680102929187758e-02,-6.439427933988567387e-02,-6.765850548153888588e-02,-7.092273162319205626e-02,-7.389020993378586644e-02,-7.715443607543907845e-02,-8.012191438603287474e-02,-8.338614052768605900e-02,-8.635361883827986917e-02,-8.961784497993306731e-02,-9.258532329052687748e-02,-9.584954943218004786e-02,-9.881702774277387191e-02,-1.020812538844270562e-01,-1.050487321950208663e-01,-1.083129583366740645e-01,-1.112804366472678608e-01,-1.145446627889210589e-01,-1.175121410995148691e-01,-1.207763672411680533e-01,-1.237438455517618635e-01,-1.270080716934150478e-01,-1.302722978350682459e-01,-1.332397761456620700e-01,-1.365040022873152403e-01,-1.394714805979090644e-01,-1.427357067395622348e-01,-1.457031850501560588e-01,-1.489674111918092569e-01,-1.519348895024030532e-01,-1.519348895024030532e-01,-1.519348895024030532e-01,-1.519348895024030532e-01,-1.519348895024030532e-01,-1.519348895024030532e-01,-1.519348895024030532e-01,-1.519348895024030532e-01,-1.519348895024030532e-01,-1.519348895024030532e-01,-1.519348895024030532e-01,-1.519348895024030532e-01,-1.519348895024030532e-01
-1.519348895024030532e-01,-1.519348895024030532e-01,-5.664174225345935954e-02,-4.629266164526343874e-02,-4.926013995585726279e-02,-5.252436609751043317e-02,-5.549184440810425722e-02,-5.875607054975744148e-02,-6.172354886035125165e-02,-6.498777500200443591e-02,-6.795525331259824608e-02,-7.121947945425144422e-02,-7.418695776484525439e-02,-7.745118390649845252e-02,-8.041866221709226270e-02,-8.368288835874544696e-02,-8.694711450039864509e-02,-8.991459281099244139e-02,-9.317881895264562564e-02,-9.614629726323944969e-02,-9.941052340489262007e-02,-1.023780017154864441e-01,-1.056422278571396284e-01,-1.086097061677334386e-01,-1.118739323093866367e-01,-1.148414106199804330e-01,-1.181056367616336311e-01,-1.210731150722274413e-01,-1.243373412138806255e-01,-1.273048195244744496e-01,-1.305690456661276200e-01,-1.335365239767214440e-01,-1.368007501183746144e-01,-1.397682284289684385e-01,-1.430324545706216366e-01,-1.462966807122748070e-01,-1.492641590228686310e-01,-1.519348895024030532e-01,-1.519348895024030532e-01,-1.519348895024030532e-01,-1.519348895024030532e-01,-1.519348895024030532e-01,-1.519348895024030532e-01,-1.519348895024030532e-01,-1.519348895024030532e-01,-1.519348895024030532e-01,-1.519348895024030532e-01
-1.519348895024030532e-01,-1.216666107343462033e-01,-3.412600057182882396e-02,-3.709347888242263414e-02,-4.035770502407584615e-02,-4.332518333466964244e-02,-4.658940947632282670e-02,-4.985363561797602483e-02,-5.282111392856982113e-02,-5.608534007022301926e-02,-5.905281838081682944e-02,-6.231704452247002757e-02,-6.528452283306382387e-02,-6.854874897471702200e-02,-7.151622728531081830e-02,-7.478045342696401643e-02,-7.774793173755782660e-02,-8.101215787921101086e-02,-8.397963618980483491e-02,-8.724386233145801917e-02,-9.021134064205182934e-02,-9.347556678370501360e-02,-9.644304509429882377e-02,-9.970727123595200803e-02,-1.029714973776052062e-01,-1.059389756881990163e-01,-1.092032018298522006e-01,-1.121706801404460108e-01,-1.154349062820992089e-01,-1.184023845926930052e-01,-1.216666107343462033e-01,-1.246340890449400135e-01,-1.278983151865931978e-01,-1.308657934971870218e-01,-1.341300196388401922e-01,-1.370974979494340162e-01,-1.403617240910871866e-01,-1.433292024016810107e-01,-1.465934285433342088e-01,-1.495609068539280051e-01,-1.519348895024030532e-01,-1.519348895024030532e-01,-1.519348895024030532e-01,-1.519348895024030532e-01,-1.519348895024030532e-01,-1.519348895024030532e-01,-1.519348895024030532e-01
-1.519348895024030532e-01,-7.476190668752280555e-02,-2.522356564004740731e-02,-2.819104395064120361e-02,-3.145527009229440174e-02,-3.442274840288821192e-02,-3.768697454454139617e-02,-4.065445285513522022e-02,-4.391867899678840448e-02,-4.688615730738221465e-02,-5.015038344903539891e-02,-5.311786175962920908e-02,-5.638208790128239334e-02,-5.934956621187621739e-02,-6.261379235352938777e-02,-6.587801849518258590e-02,-6.884549680577639608e-02,-7.210972294742958033e-02,-7.507720125802340438e-02,-7.834142739967658864e-02,-8.130890571027039881e-02,-8.457313185192358307e-02,-8.754061016251739324e-02,-9.080483630417059138e-02,-9.377231461476440155e-02,-9.703654075641757193e-02,-1.000040190670113960e-01,-1.032682452086645802e-01,-1.062357235192583904e-01,-1.094999496609115885e-01,-1.124674279715053848e-01,-1.157316541131585830e-01,-1.189958802548117811e-01,-1.219633585654055774e-01,-1.252275847070587755e-01,-1.281950630176525718e-01,-1.314592891593057700e-01,-1.344267674698995663e-01,-1.376909936115527644e-01,-1.406584719221465885e-01,-1.439226980637997588e-01,-1.468901763743935829e-01,-1.501544025160467810e-01,-1.519348895024030532e-01,-1.519348895024030532e-01,-1.519348895024030532e-01,-1.519348895024030532e-01
-1.519348895024030532e-01,-2.607671565434313554e-02,-1.602438287720661658e-02,-1.928860901885978696e-02,-2.255283516051295734e-02,-2.552031347110678139e-02,-2.878453961275997952e-02,-3.175201792335380357e-02,-3.501624406500697395e-02,-3.798372237560078413e-02,-4.124794851725398226e-02,-4.421542682784777856e-02,-4.747965296950097669e-02,-5.044713128009478686e-02,-5.371135742174797112e-02,-5.667883573234178129e-02,-5.994306187399496555e-02,-6.291054018458877573e-02,-6.617476632624197386e-02,-6.914224463683578403e-02,-7.240647077848896829e-02,-7.567069692014216642e-02,-7.863817523073596272e-02,-8.190240137238916085e-02,-8.486987968298297103e-02,-8.813410582463615528e-02,-9.110158413522996546e-02,-9.436581027688314971e-02,-9.733328858747695989e-02,-1.005975147291301580e-01,-1.035649930397239682e-01,-1.068292191813771524e-01,-1.097966974919709626e-01,-1.130609236336241608e-01,-1.160284019442179571e-01,-1.192926280858711552e-01,-1.222601063964649654e-01,-1.255243325381181496e-01,-1.284918108487119737e-01,-1.317560369903651440e-01,-1.350202631320183422e-01,-1.379877414426121385e-01,-1.412519675842653366e-01,-1.442194458948591607e-01,-1.474836720365123310e-01,-1.504511503471061551e-01,-1.519348895024030532e-01
-1.047334376245202814e-01,-4.154469634831348124e-03,-7.121947945425172177e-03,-1.038617408707837031e-02,-1.335365239767219436e-02,-1.661787853932536474e-02,-1.958535684991918879e-02,-2.284958299157238693e-02,-2.581706130216615547e-02,-2.908128744381935360e-02,-3.204876575441316378e-02,-3.531299189606634803e-02,-3.857721803771953228e-02,-4.154469634831337022e-02,-4.480892248996654059e-02,-4.777640080056035077e-02,-5.104062694221354890e-02,-5.400810525280734520e-02,-5.727233139446054333e-02,-6.023980970505435351e-02,-6.350403584670753776e-02,-6.647151415730134794e-02,-6.973574029895454607e-02,-7.270321860954835624e-02,-7.596744475120154050e-02,-7.893492306179535067e-02,-8.219914920344854881e-02,-8.516662751404235898e-02,-8.843085365569554324e-02,-9.169507979734872749e-02,-9.466255810794253767e-02,-9.792678424959572192e-02,-1.008942625601895321e-01,-1.041584887018427164e-01,-1.071259670124365404e-01,-1.103901931540897247e-01,-1.133576714646835348e-01,-1.166218976063367330e-01,-1.195893759169305293e-01,-1.228536020585837274e-01,-1.258210803691775515e-01,-1.290853065108307218e-01,-1.320527848214245181e-01,-1.353170109630777163e-01,-1.382844892736715403e-01,-1.415487154153247107e-01,-1.445161937259185347e-01
-5.697558356340115537e-02,-2.775557561562891351e-17,-2.775557561562891351e-17,-1.483739155296953660e-03,-4.451217465890749958e-03,-7.715443607543920335e-03,-1.068292191813777214e-02,-1.394714805979094252e-02,-1.691462637038473882e-02,-2.017885251203793695e-02,-2.314633082263173325e-02,-2.641055696428493138e-02,-2.937803527487872768e-02,-3.264226141653191193e-02,-3.560973972712573599e-02,-3.887396586877893412e-02,-4.184144417937274429e-02,-4.510567032102594243e-02,-4.807314863161973872e-02,-5.133737477327292298e-02,-5.460160091492610723e-02,-5.756907922551991741e-02,-6.083330536717311554e-02,-6.380078367776692572e-02,-6.706500981942012385e-02,-7.003248813001392015e-02,-7.329671427166711828e-02,-7.626419258226092845e-02,-7.952841872391411271e-02,-8.249589703450792288e-02,-8.576012317616112102e-02,-8.872760148675491731e-02,-9.199182762840810157e-02,-9.495930593900191174e-02,-9.822353208065509600e-02,-1.011910103912489201e-01,-1.044552365329021043e-01,-1.077194626745552886e-01,-1.106869409851491126e-01,-1.139511671268022969e-01,-1.169186454373961070e-01,-1.201828715790492913e-01,-1.231503498896431015e-01,-1.264145760312962996e-01,-1.293820543418900959e-01,-1.326462804835432940e-01,-1.356137587941371181e-01
-4.747965296950124037e-03,-2.775557561562891351e-17,-2.775557561562891351e-17,-5.551115123125782702e-17,-2.775557561562891351e-17,-2.775557561562891351e-17,-1.780486986356327739e-03,-4.747965296950124037e-03,-8.012191438603322169e-03,-1.127641758025649255e-02,-1.424389589085031660e-02,-1.750812203250348698e-02,-2.047560034309733878e-02,-2.373982648475050916e-02,-2.670730479534430546e-02,-2.997153093699748971e-02,-3.293900924759129989e-02,-3.620323538924449802e-02,-3.917071369983830820e-02,-4.243493984149149245e-02,-4.540241815208531651e-02,-4.866664429373851464e-02,-5.163412260433231094e-02,-5.489834874598548131e-02,-5.786582705657930537e-02,-6.113005319823248962e-02,-6.409753150882629980e-02,-6.736175765047948405e-02,-7.062598379213268218e-02,-7.359346210272649236e-02,-7.685768824437969049e-02,-7.982516655497348679e-02,-8.308939269662668492e-02,-8.605687100722049510e-02,-8.932109714887367935e-02,-9.228857545946748953e-02,-9.555280160112067378e-02,-9.852027991171448396e-02,-1.017845060533676682e-01,-1.047519843639614784e-01,-1.080162105056146765e-01,-1.109836888162084867e-01,-1.142479149578616848e-01,-1.172153932684554811e-01,-1.204796194101086793e-01,-1.237438455517618635e-01,-1.267113238623556737e-01
-2.775557561562891351e-17,-2.775557561562891351e-17,-2.775557561562891351e-17,-2.775557561562891351e-17,-2.775557561562891351e-17,-2.775557561562891351e-17,-2.775557561562891351e-17,-2.775557561562891351e-17,-2.775557561562891351e-17,-2.077234817415701817e-03,-5.341460959068872194e-03,-8.308939269662696248e-03,-1.157316541131589438e-02,-1.454064372190969068e-02,-1.780486986356288881e-02,-2.077234817415668511e-02,-2.403657431580988324e-02,-2.730080045746306749e-02,-3.026827876805687767e-02,-3.353250490971007580e-02,-3.649998322030387210e-02,-3.976420936195707023e-02,-4.273168767255088041e-02,-4.599591381420406466e-02,-4.896339212479787484e-02,-5.222761826645107297e-02,-5.519509657704488315e-02,-5.845932271869806740e-02,-6.142680102929186370e-02,-6.469102717094506183e-02,-6.765850548153887201e-02,-7.092273162319205626e-02,-7.389020993378588031e-02,-7.715443607543907845e-02,-8.012191438603287474e-02,-8.338614052768605900e-02,-8.665036666933925713e-02,-8.961784497993306731e-02,-9.288207112158625156e-02,-9.584954943218006174e-02,-9.911377557383324599e-02,-1.020812538844270700e-01,-1.053454800260802543e-01,-1.083129583366740645e-01,-1.115771844783272487e-01,-1.145446627889210589e-01,-1.178088889305742570e-01
-2.775557561562891351e-17,-2.775557561562891351e-17,-2.775557561562891351e-17,-2.775557561562891351e-17,-2.775557561562891351e-17,-2.775557561562891351e-17,-2.775557561562891351e-17,-2.775557561562891351e-17,-2.775557561562891351e-17,-2.775557561562891351e-17,-2.775557561562891351e-17,-2.775557561562891351e-17,-2.670730479534449975e-03,-5.638208790128274028e-03,-8.902434931781444405e-03,-1.186991324237526846e-02,-1.513413938402846659e-02,-1.810161769462226289e-02,-2.136584383627546102e-02,-2.433332214686925732e-02,-2.759754828852244157e-02,-3.056502659911626563e-02,-3.382925274076944988e-02,-3.679673105136324618e-02,-4.006095719301644431e-02,-4.332518333466964244e-02,-4.629266164526345262e-02,-4.955688778691665075e-02,-5.252436609751046093e-02,-5.578859223916363130e-02,-5.875607054975744148e-02,-6.202029669141062573e-02,-6.498777500200443591e-02,-6.825200114365763404e-02,-7.121947945425144422e-02,-7.448370559590464235e-02,-7.745118390649845252e-02,-8.071541004815163678e-02,-8.368288835874544696e-02,-8.694711450039864509e-02,-8.991459281099244139e-02,-9.317881895264562564e-02,-9.614629726323943582e-02,-9.941052340489262007e-02,-1.026747495465458182e-01,-1.056422278571396284e-01,-1.089064539987928126e-01
-2.775557561562891351e-17,-2.775557561562891351e-17,-2.775557561562891351e-17,-2.775557561562891351e-17,-2.775557561562891351e-17,-2.775557561562891351e-17,-2.775557561562891351e-17,-2.775557561562891351e-17,-2.775557561562891351e-17,-2.775557561562891351e-17,-2.775557561562891351e-17,-2.775557561562891351e-17,-2.775557561562891351e-17,-2.775557561562891351e-17,-2.775557561562891351e-17,-2.967478310593824053e-03,-6.231704452247049941e-03,-9.199182762840846239e-03,-1.246340890449404437e-02,-1.543088721508784067e-02,-1.869511335674103880e-02,-2.166259166733483510e-02,-2.492681780898800548e-02,-2.789429611958182953e-02,-3.115852226123501378e-02,-3.412600057182883784e-02,-3.739022671348202209e-02,-4.035770502407583227e-02,-4.362193116572901652e-02,-4.658940947632282670e-02,-4.985363561797601095e-02,-5.282111392856983501e-02,-5.608534007022300538e-02,-5.934956621187621739e-02,-6.231704452246999981e-02,-6.558127066412319794e-02,-6.854874897471700812e-02,-7.181297511637020625e-02,-7.478045342696401643e-02,-7.804467956861721456e-02,-8.101215787921102474e-02,-8.427638402086420899e-02,-8.724386233145801917e-02,-9.050808847311120342e-02,-9.347556678370501360e-02,-9.673979292535819785e-02,-9.970727123595200803e-02
-2.775557561562891351e-17,-2.775557561562891351e-17,-2.775557561562891351e-17,-2.775557561562891351e-17,-2.775557561562891351e-17,-2.775557561562891351e-17,-5.551115123125782702e-17,-2.775557561562891351e-17,-2.775557561562891351e-17,-2.775557561562891351e-17,-2.775557561562891351e-17,-2.775557561562891351e-17,-2.775557561562891351e-17,-2.775557561562891351e-17,-2.775557561562891351e-17,-2.775557561562891351e-17,-2.775557561562891351e-17,-2.967478310594018343e-04,-3.264226141653198132e-03,-6.528452283306424020e-03,-9.495930593900220318e-03,-1.276015673555341845e-02,-1.572763504614724250e-02,-1.899186118780041288e-02,-2.225608732945361101e-02,-2.522356564004740731e-02,-2.848779178170059156e-02,-3.145527009229440174e-02,-3.471949623394758599e-02,-3.768697454454141005e-02,-4.095120068619459430e-02,-4.391867899678840448e-02,-4.718290513844158873e-02,-5.015038344903539891e-02,-5.341460959068858316e-02,-5.638208790128239334e-02,-5.964631404293557759e-02,-6.261379235352940165e-02,-6.587801849518259978e-02,-6.884549680577639608e-02,-7.210972294742959421e-02,-7.537394908908277846e-02,-7.834142739967658864e-02,-8.160565354132978677e-02,-8.457313185192358307e-02,-8.783735799357678120e-02,-9.080483630417059138e-02
-2.775557561562891351e-17,-2.775557561562891351e-17,-2.775557561562891351e-17,-2.775557561562891351e-17,-2.775557561562891351e-17,-5.551115123125782702e-17,-2.775557561562891351e-17,-2.775557561562891351e-17,-5.551115123125782702e-17,-2.775557561562891351e-17,-2.775557561562891351e-17,-2.775557561562891351e-17,-2.775557561562891351e-17,-2.775557561562891351e-17,-2.775557561562891351e-17,-2.775557561562891351e-17,-2.775557561562891351e-17,-2.775557561562891351e-17,0.000000000000000000e+00,-2.775557561562891351e-17,-5.934956621187759129e-04,-3.857721803771974045e-03,-6.825200114365798099e-03,-1.008942625601902399e-02,-1.305690456661279253e-02,-1.632113070826599066e-02,-1.928860901885978696e-02,-2.255283516051298509e-02,-2.552031347110678139e-02,-2.878453961275996564e-02,-3.204876575441317765e-02,-3.501624406500697395e-02,-3.828047020666017208e-02,-4.124794851725396838e-02,-4.451217465890716651e-02,-4.747965296950096281e-02,-5.074387911115416094e-02,-5.371135742174797112e-02,-5.697558356340115537e-02,-5.994306187399497943e-02,-6.320728801564814980e-02,-6.617476632624197386e-02,-6.943899246789515811e-02,-7.240647077848896829e-02,-7.567069692014216642e-02,-7.863817523073596272e-02,-8.190240137238916085e-02
-2.775557561562891351e-17,-2.775557561562891351e-17,-2.775557561562891351e-17,0.000000000000000000e+00,-2.775557561562891351e-17,-2.775557561562891351e-17,-2.775557561562891351e-17,-2.775557561562891351e-17,-2.775557561562891351e-17,-2.775557561562891351e-17,-2.775557561562891351e-17,-2.775557561562891351e-17,-2.775557561562891351e-17,-2.775557561562891351e-17,-2.775557561562891351e-17,-2.775557561562891351e-17,-2.775557561562891351e-17,-2.775557561562891351e-17,-2.775557561562891351e-17,-2.775557561562891351e-17,-2.775557561562891351e-17,-2.775557561562891351e-17,-2.775557561562891351e-17,-1.186991324237551826e-03,-4.154469634831348124e-03,-7.418695776484546256e-03,-1.038617408707837031e-02,-1.365040022873156844e-02,-1.661787853932536474e-02,-1.988210468097853512e-02,-2.284958299157235917e-02,-2.611380913322555730e-02,-2.908128744381935360e-02,-3.234551358547255173e-02,-3.531299189606634803e-02,-3.857721803771954616e-02,-4.154469634831335634e-02,-4.480892248996654059e-02,-4.807314863161973872e-02,-5.104062694221354890e-02,-5.430485308386673315e-02,-5.727233139446052945e-02,-6.053655753611372758e-02,-6.350403584670753776e-02,-6.676826198836072201e-02,-6.973574029895454607e-02,-7.299996644060773032e-02
-3.086177443017563971e-02,-4.747965296950124037e-03,-2.775557561562891351e-17,-2.775557561562891351e-17,-2.775557561562891351e-17,-2.775557561562891351e-17,-2.775557561562891351e-17,-2.775557561562891351e-17,-2.775557561562891351e-17,-2.775557561562891351e-17,-2.775557561562891351e-17,-2.775557561562891351e-17,-2.775557561562891351e-17,-2.775557561562891351e-17,-2.775557561562891351e-17,-2.775557561562891351e-17,-2.775557561562891351e-17,-2.775557561562891351e-17,-2.775557561562891351e-17,-2.775557561562891351e-17,-2.775557561562891351e-17,-2.775557561562891351e-17,-2.775557561562891351e-17,-2.775557561562891351e-17,-2.775557561562891351e-17,-2.775557561562891351e-17,-1.483739155296953660e-03,-4.451217465890749958e-03,-7.715443607543920335e-03,-1.097966974919711847e-02,-1.394714805979094252e-02,-1.721137420144411290e-02,-2.017885251203793695e-02,-2.344307865369113508e-02,-2.641055696428493138e-02,-2.967478310593812951e-02,-3.264226141653192581e-02,-3.590648755818512394e-02,-3.887396586877890636e-02,-4.213819201043211837e-02,-4.510567032102592855e-02,-4.836989646267911280e-02,-5.133737477327292298e-02,-5.460160091492610723e-02,-5.756907922551991741e-02,-6.083330536717311554e-02,-6.409753150882629980e-02
-1.020812538844270700e-01,-7.596744475120154050e-02,-5.222761826645105909e-02,-2.611380913322555730e-02,-2.373982648475075896e-03,-2.775557561562891351e-17,-2.775557561562891351e-17,-2.775557561562891351e-17,-2.775557561562891351e-17,-2.775557561562891351e-17,-2.775557561562891351e-17,-2.775557561562891351e-17,-2.775557561562891351e-17,-2.775557561562891351e-17,0.000000000000000000e+00,-2.775557561562891351e-17,-2.775557561562891351e-17,-2.775557561562891351e-17,-2.775557561562891351e-17,-2.775557561562891351e-17,-2.775557561562891351e-17,-2.775557561562891351e-17,-2.775557561562891351e-17,-2.775557561562891351e-17,-2.775557561562891351e-17,-2.775557561562891351e-17,-2.775557561562891351e-17,-2.775557561562891351e-17,-2.775557561562891351e-17,-1.780486986356327739e-03,-5.044713128009498115e-03,-8.012191438603322169e-03,-1.127641758025649255e-02,-1.424389589085031660e-02,-1.750812203250351473e-02,-2.047560034309731103e-02,-2.373982648475050916e-02,-2.700405262640367954e-02,-2.997153093699748971e-02,-3.323575707865070172e-02,-3.620323538924449802e-02,-3.946746153089768228e-02,-4.243493984149149245e-02,-4.569916598314469058e-02,-4.866664429373848688e-02,-5.193087043539168501e-02,-5.793074064462352957e-02
-1.519348895024030532e-01,-1.495609068539280051e-01,-1.234470977207024756e-01,-9.970727123595202190e-02,-7.359346210272650624e-02,-4.985363561797601095e-02,-2.373982648475050916e-02,-2.775557561562891351e-17,-2.775557561562891351e-17,-2.775557561562891351e-17,-2.775557561562891351e-17,-2.775557561562891351e-17,-2.775557561562891351e-17,-2.775557561562891351e-17,-2.775557561562891351e-17,-2.775557561562891351e-17,-2.775557561562891351e-17,-2.775557561562891351e-17,-2.775557561562891351e-17,-2.775557561562891351e-17,-2.775557561562891351e-17,-2.775557561562891351e-17,-2.775557561562891351e-17,-2.775557561562891351e-17,-2.775557561562891351e-17,-2.775557561562891351e-17,-2.775557561562891351e-17,-2.775557561562891351e-17,-2.775557561562891351e-17,-2.775557561562891351e-17,-2.775557561562891351e-17,-2.775557561562891351e-17,-2.373982648475103652e-03,-5.341460959068899950e-03,-8.605687100722070326e-03,-1.157316541131586662e-02,-1.483739155296906476e-02,-1.780486986356288881e-02,-2.106909600521608694e-02,-2.403657431580988324e-02,-2.730080045746308137e-02,-3.026827876805689155e-02,-3.353250490971006192e-02,-3.649998322030388598e-02,-3.976420936195707023e-02,-4.302843550361026836e-02,-8.572302969727868538e-02
-1.519348895024030532e-01,-1.519348895024030532e-01,-1.519348895024030532e-01,-1.519348895024030532e-01,-1.448129415569779088e-01,-1.210731150722274413e-01,-9.495930593900192562e-02,-7.121947945425144422e-02,-4.510567032102592855e-02,-2.136584383627543327e-02,-5.551115123125782702e-17,-2.775557561562891351e-17,-2.775557561562891351e-17,-2.775557561562891351e-17,-2.775557561562891351e-17,-2.775557561562891351e-17,-5.551115123125782702e-17,-2.775557561562891351e-17,-2.775557561562891351e-17,-2.775557561562891351e-17,-2.775557561562891351e-17,-2.775557561562891351e-17,-2.775557561562891351e-17,-5.551115123125782702e-17,-2.775557561562891351e-17,-2.775557561562891351e-17,-2.775557561562891351e-17,-2.775557561562891351e-17,-2.775557561562891351e-17,-2.775557561562891351e-17,-2.775557561562891351e-17,-2.775557561562891351e-17,-2.775557561562891351e-17,-2.775557561562891351e-17,-2.775557561562891351e-17,-2.670730479534449975e-03,-5.934956621187620351e-03,-8.902434931781472160e-03,-1.216666107343464254e-02,-1.513413938402846659e-02,-1.839836552568163697e-02,-2.136584383627546102e-02,-2.463006997792865915e-02,-2.759754828852244157e-02,-3.086177443017563971e-02,-3.382925274076944988e-02,-1.160469486836591679e-01
-1.519348895024030532e-01,-1.519348895024030532e-01,-1.519348895024030532e-01,-1.519348895024030532e-01,-1.519348895024030532e-01,-1.519348895024030532e-01,-1.519348895024030532e-01,-1.424389589085028607e-01,-1.163251497752773450e-01,-9.258532329052687748e-02,-6.647151415730134794e-02,-4.273168767255088041e-02,-1.661787853932536474e-02,-2.775557561562891351e-17,-2.775557561562891351e-17,-2.775557561562891351e-17,-2.775557561562891351e-17,-2.775557561562891351e-17,-2.775557561562891351e-17,-2.775557561562891351e-17,-2.775557561562891351e-17,-2.775557561562891351e-17,-2.775557561562891351e-17,-2.775557561562891351e-17,-2.775557561562891351e-17,-5.551115123125782702e-17,-2.775557561562891351e-17,-2.775557561562891351e-17,-2.775557561562891351e-17,-2.775557561562891351e-17,-2.775557561562891351e-17,-2.775557561562891351e-17,-2.775557561562891351e-17,-2.775557561562891351e-17,-2.775557561562891351e-17,-2.775557561562891351e-17,-2.775557561562891351e-17,-2.775557561562891351e-17,-2.967478310593824053e-03,-6.231704452247022186e-03,-9.199182762840846239e-03,-1.246340890449401662e-02,-1.572763504614724250e-02,-1.869511335674103880e-02,-2.195933949839420918e-02,-3.286482228982645637e-02,-1.519348895024030532e-01
-1.519348895024030532e-01,-1.519348895024030532e-01,-1.519348895024030532e-01,-1.519348895024030532e-01,-1.519348895024030532e-01,-1.519348895024030532e-01,-1.519348895024030532e-01,-1.519348895024030532e-01,-1.519348895024030532e-01,-1.519348895024030532e-01,-1.400649762600278125e-01,-1.139511671268022969e-01,-9.021134064205182934e-02,-6.409753150882631367e-02,-3.798372237560078413e-02,-1.424389589085031660e-02,-2.775557561562891351e-17,-2.775557561562891351e-17,0.000000000000000000e+00,-5.551115123125782702e-17,-2.775557561562891351e-17,-2.775557561562891351e-17,-2.775557561562891351e-17,0.000000000000000000e+00,-2.775557561562891351e-17,-2.775557561562891351e-17,-2.775557561562891351e-17,-2.775557561562891351e-17,-2.775557561562891351e-17,-2.775557561562891351e-17,-2.775557561562891351e-17,-5.551115123125782702e-17,-2.775557561562891351e-17,-2.775557561562891351e-17,-2.775557561562891351e-17,-2.775557561562891351e-17,-2.775557561562891351e-17,-2.775557561562891351e-17,-2.775557561562891351e-17,-2.775557561562891351e-17,-2.967478310594018343e-04,-3.560973972712572211e-03,-6.528452283306424020e-03,-9.792678424959594397e-03,-1.276015673555341845e-02,-7.123802619369265510e-02,-1.519348895024030532e-01
-1.519348895024030532e-01,-1.519348895024030532e-01,-1.519348895024030532e-01,-1.519348895024030532e-01,-1.519348895024030532e-01,-1.519348895024030532e-01,-1.519348895024030532e-01,-1.519348895024030532e-01,-1.519348895024030532e-01,-1.519348895024030532e-01,-1.519348895024030532e-01,-1.519348895024030532e-01,-1.519348895024030532e-01,-1.353170109630777163e-01,-1.115771844783272487e-01,-8.546337534510173306e-02,-6.172354886035126553e-02,-3.560973972712573599e-02,-1.186991324237526846e-02,-5.551115123125782702e-17,-2.775557561562891351e-17,-2.775557561562891351e-17,-5.551115123125782702e-17,-2.775557561562891351e-17,-2.775557561562891351e-17,-2.775557561562891351e-17,-2.775557561562891351e-17,-2.775557561562891351e-17,-2.775557561562891351e-17,-2.775557561562891351e-17,-2.775557561562891351e-17,-2.775557561562891351e-17,-2.775557561562891351e-17,-2.775557561562891351e-17,-5.551115123125782702e-17,-2.775557561562891351e-17,-2.775557561562891351e-17,-2.775557561562891351e-17,-2.775557561562891351e-17,-2.775557561562891351e-17,-2.775557561562891351e-17,-2.775557561562891351e-17,-2.775557561562891351e-17,-8.902434931781777472e-04,-3.857721803771974045e-03,-1.157316541131585830e-01,-1.519348895024030532e-01
-1.519348895024030532e-01,-1.519348895024030532e-01,-1.519348895024030532e-01,-1.519348895024030532e-01,-1.519348895024030532e-01,-1.519348895024030532e-01,-1.519348895024030532e-01,-1.519348895024030532e-01,-1.519348895024030532e-01,-1.519348895024030532e-01,-1.519348895024030532e-01,-1.519348895024030532e-01,-1.519348895024030532e-01,-1.519348895024030532e-01,-1.519348895024030532e-01,-1.519348895024030532e-01,-1.329430283146026681e-01,-1.068292191813771524e-01,-8.308939269662668492e-02,-5.697558356340115537e-02,-3.323575707865067397e-02,-7.121947945425172177e-03,-2.775557561562891351e-17,-2.775557561562891351e-17,-2.775557561562891351e-17,-2.775557561562891351e-17,-2.775557561562891351e-17,-2.775557561562891351e-17,-2.775557561562891351e-17,-2.775557561562891351e-17,-2.775557561562891351e-17,-2.775557561562891351e-17,0.000000000000000000e+00,-2.775557561562891351e-17,-2.775557561562891351e-17,-2.775557561562891351e-17,-2.775557561562891351e-17,-2.775557561562891351e-17,-2.775557561562891351e-17,-2.775557561562891351e-17,-2.775557561562891351e-17,-2.775557561562891351e-17,-2.775557561562891351e-17,-2.775557561562891351e-17,-1.899186118780041288e-02,-1.519348895024030532e-01,-1.519348895024030532e-01
-1.519348895024030532e-01,-1.519348895024030532e-01,-1.519348895024030532e-01,-1.519348895024030532e-01,-1.519348895024030532e-01,-1.519348895024030532e-01,-1.519348895024030532e-01,-1.519348895024030532e-01,-1.519348895024030532e-01,-1.519348895024030532e-01,-1.519348895024030532e-01,-1.519348895024030532e-01,-1.519348895024030532e-01,-1.519348895024030532e-01,-1.519348895024030532e-01,-1.519348895024030532e-01,-1.519348895024030532e-01,-1.519348895024030532e-01,-1.519348895024030532e-01,-1.281950630176525718e-01,-1.044552365329021043e-01,-7.834142739967658864e-02,-5.460160091492610723e-02,-2.848779178170059156e-02,-4.747965296950124037e-03,-2.775557561562891351e-17,-2.775557561562891351e-17,-2.775557561562891351e-17,-2.775557561562891351e-17,-2.775557561562891351e-17,-2.775557561562891351e-17,0.000000000000000000e+00,-2.775557561562891351e-17,-2.775557561562891351e-17,-2.775557561562891351e-17,-2.775557561562891351e-17,-2.775557561562891351e-17,-2.775557561562891351e-17,-2.775557561562891351e-17,-2.775557561562891351e-17,-2.775557561562891351e-17,-2.775557561562891351e-17,-2.775557561562891351e-17,-2.775557561562891351e-17,-6.647151415730134794e-02,-1.519348895024030532e-01,-1.519348895024030532e-01
-1.519348895024030532e-01,-1.519348895024030532e-01,-1.519348895024030532e-01,-1.519348895024030532e-01,-1.519348895024030532e-01,-1.519348895024030532e-01,-1.519348895024030532e-01,-1.519348895024030532e-01,-1.519348895024030532e-01,-1.519348895024030532e-01,-1.519348895024030532e-01,-1.519348895024030532e-01,-1.519348895024030532e-01,-1.519348895024030532e-01,-1.519348895024030532e-01,-1.519348895024030532e-01,-1.519348895024030532e-01,-1.519348895024030532e-01,-1.519348895024030532e-01,-1.519348895024030532e-01,-1.519348895024030532e-01,-1.519348895024030532e-01,-1.258210803691775237e-01,-1.020812538844270700e-01,-7.596744475120154050e-02,-5.222761826645107297e-02,-2.611380913322555730e-02,-2.775557561562891351e-17,-2.775557561562891351e-17,-2.775557561562891351e-17,-2.775557561562891351e-17,-2.775557561562891351e-17,-2.775557561562891351e-17,-2.775557561562891351e-17,-2.775557561562891351e-17,-2.775557561562891351e-17,-2.775557561562891351e-17,-2.775557561562891351e-17,-2.775557561562891351e-17,-2.775557561562891351e-17,-2.775557561562891351e-17,-2.775557561562891351e-17,-2.775557561562891351e-17,-5.551115123125782702e-17,-1.186991324237523932e-01,-1.519348895024030532e-01,-1.519348895024030532e-01
-1.519348895024030532e-01,-1.519348895024030532e-01,-2.568453749301168876e-01,-2.568453749301168876e-01,-2.568453749301168876e-01,-2.568453749301168876e-01,-2.568453749301168876e-01,-1.519348895024030532e-01,-1.519348895024030532e-01,-1.519348895024030532e-01,-1.519348895024030532e-01,-1.519348895024030532e-01,-1.519348895024030532e-01,-1.519348895024030532e-01,-1.519348895024030532e-01,-1.519348895024030532e-01,-1.519348895024030532e-01,-1.519348895024030532e-01,-1.519348895024030532e-01,-1.519348895024030532e-01,-1.519348895024030532e-01,-1.519348895024030532e-01,-1.519348895024030532e-01,-1.519348895024030532e-01,-1.471869242054529570e-01,-1.234470977207024894e-01,-9.733328858747697376e-02,-7.359346210272650624e-02,-4.747965296950096281e-02,-2.373982648475050916e-02,-5.551115123125782702e-17,0.000000000000000000e+00,-2.775557561562891351e-17,-2.775557561562891351e-17,0.000000000000000000e+00,-2.775557561562891351e-17,-2.775557561562891351e-17,-2.775557561562891351e-17,-2.775557561562891351e-17,-2.775557561562891351e-17,-2.775557561562891351e-17,-2.775557561562891351e-17,-2.775557561562891351e-17,-2.373982648475050916e-02,-1.519348895024030532e-01,-1.519348895024030532e-01,-1.519348895024030532e-01
-1.519348895024030532e-01,-1.519348895024030532e-01,-2.568453749301168876e-01,-2.568453749301168876e-01,-2.568453749301168876e-01,-2.568453749301168876e-01,-2.568453749301168876e-01,-1.519348895024030532e-01,-1.519348895024030532e-01,-1.519348895024030532e-01,-1.519348895024030532e-01,-1.519348895024030532e-01,-1.519348895024030532e-01,-1.519348895024030532e-01,-1.519348895024030532e-01,-1.519348895024030532e-01,-1.519348895024030532e-01,-1.519348895024030532e-01,-1.519348895024030532e-01,-1.519348895024030532e-01,-1.519348895024030532e-01,-1.519348895024030532e-01,-1.519348895024030532e-01,-1.519348895024030532e-01,-1.519348895024030532e-01,-1.519348895024030532e-01,-1.519348895024030532e-01,-1.448129415569779088e-01,-1.186991324237523932e-01,-9.495930593900192562e-02,-6.884549680577639608e-02,-4.510567032102592855e-02,-1.899186118780041288e-02,-5.551115123125782702e-17,-2.775557561562891351e-17,-2.775557561562891351e-17,-2.775557561562891351e-17,0.000000000000000000e+00,-2.775557561562891351e-17,-2.775557561562891351e-17,-2.775557561562891351e-17,-2.775557561562891351e-17,-2.775557561562891351e-17,-7.596744475120154050e-02,-1.519348895024030532e-01,-1.519348895024030532e-01,-1.519348895024030532e-01
-1.519348895024030532e-01,-1.519348895024030532e-01,-2.568453749301168876e-01,-2.568453749301168876e-01,-2.568453749301168876e-01,-2.568453749301168876e-01,-2.568453749301168876e-01,-1.519348895024030532e-01,-1.519348895024030532e-01,-1.519348895024030532e-01,-1.519348895024030532e-01,-1.519348895024030532e-01,-1.519348895024030532e-01,-1.519348895024030532e-01,-1.519348895024030532e-01,-1.519348895024030532e-01,-1.519348895024030532e-01,-1.519348895024030532e-01,-1.519348895024030532e-01,-1.519348895024030532e-01,-1.519348895024030532e-01,-1.519348895024030532e-01,-1.519348895024030532e-01,-1.519348895024030532e-01,-1.519348895024030532e-01,-1.519348895024030532e-01,-1.519348895024030532e-01,-1.519348895024030532e-01,-1.519348895024030532e-01,-1.519348895024030532e-01,-1.424389589085028607e-01,-1.163251497752773450e-01,-9.258532329052687748e-02,-6.647151415730134794e-02,-4.035770502407583227e-02,-1.661787853932536474e-02,-5.551115123125782702e-17,-2.775557561562891351e-17,-2.775557561562891351e-17,-2.775557561562891351e-17,-2.775557561562891351e-17,-2.775557561562891351e-17,-5.551115123125782702e-17,-1.234470977207024894e-01,-1.519348895024030532e-01,-1.519348895024030532e-01,-1.519348895024030532e-01
-1.519348895024030532e-01,-1.519348895024030532e-01,-2.568453749301168876e-01,-2.568453749301168876e-01,-2.568453749301168876e-01,-2.568453749301168876e-01,-2.568453749301168876e-01,-1.519348895024030532e-01,-1.519348895024030532e-01,-1.519348895024030532e-01,-1.519348895024030532e-01,-1.519348895024030532e-01,-1.519348895024030532e-01,-1.519348895024030532e-01,-1.519348895024030532e-01,-1.519348895024030532e-01,-1.519348895024030532e-01,-1.519348895024030532e-01,-1.519348895024030532e-01,-1.519348895024030532e-01,-1.519348895024030532e-01,-1.519348895024030532e-01,-1.519348895024030532e-01,-1.519348895024030532e-01,-1.519348895024030532e-01,-1.519348895024030532e-01,-1.519348895024030532e-01,-1.519348895024030532e-01,-1.519348895024030532e-01,-1.519348895024030532e-01,-1.519348895024030532e-01,-1.519348895024030532e-01,-1.519348895024030532e-01,-1.376909936115527644e-01,-1.139511671268022969e-01,-8.783735799357678120e-02,-6.409753150882629980e-02,-3.798372237560078413e-02,-1.424389589085031660e-02,-5.551115123125782702e-17,-2.775557561562891351e-17,-2.775557561562891351e-17,-3.323575707865068785e-02,-1.519348895024030532e-01,-1.519348895024030532e-01,-1.519348895024030532e-01,-1.519348895024030532e-01
-1.519348895024030532e-01,-1.519348895024030532e-01,-2.568453749301168876e-01,-2.568453749301168876e-01,-2.568453749301168876e-01,-2.568453749301168876e-01,-2.568453749301168876e-01,-1.519348895024030532e-01,-1.519348895024030532e-01,-1.519348895024030532e-01,-1.519348895024030532e-01,-1.519348895024030532e-01,-1.519348895024030532e-01,-1.519348895024030532e-01,-1.519348895024030532e-01,-1.519348895024030532e-01,-1.519348895024030532e-01,-1.519348895024030532e-01,-1.519348895024030532e-01,-1.519348895024030532e-01,-1.519348895024030532e-01,-1.519348895024030532e-01,-1.519348895024030532e-01,-1.519348895024030532e-01,-1.519348895024030532e-01,-1.519348895024030532e-01,-1.519348895024030532e-01,-1.519348895024030532e-01,-1.519348895024030532e-01,-1.519348895024030532e-01,-1.519348895024030532e-01,-1.519348895024030532e-01,-1.519348895024030532e-01,-1.519348895024030532e-01,-1.519348895024030532e-01,-1.519348895024030532e-01,-1.353170109630777163e-01,-1.092032018298522006e-01,-8.546337534510173306e-02,-5.934956621187621739e-02,-3.560973972712573599e-02,-9.495930593900220318e-03,-8.071541004815163678e-02,-1.519348895024030532e-01,-1.519348895024030532e-01,-1.519348895024030532e-01,-1.519348895024030532e-01
-1.519348895024030532e-01,-1.519348895024030532e-01,-1.519348895024030532e-01,-1.519348895024030532e-01,-1.519348895024030532e-01,-1.519348895024030532e-01,-1.519348895024030532e-01,-1.519348895024030532e-01,-1.519348895024030532e-01,-1.519348895024030532e-01,-1.519348895024030532e-01,-1.519348895024030532e-01,-1.519348895024030532e-01,-1.519348895024030532e-01,-1.519348895024030532e-01,-1.519348895024030532e-01,-1.519348895024030532e-01,-1.519348895024030532e-01,-1.519348895024030532e-01,-1.519348895024030532e-01,-1.519348895024030532e-01,-1.519348895024030532e-01,-1.519348895024030532e-01,-1.519348895024030532e-01,-1.519348895024030532e-01,-1.519348895024030532e-01,-1.519348895024030532e-01,-1.519348895024030532e-01,-1.519348895024030532e-01,-1.519348895024030532e-01,-1.519348895024030532e-01,-1.519348895024030532e-01,-1.519348895024030532e-01,-1.519348895024030532e-01,-1.519348895024030532e-01,-1.519348895024030532e-01,-1.519348895024030532e-01,-1.519348895024030532e-01,-1.519348895024030532e-01,-1.305690456661276200e-01,-1.068292191813771524e-01,-8.071541004815163678e-02,-1.400649762600278125e-01,-1.519348895024030532e-01,-1.519348895024030532e-01,-1.519348895024030532e-01,-1.519348895024030532e-01
-1.519348895024030532e-01,-1.519348895024030532e-01,-1.519348895024030532e-01,-1.519348895024030532e-01,-1.519348895024030532e-01,-1.519348895024030532e-01,-1.519348895024030532e-01,-1.519348895024030532e-01,-1.519348895024030532e-01,-1.519348895024030532e-01,-1.519348895024030532e-01,-1.519348895024030532e-01,-1.519348895024030532e-01,-1.519348895024030532e-01,-1.519348895024030532e-01,-1.519348895024030532e-01,-1.519348895024030532e-01,-1.519348895024030532e-01,-1.519348895024030532e-01,-1.519348895024030532e-01,-1.519348895024030532e-01,-1.519348895024030532e-01,-1.519348895024030532e-01,-1.519348895024030532e-01,-1.519348895024030532e-01,-1.519348895024030532e-01,-1.519348895024030532e-01,-1.519348895024030532e-01,-1.519348895024030532e-01,-1.519348895024030532e-01,-1.519348895024030532e-01,-1.519348895024030532e-01,-1.519348895024030532e-01,-1.519348895024030532e-01,-1.519348895024030532e-01,-1.519348895024030532e-01,-1.519348895024030532e-01,-1.519348895024030532e-01,-1.519348895024030532e-01,-1.519348895024030532e-01,-1.519348895024030532e-01,-1.519348895024030532e-01,-1.519348895024030532e-01,-1.519348895024030532e-01,-1.519348895024030532e-01,-1.519348895024030532e-01,-1.519348895024030532e-01
-1.519348895024030532e-01,-1.519348895024030532e-01,-1.519348895024030532e-01,-1.519348895024030532e-01,-1.519348895024030532e-01,-1.519348895024030532e-01,-1.519348895024030532e-01,-1.519348895024030532e-01,-1.519348895024030532e-01,-1.519348895024030532e-01,-1.519348895024030532e-01,-1.519348895024030532e-01,-1.519348895024030532e-01,-1.519348895024030532e-01,-1.519348895024030532e-01,-1.519348895024030532e-01,-1.519348895024030532e-01,-1.519348895024030532e-01,-1.519348895024030532e-01,-1.519348895024030532e-01,-1.519348895024030532e-01,-1.519348895024030532e-01,-1.519348895024030532e-01,-1.519348895024030532e-01,-1.519348895024030532e-01,-1.519348895024030532e-01,-1.519348895024030532e-01,-1.519348895024030532e-01,-1.519348895024030532e-01,-1.519348895024030532e-01,-1.519348895024030532e-01,-1.519348895024030532e-01,-1.519348895024030532e-01,-1.519348895024030532e-01,-1.519348895024030532e-01,-1.519348895024030532e-01,-1.519348895024030532e-01,-1.519348895024030532e-01,-1.519348895024030532e-01,-1.519348895024030532e-01,-1.519348895024030532e-01,-1.519348895024030532e-01,-1.519348895024030532e-01,-1.519348895024030532e-01,-1.519348895024030532e-01,-1.519348895024030532e-01,-1.519348895024030532e-01
-1.519348895024030532e-01,-1.519348895024030532e-01,-1.519348895024030532e-01,-1.519348895024030532e-01,-1.519348895024030532e-01,-1.519348895024030532e-01,-1.519348895024030532e-01,-1.519348895024030532e-01,-1.519348895024030532e-01,-1.519348895024030532e-01,-1.519348895024030532e-01,-1.519348895024030532e-01,-1.519348895024030532e-01,-1.519348895024030532e-01,-1.519348895024030532e-01,-1.519348895024030532e-01,-1.519348895024030532e-01,-1.519348895024030532e-01,-1.519348895024030532e-01,-1.519348895024030532e-01,-1.519348895024030532e-01,-1.519348895024030532e-01,-1.519348895024030532e-01,-1.519348895024030532e-01,-1.519348895024030532e-01,-1.519348895024030532e-01,-1.519348895024030532e-01,-1.519348895024030532e-01,-1.519348895024030532e-01,-1.519348895024030532e-01,-1.519348895024030532e-01,-1.519348895024030532e-01,-1.519348895024030532e-01,-1.519348895024030532e-01,-1.519348895024030532e-01,-1.519348895024030532e-01,-1.519348895024030532e-01,-1.519348895024030532e-01,-1.519348895024030532e-01,-1.519348895024030532e-01,-1.519348895024030532e-01,-1.519348895024030532e-01,-1.519348895024030532e-01,-1.519348895024030532e-01,-1.519348895024030532e-01,-1.519348895024030532e-01,-1.519348895024030532e-01
-1.519348895024030532e-01,-1.519348895024030532e-01,-1.519348895024030532e-01,-1.519348895024030532e-01,-1.519348895024030532e-01,-1.519348895024030532e-01,-1.519348895024030532e-01,-1.519348895024030532e-01,-1.519348895024030532e-01,-1.519348895024030532e-01,-1.519348895024030532e-01,-1.519348895024030532e-01,-1.519348895024030532e-01,-1.519348895024030532e-01,-1.519348895024030532e-01,-1.519348895024030532e-01,-1.519348895024030532e-01,-1.519348895024030532e-01,-1.519348895024030532e-01,-1.519348895024030532e-01,-1.519348895024030532e-01,-1.519348895024030532e-01,-1.519348895024030532e-01,-1.519348895024030532e-01,-1.519348895024030532e-01,-1.519348895024030532e-01,-1.519348895024030532e-01,-1.519348895024030532e-01,-1.519348895024030532e-01,-1.519348895024030532e-01,-1.519348895024030532e-01,-1.519348895024030532e-01,-1.519348895024030532e-01,-1.519348895024030532e-01,-1.519348895024030532e-01,-1.519348895024030532e-01,-1.519348895024030532e-01,-1.519348895024030532e-01,-1.519348895024030532e-01,-1.519348895024030532e-01,-1.519348895024030532e-01,-1.519348895024030532e-01,-1.519348895024030532e-01,-1.519348895024030532e-01,-1.519348895024030532e-01,-1.519348895024030532e-01,-1.519348895024030532e-01
-1.519348895024030532e-01,-1.519348895024030532e-01,-1.519348895024030532e-01,-1.519348895024030532e-01,-1.519348895024030532e-01,-1.519348895024030532e-01,-1.519348895024030532e-01,-1.519348895024030532e-01,-1.519348895024030532e-01,-1.519348895024030532e-01,-1.519348895024030532e-01,-1.519348895024030532e-01,-1.519348895024030532e-01,-1.519348895024030532e-01,-1.519348895024030532e-01,-1.519348895024030532e-01,-1.519348895024030532e-01,-1.519348895024030532e-01,-1.519348895024030532e-01,-1.519348895024030532e-01,-1.519348895024030532e-01,-1.519348895024030532e-01,-1.519348895024030532e-01,-1.519348895024030532e-01,-1.519348895024030532e-01,-1.519348895024030532e-01,-1.519348895024030532e-01,-1.519348895024030532e-01,-1.519348895024030532e-01,-1.519348895024030532e-01,-1.519348895024030532e-01,-1.519348895024030532e-01,-1.519348895024030532e-01,-1.519348895024030532e-01,-1.519348895024030532e-01,-1.519348895024030532e-01,-1.519348895024030532e-01,-1.519348895024030532e-01,-1.519348895024030532e-01,-1.519348895024030532e-01,-1.519348895024030532e-01,-1.519348895024030532e-01,-1.519348895024030532e-01,-1.519348895024030532e-01,-1.519348895024030532e-01,-1.519348895024030532e-01,-1.519348895024030532e-01
