2.548174702630917957e-02,2.548174702630917957e-02,2.548174702630917957e-02,2.548174702630917957e-02,2.548174702630917957e-02,2.548174702630917957e-02,2.548174702630917957e-02,2.548174702630917957e-02,2.548174702630917957e-02,2.548174702630917957e-02,2.548174702630917957e-02,1.932132466830036727e-02,1.092074872556107745e-02,2.520172782821791108e-03,-5.880403159917498707e-03,-1.428097910265679546e-02,-2.268155504539607834e-02,-3.108213098813536121e-02,-3.724255334614418045e-02,-3.724255334614418045e-02,-3.724255334614418045e-02,-3.724255334614418045e-02,-3.724255334614418045e-02,-3.724255334614418045e-02,-3.724255334614418045e-02,-3.724255334614418045e-02,-3.724255334614418045e-02,-3.724255334614418045e-02,-1.960134386639167045e-02,3.920268773278338253e-03,2.548174702630917957e-02,2.548174702630917957e-02,2.548174702630917957e-02,2.548174702630917957e-02,2.548174702630917957e-02,2.548174702630917957e-02,2.548174702630917957e-02,2.548174702630917957e-02,2.548174702630917957e-02,2.548174702630917957e-02,2.548174702630917957e-02,2.548174702630917957e-02,2.548174702630917957e-02,2.548174702630917957e-02,2.548174702630917957e-02,2.548174702630917957e-02,2.548174702630917957e-02
2.548174702630917957e-02,2.548174702630917957e-02,2.548174702630917957e-02,2.548174702630917957e-02,2.548174702630917957e-02,2.548174702630917957e-02,2.548174702630917957e-02,2.548174702630917957e-02,2.548174702630917957e-02,2.548174702630917957e-02,2.464168943203524920e-02,1.624111348929595938e-02,7.840537546556673038e-03,-5.600383961826133072e-04,-8.960614338921906591e-03,-1.736119028166119641e-02,-2.576176622440047928e-02,-3.416234216713977256e-02,-3.724255334614418045e-02,-3.724255334614418045e-02,-3.724255334614418045e-02,-3.724255334614418045e-02,-3.724255334614418045e-02,-3.724255334614418045e-02,-3.724255334614418045e-02,-3.724255334614418045e-02,-3.724255334614418045e-02,-3.724255334614418045e-02,-3.724255334614418045e-02,-3.724255334614418045e-02,-3.332228457286584566e-02,-1.176080631983500088e-02,9.800671933195840430e-03,2.548174702630917957e-02,2.548174702630917957e-02,2.548174702630917957e-02,2.548174702630917957e-02,2.548174702630917957e-02,2.548174702630917957e-02,2.548174702630917957e-02,2.548174702630917957e-02,2.548174702630917957e-02,2.548174702630917957e-02,2.548174702630917957e-02,2.548174702630917957e-02,2.548174702630917957e-02,2.548174702630917957e-02
2.548174702630917957e-02,2.548174702630917957e-02,2.548174702630917957e-02,2.548174702630917957e-02,2.548174702630917957e-02,2.548174702630917957e-02,2.548174702630917957e-02,2.548174702630917957e-02,2.548174702630917957e-02,2.548174702630917957e-02,2.156147825303084478e-02,1.316090231029155670e-02,4.760326367552265153e-03,-3.640249575187017722e-03,-1.204082551792630754e-02,-2.044140146066559735e-02,-2.884197740340488716e-02,-3.724255334614418045e-02,-3.724255334614418045e-02,-3.724255334614418045e-02,-3.724255334614418045e-02,-3.724255334614418045e-02,-3.724255334614418045e-02,-3.724255334614418045e-02,-3.724255334614418045e-02,-3.724255334614418045e-02,-3.724255334614418045e-02,-3.724255334614418045e-02,-3.724255334614418045e-02,-3.724255334614418045e-02,-3.724255334614418045e-02,-3.724255334614418045e-02,-3.714454662681222763e-02,-2.301320278313546616e-02,-1.117889142380146250e-03,1.875603591215353749e-02,2.548174702630917957e-02,2.548174702630917957e-02,2.548174702630917957e-02,2.548174702630917957e-02,2.548174702630917957e-02,2.548174702630917957e-02,2.548174702630917957e-02,2.548174702630917957e-02,2.548174702630917957e-02,2.548174702630917957e-02,2.548174702630917957e-02
2.548174702630917957e-02,2.548174702630917957e-02,2.548174702630917957e-02,2.548174702630917957e-02,2.548174702630917957e-02,2.548174702630917957e-02,2.548174702630917957e-02,2.548174702630917957e-02,2.548174702630917957e-02,2.548174702630917957e-02,1.820124787593512677e-02,9.800671933195840430e-03,1.400095990456554085e-03,-6.720460754191425606e-03,-1.512103669693071542e-02,-2.352161263967001217e-02,-3.192218858240929158e-02,-3.724255334614418045e-02,-3.724255334614418045e-02,-3.724255334614418045e-02,-3.724255334614418045e-02,-3.724255334614418045e-02,-3.724255334614418045e-02,-3.724255334614418045e-02,-3.724255334614418045e-02,-3.724255334614418045e-02,-3.724255334614418045e-02,-3.724255334614418045e-02,-3.724255334614418045e-02,-3.724255334614418045e-02,-3.724255334614418045e-02,-3.724255334614418045e-02,-3.596846599482871054e-02,-3.302826441486997333e-02,-3.008806283491121877e-02,-2.714786125495246075e-02,-1.023251404025227532e-02,9.378017956076768746e-03,2.548174702630917957e-02,2.548174702630917957e-02,2.548174702630917957e-02,2.548174702630917957e-02,2.548174702630917957e-02,-2.122748454083887848e-01,-2.122748454083887848e-01,-2.122748454083887848e-01,-2.122748454083887848e-01
2.548174702630917957e-02,2.548174702630917957e-02,2.548174702630917957e-02,2.548174702630917957e-02,2.548174702630917957e-02,2.548174702630917957e-02,2.548174702630917957e-02,2.548174702630917957e-02,2.548174702630917957e-02,2.352161263967001217e-02,1.512103669693072236e-02,6.720460754191432545e-03,-1.680115188547853800e-03,-1.008069113128714014e-02,-1.848126707402643690e-02,-2.688184301676571977e-02,-3.528241895950501306e-02,-3.724255334614418045e-02,-3.724255334614418045e-02,-3.724255334614418045e-02,-3.724255334614418045e-02,-3.724255334614418045e-02,-3.724255334614418045e-02,-3.724255334614418045e-02,-3.724255334614418045e-02,-3.724255334614418045e-02,-3.724255334614418045e-02,-3.724255334614418045e-02,-3.724255334614418045e-02,-3.724255334614418045e-02,-3.724255334614418045e-02,-3.724255334614418045e-02,-3.489039208217717403e-02,-3.195019050221842294e-02,-2.900998892225967532e-02,-2.606978734230092423e-02,-2.312958576234216621e-02,-2.018938418238341512e-02,-1.457849950062880748e-02,1.856002247348963186e-03,1.626911540910509421e-02,2.548174702630917957e-02,2.548174702630917957e-02,-2.122748454083887848e-01,-2.122748454083887848e-01,-2.122748454083887848e-01,-2.122748454083887848e-01
2.548174702630917957e-02,2.548174702630917957e-02,2.548174702630917957e-02,2.548174702630917957e-02,2.548174702630917957e-02,2.548174702630917957e-02,2.548174702630917957e-02,2.548174702630917957e-02,2.548174702630917957e-02,2.044140146066560776e-02,1.204082551792631621e-02,3.640249575187028130e-03,-4.760326367552258214e-03,-1.316090231029154803e-02,-2.156147825303084478e-02,-2.996205419577012766e-02,-3.724255334614418045e-02,-3.724255334614418045e-02,-3.724255334614418045e-02,-3.724255334614418045e-02,-3.724255334614418045e-02,-3.724255334614418045e-02,-3.724255334614418045e-02,-3.724255334614418045e-02,-3.724255334614418045e-02,-3.724255334614418045e-02,-3.724255334614418045e-02,-3.724255334614418045e-02,-3.724255334614418045e-02,-3.724255334614418045e-02,-3.724255334614418045e-02,-3.675251974948438860e-02,-3.381231816952562363e-02,-3.087211658956688295e-02,-2.793191500960813187e-02,-2.499171342964938078e-02,-2.205151184969062969e-02,-1.911131026973187860e-02,-1.617110868977312751e-02,-1.323090710981437643e-02,-1.029070552985562534e-02,-1.194456891858240027e-03,1.146984887181825598e-02,-2.156438263854248416e-01,-2.122748454083887848e-01,-2.122748454083887848e-01,-2.122748454083887848e-01
2.548174702630917957e-02,2.548174702630917957e-02,2.548174702630917957e-02,2.548174702630917957e-02,2.548174702630917957e-02,2.548174702630917957e-02,2.548174702630917957e-02,2.548174702630917957e-02,2.548174702630917957e-02,1.736119028166119987e-02,8.960614338921913530e-03,5.600383961826237156e-04,-7.840537546556666099e-03,-1.624111348929595591e-02,-2.464168943203524573e-02,-3.304226537477453207e-02,-3.724255334614418045e-02,-3.724255334614418045e-02,-3.724255334614418045e-02,-3.724255334614418045e-02,-3.724255334614418045e-02,-3.724255334614418045e-02,-3.724255334614418045e-02,-3.724255334614418045e-02,-3.724255334614418045e-02,-3.724255334614418045e-02,-3.724255334614418045e-02,-3.724255334614418045e-02,-3.724255334614418045e-02,-3.724255334614418045e-02,-3.724255334614418045e-02,-3.567444583683283821e-02,-3.273424425687408712e-02,-2.979404267691533950e-02,-2.685384109695658841e-02,-2.391363951699784426e-02,-2.097343793703908624e-02,-1.803323635708034209e-02,-1.509303477712159100e-02,-1.215283319716283297e-02,-9.212631617204081885e-03,-6.272430037245330797e-03,-3.332228457286579709e-03,-2.381486193120257999e-01,-2.287583505160325492e-01,-2.191475666015423596e-01,-2.122748454083887848e-01
2.548174702630917957e-02,2.548174702630917957e-02,2.548174702630917957e-02,2.548174702630917957e-02,2.548174702630917957e-02,2.548174702630917957e-02,2.548174702630917957e-02,2.548174702630917957e-02,2.240153584730477515e-02,1.400095990456548534e-02,5.600383961826198992e-03,-2.800191980913090822e-03,-1.092074872556107398e-02,-1.932132466830036380e-02,-2.772190061103964667e-02,-3.612247655377893996e-02,-3.724255334614418045e-02,-3.724255334614418045e-02,-3.724255334614418045e-02,-3.724255334614418045e-02,-3.724255334614418045e-02,-3.724255334614418045e-02,-3.724255334614418045e-02,-3.724255334614418045e-02,-3.724255334614418045e-02,-3.724255334614418045e-02,-3.724255334614418045e-02,-3.724255334614418045e-02,-3.724255334614418045e-02,-3.724255334614418045e-02,-3.724255334614418045e-02,-3.449836520484933500e-02,-3.155816362489058391e-02,-2.861796204493184323e-02,-2.567776046497309214e-02,-2.273755888501434105e-02,-1.989536402438754278e-02,-1.695516244442879863e-02,-1.401496086447004061e-02,-1.107475928451128952e-02,-8.134557704552545371e-03,-5.194356124593790813e-03,-2.254154544635039725e-03,6.860470353237078933e-04,3.626248615282465920e-03,6.566450195241213539e-03,1.050509522839429034e-02
2.548174702630917957e-02,2.548174702630917957e-02,2.548174702630917957e-02,2.548174702630917957e-02,2.548174702630917957e-02,2.548174702630917957e-02,2.548174702630917957e-02,2.548174702630917957e-02,1.932132466830036727e-02,1.092074872556107745e-02,2.520172782821791108e-03,-5.880403159917498707e-03,-1.428097910265678852e-02,-2.268155504539607834e-02,-3.108213098813536121e-02,-3.724255334614418045e-02,-3.724255334614418045e-02,-3.724255334614418045e-02,-3.724255334614418045e-02,-3.724255334614418045e-02,-3.724255334614418045e-02,-3.724255334614418045e-02,-3.724255334614418045e-02,-3.724255334614418045e-02,-3.724255334614418045e-02,-3.724255334614418045e-02,-3.724255334614418045e-02,-3.724255334614418045e-02,-3.724255334614418045e-02,-3.724255334614418045e-02,-3.636049287215654957e-02,-3.342029129219779848e-02,-3.048008971223905086e-02,-2.753988813228029284e-02,-2.459968655232154869e-02,-2.165948497236279760e-02,-1.871928339240404651e-02,-1.577908181244529542e-02,-1.283888023248653740e-02,-9.898678652527786309e-03,-6.958477072569042160e-03,-4.018275492610291072e-03,-1.176080631983496272e-03,1.764120947975251347e-03,4.704322527934005904e-03,7.644524107892756992e-03,1.058472568785150808e-02
2.548174702630917957e-02,2.548174702630917957e-02,2.548174702630917957e-02,2.548174702630917957e-02,2.548174702630917957e-02,2.548174702630917957e-02,2.548174702630917957e-02,2.464168943203524920e-02,1.624111348929596285e-02,7.840537546556673038e-03,-5.600383961826133072e-04,-8.960614338921906591e-03,-1.736119028166119641e-02,-2.576176622440047928e-02,-3.416234216713977256e-02,-3.724255334614418045e-02,-3.724255334614418045e-02,-3.724255334614418045e-02,-3.724255334614418045e-02,-3.724255334614418045e-02,-3.724255334614418045e-02,-3.724255334614418045e-02,-3.724255334614418045e-02,-3.724255334614418045e-02,-3.724255334614418045e-02,-3.724255334614418045e-02,-3.724255334614418045e-02,-3.724255334614418045e-02,-3.724255334614418045e-02,-3.724255334614418045e-02,-3.528241895950501306e-02,-3.234221737954626197e-02,-2.940201579958750741e-02,-2.646181421962875632e-02,-2.352161263967000523e-02,-2.058141105971125415e-02,-1.764120947975250306e-02,-1.470100789979375197e-02,-1.176080631983500088e-02,-8.820604739876249795e-03,-5.880403159917498707e-03,-2.940201579958747619e-03,6.938893903907228378e-18,2.940201579958754557e-03,5.880403159917505646e-03,8.820604739876256734e-03,1.176080631983500782e-02
2.548174702630917957e-02,2.548174702630917957e-02,2.548174702630917957e-02,2.548174702630917957e-02,2.548174702630917957e-02,2.548174702630917957e-02,2.548174702630917957e-02,2.156147825303084478e-02,1.316090231029155497e-02,4.760326367552265153e-03,-3.640249575187017722e-03,-1.204082551792631448e-02,-2.044140146066559735e-02,-2.884197740340488716e-02,-3.724255334614418045e-02,-3.724255334614418045e-02,-3.724255334614418045e-02,-3.724255334614418045e-02,-3.724255334614418045e-02,-3.724255334614418045e-02,-3.724255334614418045e-02,-3.724255334614418045e-02,-3.724255334614418045e-02,-3.724255334614418045e-02,-3.724255334614418045e-02,-3.724255334614418045e-02,-3.724255334614418045e-02,-3.724255334614418045e-02,-3.724255334614418045e-02,-3.704653990748026093e-02,-3.420434504685346266e-02,-3.126414346689471158e-02,-2.832394188693596396e-02,-2.538374030697721287e-02,-2.244353872701846872e-02,-1.950333714705971069e-02,-1.656313556710095961e-02,-1.362293398714221546e-02,-1.068273240718345743e-02,-7.742530827224713280e-03,-4.802329247265958723e-03,-1.862127667307204165e-03,1.078073912651543453e-03,4.018275492610298011e-03,6.958477072569049099e-03,9.898678652527798452e-03,1.283888023248654954e-02
2.548174702630917957e-02,2.548174702630917957e-02,2.548174702630917957e-02,2.548174702630917957e-02,2.548174702630917957e-02,2.548174702630917957e-02,2.548174702630917957e-02,1.820124787593512677e-02,9.800671933195840430e-03,1.400095990456554085e-03,-7.000479952282739199e-03,-1.375321824553383532e-01,-1.456527391999863363e-01,-1.540533151427256331e-01,-1.593736799064605081e-01,-1.593736799064605081e-01,-3.724255334614418045e-02,-3.724255334614418045e-02,-3.724255334614418045e-02,-3.724255334614418045e-02,-3.724255334614418045e-02,-3.724255334614418045e-02,-3.724255334614418045e-02,-3.724255334614418045e-02,-3.724255334614418045e-02,-3.724255334614418045e-02,-3.724255334614418045e-02,-3.724255334614418045e-02,-3.724255334614418045e-02,-3.596846599482871054e-02,-3.302826441486997333e-02,-3.008806283491121183e-02,-2.714786125495246769e-02,-2.420765967499371660e-02,-2.126745809503496551e-02,-1.832725651507621442e-02,-1.548506165444942309e-02,-1.254486007449065813e-02,-9.604658494531920915e-03,-6.664456914573162888e-03,-3.724255334614411800e-03,-7.840537546556641813e-04,2.156147825303086907e-03,5.096349405261841464e-03,8.036550985220589083e-03,1.097675256517934017e-02,1.391695414513809126e-02
2.548174702630917957e-02,2.548174702630917957e-02,2.548174702630917957e-02,2.548174702630917957e-02,2.548174702630917957e-02,2.548174702630917957e-02,2.352161263967001217e-02,1.512103669693072236e-02,6.720460754191436015e-03,-1.680115188547850330e-03,-1.008069113128714014e-02,-1.406123936343427472e-01,-1.490129695770820439e-01,-1.574135455198213407e-01,-1.593736799064605081e-01,-1.593736799064605081e-01,-3.724255334614418045e-02,-3.724255334614418045e-02,-3.724255334614418045e-02,-3.724255334614418045e-02,-3.724255334614418045e-02,-3.724255334614418045e-02,-3.724255334614418045e-02,-3.724255334614418045e-02,-3.724255334614418045e-02,-3.724255334614418045e-02,-3.724255334614418045e-02,-3.724255334614418045e-02,-3.724255334614418045e-02,-3.489039208217717403e-02,-3.195019050221842294e-02,-2.900998892225968226e-02,-2.606978734230092423e-02,-2.312958576234216621e-02,-2.018938418238342206e-02,-1.724918260242466403e-02,-1.430898102246591988e-02,-1.136877944250716879e-02,-8.428577862548417704e-03,-5.488376282589666616e-03,-2.548174702630915528e-03,3.920268773278355601e-04,3.234221737954633830e-03,6.174423317913381448e-03,9.114624897872132536e-03,1.205482647783088362e-02,1.499502805778963471e-02
2.548174702630917957e-02,2.548174702630917957e-02,2.548174702630917957e-02,2.548174702630917957e-02,2.548174702630917957e-02,2.548174702630917957e-02,2.044140146066560776e-02,1.204082551792631621e-02,3.640249575187028130e-03,-4.760326367552258214e-03,-1.316090231029155497e-02,-1.436926048133471689e-01,-1.520931807560864657e-01,-1.593736799064605081e-01,-1.593736799064605081e-01,-1.593736799064605081e-01,-3.724255334614418045e-02,-3.724255334614418045e-02,-3.724255334614418045e-02,-3.724255334614418045e-02,-3.724255334614418045e-02,-3.724255334614418045e-02,-3.724255334614418045e-02,-3.724255334614418045e-02,-3.724255334614418045e-02,-3.724255334614418045e-02,-3.724255334614418045e-02,-3.724255334614418045e-02,-3.675251974948438860e-02,-3.381231816952563751e-02,-3.087211658956688295e-02,-2.793191500960813187e-02,-2.499171342964938772e-02,-2.205151184969062969e-02,-1.911131026973187860e-02,-1.617110868977312751e-02,-1.323090710981437643e-02,-1.029070552985562534e-02,-7.350503949896874251e-03,-4.410302369938123163e-03,-1.470100789979372075e-03,1.470100789979379013e-03,4.410302369938130101e-03,7.350503949896881190e-03,1.029070552985563228e-02,1.323090710981438163e-02,1.617110868977313445e-02
2.548174702630917957e-02,2.548174702630917957e-02,2.548174702630917957e-02,2.548174702630917957e-02,2.548174702630917957e-02,2.548174702630917957e-02,1.736119028166119987e-02,8.960614338921913530e-03,5.600383961826237156e-04,-7.840537546556666099e-03,-1.624111348929595591e-02,-1.467728159923515630e-01,-1.551733919350908597e-01,-1.593736799064605081e-01,-1.593736799064605081e-01,-1.593736799064605081e-01,-3.724255334614418045e-02,-3.724255334614418045e-02,-3.724255334614418045e-02,-3.724255334614418045e-02,-3.724255334614418045e-02,-3.724255334614418045e-02,-3.724255334614418045e-02,-3.724255334614418045e-02,-3.724255334614418045e-02,-3.724255334614418045e-02,-3.724255334614418045e-02,-3.724255334614418045e-02,-3.557643911750088539e-02,-3.273424425687410100e-02,-2.979404267691533950e-02,-2.685384109695659535e-02,-2.391363951699783733e-02,-2.097343793703908624e-02,-1.803323635708032821e-02,-1.509303477712158406e-02,-1.215283319716283297e-02,-9.212631617204081885e-03,-6.272430037245337736e-03,-3.332228457286583179e-03,-3.920268773278355601e-04,2.548174702630922467e-03,5.488376282589673555e-03,8.428577862548424643e-03,1.136877944250717400e-02,1.430898102246592682e-02,1.724918260242467444e-02
2.548174702630917957e-02,2.548174702630917957e-02,2.548174702630917957e-02,2.548174702630917957e-02,2.548174702630917957e-02,2.240153584730477515e-02,1.400095990456548360e-02,5.600383961826195522e-03,-2.800191980913094292e-03,-1.120076792365238758e-02,-1.960134386639167045e-02,-1.498530271713559847e-01,-1.582536031140952537e-01,-1.593736799064605081e-01,-1.593736799064605081e-01,-1.593736799064605081e-01,-3.724255334614418045e-02,-3.724255334614418045e-02,-3.724255334614418045e-02,-3.724255334614418045e-02,-3.724255334614418045e-02,-3.724255334614418045e-02,-3.724255334614418045e-02,-3.724255334614418045e-02,-3.724255334614418045e-02,-3.724255334614418045e-02,-3.724255334614418045e-02,-3.724255334614418045e-02,-3.449836520484933500e-02,-3.155816362489058391e-02,-2.861796204493183629e-02,-2.567776046497309214e-02,-2.273755888501434105e-02,-1.979735730505558997e-02,-1.685715572509683888e-02,-1.401496086447004755e-02,-1.107475928451128952e-02,-8.134557704552545371e-03,-5.194356124593790813e-03,-2.254154544635039725e-03,6.860470353237113628e-04,3.626248615282462451e-03,6.566450195241217008e-03,9.506651775199964627e-03,1.244685335515871571e-02,1.538705493511746680e-02,1.832725651507621789e-02
2.548174702630917957e-02,2.548174702630917957e-02,2.548174702630917957e-02,2.548174702630917957e-02,2.548174702630917957e-02,1.932132466830036727e-02,1.092074872556107919e-02,2.520172782821791108e-03,-5.880403159917498707e-03,-1.428097910265678852e-02,-2.268155504539607834e-02,-3.108213098813536815e-02,-3.724255334614418045e-02,-3.724255334614418045e-02,-3.724255334614418045e-02,-3.724255334614418045e-02,-3.724255334614418045e-02,-3.724255334614418045e-02,-3.724255334614418045e-02,-3.724255334614418045e-02,-3.724255334614418045e-02,-3.724255334614418045e-02,-3.724255334614418045e-02,-3.724255334614418045e-02,-3.724255334614418045e-02,-3.724255334614418045e-02,-3.724255334614418045e-02,-3.636049287215654957e-02,-3.342029129219779848e-02,-3.048008971223905086e-02,-2.753988813228029284e-02,-2.459968655232154869e-02,-2.165948497236279760e-02,-1.871928339240403957e-02,-1.577908181244529542e-02,-1.283888023248653740e-02,-9.898678652527793248e-03,-6.958477072569042160e-03,-4.018275492610291072e-03,-1.078073912651539984e-03,1.862127667307211104e-03,4.704322527934005904e-03,7.644524107892756992e-03,1.058472568785150808e-02,1.352492726781025743e-02,1.646512884776901026e-02,1.940533042772776134e-02
2.548174702630917957e-02,2.548174702630917957e-02,2.548174702630917957e-02,2.548174702630917957e-02,2.464168943203524920e-02,1.624111348929596285e-02,7.840537546556676507e-03,-5.600383961826133072e-04,-8.960614338921899652e-03,-1.736119028166119641e-02,-2.576176622440048622e-02,-3.416234216713977256e-02,-3.724255334614418045e-02,-3.724255334614418045e-02,-3.724255334614418045e-02,-3.724255334614418045e-02,-3.724255334614418045e-02,-3.724255334614418045e-02,-3.724255334614418045e-02,-3.724255334614418045e-02,-3.724255334614418045e-02,-3.724255334614418045e-02,-3.724255334614418045e-02,-3.724255334614418045e-02,-3.724255334614418045e-02,-3.724255334614418045e-02,-3.724255334614418045e-02,-3.528241895950501306e-02,-3.234221737954626197e-02,-2.940201579958750741e-02,-2.646181421962875632e-02,-2.352161263967000523e-02,-2.058141105971125415e-02,-1.764120947975250306e-02,-1.470100789979375197e-02,-1.176080631983500088e-02,-8.820604739876249795e-03,-5.880403159917498707e-03,-2.940201579958747619e-03,3.469446951953614189e-18,2.940201579958754557e-03,5.880403159917505646e-03,8.820604739876256734e-03,1.176080631983500782e-02,1.470100789979375891e-02,1.764120947975251000e-02,2.058141105971126109e-02
2.548174702630917957e-02,2.548174702630917957e-02,2.548174702630917957e-02,2.548174702630917957e-02,2.128145905493953466e-02,1.316090231029155670e-02,4.760326367552268623e-03,-3.640249575187024661e-03,-1.204082551792631448e-02,-2.044140146066560429e-02,-2.884197740340488716e-02,-3.724255334614418045e-02,-3.724255334614418045e-02,-3.724255334614418045e-02,-3.724255334614418045e-02,-3.724255334614418045e-02,-3.724255334614418045e-02,-3.724255334614418045e-02,-3.724255334614418045e-02,-3.724255334614418045e-02,-3.724255334614418045e-02,-3.724255334614418045e-02,-3.724255334614418045e-02,-3.724255334614418045e-02,-3.724255334614418045e-02,-3.724255334614418045e-02,-3.704653990748026093e-02,-3.410633832752150985e-02,-3.116613674756275529e-02,-2.832394188693596396e-02,-2.538374030697721287e-02,-2.244353872701846872e-02,-1.950333714705971069e-02,-1.656313556710096654e-02,-1.362293398714220852e-02,-1.068273240718345743e-02,-7.742530827224713280e-03,-4.802329247265955253e-03,-1.862127667307204165e-03,1.078073912651546923e-03,4.018275492610298011e-03,6.958477072569049099e-03,9.898678652527798452e-03,1.283888023248654954e-02,1.577908181244530236e-02,1.871928339240404998e-02,2.165948497236280454e-02
2.548174702630917957e-02,2.548174702630917957e-02,2.548174702630917957e-02,2.548174702630917957e-02,1.820124787593512677e-02,9.800671933195840430e-03,1.400095990456554085e-03,-7.000479952282739199e-03,-1.540105589502202901e-02,-2.380163183776131883e-02,-3.220220778050060517e-02,-3.724255334614418045e-02,-3.724255334614418045e-02,-3.724255334614418045e-02,-3.724255334614418045e-02,-3.724255334614418045e-02,-3.724255334614418045e-02,-3.724255334614418045e-02,-3.724255334614418045e-02,-3.724255334614418045e-02,-3.724255334614418045e-02,-3.724255334614418045e-02,-3.724255334614418045e-02,-3.724255334614418045e-02,-3.724255334614418045e-02,-3.724255334614418045e-02,-3.596846599482872442e-02,-3.302826441486997333e-02,-3.008806283491121877e-02,-2.714786125495246769e-02,-2.420765967499371660e-02,-2.126745809503496551e-02,-1.832725651507620748e-02,-1.538705493511746333e-02,-1.244685335515870531e-02,-9.604658494531920915e-03,-6.664456914573162888e-03,-3.724255334614418739e-03,-7.840537546556641813e-04,2.156147825303090376e-03,5.096349405261841464e-03,8.036550985220589083e-03,1.097675256517934017e-02,1.391695414513809126e-02,1.685715572509684235e-02,1.979735730505559343e-02,2.273755888501434452e-02
2.548174702630917957e-02,2.548174702630917957e-02,2.548174702630917957e-02,2.352161263967001217e-02,1.512103669693072236e-02,6.720460754191432545e-03,-1.680115188547850330e-03,-1.008069113128714014e-02,-1.848126707402643690e-02,-2.688184301676571977e-02,-3.528241895950501306e-02,-3.724255334614418045e-02,-3.724255334614418045e-02,-3.724255334614418045e-02,-3.724255334614418045e-02,-3.724255334614418045e-02,-3.724255334614418045e-02,-3.724255334614418045e-02,-3.724255334614418045e-02,-3.724255334614418045e-02,-3.724255334614418045e-02,-3.724255334614418045e-02,-3.724255334614418045e-02,-3.724255334614418045e-02,-3.724255334614418045e-02,-3.724255334614418045e-02,-3.489039208217717403e-02,-3.195019050221842294e-02,-2.900998892225967532e-02,-2.606978734230092423e-02,-2.312958576234217314e-02,-2.018938418238341512e-02,-1.724918260242467791e-02,-1.430898102246591988e-02,-1.136877944250716879e-02,-8.428577862548417704e-03,-5.488376282589666616e-03,-2.548174702630915528e-03,3.920268773278355601e-04,3.332228457286590118e-03,6.272430037245341206e-03,9.114624897872132536e-03,1.205482647783088189e-02,1.499502805778963471e-02,1.793522963774838580e-02,2.087543121770713689e-02,2.381563279766588798e-02
2.548174702630917957e-02,2.548174702630917957e-02,2.548174702630917957e-02,2.044140146066560776e-02,1.204082551792631794e-02,3.640249575187028130e-03,-4.760326367552261684e-03,-1.316090231029155497e-02,-2.156147825303083784e-02,-2.996205419577012072e-02,-3.724255334614418045e-02,-3.724255334614418045e-02,-3.724255334614418045e-02,-3.724255334614418045e-02,-3.724255334614418045e-02,-3.724255334614418045e-02,-3.724255334614418045e-02,-3.724255334614418045e-02,-3.724255334614418045e-02,-3.724255334614418045e-02,-3.724255334614418045e-02,-3.724255334614418045e-02,-3.724255334614418045e-02,-3.724255334614418045e-02,-3.724255334614418045e-02,-3.675251974948438860e-02,-3.381231816952562363e-02,-3.087211658956688295e-02,-2.793191500960813187e-02,-2.499171342964938772e-02,-2.205151184969062969e-02,-1.911131026973187860e-02,-1.617110868977312751e-02,-1.323090710981437643e-02,-1.029070552985562534e-02,-7.350503949896874251e-03,-4.410302369938123163e-03,-1.470100789979375544e-03,1.470100789979379013e-03,4.410302369938130101e-03,7.350503949896881190e-03,1.029070552985563228e-02,1.323090710981438337e-02,1.617110868977313792e-02,1.911131026973188554e-02,2.205151184969063663e-02,2.499171342964938772e-02
2.548174702630917957e-02,2.548174702630917957e-02,2.548174702630917957e-02,1.708117108356988975e-02,8.680595140830599937e-03,5.600383961826237156e-04,-7.840537546556666099e-03,-1.624111348929595591e-02,-2.464168943203524573e-02,-3.304226537477453207e-02,-3.724255334614418045e-02,-3.724255334614418045e-02,-3.724255334614418045e-02,-3.724255334614418045e-02,-3.724255334614418045e-02,-3.724255334614418045e-02,-3.724255334614418045e-02,-3.724255334614418045e-02,-3.724255334614418045e-02,-3.724255334614418045e-02,-3.724255334614418045e-02,-3.724255334614418045e-02,-3.724255334614418045e-02,-3.724255334614418045e-02,-3.724255334614418045e-02,-3.557643911750088539e-02,-3.263623753754213430e-02,-2.969603595758337974e-02,-2.675583437762462866e-02,-2.391363951699784426e-02,-2.097343793703908624e-02,-1.803323635708033515e-02,-1.509303477712159100e-02,-1.215283319716283297e-02,-9.212631617204088824e-03,-6.272430037245337736e-03,-3.332228457286583179e-03,-3.920268773278286212e-04,2.548174702630922467e-03,5.488376282589673555e-03,8.428577862548424643e-03,1.136877944250717400e-02,1.430898102246592682e-02,1.724918260242467444e-02,2.018938418238342553e-02,2.312958576234217661e-02,2.548174702630917957e-02
2.548174702630917957e-02,2.548174702630917957e-02,2.240153584730477515e-02,1.400095990456548534e-02,5.600383961826195522e-03,-2.800191980913090822e-03,-1.120076792365238064e-02,-1.960134386639167045e-02,-2.800191980913095333e-02,-3.640249575187025355e-02,-3.724255334614418045e-02,-3.724255334614418045e-02,-3.724255334614418045e-02,-3.724255334614418045e-02,-3.724255334614418045e-02,-3.724255334614418045e-02,-3.724255334614418045e-02,-3.724255334614418045e-02,-3.724255334614418045e-02,-3.724255334614418045e-02,-3.724255334614418045e-02,-3.724255334614418045e-02,-3.724255334614418045e-02,-3.724255334614418045e-02,-3.724255334614418045e-02,-3.449836520484934888e-02,-3.155816362489059779e-02,-2.861796204493184323e-02,-2.567776046497309214e-02,-2.273755888501434105e-02,-1.979735730505558997e-02,-1.685715572509683888e-02,-1.391695414513808085e-02,-1.097675256517933670e-02,-8.036550985220585613e-03,-5.194356124593790813e-03,-2.254154544635039725e-03,6.860470353237078933e-04,3.626248615282465920e-03,6.566450195241210069e-03,9.506651775199964627e-03,1.244685335515871571e-02,1.538705493511746680e-02,1.832725651507621789e-02,2.126745809503496898e-02,2.420765967499372007e-02,2.548174702630917957e-02
2.548174702630917957e-02,2.548174702630917957e-02,1.932132466830036727e-02,1.092074872556107745e-02,2.520172782821791108e-03,-5.880403159917498707e-03,-1.428097910265678852e-02,-2.268155504539607834e-02,-3.108213098813536815e-02,-3.724255334614418045e-02,-3.724255334614418045e-02,-3.724255334614418045e-02,-3.724255334614418045e-02,-3.724255334614418045e-02,-3.724255334614418045e-02,-3.724255334614418045e-02,-3.724255334614418045e-02,-3.724255334614418045e-02,-3.724255334614418045e-02,-3.724255334614418045e-02,-3.724255334614418045e-02,-3.724255334614418045e-02,-3.724255334614418045e-02,-3.724255334614418045e-02,-3.636049287215654957e-02,-3.342029129219779848e-02,-3.048008971223905086e-02,-2.753988813228029978e-02,-2.459968655232155563e-02,-2.165948497236279066e-02,-1.871928339240403957e-02,-1.577908181244530236e-02,-1.283888023248653740e-02,-9.898678652527793248e-03,-6.958477072569042160e-03,-4.018275492610291072e-03,-1.078073912651539984e-03,1.862127667307211104e-03,4.802329247265965662e-03,7.742530827224713280e-03,1.068273240718346610e-02,1.352492726781025917e-02,1.646512884776901026e-02,1.940533042772776134e-02,2.234553200768651243e-02,2.528573358764526352e-02,2.548174702630917957e-02
2.548174702630917957e-02,2.464168943203524920e-02,1.624111348929595938e-02,7.840537546556673038e-03,-5.600383961826133072e-04,-8.960614338921906591e-03,-1.736119028166119641e-02,-2.576176622440047928e-02,-3.416234216713977256e-02,-3.724255334614418045e-02,-3.724255334614418045e-02,-3.724255334614418045e-02,-3.724255334614418045e-02,-3.724255334614418045e-02,-3.724255334614418045e-02,-3.724255334614418045e-02,-3.724255334614418045e-02,-3.724255334614418045e-02,-3.724255334614418045e-02,-3.724255334614418045e-02,-3.724255334614418045e-02,-3.724255334614418045e-02,-3.724255334614418045e-02,-3.724255334614418045e-02,-3.528241895950501306e-02,-3.234221737954626197e-02,-2.940201579958750741e-02,-2.646181421962874938e-02,-2.352161263967000523e-02,-2.058141105971125415e-02,-1.764120947975250306e-02,-1.470100789979375891e-02,-1.176080631983500088e-02,-8.820604739876249795e-03,-5.880403159917498707e-03,-2.940201579958747619e-03,3.469446951953614189e-18,2.940201579958754557e-03,5.880403159917509115e-03,8.820604739876256734e-03,1.176080631983500782e-02,1.470100789979375891e-02,1.764120947975251000e-02,2.058141105971126109e-02,2.352161263967001217e-02,2.548174702630917957e-02,2.548174702630917957e-02
2.548174702630917957e-02,2.128145905493953466e-02,1.288088311220024484e-02,4.480307169460958500e-03,-3.920268773278331315e-03,-1.204082551792631448e-02,-2.044140146066560429e-02,-2.884197740340488716e-02,-3.724255334614418045e-02,-3.724255334614418045e-02,-3.724255334614418045e-02,-3.724255334614418045e-02,-3.724255334614418045e-02,-3.724255334614418045e-02,-3.724255334614418045e-02,-3.724255334614418045e-02,-3.724255334614418045e-02,-3.724255334614418045e-02,-3.724255334614418045e-02,-3.724255334614418045e-02,-3.724255334614418045e-02,-3.724255334614418045e-02,-3.724255334614418045e-02,-3.704653990748026093e-02,-3.410633832752150985e-02,-3.116613674756275529e-02,-2.822593516760399726e-02,-2.528573358764526699e-02,-2.234553200768650202e-02,-1.950333714705971763e-02,-1.656313556710095961e-02,-1.362293398714220852e-02,-1.068273240718345743e-02,-7.742530827224713280e-03,-4.802329247265958723e-03,-1.862127667307204165e-03,1.078073912651546923e-03,4.018275492610298011e-03,6.958477072569049099e-03,9.898678652527796717e-03,1.283888023248654954e-02,1.577908181244530236e-02,1.871928339240404998e-02,2.165948497236280454e-02,2.459968655232155563e-02,2.548174702630917957e-02,2.548174702630917957e-02
2.548174702630917957e-02,1.820124787593512677e-02,9.800671933195840430e-03,1.400095990456554085e-03,-7.000479952282739199e-03,-1.540105589502202901e-02,-2.380163183776131883e-02,-3.220220778050060517e-02,-3.724255334614418045e-02,-3.724255334614418045e-02,-3.724255334614418045e-02,-3.724255334614418045e-02,-3.724255334614418045e-02,-3.724255334614418045e-02,-3.724255334614418045e-02,-3.724255334614418045e-02,-3.724255334614418045e-02,-3.724255334614418045e-02,-3.724255334614418045e-02,-3.724255334614418045e-02,-3.724255334614418045e-02,-3.724255334614418045e-02,-3.724255334614418045e-02,-3.596846599482872442e-02,-3.302826441486995945e-02,-3.008806283491121183e-02,-2.714786125495246769e-02,-2.420765967499371660e-02,-2.126745809503496551e-02,-1.832725651507621442e-02,-1.538705493511746333e-02,-1.244685335515871225e-02,-9.506651775199961157e-03,-6.566450195241210069e-03,-3.626248615282455512e-03,-7.840537546556607118e-04,2.156147825303090376e-03,5.096349405261841464e-03,8.036550985220592552e-03,1.097675256517934017e-02,1.391695414513809126e-02,1.685715572509684235e-02,1.979735730505559343e-02,2.273755888501434452e-02,2.548174702630917957e-02,2.548174702630917957e-02,2.548174702630917957e-02
2.352161263967001217e-02,1.512103669693072236e-02,6.720460754191432545e-03,-1.680115188547850330e-03,-1.008069113128714014e-02,-1.848126707402643690e-02,-2.688184301676571977e-02,-3.528241895950501306e-02,-3.724255334614418045e-02,-3.724255334614418045e-02,-3.724255334614418045e-02,-3.724255334614418045e-02,-3.724255334614418045e-02,-3.724255334614418045e-02,-3.724255334614418045e-02,-3.724255334614418045e-02,-3.724255334614418045e-02,-3.724255334614418045e-02,-3.724255334614418045e-02,-3.724255334614418045e-02,-3.724255334614418045e-02,-3.724255334614418045e-02,-3.724255334614418045e-02,-3.489039208217717403e-02,-3.195019050221842294e-02,-2.900998892225967532e-02,-2.606978734230091729e-02,-2.312958576234218008e-02,-2.018938418238342206e-02,-1.724918260242467097e-02,-1.430898102246592682e-02,-1.136877944250716879e-02,-8.428577862548417704e-03,-5.488376282589666616e-03,-2.548174702630915528e-03,3.920268773278355601e-04,3.332228457286590118e-03,6.272430037245337736e-03,9.212631617204092294e-03,1.215283319716284165e-02,1.509303477712159273e-02,1.793522963774838580e-02,2.087543121770713689e-02,2.381563279766588798e-02,2.548174702630917957e-02,2.548174702630917957e-02,2.548174702630917957e-02
2.044140146066560776e-02,1.204082551792631794e-02,3.640249575187028130e-03,-4.760326367552258214e-03,-1.316090231029154803e-02,-2.156147825303083784e-02,-2.996205419577012072e-02,-3.724255334614418045e-02,-3.724255334614418045e-02,-3.724255334614418045e-02,-3.724255334614418045e-02,-3.724255334614418045e-02,-3.724255334614418045e-02,-3.724255334614418045e-02,-3.724255334614418045e-02,-3.724255334614418045e-02,-3.724255334614418045e-02,-3.724255334614418045e-02,-3.724255334614418045e-02,-3.724255334614418045e-02,-3.724255334614418045e-02,-3.724255334614418045e-02,-3.665451303015243578e-02,-3.381231816952563751e-02,-3.087211658956688295e-02,-2.793191500960812493e-02,-2.499171342964938772e-02,-2.205151184969062969e-02,-1.911131026973187860e-02,-1.617110868977312751e-02,-1.323090710981436949e-02,-1.029070552985562534e-02,-7.350503949896874251e-03,-4.410302369938123163e-03,-1.470100789979372075e-03,1.470100789979379013e-03,4.410302369938130101e-03,7.350503949896881190e-03,1.029070552985563228e-02,1.323090710981438163e-02,1.617110868977313445e-02,1.911131026973188554e-02,2.205151184969063663e-02,2.499171342964938772e-02,2.548174702630917957e-02,2.548174702630917957e-02,2.548174702630917957e-02
1.708117108356989322e-02,8.680595140830599937e-03,2.800191980913170620e-04,-8.120556744647972752e-03,-1.652113268738726951e-02,-2.464168943203524573e-02,-3.304226537477453207e-02,-3.724255334614418045e-02,-3.724255334614418045e-02,-3.724255334614418045e-02,-3.724255334614418045e-02,-3.724255334614418045e-02,-3.724255334614418045e-02,-3.724255334614418045e-02,-3.724255334614418045e-02,-3.724255334614418045e-02,-3.724255334614418045e-02,-3.724255334614418045e-02,-3.724255334614418045e-02,-3.724255334614418045e-02,-3.724255334614418045e-02,-3.724255334614418045e-02,-3.557643911750088539e-02,-3.263623753754213430e-02,-2.969603595758337974e-02,-2.675583437762462866e-02,-2.381563279766589145e-02,-2.087543121770712648e-02,-1.793522963774837539e-02,-1.509303477712159100e-02,-1.215283319716283297e-02,-9.212631617204081885e-03,-6.272430037245330797e-03,-3.332228457286579709e-03,-3.920268773278320906e-04,2.548174702630922467e-03,5.488376282589673555e-03,8.428577862548424643e-03,1.136877944250717400e-02,1.430898102246592508e-02,1.724918260242467444e-02,2.018938418238342553e-02,2.312958576234217661e-02,2.548174702630917957e-02,2.548174702630917957e-02,2.548174702630917957e-02,2.548174702630917957e-02
1.400095990456548534e-02,5.600383961826195522e-03,-2.800191980913090822e-03,-1.120076792365238758e-02,-1.960134386639167739e-02,-2.800191980913096026e-02,-3.640249575187025355e-02,-3.724255334614418045e-02,-3.724255334614418045e-02,-3.724255334614418045e-02,-3.724255334614418045e-02,-3.724255334614418045e-02,-3.724255334614418045e-02,-3.724255334614418045e-02,-3.724255334614418045e-02,-3.724255334614418045e-02,-3.724255334614418045e-02,-3.724255334614418045e-02,-3.724255334614418045e-02,-3.724255334614418045e-02,-3.724255334614418045e-02,-3.724255334614418045e-02,-3.449836520484933500e-02,-3.155816362489059779e-02,-2.861796204493183629e-02,-2.567776046497309214e-02,-2.273755888501433411e-02,-1.979735730505558303e-02,-1.685715572509683888e-02,-1.391695414513808779e-02,-1.097675256517933670e-02,-8.036550985220585613e-03,-5.096349405261831056e-03,-2.156147825303083437e-03,7.840537546556711201e-04,3.626248615282462451e-03,6.566450195241217008e-03,9.506651775199964627e-03,1.244685335515871571e-02,1.538705493511746680e-02,1.832725651507621789e-02,2.126745809503496898e-02,2.420765967499372007e-02,2.548174702630917957e-02,2.548174702630917957e-02,2.548174702630917957e-02,2.548174702630917957e-02
1.092074872556107919e-02,2.520172782821791108e-03,-5.880403159917498707e-03,-1.428097910265678852e-02,-2.268155504539607834e-02,-3.108213098813536121e-02,-3.724255334614418045e-02,-3.724255334614418045e-02,-3.724255334614418045e-02,-3.724255334614418045e-02,-3.724255334614418045e-02,-3.724255334614418045e-02,-3.724255334614418045e-02,-3.724255334614418045e-02,-3.724255334614418045e-02,-3.724255334614418045e-02,-3.724255334614418045e-02,-3.724255334614418045e-02,-3.724255334614418045e-02,-3.724255334614418045e-02,-3.724255334614418045e-02,-3.636049287215654957e-02,-3.342029129219779848e-02,-3.048008971223905086e-02,-2.753988813228029284e-02,-2.459968655232154869e-02,-2.165948497236279760e-02,-1.871928339240404651e-02,-1.577908181244529542e-02,-1.283888023248654434e-02,-9.898678652527800187e-03,-6.958477072569042160e-03,-4.018275492610291072e-03,-1.078073912651539984e-03,1.862127667307211104e-03,4.802329247265962192e-03,7.742530827224716750e-03,1.068273240718346610e-02,1.362293398714221719e-02,1.656313556710097001e-02,1.950333714705972110e-02,2.234553200768651243e-02,2.528573358764526352e-02,2.548174702630917957e-02,2.548174702630917957e-02,2.548174702630917957e-02,2.548174702630917957e-02
7.840537546556673038e-03,-5.600383961826133072e-04,-8.960614338921906591e-03,-1.736119028166119641e-02,-2.576176622440047928e-02,-3.416234216713977256e-02,-3.724255334614418045e-02,-3.724255334614418045e-02,-3.724255334614418045e-02,-3.724255334614418045e-02,-3.724255334614418045e-02,-3.724255334614418045e-02,-3.724255334614418045e-02,-3.724255334614418045e-02,-3.724255334614418045e-02,-3.724255334614418045e-02,-3.724255334614418045e-02,-3.724255334614418045e-02,-3.724255334614418045e-02,-3.724255334614418045e-02,-3.724255334614418045e-02,-3.518441224017306024e-02,-3.224421066021429527e-02,-2.940201579958750741e-02,-2.646181421962875632e-02,-2.352161263967000523e-02,-2.058141105971125415e-02,-1.764120947975250306e-02,-1.470100789979375197e-02,-1.176080631983500088e-02,-8.820604739876249795e-03,-5.880403159917498707e-03,-2.940201579958747619e-03,0.000000000000000000e+00,2.940201579958754557e-03,5.880403159917505646e-03,8.820604739876256734e-03,1.176080631983500782e-02,1.470100789979375891e-02,1.764120947975251000e-02,2.058141105971126109e-02,2.352161263967001217e-02,2.548174702630917957e-02,2.548174702630917957e-02,2.548174702630917957e-02,2.548174702630917957e-02,2.548174702630917957e-02
4.480307169460958500e-03,-3.920268773278331315e-03,-1.232084471601762113e-02,-2.072142065875691094e-02,-2.912199660149620076e-02,-3.724255334614418045e-02,-3.724255334614418045e-02,-3.724255334614418045e-02,-3.724255334614418045e-02,-3.724255334614418045e-02,-3.724255334614418045e-02,-3.724255334614418045e-02,-3.724255334614418045e-02,-3.724255334614418045e-02,-3.724255334614418045e-02,-3.724255334614418045e-02,-3.724255334614418045e-02,-3.724255334614418045e-02,-3.724255334614418045e-02,-3.724255334614418045e-02,-3.704653990748026093e-02,-3.410633832752150985e-02,-3.116613674756276223e-02,-2.822593516760400420e-02,-2.528573358764525311e-02,-2.234553200768650896e-02,-1.940533042772775094e-02,-1.646512884776899985e-02,-1.352492726781024876e-02,-1.068273240718345743e-02,-7.742530827224713280e-03,-4.802329247265955253e-03,-1.862127667307204165e-03,1.078073912651546923e-03,4.018275492610298011e-03,6.958477072569049099e-03,9.898678652527798452e-03,1.283888023248654954e-02,1.577908181244530236e-02,1.871928339240404998e-02,2.165948497236280454e-02,2.459968655232155563e-02,2.548174702630917957e-02,2.548174702630917957e-02,2.548174702630917957e-02,2.548174702630917957e-02,2.548174702630917957e-02
1.400095990456554085e-03,-7.000479952282739199e-03,-1.540105589502202901e-02,-2.380163183776131883e-02,-3.220220778050060517e-02,-3.724255334614418045e-02,-3.724255334614418045e-02,-3.724255334614418045e-02,-3.724255334614418045e-02,-3.724255334614418045e-02,-3.724255334614418045e-02,-3.724255334614418045e-02,-3.724255334614418045e-02,-3.724255334614418045e-02,-3.724255334614418045e-02,-3.724255334614418045e-02,-3.724255334614418045e-02,-3.724255334614418045e-02,-3.724255334614418045e-02,-3.724255334614418045e-02,-3.596846599482871054e-02,-3.302826441486995945e-02,-3.008806283491121877e-02,-2.714786125495246769e-02,-2.420765967499371660e-02,-2.126745809503496551e-02,-1.832725651507620748e-02,-1.538705493511745639e-02,-1.244685335515870531e-02,-9.506651775199961157e-03,-6.566450195241210069e-03,-3.626248615282458981e-03,-6.860470353237078933e-04,2.254154544635046664e-03,5.096349405261837995e-03,8.036550985220589083e-03,1.097675256517934017e-02,1.391695414513809126e-02,1.685715572509684235e-02,1.979735730505559343e-02,2.273755888501434452e-02,2.548174702630917957e-02,2.548174702630917957e-02,2.548174702630917957e-02,2.548174702630917957e-02,2.548174702630917957e-02,2.548174702630917957e-02
-1.680115188547850330e-03,-1.008069113128714014e-02,-1.848126707402643690e-02,-2.688184301676571977e-02,-3.528241895950501306e-02,-3.724255334614418045e-02,-3.724255334614418045e-02,-3.724255334614418045e-02,-3.724255334614418045e-02,-3.724255334614418045e-02,-3.724255334614418045e-02,-3.724255334614418045e-02,-3.724255334614418045e-02,-3.724255334614418045e-02,-3.724255334614418045e-02,-3.724255334614418045e-02,-3.724255334614418045e-02,-3.724255334614418045e-02,-3.724255334614418045e-02,-3.724255334614418045e-02,-3.489039208217717403e-02,-3.195019050221842294e-02,-2.900998892225966838e-02,-2.606978734230092423e-02,-2.312958576234217314e-02,-2.018938418238341512e-02,-1.724918260242467097e-02,-1.430898102246591294e-02,-1.136877944250716185e-02,-8.428577862548424643e-03,-5.488376282589666616e-03,-2.548174702630915528e-03,3.920268773278355601e-04,3.332228457286586648e-03,6.272430037245341206e-03,9.212631617204088824e-03,1.215283319716283991e-02,1.509303477712159273e-02,1.803323635708034556e-02,2.097343793703909318e-02,2.381563279766588798e-02,2.548174702630917957e-02,2.548174702630917957e-02,2.548174702630917957e-02,2.548174702630917957e-02,2.548174702630917957e-02,2.548174702630917957e-02
-4.760326367552258214e-03,-1.316090231029154803e-02,-2.156147825303083784e-02,-2.996205419577012766e-02,-3.724255334614418045e-02,-3.724255334614418045e-02,-3.724255334614418045e-02,-3.724255334614418045e-02,-3.724255334614418045e-02,-3.724255334614418045e-02,-3.724255334614418045e-02,-3.724255334614418045e-02,-3.724255334614418045e-02,-3.724255334614418045e-02,-3.724255334614418045e-02,-3.724255334614418045e-02,-3.724255334614418045e-02,-3.724255334614418045e-02,-3.724255334614418045e-02,-3.665451303015242190e-02,-3.371431145019367082e-02,-3.077410987023493014e-02,-2.793191500960812493e-02,-2.499171342964938772e-02,-2.205151184969062969e-02,-1.911131026973187860e-02,-1.617110868977313445e-02,-1.323090710981437643e-02,-1.029070552985562534e-02,-7.350503949896874251e-03,-4.410302369938123163e-03,-1.470100789979372075e-03,1.470100789979379013e-03,4.410302369938130101e-03,7.350503949896881190e-03,1.029070552985563228e-02,1.323090710981438337e-02,1.617110868977313445e-02,1.911131026973188554e-02,2.205151184969063663e-02,2.499171342964938772e-02,2.548174702630917957e-02,2.548174702630917957e-02,2.548174702630917957e-02,2.548174702630917957e-02,2.548174702630917957e-02,2.548174702630917957e-02
-8.120556744647972752e-03,-1.652113268738726951e-02,-2.492170863012655932e-02,-3.332228457286584566e-02,-3.724255334614418045e-02,-3.724255334614418045e-02,-3.724255334614418045e-02,-3.724255334614418045e-02,-3.724255334614418045e-02,-3.724255334614418045e-02,-3.724255334614418045e-02,-3.724255334614418045e-02,-3.724255334614418045e-02,-3.724255334614418045e-02,-3.724255334614418045e-02,-3.724255334614418045e-02,-3.724255334614418045e-02,-3.724255334614418045e-02,-3.724255334614418045e-02,-3.557643911750088539e-02,-3.263623753754213430e-02,-2.969603595758337974e-02,-2.675583437762463559e-02,-2.381563279766587757e-02,-2.087543121770712648e-02,-1.793522963774837539e-02,-1.499502805778963124e-02,-1.205482647783087322e-02,-9.212631617204081885e-03,-6.272430037245330797e-03,-3.332228457286579709e-03,-3.920268773278286212e-04,2.548174702630922467e-03,5.488376282589673555e-03,8.428577862548424643e-03,1.136877944250717400e-02,1.430898102246592682e-02,1.724918260242467444e-02,2.018938418238342553e-02,2.312958576234217661e-02,2.548174702630917957e-02,2.548174702630917957e-02,2.548174702630917957e-02,2.548174702630917957e-02,2.548174702630917957e-02,2.548174702630917957e-02,2.548174702630917957e-02
-8.908110739279783558e-03,-1.960134386639167045e-02,-2.800191980913095333e-02,-3.640249575187025355e-02,-3.724255334614418045e-02,-3.724255334614418045e-02,-3.724255334614418045e-02,-3.724255334614418045e-02,-3.724255334614418045e-02,-3.724255334614418045e-02,-3.724255334614418045e-02,-3.724255334614418045e-02,-3.724255334614418045e-02,-3.724255334614418045e-02,-3.724255334614418045e-02,-3.724255334614418045e-02,-3.724255334614418045e-02,-3.724255334614418045e-02,-3.724255334614418045e-02,-3.449836520484934888e-02,-3.155816362489058391e-02,-2.861796204493183629e-02,-2.567776046497308520e-02,-2.273755888501434105e-02,-1.979735730505557609e-02,-1.685715572509683194e-02,-1.391695414513808779e-02,-1.097675256517933670e-02,-8.036550985220585613e-03,-5.096349405261831056e-03,-2.156147825303083437e-03,7.840537546556676507e-04,3.724255334614425678e-03,6.664456914573173296e-03,9.506651775199964627e-03,1.244685335515871571e-02,1.538705493511746854e-02,1.832725651507621789e-02,2.126745809503496898e-02,2.420765967499372007e-02,2.548174702630917957e-02,2.548174702630917957e-02,2.548174702630917957e-02,2.548174702630917957e-02,2.548174702630917957e-02,2.548174702630917957e-02,2.548174702630917957e-02
2.548174702630917957e-02,8.925611939160495861e-03,-1.517354029657283151e-02,-3.724255334614418045e-02,-3.724255334614418045e-02,-3.724255334614418045e-02,-3.724255334614418045e-02,-3.724255334614418045e-02,-3.724255334614418045e-02,-3.724255334614418045e-02,-3.724255334614418045e-02,-3.724255334614418045e-02,-3.724255334614418045e-02,-3.724255334614418045e-02,-3.724255334614418045e-02,-3.724255334614418045e-02,-3.724255334614418045e-02,-3.724255334614418045e-02,-3.636049287215654957e-02,-3.342029129219779848e-02,-3.048008971223905086e-02,-2.753988813228029284e-02,-2.459968655232154869e-02,-2.165948497236279760e-02,-1.871928339240403957e-02,-1.577908181244529542e-02,-1.283888023248654434e-02,-9.898678652527793248e-03,-6.958477072569042160e-03,-4.018275492610291072e-03,-1.078073912651543453e-03,1.862127667307214574e-03,4.802329247265962192e-03,7.742530827224716750e-03,1.068273240718346784e-02,1.362293398714221719e-02,1.656313556710097001e-02,1.950333714705971763e-02,2.244353872701846872e-02,2.538374030697721981e-02,2.548174702630917957e-02,2.548174702630917957e-02,2.548174702630917957e-02,2.548174702630917957e-02,2.548174702630917957e-02,2.548174702630917957e-02,2.548174702630917957e-02
2.548174702630917957e-02,2.548174702630917957e-02,2.548174702630917957e-02,1.764120947975251000e-02,-3.920268773278331315e-03,-2.548174702630917263e-02,-3.724255334614418045e-02,-3.724255334614418045e-02,-3.724255334614418045e-02,-3.724255334614418045e-02,-3.724255334614418045e-02,-3.724255334614418045e-02,-3.724255334614418045e-02,-3.724255334614418045e-02,-3.724255334614418045e-02,-3.724255334614418045e-02,-3.724255334614418045e-02,-3.724255334614418045e-02,-3.518441224017304636e-02,-3.224421066021430915e-02,-2.930400908025554765e-02,-2.636380750029680350e-02,-2.352161263967000523e-02,-2.058141105971125415e-02,-1.764120947975249612e-02,-1.470100789979375197e-02,-1.176080631983500088e-02,-8.820604739876249795e-03,-5.880403159917498707e-03,-2.940201579958747619e-03,3.469446951953614189e-18,2.940201579958754557e-03,5.880403159917505646e-03,8.820604739876256734e-03,1.176080631983500782e-02,1.470100789979375891e-02,1.764120947975251000e-02,2.058141105971126109e-02,1.898842633526435716e-02,2.094856072190352456e-02,2.094856072190352456e-02,2.548174702630917957e-02,2.548174702630917957e-02,2.548174702630917957e-02,2.548174702630917957e-02,2.548174702630917957e-02,2.548174702630917957e-02
2.548174702630917957e-02,2.548174702630917957e-02,2.548174702630917957e-02,2.548174702630917957e-02,2.548174702630917957e-02,2.548174702630917957e-02,9.800671933195840430e-03,-1.176080631983500088e-02,-3.332228457286584566e-02,-3.724255334614418045e-02,-3.724255334614418045e-02,-3.724255334614418045e-02,-3.724255334614418045e-02,-3.724255334614418045e-02,-3.724255334614418045e-02,-3.724255334614418045e-02,-3.724255334614418045e-02,-3.704653990748027481e-02,-3.410633832752150985e-02,-3.116613674756275529e-02,-2.822593516760401114e-02,-2.528573358764526005e-02,-2.234553200768650896e-02,-1.940533042772775094e-02,-1.646512884776899985e-02,-1.352492726781024876e-02,-1.058472568785149767e-02,-7.644524107892753523e-03,-4.802329247265958723e-03,-1.862127667307204165e-03,1.078073912651546923e-03,4.018275492610298011e-03,6.958477072569049099e-03,9.898678652527798452e-03,1.283888023248654954e-02,1.577908181244529889e-02,1.871928339240404998e-02,2.165948497236280454e-02,2.006650024791589715e-02,2.094856072190352456e-02,2.094856072190352456e-02,2.548174702630917957e-02,2.548174702630917957e-02,2.548174702630917957e-02,2.548174702630917957e-02,2.548174702630917957e-02,2.548174702630917957e-02
2.548174702630917957e-02,2.548174702630917957e-02,2.548174702630917957e-02,2.548174702630917957e-02,2.548174702630917957e-02,2.548174702630917957e-02,2.548174702630917957e-02,2.548174702630917957e-02,2.548174702630917957e-02,3.920268773278338253e-03,-1.960134386639167045e-02,-3.724255334614418045e-02,-3.724255334614418045e-02,-3.724255334614418045e-02,-3.724255334614418045e-02,-3.724255334614418045e-02,-3.724255334614418045e-02,-3.596846599482871054e-02,-3.302826441486995945e-02,-3.008806283491121183e-02,-2.714786125495246769e-02,-2.420765967499371660e-02,-2.126745809503495857e-02,-1.832725651507621442e-02,-1.538705493511746333e-02,-1.244685335515870531e-02,-9.506651775199961157e-03,-6.566450195241210069e-03,-3.626248615282455512e-03,-6.860470353237078933e-04,2.254154544635043195e-03,5.194356124593797752e-03,8.134557704552548840e-03,1.107475928451129819e-02,1.391695414513809126e-02,1.685715572509684235e-02,1.979735730505559343e-02,2.273755888501434452e-02,2.094856072190352456e-02,2.094856072190352456e-02,2.094856072190352456e-02,2.548174702630917957e-02,2.548174702630917957e-02,2.548174702630917957e-02,2.548174702630917957e-02,2.548174702630917957e-02,2.548174702630917957e-02
2.548174702630917957e-02,2.548174702630917957e-02,2.548174702630917957e-02,2.548174702630917957e-02,2.548174702630917957e-02,2.548174702630917957e-02,2.548174702630917957e-02,2.548174702630917957e-02,2.548174702630917957e-02,2.548174702630917957e-02,2.548174702630917957e-02,1.764120947975251000e-02,-3.920268773278331315e-03,-2.548174702630917263e-02,-3.724255334614418045e-02,-3.724255334614418045e-02,-3.724255334614418045e-02,-3.489039208217717403e-02,-3.195019050221842294e-02,-2.900998892225967532e-02,-2.606978734230092423e-02,-2.312958576234217314e-02,-2.018938418238341512e-02,-1.724918260242467097e-02,-1.430898102246591988e-02,-1.136877944250716879e-02,-8.428577862548417704e-03,-5.488376282589666616e-03,-2.548174702630915528e-03,3.920268773278355601e-04,3.332228457286590118e-03,6.272430037245341206e-03,9.212631617204088824e-03,1.215283319716284165e-02,1.509303477712159273e-02,1.803323635708034209e-02,2.097343793703909318e-02,2.391363951699784426e-02,2.548174702630917957e-02,2.548174702630917957e-02,2.548174702630917957e-02,2.548174702630917957e-02,2.548174702630917957e-02,2.548174702630917957e-02,2.548174702630917957e-02,2.548174702630917957e-02,2.548174702630917957e-02
2.548174702630917957e-02,2.548174702630917957e-02,2.548174702630917957e-02,2.548174702630917957e-02,2.548174702630917957e-02,2.548174702630917957e-02,2.548174702630917957e-02,2.548174702630917957e-02,2.548174702630917957e-02,2.548174702630917957e-02,2.548174702630917957e-02,2.548174702630917957e-02,2.548174702630917957e-02,2.548174702630917957e-02,9.800671933195840430e-03,-1.176080631983500088e-02,-3.277099677662358157e-02,-3.371431145019367082e-02,-3.077410987023493014e-02,-2.783390829027617211e-02,-2.489370671031742102e-02,-2.205151184969062969e-02,-1.911131026973187860e-02,-1.617110868977313445e-02,-1.323090710981437643e-02,-1.029070552985562534e-02,-7.350503949896874251e-03,-4.410302369938123163e-03,-1.470100789979372075e-03,1.470100789979379013e-03,4.410302369938130101e-03,7.350503949896881190e-03,1.029070552985563228e-02,1.323090710981438163e-02,1.617110868977313445e-02,1.911131026973188554e-02,2.205151184969063663e-02,2.499171342964938772e-02,2.548174702630917957e-02,2.548174702630917957e-02,2.548174702630917957e-02,2.548174702630917957e-02,2.548174702630917957e-02,2.548174702630917957e-02,2.548174702630917957e-02,2.548174702630917957e-02,2.548174702630917957e-02
2.548174702630917957e-02,2.548174702630917957e-02,2.548174702630917957e-02,2.548174702630917957e-02,2.548174702630917957e-02,2.548174702630917957e-02,2.548174702630917957e-02,2.548174702630917957e-02,2.548174702630917957e-02,2.548174702630917957e-02,2.548174702630917957e-02,2.548174702630917957e-02,2.548174702630917957e-02,2.548174702630917957e-02,2.548174702630917957e-02,2.548174702630917957e-02,2.548174702630917957e-02,5.503689832485291616e-03,-1.417728449336359484e-02,-2.675583437762462866e-02,-2.381563279766588451e-02,-2.087543121770712648e-02,-1.793522963774837539e-02,-1.499502805778963124e-02,-1.205482647783087322e-02,-9.114624897872129067e-03,-6.174423317913371040e-03,-3.332228457286583179e-03,-3.920268773278286212e-04,2.548174702630922467e-03,5.488376282589673555e-03,8.428577862548424643e-03,1.136877944250717400e-02,1.430898102246592508e-02,1.724918260242467444e-02,2.018938418238342553e-02,2.312958576234217661e-02,2.548174702630917957e-02,2.548174702630917957e-02,2.548174702630917957e-02,2.548174702630917957e-02,2.548174702630917957e-02,2.548174702630917957e-02,2.548174702630917957e-02,2.548174702630917957e-02,2.548174702630917957e-02,2.548174702630917957e-02
