-1.132330173382184169e-01,-1.132330173382184169e-01,-1.132330173382184169e-01,-1.132330173382184169e-01,-1.132330173382184169e-01,-1.132330173382184169e-01,-1.132330173382184169e-01,-1.132330173382184169e-01,-1.132330173382184169e-01,-1.132330173382184169e-01,-1.132330173382184169e-01,-1.132330173382184169e-01,-1.132330173382184169e-01,-1.132330173382184169e-01,-1.132330173382184169e-01,-1.132330173382184169e-01,-1.132330173382184169e-01,-1.061559537545797710e-01,-9.671986897639489600e-02,-8.728378419821003487e-02,-7.784769942002517373e-02,-6.841161464184031260e-02,-5.897552986365543759e-02,-4.953944508547056258e-02,-4.238866208950234360e-02,-3.610408218840657768e-02,-3.298943701748227597e-02,-3.105430244383107496e-02,-3.029867846745298854e-02,-3.184678612637395489e-02,-3.892384971001260074e-02,-4.600091329365124659e-02,-5.307797687728989938e-02,-5.661650866910922231e-02,-6.369357225274786816e-02,-7.416172880354671149e-02,-8.460531221690234527e-02,-9.347621483389384478e-02,-9.869800654057167555e-02,-1.048167177639259262e-01,-1.093627481909160287e-01,-1.123360978215419970e-01,-1.132330173382184169e-01,-1.132330173382184169e-01,-1.132330173382184169e-01,-1.132330173382184169e-01,-1.132330173382184169e-01
-1.132330173382184169e-01,-1.132330173382184169e-01,-1.132330173382184169e-01,-1.132330173382184169e-01,-1.132330173382184169e-01,-1.132330173382184169e-01,-1.132330173382184169e-01,-1.132330173382184169e-01,-1.132330173382184169e-01,-1.132330173382184169e-01,-1.132330173382184169e-01,-1.132330173382184169e-01,-1.132330173382184169e-01,-1.132330173382184169e-01,-1.132330173382184169e-01,-1.132330173382184169e-01,-1.132330173382184169e-01,-1.055661984559432137e-01,-9.613011367775833871e-02,-8.669402889957347758e-02,-7.755282177070689509e-02,-6.811673699252203396e-02,-5.868065221433716588e-02,-4.924456743615228393e-02,-3.980848265796742280e-02,-3.037239787978257555e-02,-2.093631310159770054e-02,-1.150022832341283940e-02,-2.064143545227964394e-03,-2.775557561562891351e-17,-2.775557561562891351e-17,-2.775557561562891351e-17,-1.387778780781445676e-17,-1.387778780781445676e-17,-2.775557561562891351e-17,-9.829254977275936334e-03,-2.241070134818907988e-02,-3.499214771910222344e-02,-4.757359409001540862e-02,-6.015504046092855217e-02,-7.273648683184169572e-02,-8.492476300366381958e-02,-9.750620937457697701e-02,-1.102842408450356443e-01,-1.132330173382184169e-01,-1.132330173382184169e-01,-1.132330173382184169e-01
-1.132330173382184169e-01,-1.132330173382184169e-01,-1.132330173382184169e-01,-1.132330173382184169e-01,-1.132330173382184169e-01,-1.132330173382184169e-01,-1.132330173382184169e-01,-1.132330173382184169e-01,-1.132330173382184169e-01,-1.132330173382184169e-01,-1.132330173382184169e-01,-1.132330173382184169e-01,-1.132330173382184169e-01,-1.132330173382184169e-01,-1.132330173382184169e-01,-1.132330173382184169e-01,-1.132330173382184169e-01,-1.052713208066249351e-01,-9.583523602844007394e-02,-8.639915125025521281e-02,-7.696306647207033780e-02,-6.752698169388547667e-02,-5.809089691570060859e-02,-4.865481213751574052e-02,-3.921872735933087939e-02,-2.978264258114601826e-02,-2.034655780296115712e-02,-1.091047302477628211e-02,-1.474388246591407103e-03,-2.775557561562891351e-17,-2.775557561562891351e-17,-2.775557561562891351e-17,-4.163336342344337027e-17,-2.775557561562891351e-17,-2.775557561562891351e-17,-1.061559537545800347e-02,-2.280387154728011345e-02,-3.538531791819327088e-02,-4.796676428910642831e-02,-6.054821066001958574e-02,-7.312965703093274317e-02,-8.571110340184588672e-02,-9.829254977275904415e-02,-1.108739961436722016e-01,-1.132330173382184169e-01,-1.132330173382184169e-01,-1.132330173382184169e-01
-1.132330173382184169e-01,-1.132330173382184169e-01,-1.132330173382184169e-01,-1.132330173382184169e-01,-1.132330173382184169e-01,-1.132330173382184169e-01,-1.132330173382184169e-01,-1.132330173382184169e-01,-1.132330173382184169e-01,-1.132330173382184169e-01,-1.132330173382184169e-01,-1.132330173382184169e-01,-1.132330173382184169e-01,-1.132330173382184169e-01,-1.132330173382184169e-01,-1.132330173382184169e-01,-1.132330173382184169e-01,-1.046815655079883778e-01,-9.524548072980351665e-02,-8.580939595161865552e-02,-7.637331117343378051e-02,-6.693722639524891938e-02,-5.750114161706405824e-02,-4.806505683887918323e-02,-3.862897206069430822e-02,-2.919288728250946097e-02,-1.975680250432459983e-02,-1.032071772613971095e-02,-8.846329479548636909e-04,-2.775557561562891351e-17,-2.775557561562891351e-17,-2.775557561562891351e-17,-2.775557561562891351e-17,-2.775557561562891351e-17,-2.775557561562891351e-17,-1.100876557454905091e-02,-2.359021194546218059e-02,-3.617165831637533802e-02,-4.875310468728850932e-02,-6.133455105820165981e-02,-7.391599742911481030e-02,-8.649744380002796773e-02,-9.907889017094112516e-02,-1.116603365418542687e-01,-1.132330173382184169e-01,-1.132330173382184169e-01,-1.132330173382184169e-01
-1.132330173382184169e-01,-1.132330173382184169e-01,-1.132330173382184169e-01,-1.132330173382184169e-01,-1.132330173382184169e-01,-1.132330173382184169e-01,-1.132330173382184169e-01,-1.132330173382184169e-01,-1.132330173382184169e-01,-1.132330173382184169e-01,-1.132330173382184169e-01,-1.132330173382184169e-01,-1.132330173382184169e-01,-1.132330173382184169e-01,-1.132330173382184169e-01,-1.132330173382184169e-01,-1.132330173382184169e-01,-1.040918102093518205e-01,-9.465572543116695936e-02,-8.521964065298209823e-02,-7.578355587479723710e-02,-6.634747109661237596e-02,-5.691138631842750095e-02,-4.747530154024262594e-02,-3.803921676205776481e-02,-2.860313198387290368e-02,-1.946192485500632119e-02,-1.002584007682144618e-02,-5.897552986365850458e-04,-2.775557561562891351e-17,-2.775557561562891351e-17,-2.775557561562891351e-17,-2.775557561562891351e-17,-2.775557561562891351e-17,-2.775557561562891351e-17,-1.179510597273111805e-02,-2.437655234364424772e-02,-3.695799871455741903e-02,-4.953944508547059034e-02,-6.212089145638372695e-02,-7.470233782729687744e-02,-8.728378419821003487e-02,-9.986523056912319229e-02,-1.124466769400363497e-01,-1.132330173382184169e-01,-1.132330173382184169e-01,-1.132330173382184169e-01
-1.132330173382184169e-01,-1.132330173382184169e-01,-1.132330173382184169e-01,-1.132330173382184169e-01,-1.132330173382184169e-01,-1.132330173382184169e-01,-1.132330173382184169e-01,-1.132330173382184169e-01,-1.132330173382184169e-01,-1.132330173382184169e-01,-1.132330173382184169e-01,-1.132330173382184169e-01,-1.132330173382184169e-01,-1.132330173382184169e-01,-1.132330173382184169e-01,-1.132330173382184169e-01,-1.129381396889001382e-01,-1.035020549107152771e-01,-9.406597013253040207e-02,-8.462988535434554094e-02,-7.519380057616067980e-02,-6.605259344729408344e-02,-5.661650866910922231e-02,-4.718042389092434730e-02,-3.774433911273948616e-02,-2.830825433455462503e-02,-1.887216955636976390e-02,-9.436084778184888888e-03,-2.775557561562891351e-17,-2.775557561562891351e-17,-2.775557561562891351e-17,-2.775557561562891351e-17,-2.775557561562891351e-17,-2.775557561562891351e-17,-2.775557561562891351e-17,-1.258144637091318518e-02,-2.516289274182632874e-02,-3.774433911273948616e-02,-5.032578548365265747e-02,-6.290723185456580102e-02,-7.548867822547894457e-02,-8.807012459639210200e-02,-1.002584007682142259e-01,-1.128398471391273833e-01,-1.132330173382184169e-01,-1.132330173382184169e-01,-1.132330173382184169e-01
-1.132330173382184169e-01,-1.132330173382184169e-01,-1.132330173382184169e-01,-1.132330173382184169e-01,-1.132330173382184169e-01,-1.132330173382184169e-01,-1.132330173382184169e-01,-1.132330173382184169e-01,-1.132330173382184169e-01,-1.132330173382184169e-01,-1.132330173382184169e-01,-1.132330173382184169e-01,-1.132330173382184169e-01,-1.132330173382184169e-01,-1.132330173382184169e-01,-1.132330173382184169e-01,-1.126432620395818596e-01,-1.032071772613969984e-01,-9.377109248321212343e-02,-8.433500770502726229e-02,-7.489892292684238728e-02,-6.546283814865752615e-02,-5.602675337047267196e-02,-4.659066859228779001e-02,-3.715458381410292887e-02,-2.771849903591806774e-02,-1.828241425773320661e-02,-8.846329479548345476e-03,-2.775557561562891351e-17,-2.775557561562891351e-17,-4.163336342344337027e-17,-2.775557561562891351e-17,-2.775557561562891351e-17,-2.775557561562891351e-17,-7.863403981820948907e-04,-1.336778676909526620e-02,-2.555606294091736230e-02,-3.813750931183053361e-02,-5.071895568274369104e-02,-6.330040205365683459e-02,-7.588184842456999202e-02,-8.846329479548314945e-02,-1.010447411663963069e-01,-1.132330173382184169e-01,-1.132330173382184169e-01,-1.132330173382184169e-01,-1.132330173382184169e-01
-1.132330173382184169e-01,-1.132330173382184169e-01,-1.132330173382184169e-01,-1.132330173382184169e-01,-1.132330173382184169e-01,-1.132330173382184169e-01,-1.132330173382184169e-01,-1.132330173382184169e-01,-1.132330173382184169e-01,-1.132330173382184169e-01,-1.132330173382184169e-01,-1.132330173382184169e-01,-1.132330173382184169e-01,-1.132330173382184169e-01,-1.132330173382184169e-01,-1.132330173382184169e-01,-1.120535067409453023e-01,-1.026174219627604411e-01,-9.318133718457558001e-02,-8.374525240639071888e-02,-7.430916762820582999e-02,-6.487308285002098274e-02,-5.543699807183610773e-02,-4.600091329365124659e-02,-3.656482851546638546e-02,-2.712874373728151045e-02,-1.769265895909666320e-02,-8.256574180911774308e-03,-1.387778780781445676e-17,-2.775557561562891351e-17,-2.775557561562891351e-17,-2.775557561562891351e-17,-2.775557561562891351e-17,-2.775557561562891351e-17,-1.179510597273128458e-03,-1.376095696818629976e-02,-2.634240333909942944e-02,-3.892384971001260074e-02,-5.150529608092576511e-02,-6.408674245183890172e-02,-7.666818882275205915e-02,-8.924963519366521658e-02,-1.018310815645783740e-01,-1.132330173382184169e-01,-1.132330173382184169e-01,-1.132330173382184169e-01,-1.132330173382184169e-01
-1.132330173382184169e-01,-1.132330173382184169e-01,-1.132330173382184169e-01,-1.132330173382184169e-01,-1.132330173382184169e-01,-1.132330173382184169e-01,-1.132330173382184169e-01,-1.132330173382184169e-01,-1.132330173382184169e-01,-1.132330173382184169e-01,-1.132330173382184169e-01,-1.132330173382184169e-01,-1.132330173382184169e-01,-1.132330173382184169e-01,-1.132330173382184169e-01,-1.132330173382184169e-01,-1.114637514423087589e-01,-1.020276666641238839e-01,-9.259158188593902272e-02,-8.315549710775416159e-02,-7.371941232956928658e-02,-6.428332755138442545e-02,-5.484724277319956431e-02,-4.541115799501467543e-02,-3.597507321682982817e-02,-2.653898843864496704e-02,-1.710290366046010591e-02,-7.961696531593509540e-03,-2.775557561562891351e-17,-2.775557561562891351e-17,-2.775557561562891351e-17,-1.008684837728193034e-01,-1.008684837728193173e-01,-1.008684837728193173e-01,-1.028343347682744852e-01,-1.154157811391876287e-01,-2.712874373728152433e-02,-3.971019010819466788e-02,-5.229163647910783225e-02,-6.487308285002098274e-02,-7.745452922093414017e-02,-9.003597559184728372e-02,-1.026174219627604411e-01,-1.132330173382184169e-01,-1.132330173382184169e-01,-1.132330173382184169e-01,-1.132330173382184169e-01
-1.132330173382184169e-01,-1.132330173382184169e-01,-1.132330173382184169e-01,-1.132330173382184169e-01,-1.132330173382184169e-01,-1.132330173382184169e-01,-1.132330173382184169e-01,-1.132330173382184169e-01,-1.132330173382184169e-01,-1.132330173382184169e-01,-1.132330173382184169e-01,-1.132330173382184169e-01,-1.132330173382184169e-01,-1.132330173382184169e-01,-1.132330173382184169e-01,-1.132330173382184169e-01,-1.108739961436722016e-01,-1.014379113654873266e-01,-9.200182658730246543e-02,-8.256574180911760430e-02,-7.312965703093272929e-02,-6.369357225274786816e-02,-5.455236512388127873e-02,-4.511628034569641066e-02,-3.568019556751154953e-02,-2.624411078932670227e-02,-1.680802601114182726e-02,-7.371941232956966128e-03,-1.387778780781445676e-17,-1.387778780781445676e-17,-1.387778780781445676e-17,-1.008684837728193034e-01,-1.008684837728192896e-01,-1.008684837728192896e-01,-1.036206751664565523e-01,-1.162021215373697097e-01,-2.791508413546357759e-02,-4.049653050637673501e-02,-5.307797687728990632e-02,-6.565942324820306375e-02,-7.824086961911620730e-02,-9.082231599002936473e-02,-1.030105921618514747e-01,-1.132330173382184169e-01,-1.132330173382184169e-01,-1.132330173382184169e-01,-1.132330173382184169e-01
-1.132330173382184169e-01,-1.132330173382184169e-01,-1.132330173382184169e-01,-1.132330173382184169e-01,-1.132330173382184169e-01,-1.132330173382184169e-01,-1.132330173382184169e-01,-1.132330173382184169e-01,-1.132330173382184169e-01,-1.132330173382184169e-01,-1.132330173382184169e-01,-1.132330173382184169e-01,-1.132330173382184169e-01,-1.132330173382184169e-01,-1.132330173382184169e-01,-1.132330173382184169e-01,-1.105791184943539229e-01,-1.011430337161690618e-01,-9.170694893798418679e-02,-8.227086415979932565e-02,-7.283477938161446452e-02,-6.339869460342958951e-02,-5.396260982524472144e-02,-4.452652504705985337e-02,-3.509044026887499224e-02,-2.565435549069013110e-02,-1.621827071250526997e-02,-1.323577508851419005e-01,-1.255755649508215055e-01,-1.255755649508215055e-01,-1.255755649508215055e-01,-1.008684837728193034e-01,-1.008684837728193173e-01,-1.008684837728193034e-01,-1.044070155646386472e-01,-1.169884619355517769e-01,-2.870142453364565860e-02,-4.088970070546778246e-02,-5.347114707638094683e-02,-6.605259344729408344e-02,-7.863403981820724087e-02,-9.121548618912039830e-02,-1.037969325600335557e-01,-1.132330173382184169e-01,-1.132330173382184169e-01,-1.132330173382184169e-01,-1.132330173382184169e-01
-1.132330173382184169e-01,-1.132330173382184169e-01,-1.132330173382184169e-01,-1.132330173382184169e-01,-1.132330173382184169e-01,-1.132330173382184169e-01,-1.132330173382184169e-01,-1.132330173382184169e-01,-1.132330173382184169e-01,-1.132330173382184169e-01,-1.132330173382184169e-01,-1.132330173382184169e-01,-1.132330173382184169e-01,-1.132330173382184169e-01,-1.132330173382184169e-01,-1.132330173382184169e-01,-1.099893631957173656e-01,-1.005532784175325045e-01,-9.111719363934764337e-02,-8.168110886116276836e-02,-7.224502408297790723e-02,-6.280893930479304610e-02,-5.337285452660817109e-02,-4.393676974842330996e-02,-3.450068497023843495e-02,-2.506460019205357381e-02,-1.562851541386872656e-02,-1.317679955865053154e-01,-1.255755649508215055e-01,-1.255755649508215055e-01,-1.255755649508215055e-01,-1.008684837728193034e-01,-1.008684837728193034e-01,-1.008684837728193034e-01,-1.048001857637296669e-01,-1.173816321346428104e-01,-2.909459473273667829e-02,-4.167604110364986347e-02,-5.425748747456301396e-02,-6.683893384547615057e-02,-7.942038021638930800e-02,-9.200182658730246543e-02,-1.045832729582156229e-01,-1.132330173382184169e-01,-1.132330173382184169e-01,-1.132330173382184169e-01,-1.132330173382184169e-01
-1.132330173382184169e-01,-1.132330173382184169e-01,-1.132330173382184169e-01,-1.132330173382184169e-01,-1.132330173382184169e-01,-1.132330173382184169e-01,-1.132330173382184169e-01,-1.132330173382184169e-01,-1.132330173382184169e-01,-1.132330173382184169e-01,-1.132330173382184169e-01,-1.132330173382184169e-01,-1.132330173382184169e-01,-1.132330173382184169e-01,-1.132330173382184169e-01,-1.132330173382184169e-01,-1.093996078970808083e-01,-9.996352311889594722e-02,-9.052743834071108608e-02,-8.109135356252622495e-02,-7.165526878434134994e-02,-6.221918400615648881e-02,-5.278309922797161380e-02,-4.334701444978675267e-02,-3.391092967160189153e-02,-2.447484489341701652e-02,-1.503876011523215539e-02,-1.314731179371870229e-01,-1.255755649508215055e-01,-1.255755649508215055e-01,-1.255755649508215055e-01,-1.008684837728193034e-01,-1.008684837728193034e-01,-1.008684837728193034e-01,-1.055865261619117479e-01,-1.181679725328248914e-01,-2.988093513091874542e-02,-4.246238150183193061e-02,-5.504382787274508804e-02,-6.762527424365823159e-02,-8.020672061457137514e-02,-9.278816698548453257e-02,-1.053696133563976900e-01,-1.132330173382184169e-01,-1.132330173382184169e-01,-1.132330173382184169e-01,-1.132330173382184169e-01
-1.132330173382184169e-01,-1.132330173382184169e-01,-1.132330173382184169e-01,-1.132330173382184169e-01,-1.132330173382184169e-01,-1.132330173382184169e-01,-1.132330173382184169e-01,-1.132330173382184169e-01,-1.132330173382184169e-01,-1.132330173382184169e-01,-1.132330173382184169e-01,-1.132330173382184169e-01,-1.132330173382184169e-01,-1.132330173382184169e-01,-1.132330173382184169e-01,-1.132330173382184169e-01,-1.088098525984442649e-01,-9.937376782025938993e-02,-8.993768304207452879e-02,-8.050159826388966766e-02,-7.106551348570480653e-02,-6.162942870751993152e-02,-5.248822157865334903e-02,-4.305213680046846014e-02,-3.361605202228361289e-02,-2.417996724409875176e-02,-1.474388246591389062e-02,-1.308833626385504934e-01,-1.255755649508215055e-01,-1.255755649508215055e-01,-1.255755649508215055e-01,-2.775557561562891351e-17,-4.163336342344337027e-17,-2.775557561562891351e-17,-5.504382787274525457e-03,-1.808582915818768289e-02,-3.066727552910084031e-02,-4.324872190001399774e-02,-5.583016827092715517e-02,-6.841161464184029872e-02,-8.099306101275347003e-02,-9.357450738366661358e-02,-1.061559537545797710e-01,-1.132330173382184169e-01,-1.132330173382184169e-01,-1.132330173382184169e-01,-1.132330173382184169e-01
-1.132330173382184169e-01,-1.132330173382184169e-01,-1.132330173382184169e-01,-1.132330173382184169e-01,-1.132330173382184169e-01,-1.132330173382184169e-01,-1.132330173382184169e-01,-1.132330173382184169e-01,-1.132330173382184169e-01,-1.132330173382184169e-01,-1.132330173382184169e-01,-1.132330173382184169e-01,-1.132330173382184169e-01,-1.132330173382184169e-01,-1.132330173382184169e-01,-1.132330173382184169e-01,-1.082200972998077076e-01,-9.907889017094111128e-02,-8.964280539275625015e-02,-8.020672061457137514e-02,-7.077063583638651401e-02,-6.133455105820165287e-02,-5.189846628001678480e-02,-4.246238150183191673e-02,-3.302629672364705560e-02,-2.359021194546219446e-02,-1.415412716727733333e-02,-4.718042389092458322e-03,-2.775557561562891351e-17,-2.775557561562891351e-17,-2.775557561562891351e-17,-2.775557561562891351e-17,-2.775557561562891351e-17,-2.775557561562891351e-17,-6.290723185456606470e-03,-1.887216955636976390e-02,-3.145361592728290745e-02,-4.403506229819606488e-02,-5.622333847001819568e-02,-6.880478484093133229e-02,-8.138623121184448972e-02,-9.396767758275764715e-02,-1.065491239536708046e-01,-1.132330173382184169e-01,-1.132330173382184169e-01,-1.132330173382184169e-01,-1.132330173382184169e-01
-1.132330173382184169e-01,-1.132330173382184169e-01,-1.132330173382184169e-01,-1.132330173382184169e-01,-1.132330173382184169e-01,-1.132330173382184169e-01,-1.132330173382184169e-01,-1.132330173382184169e-01,-1.132330173382184169e-01,-1.132330173382184169e-01,-1.132330173382184169e-01,-1.132330173382184169e-01,-1.132330173382184169e-01,-1.132330173382184169e-01,-1.132330173382184169e-01,-1.132330173382184169e-01,-1.079252196504894290e-01,-9.848913487230456787e-02,-8.905305009411969286e-02,-7.961696531593483173e-02,-7.018088053774995672e-02,-6.074479575956509558e-02,-5.130871098138023445e-02,-4.187262620319537332e-02,-3.243654142501051219e-02,-2.300045664682563717e-02,-1.356437186864077604e-02,-4.128287090455901032e-03,-2.775557561562891351e-17,-1.387778780781445676e-17,-2.775557561562891351e-17,-1.387778780781445676e-17,-2.775557561562891351e-17,-2.775557561562891351e-17,-6.683893384547640037e-03,-1.926533975546078359e-02,-3.184678612637394102e-02,-4.442823249728711232e-02,-5.700967886820026975e-02,-6.959112523911341330e-02,-8.217257161002655685e-02,-9.475401798093971428e-02,-1.073354643518528717e-01,-1.132330173382184169e-01,-1.132330173382184169e-01,-1.132330173382184169e-01,-1.132330173382184169e-01
-1.132330173382184169e-01,-1.132330173382184169e-01,-1.132330173382184169e-01,-1.132330173382184169e-01,-1.132330173382184169e-01,-1.132330173382184169e-01,-1.132330173382184169e-01,-1.132330173382184169e-01,-1.132330173382184169e-01,-1.132330173382184169e-01,-1.132330173382184169e-01,-1.132330173382184169e-01,-1.132330173382184169e-01,-1.132330173382184169e-01,-1.132330173382184169e-01,-1.132330173382184169e-01,-1.073354643518528717e-01,-9.789937957366801058e-02,-8.846329479548314945e-02,-7.902721001729827444e-02,-6.959112523911341330e-02,-6.015504046092855217e-02,-5.071895568274367716e-02,-4.128287090455881603e-02,-3.184678612637395489e-02,-2.241070134818909376e-02,-1.297461657000421875e-02,-3.538531791819343741e-03,-2.775557561562891351e-17,-2.775557561562891351e-17,-2.775557561562891351e-17,-2.775557561562891351e-17,-2.775557561562891351e-17,-2.775557561562891351e-17,-7.470233782729707173e-03,-2.005168015364286460e-02,-3.263312652455600815e-02,-4.521457289546917946e-02,-5.779601926638233689e-02,-7.037746563729548044e-02,-8.295891200820863787e-02,-9.554035837912179530e-02,-1.081218047500349527e-01,-1.132330173382184169e-01,-1.132330173382184169e-01,-1.132330173382184169e-01,-1.132330173382184169e-01
-1.132330173382184169e-01,-1.132330173382184169e-01,-1.132330173382184169e-01,-1.132330173382184169e-01,-1.132330173382184169e-01,-1.132330173382184169e-01,-1.132330173382184169e-01,-1.132330173382184169e-01,-1.132330173382184169e-01,-1.132330173382184169e-01,-1.132330173382184169e-01,-1.132330173382184169e-01,-1.132330173382184169e-01,-1.132330173382184169e-01,-1.132330173382184169e-01,-1.132330173382184169e-01,-1.067457090532163144e-01,-9.730962427503145329e-02,-8.787353949684659216e-02,-7.843745471866173102e-02,-6.900136994047685601e-02,-5.956528516229198794e-02,-5.012920038410711987e-02,-4.098799325524052350e-02,-3.155190847705567625e-02,-2.211582369887081512e-02,-1.267973892068594011e-02,-3.243654142501078974e-03,-2.775557561562891351e-17,-2.775557561562891351e-17,-1.387778780781445676e-17,-2.775557561562891351e-17,-2.775557561562891351e-17,-2.775557561562891351e-17,-8.256574180911774308e-03,-2.083802055182493174e-02,-3.341946692273808917e-02,-4.600091329365124659e-02,-5.858235966456441096e-02,-7.116380603547756145e-02,-8.374525240639071888e-02,-9.632669877730386243e-02,-1.089081451482170199e-01,-1.132330173382184169e-01,-1.132330173382184169e-01,-1.132330173382184169e-01,-1.132330173382184169e-01
-1.132330173382184169e-01,-1.132330173382184169e-01,-1.132330173382184169e-01,-1.132330173382184169e-01,-1.132330173382184169e-01,-1.132330173382184169e-01,-1.132330173382184169e-01,-1.132330173382184169e-01,-1.132330173382184169e-01,-1.132330173382184169e-01,-1.132330173382184169e-01,-1.132330173382184169e-01,-1.132330173382184169e-01,-1.132330173382184169e-01,-1.132330173382184169e-01,-1.132330173382184169e-01,-1.061559537545797710e-01,-9.671986897639489600e-02,-8.757866184752831351e-02,-7.814257706934343850e-02,-6.870649229115857737e-02,-5.927040751297371624e-02,-4.983432273478884122e-02,-4.039823795660398009e-02,-3.096215317841911896e-02,-2.152606840023425783e-02,-1.208998362204939669e-02,-2.653898843864521684e-03,-2.775557561562891351e-17,-2.775557561562891351e-17,-2.775557561562891351e-17,-2.775557561562891351e-17,-2.775557561562891351e-17,-2.775557561562891351e-17,-9.042914579093855321e-03,-2.162436095000699887e-02,-3.420580732092015630e-02,-4.678725369183331373e-02,-5.897552986365544453e-02,-7.155697623456859502e-02,-8.413842260548173857e-02,-9.671986897639489600e-02,-1.093013153473080534e-01,-1.132330173382184169e-01,-1.132330173382184169e-01,-1.132330173382184169e-01,-1.132330173382184169e-01
-1.132330173382184169e-01,-1.132330173382184169e-01,-1.132330173382184169e-01,-1.132330173382184169e-01,-1.132330173382184169e-01,-1.132330173382184169e-01,-1.132330173382184169e-01,-1.132330173382184169e-01,-1.132330173382184169e-01,-1.132330173382184169e-01,-1.132330173382184169e-01,-1.132330173382184169e-01,-1.132330173382184169e-01,-1.132330173382184169e-01,-1.132330173382184169e-01,-1.132330173382184169e-01,-1.058610761052614924e-01,-9.642499132707663123e-02,-8.698890654889175622e-02,-7.755282177070689509e-02,-6.811673699252203396e-02,-5.868065221433716588e-02,-4.924456743615228393e-02,-3.980848265796742280e-02,-3.037239787978257555e-02,-1.265344238151923650e-01,-1.170983390370075039e-01,-1.076622542588226289e-01,-1.055981107135946923e-01,-1.055981107135946923e-01,-2.775557561562891351e-17,-2.775557561562891351e-17,-1.387778780781445676e-17,-1.387778780781445676e-17,-9.436084778184888888e-03,-2.201753114909804632e-02,-3.459897752001120375e-02,-4.718042389092436117e-02,-5.976187026183751860e-02,-7.234331663275066215e-02,-8.492476300366381958e-02,-9.750620937457697701e-02,-1.100876557454901344e-01,-1.132330173382184169e-01,-1.132330173382184169e-01,-1.132330173382184169e-01,-1.132330173382184169e-01
-1.132330173382184169e-01,-1.132330173382184169e-01,-1.132330173382184169e-01,-1.132330173382184169e-01,-1.132330173382184169e-01,-1.132330173382184169e-01,-1.132330173382184169e-01,-1.132330173382184169e-01,-1.132330173382184169e-01,-1.132330173382184169e-01,-1.132330173382184169e-01,-1.132330173382184169e-01,-1.132330173382184169e-01,-1.132330173382184169e-01,-1.132330173382184169e-01,-1.132330173382184169e-01,-1.052713208066249351e-01,-9.583523602844007394e-02,-8.639915125025521281e-02,-7.696306647207033780e-02,-6.752698169388547667e-02,-5.809089691570060859e-02,-4.865481213751572664e-02,-3.921872735933086551e-02,-2.978264258114601826e-02,-1.259446685165558355e-01,-1.165085837383709327e-01,-1.070724989601860716e-01,-1.055981107135946923e-01,-1.055981107135946923e-01,-2.775557561562891351e-17,-2.775557561562891351e-17,-2.775557561562891351e-17,-2.775557561562891351e-17,-1.022242517636698378e-02,-2.280387154728011345e-02,-3.538531791819327088e-02,-4.796676428910644219e-02,-6.054821066001958574e-02,-7.312965703093274317e-02,-8.571110340184590060e-02,-9.829254977275904415e-02,-1.108739961436722016e-01,-1.132330173382184169e-01,-1.132330173382184169e-01,-1.132330173382184169e-01,-1.132330173382184169e-01
-1.132330173382184169e-01,-1.132330173382184169e-01,-1.132330173382184169e-01,-1.132330173382184169e-01,-1.132330173382184169e-01,-1.132330173382184169e-01,-1.132330173382184169e-01,-1.132330173382184169e-01,-1.132330173382184169e-01,-1.132330173382184169e-01,-1.132330173382184169e-01,-1.132330173382184169e-01,-1.132330173382184169e-01,-1.132330173382184169e-01,-1.132330173382184169e-01,-1.132330173382184169e-01,-1.046815655079883778e-01,-9.524548072980351665e-02,-8.580939595161865552e-02,-7.637331117343378051e-02,-6.693722639524891938e-02,-5.750114161706405130e-02,-4.806505683887918323e-02,-3.892384971001258687e-02,-2.948776493182773961e-02,-1.256497908672375430e-01,-1.162137060890526680e-01,-1.067776213108678068e-01,-1.055981107135946784e-01,-1.055981107135946784e-01,-2.775557561562891351e-17,-2.775557561562891351e-17,-1.387778780781445676e-17,-2.775557561562891351e-17,-1.100876557454903704e-02,-2.359021194546218059e-02,-3.617165831637533802e-02,-4.875310468728850932e-02,-6.133455105820165287e-02,-7.391599742911481030e-02,-8.649744380002796773e-02,-9.907889017094112516e-02,-1.116603365418542687e-01,-1.132330173382184169e-01,-1.132330173382184169e-01,-1.132330173382184169e-01,-1.132330173382184169e-01
-1.132330173382184169e-01,-1.132330173382184169e-01,-1.132330173382184169e-01,-1.132330173382184169e-01,-1.132330173382184169e-01,-1.132330173382184169e-01,-1.132330173382184169e-01,-1.132330173382184169e-01,-1.132330173382184169e-01,-1.132330173382184169e-01,-1.132330173382184169e-01,-1.132330173382184169e-01,-1.132330173382184169e-01,-1.132330173382184169e-01,-1.132330173382184169e-01,-1.132330173382184169e-01,-1.040918102093518205e-01,-9.465572543116695936e-02,-8.551451830230036300e-02,-7.607843352411550186e-02,-6.664234874593064073e-02,-5.720626396774577960e-02,-4.777017918956090459e-02,-3.833409441137604345e-02,-2.889800963319118232e-02,-1.250600355686009857e-01,-1.156239507904161107e-01,-1.061878660122312357e-01,-1.055981107135946923e-01,-1.055981107135946923e-01,-2.775557561562891351e-17,-2.775557561562891351e-17,-2.775557561562891351e-17,-2.775557561562891351e-17,-1.179510597273111805e-02,-2.437655234364424772e-02,-3.695799871455741903e-02,-4.953944508547059034e-02,-6.212089145638373389e-02,-7.430916762820584387e-02,-8.689061399911900130e-02,-9.947206037003215873e-02,-1.120535067409453023e-01,-1.132330173382184169e-01,-1.132330173382184169e-01,-1.132330173382184169e-01,-1.132330173382184169e-01
-1.132330173382184169e-01,-1.132330173382184169e-01,-1.132330173382184169e-01,-1.132330173382184169e-01,-1.132330173382184169e-01,-1.132330173382184169e-01,-1.132330173382184169e-01,-1.132330173382184169e-01,-1.132330173382184169e-01,-1.132330173382184169e-01,-1.132330173382184169e-01,-1.132330173382184169e-01,-1.132330173382184169e-01,-1.132330173382184169e-01,-1.132330173382184169e-01,-1.132330173382184169e-01,-1.037969325600335557e-01,-9.436084778184868072e-02,-8.492476300366381958e-02,-7.548867822547894457e-02,-6.605259344729408344e-02,-5.661650866910922231e-02,-4.718042389092434730e-02,-3.774433911273948616e-02,-2.830825433455462503e-02,-1.244702802699644284e-01,-1.150341954917795534e-01,-1.055981107135946923e-01,-1.055981107135946923e-01,-1.055981107135946923e-01,-2.775557561562891351e-17,-2.775557561562891351e-17,-2.775557561562891351e-17,-2.775557561562891351e-17,-1.218827617182215162e-02,-2.476972254273529517e-02,-3.735116891364845260e-02,-4.993261528456162390e-02,-6.251406165547476745e-02,-7.509550802638792488e-02,-8.767695439730108231e-02,-1.002584007682142259e-01,-1.128398471391273833e-01,-1.132330173382184169e-01,-1.132330173382184169e-01,-1.132330173382184169e-01,-1.132330173382184169e-01
-1.132330173382184169e-01,-1.132330173382184169e-01,-1.132330173382184169e-01,-1.132330173382184169e-01,-1.132330173382184169e-01,-1.132330173382184169e-01,-1.132330173382184169e-01,-1.132330173382184169e-01,-1.132330173382184169e-01,-1.132330173382184169e-01,-1.132330173382184169e-01,-1.132330173382184169e-01,-1.132330173382184169e-01,-1.132330173382184169e-01,-1.132330173382184169e-01,-1.126432620395818596e-01,-1.032071772613969984e-01,-9.377109248321212343e-02,-8.433500770502726229e-02,-7.489892292684238728e-02,-6.546283814865754003e-02,-5.602675337047267196e-02,-4.659066859228779001e-02,-3.715458381410292887e-02,-2.771849903591806774e-02,-1.828241425773320661e-02,-8.846329479548345476e-03,-2.775557561562891351e-17,-2.775557561562891351e-17,-2.775557561562891351e-17,-1.387778780781445676e-17,-2.775557561562891351e-17,-4.163336342344337027e-17,-3.931701990910613231e-04,-1.297461657000421875e-02,-2.555606294091737618e-02,-3.813750931183053361e-02,-5.071895568274369104e-02,-6.330040205365683459e-02,-7.588184842456999202e-02,-8.846329479548314945e-02,-1.010447411663962930e-01,-1.132330173382184169e-01,-1.132330173382184169e-01,-1.132330173382184169e-01,-1.132330173382184169e-01,-1.132330173382184169e-01
-1.132330173382184169e-01,-1.132330173382184169e-01,-1.132330173382184169e-01,-1.132330173382184169e-01,-1.132330173382184169e-01,-1.132330173382184169e-01,-1.132330173382184169e-01,-1.132330173382184169e-01,-1.132330173382184169e-01,-1.132330173382184169e-01,-1.132330173382184169e-01,-1.132330173382184169e-01,-1.132330173382184169e-01,-1.132330173382184169e-01,-1.132330173382184169e-01,-1.120535067409453023e-01,-1.026174219627604411e-01,-9.318133718457558001e-02,-8.374525240639070500e-02,-7.430916762820585775e-02,-6.487308285002098274e-02,-5.543699807183610773e-02,-4.600091329365123272e-02,-3.656482851546637158e-02,-2.742362138659978910e-02,-1.798753660841494184e-02,-8.551451830230052953e-03,-2.775557561562891351e-17,-2.775557561562891351e-17,-2.775557561562891351e-17,-2.775557561562891351e-17,-4.163336342344337027e-17,-2.775557561562891351e-17,-1.179510597273142336e-03,-1.376095696818628589e-02,-2.634240333909944332e-02,-3.892384971001260074e-02,-5.150529608092576511e-02,-6.408674245183891560e-02,-7.666818882275205915e-02,-8.924963519366521658e-02,-1.018310815645783740e-01,-1.132330173382184169e-01,-1.132330173382184169e-01,-1.132330173382184169e-01,-1.132330173382184169e-01,-1.132330173382184169e-01
-1.132330173382184169e-01,-1.132330173382184169e-01,-1.132330173382184169e-01,-1.132330173382184169e-01,-1.132330173382184169e-01,-1.132330173382184169e-01,-1.132330173382184169e-01,-1.132330173382184169e-01,-1.132330173382184169e-01,-1.132330173382184169e-01,-1.132330173382184169e-01,-1.132330173382184169e-01,-1.132330173382184169e-01,-1.132330173382184169e-01,-1.132330173382184169e-01,-1.114637514423087589e-01,-1.020276666641238839e-01,-3.872188850675425398e-01,-3.777828002893577342e-01,-3.686415931604911655e-01,-3.592055083823062489e-01,-3.497694236041214433e-01,-4.570603564433296795e-02,-3.626995086614809294e-02,-2.683386608796324568e-02,-1.739778130977838455e-02,-7.961696531593495663e-03,-4.163336342344337027e-17,-2.775557561562891351e-17,0.000000000000000000e+00,-2.775557561562891351e-17,-2.775557561562891351e-17,-2.775557561562891351e-17,-1.965850995455209471e-03,-1.454729736636835302e-02,-2.712874373728149657e-02,-3.971019010819468176e-02,-5.229163647910783919e-02,-6.487308285002098274e-02,-7.745452922093412629e-02,-8.964280539275625015e-02,-1.022242517636694076e-01,-1.132330173382184169e-01,-1.132330173382184169e-01,-1.132330173382184169e-01,-1.132330173382184169e-01,-1.132330173382184169e-01
-1.132330173382184169e-01,-1.132330173382184169e-01,-1.132330173382184169e-01,-1.132330173382184169e-01,-1.132330173382184169e-01,-1.132330173382184169e-01,-1.132330173382184169e-01,-1.132330173382184169e-01,-1.132330173382184169e-01,-1.132330173382184169e-01,-1.132330173382184169e-01,-1.132330173382184169e-01,-1.132330173382184169e-01,-1.132330173382184169e-01,-1.132330173382184169e-01,-1.111688737929904802e-01,-1.017327890148056052e-01,-3.869240074182243028e-01,-3.774879226400394971e-01,-3.680518378618545805e-01,-3.586157530836697194e-01,-3.491796683054848582e-01,-4.511628034569641066e-02,-3.568019556751154953e-02,-2.624411078932668839e-02,-1.680802601114182726e-02,-7.371941232956966128e-03,-4.163336342344337027e-17,-2.775557561562891351e-17,-2.775557561562891351e-17,-2.775557561562891351e-17,-2.775557561562891351e-17,-2.775557561562891351e-17,-2.752191393637276606e-03,-1.533363776455043404e-02,-2.752191393637253014e-02,-4.010336030728571532e-02,-5.268480667819887275e-02,-6.526625304911201630e-02,-7.784769942002517373e-02,-9.042914579093833116e-02,-1.030105921618514747e-01,-1.132330173382184169e-01,-1.132330173382184169e-01,-1.132330173382184169e-01,-1.132330173382184169e-01,-1.132330173382184169e-01
-1.132330173382184169e-01,-1.132330173382184169e-01,-1.132330173382184169e-01,-1.132330173382184169e-01,-1.132330173382184169e-01,-1.132330173382184169e-01,-1.132330173382184169e-01,-1.132330173382184169e-01,-1.132330173382184169e-01,-1.132330173382184169e-01,-1.132330173382184169e-01,-1.132330173382184169e-01,-1.132330173382184169e-01,-1.132330173382184169e-01,-1.132330173382184169e-01,-1.105791184943539229e-01,-1.011430337161690618e-01,-3.863342521195877177e-01,-3.768981673414029121e-01,-3.674620825632179955e-01,-3.580259977850331898e-01,-3.485899130068482732e-01,-4.452652504705985337e-02,-3.509044026887499224e-02,-2.565435549069013110e-02,-1.621827071250526997e-02,-6.782185934320408838e-03,-4.163336342344337027e-17,-2.775557561562891351e-17,-2.775557561562891351e-17,-2.775557561562891351e-17,-2.775557561562891351e-17,-2.775557561562891351e-17,-3.145361592728324052e-03,-1.572680796364148148e-02,-2.830825433455462503e-02,-4.088970070546776858e-02,-5.347114707638094683e-02,-6.605259344729408344e-02,-7.863403981820724087e-02,-9.121548618912039830e-02,-1.037969325600335557e-01,-1.132330173382184169e-01,-1.132330173382184169e-01,-1.132330173382184169e-01,-1.132330173382184169e-01,-1.132330173382184169e-01
-1.132330173382184169e-01,-1.132330173382184169e-01,-1.132330173382184169e-01,-1.132330173382184169e-01,-1.132330173382184169e-01,-1.132330173382184169e-01,-1.132330173382184169e-01,-1.132330173382184169e-01,-1.132330173382184169e-01,-1.132330173382184169e-01,-1.132330173382184169e-01,-1.132330173382184169e-01,-1.132330173382184169e-01,-1.132330173382184169e-01,-1.132330173382184169e-01,-1.099893631957173656e-01,-1.005532784175325045e-01,-3.857444968209512437e-01,-3.763084120427663271e-01,-3.668723272645815214e-01,-3.574362424863966048e-01,-3.480001577082117437e-01,-4.393676974842330996e-02,-3.450068497023843495e-02,-2.506460019205357381e-02,-1.592339306318699133e-02,-6.487308285002130193e-03,-2.775557561562891351e-17,-2.775557561562891351e-17,-2.775557561562891351e-17,-1.387778780781445676e-17,-2.775557561562891351e-17,-2.775557561562891351e-17,-3.931701990910391187e-03,-1.651314836182353474e-02,-2.909459473273670604e-02,-4.167604110364984960e-02,-5.425748747456301396e-02,-6.683893384547615057e-02,-7.942038021638930800e-02,-9.200182658730246543e-02,-1.045832729582156229e-01,-1.132330173382184169e-01,-1.132330173382184169e-01,-1.132330173382184169e-01,-1.132330173382184169e-01,-1.132330173382184169e-01
-1.132330173382184169e-01,-1.132330173382184169e-01,-1.132330173382184169e-01,-1.132330173382184169e-01,-1.132330173382184169e-01,-1.132330173382184169e-01,-1.132330173382184169e-01,-1.132330173382184169e-01,-1.132330173382184169e-01,-1.132330173382184169e-01,-1.132330173382184169e-01,-1.132330173382184169e-01,-1.132330173382184169e-01,-1.132330173382184169e-01,-1.132330173382184169e-01,-1.093996078970808083e-01,-9.996352311889594722e-02,-3.851547415223146587e-01,-3.757186567441297420e-01,-3.662825719659449364e-01,-3.571413648370783678e-01,-3.477052800588934511e-01,-4.364189209910503131e-02,-3.420580732092015630e-02,-2.476972254273529517e-02,-1.533363776455043404e-02,-5.897552986365572902e-03,-4.163336342344337027e-17,-2.775557561562891351e-17,-2.775557561562891351e-17,-2.775557561562891351e-17,-2.775557561562891351e-17,-2.775557561562891351e-17,-4.718042389092458322e-03,-1.729948876000561575e-02,-2.988093513091875930e-02,-4.246238150183191673e-02,-5.504382787274508804e-02,-6.762527424365823159e-02,-8.020672061457138902e-02,-9.239499678639351288e-02,-1.049764431573066564e-01,-1.132330173382184169e-01,-1.132330173382184169e-01,-1.132330173382184169e-01,-1.132330173382184169e-01,-1.132330173382184169e-01
-1.132330173382184169e-01,-1.132330173382184169e-01,-1.132330173382184169e-01,-1.132330173382184169e-01,-1.132330173382184169e-01,-1.132330173382184169e-01,-1.132330173382184169e-01,-1.132330173382184169e-01,-1.132330173382184169e-01,-1.132330173382184169e-01,-1.132330173382184169e-01,-1.132330173382184169e-01,-1.132330173382184169e-01,-1.132330173382184169e-01,-1.132330173382184169e-01,-1.091047302477625436e-01,-9.966864546957766857e-02,-9.023256069139280744e-02,-8.079647591320793243e-02,-7.136039113502307130e-02,-6.192430635683821016e-02,-5.248822157865334209e-02,-4.305213680046847402e-02,-3.361605202228361289e-02,-2.417996724409875176e-02,-1.474388246591387674e-02,-5.307797687729001734e-03,-2.775557561562891351e-17,-2.775557561562891351e-17,-2.775557561562891351e-17,-2.775557561562891351e-17,-2.775557561562891351e-17,-2.775557561562891351e-17,-5.504382787274539335e-03,-1.808582915818768289e-02,-3.066727552910084031e-02,-4.285555170092296418e-02,-5.543699807183612160e-02,-6.801844444274926516e-02,-8.059989081366242258e-02,-9.318133718457558001e-02,-1.057627835554887374e-01,-1.132330173382184169e-01,-1.132330173382184169e-01,-1.132330173382184169e-01,-1.132330173382184169e-01,-1.132330173382184169e-01
-1.132330173382184169e-01,-1.132330173382184169e-01,-1.132330173382184169e-01,-1.132330173382184169e-01,-1.132330173382184169e-01,-1.132330173382184169e-01,-1.132330173382184169e-01,-1.132330173382184169e-01,-1.132330173382184169e-01,-1.132330173382184169e-01,-1.132330173382184169e-01,-1.132330173382184169e-01,-1.132330173382184169e-01,-1.132330173382184169e-01,-1.132330173382184169e-01,-1.085149749491259863e-01,-9.907889017094112516e-02,-8.964280539275625015e-02,-8.020672061457138902e-02,-7.077063583638651401e-02,-6.133455105820165287e-02,-3.385474032219734086e-01,-3.291113184437886030e-01,-3.196752336656036864e-01,-2.359021194546219446e-02,-1.415412716727731945e-02,-4.718042389092458322e-03,-2.775557561562891351e-17,-2.775557561562891351e-17,-2.775557561562891351e-17,-2.775557561562891351e-17,-2.775557561562891351e-17,-2.775557561562891351e-17,-5.897552986365572902e-03,-1.847899935727870258e-02,-3.106044572819187388e-02,-4.364189209910504519e-02,-5.622333847001818874e-02,-6.880478484093133229e-02,-8.138623121184448972e-02,-9.396767758275764715e-02,-1.065491239536708046e-01,-1.132330173382184169e-01,-1.132330173382184169e-01,-1.132330173382184169e-01,-1.132330173382184169e-01,-1.132330173382184169e-01
-1.132330173382184169e-01,-1.132330173382184169e-01,-1.132330173382184169e-01,-1.132330173382184169e-01,-1.132330173382184169e-01,-1.132330173382184169e-01,-1.132330173382184169e-01,-1.132330173382184169e-01,-1.132330173382184169e-01,-1.132330173382184169e-01,-1.132330173382184169e-01,-1.132330173382184169e-01,-1.132330173382184169e-01,-1.132330173382184169e-01,-1.132330173382184169e-01,-1.079252196504894290e-01,-9.848913487230456787e-02,-8.905305009411970674e-02,-7.961696531593483173e-02,-7.018088053774997059e-02,-6.074479575956510252e-02,-3.379576479233368791e-01,-3.285215631451520180e-01,-3.190854783669671568e-01,-2.300045664682565105e-02,-1.385924951795905469e-02,-4.423164739774193555e-03,-2.775557561562891351e-17,-2.775557561562891351e-17,-2.775557561562891351e-17,-2.775557561562891351e-17,-2.775557561562891351e-17,-2.775557561562891351e-17,-6.683893384547640037e-03,-1.926533975546079747e-02,-3.184678612637394102e-02,-4.442823249728711232e-02,-5.700967886820026975e-02,-6.959112523911341330e-02,-8.217257161002655685e-02,-9.475401798093971428e-02,-1.073354643518528717e-01,-1.132330173382184169e-01,-1.132330173382184169e-01,-1.132330173382184169e-01,-1.132330173382184169e-01,-1.132330173382184169e-01
-1.132330173382184169e-01,-1.132330173382184169e-01,-1.132330173382184169e-01,-1.132330173382184169e-01,-1.132330173382184169e-01,-1.132330173382184169e-01,-1.132330173382184169e-01,-1.132330173382184169e-01,-1.132330173382184169e-01,-1.132330173382184169e-01,-1.132330173382184169e-01,-1.132330173382184169e-01,-1.132330173382184169e-01,-1.132330173382184169e-01,-1.132330173382184169e-01,-1.073354643518528717e-01,-9.789937957366801058e-02,-8.846329479548314945e-02,-7.902721001729827444e-02,-6.959112523911341330e-02,-6.044991811024682388e-02,-3.376627702740185866e-01,-3.282266854958337254e-01,-3.187906007176488643e-01,-2.270557899750737241e-02,-1.326949421932249740e-02,-3.833409441137622387e-03,-2.775557561562891351e-17,-2.775557561562891351e-17,-4.163336342344337027e-17,-2.775557561562891351e-17,-2.775557561562891351e-17,-2.775557561562891351e-17,-7.470233782729721050e-03,-2.005168015364286460e-02,-3.263312652455602203e-02,-4.521457289546917946e-02,-5.779601926638233689e-02,-7.037746563729549432e-02,-8.295891200820863787e-02,-9.554035837912179530e-02,-1.077286345509439192e-01,-1.132330173382184169e-01,-1.132330173382184169e-01,-1.132330173382184169e-01,-1.132330173382184169e-01,-1.132330173382184169e-01
-1.132330173382184169e-01,-1.132330173382184169e-01,-1.132330173382184169e-01,-1.132330173382184169e-01,-1.132330173382184169e-01,-1.132330173382184169e-01,-1.132330173382184169e-01,-1.132330173382184169e-01,-1.132330173382184169e-01,-1.132330173382184169e-01,-1.132330173382184169e-01,-1.132330173382184169e-01,-1.132330173382184169e-01,-1.132330173382184169e-01,-1.132330173382184169e-01,-1.067457090532163144e-01,-9.760450192434973193e-02,-8.816841714616487080e-02,-7.873233236797999579e-02,-6.929624758979513466e-02,-5.986016281161026659e-02,-5.042407803342539852e-02,-4.098799325524052350e-02,-3.155190847705567625e-02,-2.211582369887081512e-02,-1.267973892068594011e-02,-3.243654142501078974e-03,-2.775557561562891351e-17,-2.775557561562891351e-17,-2.775557561562891351e-17,-2.775557561562891351e-17,-2.775557561562891351e-17,-2.775557561562891351e-17,-8.256574180911774308e-03,-2.083802055182493174e-02,-3.341946692273808917e-02,-4.560774309456022690e-02,-5.818918946547337046e-02,-7.077063583638652788e-02,-8.335208220729967143e-02,-9.593352857821282886e-02,-1.085149749491259863e-01,-1.132330173382184169e-01,-1.132330173382184169e-01,-1.132330173382184169e-01,-1.132330173382184169e-01,-1.132330173382184169e-01
-1.132330173382184169e-01,-1.132330173382184169e-01,-1.132330173382184169e-01,-1.132330173382184169e-01,-1.132330173382184169e-01,-1.132330173382184169e-01,-1.132330173382184169e-01,-1.132330173382184169e-01,-1.132330173382184169e-01,-1.132330173382184169e-01,-1.132330173382184169e-01,-1.132330173382184169e-01,-1.132330173382184169e-01,-1.132330173382184169e-01,-1.132330173382184169e-01,-1.064508314038980497e-01,-9.701474662571317464e-02,-8.757866184752831351e-02,-7.814257706934343850e-02,-6.870649229115857737e-02,-5.927040751297371624e-02,-4.983432273478885510e-02,-4.039823795660398009e-02,-3.096215317841911896e-02,-2.152606840023427170e-02,-1.208998362204938282e-02,-2.653898843864521684e-03,-2.775557561562891351e-17,-2.775557561562891351e-17,-2.775557561562891351e-17,-2.775557561562891351e-17,-4.163336342344337027e-17,-2.775557561562891351e-17,-8.649744380002821753e-03,-2.123119075091596530e-02,-3.381263712182910885e-02,-4.639408349274229404e-02,-5.897552986365544453e-02,-7.155697623456859502e-02,-8.413842260548173857e-02,-9.671986897639489600e-02,-1.093013153473080534e-01,-1.132330173382184169e-01,-1.132330173382184169e-01,-1.132330173382184169e-01,-1.132330173382184169e-01,-1.132330173382184169e-01
-1.132330173382184169e-01,-1.132330173382184169e-01,-1.132330173382184169e-01,-1.132330173382184169e-01,-1.132330173382184169e-01,-1.132330173382184169e-01,-1.132330173382184169e-01,-1.132330173382184169e-01,-1.132330173382184169e-01,-1.132330173382184169e-01,-1.132330173382184169e-01,-1.132330173382184169e-01,-1.132330173382184169e-01,-1.132330173382184169e-01,-1.132330173382184169e-01,-1.058610761052614924e-01,-9.642499132707663123e-02,-8.698890654889175622e-02,-7.755282177070689509e-02,-6.811673699252202008e-02,-5.868065221433716588e-02,-4.924456743615228393e-02,-3.980848265796742280e-02,-3.037239787978256167e-02,-2.093631310159770054e-02,-1.150022832341282553e-02,-2.359021194546243039e-03,-2.775557561562891351e-17,-2.775557561562891351e-17,-2.775557561562891351e-17,-2.775557561562891351e-17,-2.775557561562891351e-17,-2.775557561562891351e-17,-9.436084778184888888e-03,-2.201753114909804632e-02,-3.459897752001120375e-02,-4.718042389092436117e-02,-5.976187026183751860e-02,-7.234331663275066215e-02,-8.492476300366381958e-02,-9.750620937457697701e-02,-1.100876557454901344e-01,-1.132330173382184169e-01,-1.132330173382184169e-01,-1.132330173382184169e-01,-1.132330173382184169e-01,-1.132330173382184169e-01
-1.132330173382184169e-01,-1.132330173382184169e-01,-1.132330173382184169e-01,-1.132330173382184169e-01,-1.132330173382184169e-01,-1.132330173382184169e-01,-1.132330173382184169e-01,-1.132330173382184169e-01,-1.132330173382184169e-01,-1.132330173382184169e-01,-4.126826450376174238e-01,-4.126826450376174238e-01,-4.126826450376174238e-01,-1.132330173382184169e-01,-1.132330173382184169e-01,-1.052713208066249351e-01,-9.583523602844007394e-02,-8.639915125025519893e-02,-7.696306647207033780e-02,-6.752698169388547667e-02,-5.809089691570060859e-02,-4.894968978683400529e-02,-3.951360500864914416e-02,-3.007752023046426915e-02,-2.064143545227942189e-02,-1.120535067409456076e-02,-1.769265895909685748e-03,-2.775557561562891351e-17,-2.775557561562891351e-17,-2.775557561562891351e-17,-2.775557561562891351e-17,-2.775557561562891351e-17,-2.775557561562891351e-17,-1.022242517636696990e-02,-2.280387154728011345e-02,-3.538531791819327088e-02,-4.796676428910644219e-02,-6.054821066001958574e-02,-7.312965703093274317e-02,-8.571110340184590060e-02,-9.829254977275904415e-02,-1.108739961436722016e-01,-1.132330173382184169e-01,-1.132330173382184169e-01,-1.132330173382184169e-01,-1.132330173382184169e-01,-1.132330173382184169e-01
-1.132330173382184169e-01,-1.132330173382184169e-01,-1.132330173382184169e-01,-1.132330173382184169e-01,-1.132330173382184169e-01,-1.132330173382184169e-01,-1.132330173382184169e-01,-1.132330173382184169e-01,-1.132330173382184169e-01,-1.132330173382184169e-01,-4.126826450376174238e-01,-4.126826450376174238e-01,-4.126826450376174238e-01,-1.132330173382184169e-01,-1.132330173382184169e-01,-1.046815655079883778e-01,-9.554035837912179530e-02,-8.610427360093692029e-02,-7.666818882275205915e-02,-6.723210404456719802e-02,-5.779601926638233689e-02,-4.835993448819746188e-02,-3.892384971001260074e-02,-2.948776493182773961e-02,-2.005168015364286460e-02,-1.061559537545800347e-02,-1.179510597273128458e-03,-2.775557561562891351e-17,-1.387778780781445676e-17,-2.775557561562891351e-17,-2.775557561562891351e-17,-2.775557561562891351e-17,-2.775557561562891351e-17,-1.100876557454905091e-02,-2.359021194546218059e-02,-3.617165831637533802e-02,-4.875310468728850932e-02,-6.094138085911061931e-02,-7.352282723002377673e-02,-8.610427360093692029e-02,-9.868571997185007771e-02,-1.112671663427632351e-01,-1.132330173382184169e-01,-1.132330173382184169e-01,-1.132330173382184169e-01,-1.132330173382184169e-01,-1.132330173382184169e-01
-1.132330173382184169e-01,-1.132330173382184169e-01,-1.132330173382184169e-01,-1.132330173382184169e-01,-1.132330173382184169e-01,-1.132330173382184169e-01,-1.132330173382184169e-01,-1.132330173382184169e-01,-1.132330173382184169e-01,-1.132330173382184169e-01,-4.126826450376174238e-01,-4.126826450376174238e-01,-4.126826450376174238e-01,-1.132330173382184169e-01,-1.132330173382184169e-01,-1.043866878586700991e-01,-9.495060308048523801e-02,-8.551451830230037687e-02,-7.607843352411550186e-02,-6.664234874593064073e-02,-5.720626396774577960e-02,-4.777017918956090459e-02,-3.833409441137604345e-02,-2.889800963319118232e-02,-1.946192485500632119e-02,-1.002584007682144618e-02,-5.897552986365711680e-04,-2.775557561562891351e-17,-2.775557561562891351e-17,-2.775557561562891351e-17,-2.775557561562891351e-17,-2.775557561562891351e-17,-2.775557561562891351e-17,-1.140193577364007060e-02,-2.398338214455322803e-02,-3.656482851546638546e-02,-4.914627488637954289e-02,-6.172772125729269338e-02,-7.430916762820584387e-02,-8.689061399911900130e-02,-9.947206037003215873e-02,-1.120535067409453023e-01,-1.132330173382184169e-01,-1.132330173382184169e-01,-1.132330173382184169e-01,-1.132330173382184169e-01,-1.132330173382184169e-01
-1.132330173382184169e-01,-1.132330173382184169e-01,-1.132330173382184169e-01,-1.132330173382184169e-01,-1.132330173382184169e-01,-1.132330173382184169e-01,-1.132330173382184169e-01,-1.132330173382184169e-01,-1.132330173382184169e-01,-1.132330173382184169e-01,-1.132330173382184169e-01,-1.132330173382184169e-01,-1.132330173382184169e-01,-1.132330173382184169e-01,-1.132330173382184169e-01,-1.037969325600335557e-01,-9.436084778184868072e-02,-8.492476300366381958e-02,-7.548867822547894457e-02,-6.605259344729408344e-02,-5.661650866910922231e-02,-4.718042389092434730e-02,-3.774433911273948616e-02,-2.830825433455462503e-02,-1.887216955636977778e-02,-9.436084778184888888e-03,-2.775557561562891351e-17,-2.775557561562891351e-17,-2.775557561562891351e-17,-2.775557561562891351e-17,-2.775557561562891351e-17,-2.775557561562891351e-17,-2.775557561562891351e-17,-1.218827617182215162e-02,-2.476972254273529517e-02,-3.735116891364845260e-02,-4.993261528456162390e-02,-6.251406165547476745e-02,-7.509550802638792488e-02,-8.767695439730108231e-02,-1.002584007682142259e-01,-1.128398471391273833e-01,-1.132330173382184169e-01,-1.132330173382184169e-01,-1.132330173382184169e-01,-1.132330173382184169e-01,-1.132330173382184169e-01
-1.132330173382184169e-01,-1.132330173382184169e-01,-1.132330173382184169e-01,-1.132330173382184169e-01,-1.132330173382184169e-01,-1.132330173382184169e-01,-1.132330173382184169e-01,-1.132330173382184169e-01,-1.132330173382184169e-01,-1.132330173382184169e-01,-1.132330173382184169e-01,-1.132330173382184169e-01,-1.132330173382184169e-01,-1.132330173382184169e-01,-1.126432620395818596e-01,-1.032071772613969984e-01,-9.377109248321213730e-02,-8.433500770502727617e-02,-7.489892292684240116e-02,-6.546283814865754003e-02,-5.602675337047266502e-02,-4.659066859228779001e-02,-3.744946146342120752e-02,-2.801337668523636026e-02,-1.857729190705148525e-02,-9.141207128866624121e-03,-4.163336342344337027e-17,-2.775557561562891351e-17,-1.387778780781445676e-17,-2.775557561562891351e-17,-2.775557561562891351e-17,-4.163336342344337027e-17,-3.931701990910752009e-04,-1.297461657000421875e-02,-2.555606294091736230e-02,-3.813750931183051973e-02,-5.071895568274369104e-02,-6.330040205365683459e-02,-7.588184842456999202e-02,-8.846329479548314945e-02,-1.010447411663963069e-01,-1.132330173382184169e-01,-1.132330173382184169e-01,-1.132330173382184169e-01,-1.132330173382184169e-01,-1.132330173382184169e-01,-1.132330173382184169e-01
-1.132330173382184169e-01,-1.132330173382184169e-01,-1.132330173382184169e-01,-1.132330173382184169e-01,-1.132330173382184169e-01,-1.132330173382184169e-01,-1.132330173382184169e-01,-1.132330173382184169e-01,-1.132330173382184169e-01,-1.132330173382184169e-01,-1.132330173382184169e-01,-1.132330173382184169e-01,-1.132330173382184169e-01,-1.132330173382184169e-01,-1.120535067409453023e-01,-1.026174219627604411e-01,-9.318133718457558001e-02,-8.404013005570898365e-02,-7.460404527752412251e-02,-6.516796049933926138e-02,-5.573187572115439331e-02,-4.629579094296952524e-02,-3.685970616478465023e-02,-2.742362138659980297e-02,-1.798753660841492796e-02,-8.551451830230052953e-03,-4.163336342344337027e-17,-2.775557561562891351e-17,-4.163336342344337027e-17,-2.775557561562891351e-17,-2.775557561562891351e-17,-2.775557561562891351e-17,-1.179510597273142336e-03,-1.376095696818628589e-02,-2.634240333909944332e-02,-3.892384971001258687e-02,-5.150529608092576511e-02,-6.408674245183891560e-02,-7.627501862366102559e-02,-8.885646499457416914e-02,-1.014379113654873404e-01,-1.132330173382184169e-01,-1.132330173382184169e-01,-1.132330173382184169e-01,-1.132330173382184169e-01,-1.132330173382184169e-01,-1.132330173382184169e-01
-1.132330173382184169e-01,-1.132330173382184169e-01,-1.132330173382184169e-01,-1.132330173382184169e-01,-1.132330173382184169e-01,-1.132330173382184169e-01,-1.132330173382184169e-01,-1.132330173382184169e-01,-1.132330173382184169e-01,-1.132330173382184169e-01,-1.132330173382184169e-01,-1.132330173382184169e-01,-1.132330173382184169e-01,-1.132330173382184169e-01,-1.117586290916270375e-01,-1.023225443134421625e-01,-9.288645953525730137e-02,-8.345037475707242636e-02,-7.401428997888756522e-02,-6.457820520070270409e-02,-5.514212042251783602e-02,-4.570603564433296795e-02,-3.626995086614809294e-02,-2.683386608796324568e-02,-1.739778130977838455e-02,-7.961696531593495663e-03,-2.775557561562891351e-17,-2.775557561562891351e-17,-2.775557561562891351e-17,-2.775557561562891351e-17,-2.775557561562891351e-17,-4.163336342344337027e-17,-1.965850995455223349e-03,-1.415412716727733333e-02,-2.673557353819046301e-02,-3.931701990910364819e-02,-5.189846628001680562e-02,-6.447991265092994917e-02,-7.706135902184310660e-02,-8.964280539275625015e-02,-1.022242517636694076e-01,-1.132330173382184169e-01,-1.132330173382184169e-01,-1.132330173382184169e-01,-1.132330173382184169e-01,-1.132330173382184169e-01,-1.132330173382184169e-01
-1.132330173382184169e-01,-1.132330173382184169e-01,-1.132330173382184169e-01,-1.132330173382184169e-01,-1.132330173382184169e-01,-1.132330173382184169e-01,-1.132330173382184169e-01,-1.132330173382184169e-01,-1.132330173382184169e-01,-1.132330173382184169e-01,-1.132330173382184169e-01,-1.132330173382184169e-01,-1.132330173382184169e-01,-1.132330173382184169e-01,-1.111688737929904802e-01,-1.017327890148056052e-01,-9.229670423662074408e-02,-8.286061945843586907e-02,-7.342453468025100793e-02,-6.398844990206614680e-02,-5.455236512388128567e-02,-4.511628034569641066e-02,-3.568019556751154953e-02,-2.624411078932668839e-02,-1.680802601114182726e-02,-7.371941232956966128e-03,-4.163336342344337027e-17,-2.775557561562891351e-17,-2.775557561562891351e-17,-2.775557561562891351e-17,-4.163336342344337027e-17,-4.163336342344337027e-17,-2.359021194546256917e-03,-1.494046756545940047e-02,-2.752191393637254402e-02,-4.010336030728570145e-02,-5.268480667819887275e-02,-6.526625304911201630e-02,-7.784769942002517373e-02,-9.042914579093833116e-02,-1.030105921618514747e-01,-1.132330173382184169e-01,-1.132330173382184169e-01,-1.132330173382184169e-01,-1.132330173382184169e-01,-1.132330173382184169e-01,-1.132330173382184169e-01
-1.132330173382184169e-01,-1.132330173382184169e-01,-1.132330173382184169e-01,-1.132330173382184169e-01,-1.132330173382184169e-01,-1.132330173382184169e-01,-1.132330173382184169e-01,-1.132330173382184169e-01,-1.132330173382184169e-01,-1.132330173382184169e-01,-1.132330173382184169e-01,-1.132330173382184169e-01,-1.132330173382184169e-01,-1.132330173382184169e-01,-1.118231335774153984e-01,-1.060545895626266166e-01,-9.910653495056470641e-02,-9.097896974122969549e-02,-8.293433887076545608e-02,-7.274263011620249464e-02,-6.137141076436643250e-02,-4.882068081525726966e-02,-3.781805852506905929e-02,-2.594923314000842363e-02,-1.651314836182354862e-02,-7.077063583638673605e-03,-2.775557561562891351e-17,-2.775557561562891351e-17,-2.775557561562891351e-17,-2.775557561562891351e-17,-2.775557561562891351e-17,-2.775557561562891351e-17,-3.145361592728324052e-03,-1.572680796364148148e-02,-2.830825433455463891e-02,-4.088970070546778246e-02,-5.347114707638093989e-02,-6.605259344729408344e-02,-7.863403981820724087e-02,-9.121548618912039830e-02,-1.037969325600335557e-01,-1.132330173382184169e-01,-1.132330173382184169e-01,-1.132330173382184169e-01,-1.132330173382184169e-01,-1.132330173382184169e-01,-1.132330173382184169e-01
