2.399323065760139775e-02,2.399323065760139775e-02,2.399323065760139775e-02,2.399323065760139775e-02,2.399323065760139775e-02,2.399323065760139775e-02,2.399323065760139775e-02,2.399323065760139775e-02,2.399323065760139775e-02,2.399323065760139775e-02,2.399323065760139775e-02,2.399323065760139775e-02,2.399323065760139775e-02,2.399323065760139775e-02,2.399323065760139775e-02,2.399323065760139775e-02,5.417826277522894141e-03,-1.060346000029481206e-01,-2.174870262834191492e-01,-2.732132394236546635e-01,-2.732132394236546635e-01,-2.732132394236546635e-01,-2.732132394236546635e-01,-2.732132394236546635e-01,-2.732132394236546080e-01,-2.732132394236546635e-01,-2.732132394236546635e-01,-2.732132394236546635e-01,-2.732132394236546635e-01,-2.732132394236546635e-01,-2.732132394236546635e-01,-2.639255372336154482e-01,-1.292538554780462423e-01,1.006167737254251918e-02,2.399323065760139775e-02,2.399323065760139775e-02,2.399323065760139775e-02,2.399323065760139775e-02,2.399323065760139775e-02,2.399323065760139775e-02,2.399323065760139775e-02,2.399323065760139775e-02,2.399323065760139775e-02,2.399323065760139775e-02,2.399323065760139775e-02,2.399323065760139775e-02,2.399323065760139775e-02
2.399323065760139775e-02,2.399323065760139775e-02,2.399323065760139775e-02,2.399323065760139775e-02,2.399323065760139775e-02,2.399323065760139775e-02,2.399323065760139775e-02,2.399323065760139775e-02,2.399323065760139775e-02,2.399323065760139775e-02,2.399323065760139775e-02,2.399323065760139775e-02,2.399323065760139775e-02,2.399323065760139775e-02,-4.102068467267337704e-02,-1.524731109531443918e-01,-2.639255372336153926e-01,-2.732132394236546635e-01,-2.732132394236546635e-01,-2.732132394236546635e-01,-2.732132394236546635e-01,-2.732132394236546635e-01,-2.732132394236547190e-01,-2.732132394236546635e-01,-2.732132394236546635e-01,-2.732132394236546635e-01,-2.732132394236546635e-01,-2.732132394236546635e-01,-2.732132394236546635e-01,-2.732132394236546635e-01,-2.732132394236546635e-01,-2.732132394236546635e-01,-1.849800686182817566e-01,-4.566453576769299860e-02,2.399323065760139775e-02,2.399323065760139775e-02,2.399323065760139775e-02,2.399323065760139775e-02,2.399323065760139775e-02,2.399323065760139775e-02,2.399323065760139775e-02,2.399323065760139775e-02,2.399323065760139775e-02,2.399323065760139775e-02,2.399323065760139775e-02,2.399323065760139775e-02,2.399323065760139775e-02
2.399323065760139775e-02,2.399323065760139775e-02,2.399323065760139775e-02,2.399323065760139775e-02,2.399323065760139775e-02,2.399323065760139775e-02,2.399323065760139775e-02,2.399323065760139775e-02,2.399323065760139775e-02,2.399323065760139775e-02,2.399323065760139775e-02,1.567299744569123493e-02,-9.360262363398934304e-02,-2.081993240933798783e-01,-2.732132394236546635e-01,-2.732132394236546635e-01,-2.732132394236546635e-01,-2.732132394236546635e-01,-2.732132394236546635e-01,-2.732132394236546635e-01,-2.732132394236546635e-01,-2.732132394236546080e-01,-2.732132394236546635e-01,-2.732132394236546635e-01,-2.732132394236546635e-01,-2.732132394236546635e-01,-2.732132394236547190e-01,-2.732132394236546635e-01,-2.732132394236547190e-01,-2.732132394236546635e-01,-2.732132394236546635e-01,-2.732132394236546635e-01,-2.407062817585172709e-01,-1.013907489079285129e-01,2.399323065760139775e-02,2.399323065760139775e-02,2.399323065760139775e-02,2.399323065760139775e-02,2.399323065760139775e-02,2.399323065760139775e-02,2.399323065760139775e-02,2.399323065760139775e-02,2.399323065760139775e-02,2.399323065760139775e-02,2.399323065760139775e-02,2.399323065760139775e-02,2.399323065760139775e-02
2.399323065760139775e-02,2.399323065760139775e-02,2.399323065760139775e-02,2.399323065760139775e-02,2.399323065760139775e-02,2.399323065760139775e-02,2.399323065760139775e-02,2.399323065760139775e-02,2.399323065760139775e-02,-2.222759977251581934e-02,-1.152497420196277045e-01,-2.249365374150131269e-01,-2.561857854085827224e-01,-2.732132394236546635e-01,-2.732132394236546635e-01,-2.732132394236546635e-01,-2.732132394236546635e-01,-2.732132394236546635e-01,-2.732132394236546635e-01,-2.732132394236546635e-01,-2.732132394236546635e-01,-2.732132394236546635e-01,-2.732132394236546635e-01,-2.732132394236546635e-01,-2.732132394236546635e-01,-2.732132394236546635e-01,-2.732132394236546635e-01,-2.732132394236546635e-01,-2.732132394236547190e-01,-2.732132394236546635e-01,-2.732132394236546635e-01,-2.732132394236547190e-01,-2.732132394236546635e-01,-1.571169620481639995e-01,-1.780142919757523798e-02,2.399323065760139775e-02,2.399323065760139775e-02,2.399323065760139775e-02,2.399323065760139775e-02,2.399323065760139775e-02,2.399323065760139775e-02,2.399323065760139775e-02,2.399323065760139775e-02,2.399323065760139775e-02,2.399323065760139775e-02,2.399323065760139775e-02,2.399323065760139775e-02
2.399323065760139775e-02,2.399323065760139775e-02,2.399323065760139775e-02,2.399323065760139775e-02,2.399323065760139775e-02,2.399323065760139775e-02,2.399323065760139775e-02,-3.463538941702137830e-02,-1.100979697110903155e-01,-1.780142919757523035e-01,-2.012335474508504807e-01,-2.236788277434453021e-01,-2.468980832185434515e-01,-2.701173386936416287e-01,-2.732132394236546635e-01,-2.732132394236546635e-01,-2.732132394236546635e-01,-2.732132394236546080e-01,-2.732132394236546635e-01,-2.732132394236546635e-01,-2.732132394236546635e-01,-2.732132394236546635e-01,-2.732132394236546635e-01,-2.732132394236546635e-01,-2.732132394236547190e-01,-2.732132394236546635e-01,-2.732132394236546635e-01,-2.732132394236546635e-01,-2.732132394236546635e-01,-2.732132394236546635e-01,-2.732132394236546635e-01,-2.732132394236546635e-01,-2.732132394236546080e-01,-2.128431751883995138e-01,-7.352764233781075576e-02,2.399323065760139775e-02,2.399323065760139775e-02,2.399323065760139775e-02,2.399323065760139775e-02,2.399323065760139775e-02,2.399323065760139775e-02,2.399323065760139775e-02,2.399323065760139775e-02,2.399323065760139775e-02,2.399323065760139775e-02,2.399323065760139775e-02,2.399323065760139775e-02
2.399323065760139775e-02,2.399323065760139775e-02,2.399323065760139775e-02,2.399323065760139775e-02,9.336075638945704608e-03,-3.260370456295029473e-02,-9.210304671788924202e-02,-1.230620540180200895e-01,-1.455073343106149664e-01,-1.687265897857130881e-01,-1.919458452608112098e-01,-2.143911255534060589e-01,-2.376103810285041806e-01,-2.608296365036023579e-01,-2.732132394236546635e-01,-2.732132394236546635e-01,-2.732132394236546635e-01,-2.732132394236546635e-01,-2.732132394236546080e-01,-2.732132394236546635e-01,-2.732132394236546635e-01,-2.732132394236546635e-01,-2.732132394236546635e-01,-2.732132394236547190e-01,-2.732132394236546635e-01,-2.732132394236546635e-01,-2.732132394236546635e-01,-2.732132394236546635e-01,-2.732132394236546635e-01,-2.732132394236546635e-01,-2.732132394236547190e-01,-2.732132394236546635e-01,-2.732132394236546635e-01,-2.685693883286350281e-01,-1.292538554780462701e-01,5.417826277522894141e-03,2.399323065760139775e-02,2.399323065760139775e-02,2.399323065760139775e-02,2.399323065760139775e-02,2.399323065760139775e-02,2.399323065760139775e-02,2.399323065760139775e-02,2.399323065760139775e-02,2.399323065760139775e-02,2.399323065760139775e-02,2.399323065760139775e-02
2.399323065760139775e-02,2.399323065760139775e-02,1.557625054787832586e-02,-1.025517116816834426e-02,-4.489056058518972603e-02,-6.733584087778457516e-02,-9.055509635288269688e-02,-1.137743518279808463e-01,-1.362196321205756955e-01,-1.594388875956738172e-01,-1.826581430707719667e-01,-2.051034233633668158e-01,-2.283226788384649097e-01,-2.515419343135630315e-01,-2.732132394236546080e-01,-2.732132394236546635e-01,-2.732132394236546635e-01,-2.732132394236546635e-01,-2.732132394236546635e-01,-2.732132394236546635e-01,-2.732132394236546635e-01,-2.732132394236546635e-01,-2.732132394236546635e-01,-2.732132394236546635e-01,-2.732132394236547190e-01,-2.732132394236546635e-01,-2.732132394236546080e-01,-2.732132394236546635e-01,-2.732132394236546080e-01,-2.732132394236547190e-01,-2.732132394236546635e-01,-2.732132394236546635e-01,-2.732132394236546635e-01,-2.732132394236546635e-01,-1.896239197133013921e-01,-5.030838686271262017e-02,2.399323065760139775e-02,2.399323065760139775e-02,2.399323065760139775e-02,2.399323065760139775e-02,2.399323065760139775e-02,2.399323065760139775e-02,2.399323065760139775e-02,2.399323065760139775e-02,2.399323065760139775e-02,2.399323065760139775e-02,2.399323065760139775e-02
2.399323065760139775e-02,2.399323065760139775e-02,1.083565255504579175e-02,-1.238360292005233690e-02,-3.560285839515046902e-02,-5.804813868774533203e-02,-8.126739416284343986e-02,-1.044866496379415755e-01,-1.269319299305364523e-01,-1.501511854056345463e-01,-1.733704408807326958e-01,-1.958157211733275727e-01,-2.190349766484256666e-01,-2.422542321235238161e-01,-2.646995124161186652e-01,-2.732132394236546635e-01,-2.732132394236546635e-01,-2.732132394236546635e-01,-2.732132394236546635e-01,-2.732132394236547190e-01,-2.732132394236546635e-01,-2.732132394236546080e-01,-2.732132394236546635e-01,-2.732132394236546635e-01,-2.732132394236547190e-01,-2.732132394236547190e-01,-2.732132394236546635e-01,-2.732132394236546635e-01,-2.732132394236546635e-01,-2.732132394236546635e-01,-2.732132394236546635e-01,-2.732132394236546635e-01,-2.732132394236547190e-01,-2.732132394236546635e-01,-2.453501328535369064e-01,-1.060346000029481206e-01,2.399323065760139775e-02,2.399323065760139775e-02,2.399323065760139775e-02,2.399323065760139775e-02,2.399323065760139775e-02,2.399323065760139775e-02,2.399323065760139775e-02,2.399323065760139775e-02,2.399323065760139775e-02,2.399323065760139775e-02,2.399323065760139775e-02
2.399323065760139775e-02,2.399323065760139775e-02,2.012335474508504182e-02,-3.095900730013083357e-03,-2.631515620511120854e-02,-4.876043649770607502e-02,-7.197969197280419673e-02,-9.519894744790233232e-02,-1.176442277404971815e-01,-1.408634832155953309e-01,-1.640827386906934526e-01,-1.865280189832883018e-01,-2.097472744583864512e-01,-2.329665299334845452e-01,-2.554118102260794498e-01,-2.732132394236546635e-01,-2.732132394236546635e-01,-2.732132394236546635e-01,-2.732132394236546635e-01,-2.732132394236546635e-01,-2.732132394236546635e-01,-2.732132394236546635e-01,-2.732132394236546635e-01,-2.732132394236547190e-01,-2.732132394236546635e-01,-2.732132394236546635e-01,-2.732132394236547190e-01,-2.732132394236546635e-01,-2.732132394236546635e-01,-2.732132394236546635e-01,-2.732132394236546080e-01,-2.732132394236546635e-01,-2.732132394236546080e-01,-2.732132394236546635e-01,-2.732132394236546635e-01,-1.617608131431836349e-01,-2.244528029259486648e-02,2.399323065760139775e-02,2.399323065760139775e-02,2.399323065760139775e-02,2.399323065760139775e-02,2.399323065760139775e-02,2.399323065760139775e-02,2.399323065760139775e-02,2.399323065760139775e-02,2.399323065760139775e-02,2.399323065760139775e-02
2.399323065760139775e-02,2.399323065760139775e-02,2.399323065760139775e-02,6.191801460026166715e-03,-1.702745401507196540e-02,-3.947273430766681801e-02,-6.269198978276496748e-02,-8.591124525786307531e-02,-1.083565255504579383e-01,-1.315757810255560878e-01,-1.547950365006542095e-01,-1.772403167932490586e-01,-2.004595722683472081e-01,-2.236788277434452743e-01,-2.461241080360401789e-01,-2.693433635111383007e-01,-2.732132394236546635e-01,-2.732132394236546635e-01,-2.732132394236546635e-01,-2.732132394236546635e-01,-2.732132394236546635e-01,-2.732132394236546635e-01,-2.732132394236546635e-01,-2.732132394236546635e-01,-2.732132394236546635e-01,-2.732132394236546080e-01,-2.732132394236546635e-01,-2.732132394236546080e-01,-2.732132394236547190e-01,-2.732132394236546635e-01,-2.732132394236546635e-01,-2.732132394236546635e-01,-2.732132394236546635e-01,-2.732132394236546635e-01,-2.732132394236546635e-01,-2.174870262834191492e-01,-7.817149343283037732e-02,2.399323065760139775e-02,2.399323065760139775e-02,2.399323065760139775e-02,2.399323065760139775e-02,2.399323065760139775e-02,2.399323065760139775e-02,2.399323065760139775e-02,2.399323065760139775e-02,2.399323065760139775e-02,2.399323065760139775e-02
2.399323065760139775e-02,2.399323065760139775e-02,2.399323065760139775e-02,1.547950365006541679e-02,-7.739751825032708393e-03,-3.018503211762757141e-02,-5.340428759272569659e-02,-7.662354306782381830e-02,-9.906882336041868131e-02,-1.222880788355168169e-01,-1.455073343106149386e-01,-1.679526146032098155e-01,-1.911718700783079650e-01,-2.143911255534060589e-01,-2.368364058460009081e-01,-2.600556613210990298e-01,-2.732132394236546635e-01,-2.732132394236546635e-01,-2.732132394236547190e-01,-2.732132394236546635e-01,-2.732132394236546635e-01,-2.732132394236546635e-01,-2.732132394236546635e-01,-2.732132394236546635e-01,-2.732132394236547190e-01,-2.732132394236547190e-01,-2.732132394236546635e-01,-2.732132394236546635e-01,-2.732132394236546635e-01,-2.732132394236546635e-01,-2.732132394236546635e-01,-2.732132394236546635e-01,-2.732132394236546635e-01,-2.732132394236547190e-01,-2.732132394236546635e-01,-2.732132394236546635e-01,-1.338977065730658778e-01,7.739751825032691046e-04,2.399323065760139775e-02,2.399323065760139775e-02,2.399323065760139775e-02,2.399323065760139775e-02,2.399323065760139775e-02,2.399323065760139775e-02,2.399323065760139775e-02,2.399323065760139775e-02,2.399323065760139775e-02
2.399323065760139775e-02,2.399323065760139775e-02,-5.373773811831851488e-02,-5.373773811831851488e-02,-7.618301841091337789e-02,-9.862829870350822703e-02,-1.218475541786063765e-01,-6.733584087778458904e-02,-8.978112117037942430e-02,-1.130003766454775460e-01,-1.362196321205756955e-01,-1.586649124131705446e-01,-1.818841678882686941e-01,-2.051034233633668158e-01,-2.275487036559616927e-01,-2.507679591310598144e-01,-2.732132394236546635e-01,-2.732132394236546635e-01,-2.732132394236546635e-01,-2.732132394236547190e-01,-2.732132394236546635e-01,-2.732132394236546635e-01,-2.732132394236546635e-01,-2.732132394236546635e-01,-2.732132394236547190e-01,-2.732132394236546635e-01,-2.732132394236546635e-01,-2.732132394236546635e-01,-2.732132394236546635e-01,-2.732132394236546635e-01,-2.732132394236546635e-01,-2.732132394236546635e-01,-2.732132394236546635e-01,-2.732132394236546635e-01,-2.732132394236546635e-01,-2.732132394236546635e-01,-1.896239197133013921e-01,-5.495223795773224174e-02,2.399323065760139775e-02,2.399323065760139775e-02,2.399323065760139775e-02,2.399323065760139775e-02,2.399323065760139775e-02,2.399323065760139775e-02,2.399323065760139775e-02,2.399323065760139775e-02,2.399323065760139775e-02
2.399323065760139775e-02,2.399323065760139775e-02,-5.373773811831851488e-02,-5.373773811831851488e-02,-6.689531622087412088e-02,-8.934059651346898390e-02,-1.125598519885671056e-01,-5.804813868774533203e-02,-8.049341898034018117e-02,-1.037126744554383029e-01,-1.269319299305364523e-01,-1.493772102231313015e-01,-1.725964656982293954e-01,-1.958157211733275727e-01,-2.182610014659224218e-01,-2.414802569410205435e-01,-2.646995124161186652e-01,-2.732132394236546635e-01,-2.732132394236547190e-01,-2.732132394236546635e-01,-2.732132394236547190e-01,-2.732132394236546635e-01,-2.732132394236546635e-01,-2.732132394236546635e-01,-2.732132394236546635e-01,-2.732132394236546635e-01,-2.732132394236546635e-01,-2.732132394236546635e-01,-2.732132394236547190e-01,-2.732132394236546635e-01,-2.732132394236546635e-01,-2.732132394236546635e-01,-2.732132394236546635e-01,-2.732132394236546635e-01,-2.732132394236546635e-01,-2.732132394236546635e-01,-2.453501328535369064e-01,-1.106784510979677560e-01,2.399323065760139775e-02,2.399323065760139775e-02,2.399323065760139775e-02,2.399323065760139775e-02,2.399323065760139775e-02,2.399323065760139775e-02,2.399323065760139775e-02,2.399323065760139775e-02,2.399323065760139775e-02
2.399323065760139775e-02,2.399323065760139775e-02,-5.373773811831851488e-02,-5.373773811831851488e-02,-5.760761403083486387e-02,-8.005289432342972689e-02,-1.032721497985278625e-01,-4.876043649770607502e-02,-7.120571679030093803e-02,-9.442497226539905975e-02,-1.176442277404972092e-01,-1.400895080330920583e-01,-1.633087635081901801e-01,-1.865280189832883295e-01,-2.089732992758832064e-01,-2.321925547509812726e-01,-2.554118102260793943e-01,-2.732132394236546635e-01,-2.732132394236546080e-01,-2.732132394236547190e-01,-2.732132394236546635e-01,-2.732132394236546635e-01,-2.732132394236547190e-01,-2.732132394236546635e-01,-2.732132394236546635e-01,-2.732132394236546635e-01,-2.732132394236546635e-01,-2.732132394236546635e-01,-2.732132394236546635e-01,-2.732132394236546635e-01,-2.732132394236546635e-01,-2.732132394236547190e-01,-2.732132394236546635e-01,-2.732132394236546635e-01,-2.732132394236546635e-01,-2.732132394236546635e-01,-2.732132394236546635e-01,-1.664046642382032704e-01,-2.708913138761449499e-02,2.399323065760139775e-02,2.399323065760139775e-02,2.399323065760139775e-02,2.399323065760139775e-02,2.399323065760139775e-02,2.399323065760139775e-02,2.399323065760139775e-02,2.399323065760139775e-02
2.399323065760139775e-02,2.399323065760139775e-02,-5.373773811831851488e-02,-5.373773811831851488e-02,-5.373773811831851488e-02,-7.076519213339046988e-02,-9.398444760848860546e-02,-3.947273430766683189e-02,-6.191801460026168102e-02,-8.513727007535980273e-02,-1.083565255504579383e-01,-1.308018058430528152e-01,-1.540210613181509647e-01,-1.772403167932490586e-01,-1.996855970858439355e-01,-2.229048525609420017e-01,-2.461241080360401789e-01,-2.685693883286350281e-01,-2.732132394236546635e-01,-2.732132394236547190e-01,-2.732132394236546635e-01,-2.732132394236546080e-01,-2.732132394236546635e-01,-2.732132394236546635e-01,-2.732132394236546635e-01,-2.732132394236547190e-01,-2.732132394236547190e-01,-2.732132394236546635e-01,-2.732132394236546635e-01,-2.732132394236546080e-01,-2.732132394236546635e-01,-2.732132394236546635e-01,-2.732132394236546635e-01,-2.732132394236546635e-01,-2.732132394236546635e-01,-2.732132394236546635e-01,-2.732132394236546635e-01,-2.221308773784387569e-01,-8.281534452784999889e-02,2.399323065760139775e-02,2.399323065760139775e-02,2.399323065760139775e-02,2.399323065760139775e-02,2.399323065760139775e-02,2.399323065760139775e-02,2.399323065760139775e-02,2.399323065760139775e-02
2.399323065760139775e-02,2.399323065760139775e-02,-5.373773811831851488e-02,-5.373773811831851488e-02,-5.373773811831851488e-02,-6.147748994335122674e-02,-8.469674541844934845e-02,-3.018503211762757141e-02,-5.263031241022242401e-02,-7.584956788532057348e-02,-9.906882336041869519e-02,-1.215141036530135721e-01,-1.447333591281116938e-01,-1.679526146032098155e-01,-1.903978948958046646e-01,-2.136171503709027863e-01,-2.368364058460008525e-01,-2.592816861385957572e-01,-2.732132394236546080e-01,-2.732132394236546635e-01,-2.732132394236546080e-01,-2.732132394236546635e-01,-2.732132394236547190e-01,-2.732132394236546635e-01,-2.732132394236546080e-01,-2.732132394236547190e-01,-2.732132394236546635e-01,-2.732132394236546080e-01,-2.732132394236546635e-01,-2.732132394236546635e-01,-2.732132394236546635e-01,-2.732132394236546635e-01,-2.732132394236547190e-01,-2.732132394236546635e-01,-2.732132394236546635e-01,-2.732132394236546635e-01,-2.732132394236546635e-01,-2.732132394236546635e-01,-1.385415576680855132e-01,7.739751825032691046e-04,2.399323065760139775e-02,2.399323065760139775e-02,2.399323065760139775e-02,2.399323065760139775e-02,2.399323065760139775e-02,2.399323065760139775e-02,2.399323065760139775e-02
2.399323065760139775e-02,2.399323065760139775e-02,2.399323065760139775e-02,2.399323065760139775e-02,2.399323065760139775e-02,2.399323065760139775e-02,2.321925547509810783e-03,-2.089732992758831440e-02,-4.334261022018318088e-02,-6.656186569528130259e-02,-8.978112117037943818e-02,-1.122264014629743012e-01,-1.354456569380724229e-01,-1.578909372306672998e-01,-1.811101927057653938e-01,-2.043294481808635710e-01,-2.267747284734583646e-01,-2.499939839485565418e-01,-2.732132394236546635e-01,-2.732132394236546635e-01,-2.732132394236546080e-01,-2.732132394236546635e-01,-2.732132394236546635e-01,-2.732132394236546635e-01,-2.732132394236546080e-01,-2.732132394236546635e-01,-2.732132394236546635e-01,-2.732132394236546635e-01,-2.732132394236546635e-01,-2.732132394236547190e-01,-2.732132394236546635e-01,-2.732132394236546635e-01,-2.732132394236546635e-01,-2.732132394236546635e-01,-2.732132394236546635e-01,-2.732132394236546635e-01,-2.732132394236546635e-01,-2.732132394236546635e-01,-1.942677708083210275e-01,-5.495223795773224174e-02,2.399323065760139775e-02,2.399323065760139775e-02,2.399323065760139775e-02,2.399323065760139775e-02,2.399323065760139775e-02,2.399323065760139775e-02,2.399323065760139775e-02
2.399323065760139775e-02,2.399323065760139775e-02,2.399323065760139775e-02,2.399323065760139775e-02,2.399323065760139775e-02,2.399323065760139775e-02,1.160962773754906259e-02,-1.160962773754906432e-02,-3.405490803014392387e-02,-5.727416350524205946e-02,-8.049341898034018117e-02,-1.029386992729350303e-01,-1.261579547480331798e-01,-1.486032350406280289e-01,-1.718224905157261506e-01,-1.950417459908243001e-01,-2.174870262834191215e-01,-2.407062817585172709e-01,-2.639255372336154482e-01,-2.732132394236546635e-01,-2.732132394236546635e-01,-2.732132394236546635e-01,-2.732132394236546635e-01,-2.732132394236547190e-01,-2.732132394236546635e-01,-2.732132394236546635e-01,-2.732132394236547190e-01,-2.732132394236546635e-01,-2.732132394236546635e-01,-2.732132394236546635e-01,-2.732132394236546635e-01,-2.732132394236546635e-01,-2.732132394236546635e-01,-2.732132394236546635e-01,-2.732132394236546635e-01,-2.732132394236546635e-01,-2.732132394236547190e-01,-2.732132394236546635e-01,-2.499939839485565418e-01,-1.106784510979677560e-01,2.399323065760139775e-02,2.399323065760139775e-02,2.399323065760139775e-02,2.399323065760139775e-02,2.399323065760139775e-02,2.399323065760139775e-02,2.399323065760139775e-02
2.399323065760139775e-02,2.399323065760139775e-02,2.399323065760139775e-02,2.399323065760139775e-02,2.399323065760139775e-02,2.399323065760139775e-02,2.089732992758831440e-02,-2.321925547509814253e-03,-2.476720584010467727e-02,-4.798646131520281632e-02,-7.120571679030093803e-02,-9.365099708289578717e-02,-1.168702525579939366e-01,-1.393155328505887858e-01,-1.625347883256869075e-01,-1.857540438007850292e-01,-2.081993240933798783e-01,-2.314185795684780000e-01,-2.546378350435761773e-01,-2.732132394236546635e-01,-2.732132394236546635e-01,-2.732132394236546635e-01,-2.732132394236546635e-01,-2.732132394236546635e-01,-2.732132394236546635e-01,-2.732132394236546635e-01,-2.732132394236547190e-01,-2.732132394236546635e-01,-2.732132394236546635e-01,-2.732132394236546635e-01,-2.732132394236546635e-01,-2.732132394236546635e-01,-2.732132394236546635e-01,-2.732132394236546635e-01,-2.732132394236547190e-01,-2.732132394236546635e-01,-2.732132394236546635e-01,-2.732132394236546635e-01,-2.732132394236546635e-01,-1.664046642382032704e-01,-3.173298248263412003e-02,2.399323065760139775e-02,2.399323065760139775e-02,2.399323065760139775e-02,2.399323065760139775e-02,2.399323065760139775e-02,2.399323065760139775e-02
2.399323065760139775e-02,2.399323065760139775e-02,2.399323065760139775e-02,2.399323065760139775e-02,2.399323065760139775e-02,2.399323065760139775e-02,2.399323065760139775e-02,6.965776642529435819e-03,-1.547950365006542026e-02,-3.869875912516354544e-02,-6.114403941775840845e-02,-8.436329489285654404e-02,-1.075825503679546657e-01,-1.300278306605495149e-01,-1.532470861356476366e-01,-1.764663416107457861e-01,-1.989116219033406630e-01,-2.221308773784387569e-01,-2.453501328535369064e-01,-2.677954131461317555e-01,-2.732132394236546635e-01,-2.732132394236546635e-01,-2.732132394236546635e-01,-2.732132394236546635e-01,-2.732132394236546635e-01,-2.732132394236547190e-01,-2.732132394236546635e-01,-2.732132394236546635e-01,-2.732132394236546080e-01,-2.732132394236546635e-01,-2.732132394236546635e-01,-2.732132394236546635e-01,-2.732132394236547190e-01,-2.732132394236546635e-01,-2.732132394236546635e-01,-2.732132394236546635e-01,-2.732132394236546635e-01,-2.732132394236546635e-01,-2.732132394236546635e-01,-2.221308773784388124e-01,-8.745919562286963433e-02,2.399323065760139775e-02,2.399323065760139775e-02,2.399323065760139775e-02,2.399323065760139775e-02,2.399323065760139775e-02,2.399323065760139775e-02
2.399323065760139775e-02,2.399323065760139775e-02,2.399323065760139775e-02,2.399323065760139775e-02,2.399323065760139775e-02,2.399323065760139775e-02,2.399323065760139775e-02,1.625347883256868936e-02,-6.191801460026166715e-03,-2.941105693512429883e-02,-5.185633722771916532e-02,-7.507559270281728703e-02,-9.829484817791540874e-02,-1.207401284705102718e-01,-1.439593839456083935e-01,-1.671786394207065429e-01,-1.896239197133014198e-01,-2.128431751883995138e-01,-2.360624306634976355e-01,-2.585077109560925401e-01,-2.732132394236546635e-01,-2.732132394236546635e-01,-2.732132394236546080e-01,-2.732132394236546080e-01,-2.732132394236546635e-01,-2.732132394236546635e-01,-2.732132394236546635e-01,-2.732132394236546635e-01,-2.732132394236546635e-01,-2.732132394236546635e-01,-2.732132394236546635e-01,-2.732132394236546635e-01,-2.732132394236546635e-01,-2.732132394236546635e-01,-2.732132394236547190e-01,-2.732132394236546635e-01,-2.732132394236546635e-01,-2.732132394236546635e-01,-2.732132394236546635e-01,-2.732132394236546635e-01,-1.431854087631051486e-01,-3.869875912516359401e-03,2.399323065760139775e-02,2.399323065760139775e-02,2.399323065760139775e-02,2.399323065760139775e-02,2.399323065760139775e-02
2.399323065760139775e-02,2.399323065760139775e-02,2.399323065760139775e-02,2.399323065760139775e-02,2.399323065760139775e-02,2.399323065760139775e-02,2.399323065760139775e-02,2.399323065760139775e-02,3.095900730013083357e-03,-2.012335474508504182e-02,-4.256863503767990831e-02,-6.578789051277804389e-02,-8.900714598787616560e-02,-1.114524262804710286e-01,-1.346716817555691781e-01,-1.578909372306672720e-01,-1.803362175232621212e-01,-2.035554729983602706e-01,-2.267747284734584201e-01,-2.492200087660533248e-01,-2.724392642411513910e-01,-2.732132394236546635e-01,-2.732132394236546635e-01,-2.732132394236546635e-01,-2.732132394236546635e-01,-2.732132394236546635e-01,-2.732132394236546635e-01,-2.732132394236546635e-01,-2.732132394236547190e-01,-2.732132394236546635e-01,-2.732132394236546635e-01,-2.732132394236546635e-01,-2.732132394236546635e-01,-2.732132394236546635e-01,-2.732132394236546635e-01,-2.732132394236546635e-01,-2.732132394236546635e-01,-2.732132394236547190e-01,-2.732132394236546635e-01,-2.732132394236546635e-01,-1.989116219033406630e-01,-5.959608905275186330e-02,2.399323065760139775e-02,2.399323065760139775e-02,2.399323065760139775e-02,2.399323065760139775e-02,2.399323065760139775e-02
2.399323065760139775e-02,2.399323065760139775e-02,2.399323065760139775e-02,2.399323065760139775e-02,2.399323065760139775e-02,2.399323065760139775e-02,2.399323065760139775e-02,2.399323065760139775e-02,1.238360292005233343e-02,-1.083565255504579869e-02,-3.328093284764066517e-02,-5.650018832273878688e-02,-7.971944379783690859e-02,-1.021647240904317577e-01,-1.253839795655299350e-01,-1.486032350406280289e-01,-1.710485153332229058e-01,-1.942677708083210275e-01,-2.174870262834191215e-01,-2.399323065760139984e-01,-2.631515620511121201e-01,-2.732132394236546635e-01,-2.732132394236546635e-01,-2.732132394236546635e-01,-2.732132394236546635e-01,-2.732132394236546635e-01,-2.732132394236546080e-01,-2.732132394236546635e-01,-2.732132394236546635e-01,-2.732132394236546635e-01,-2.732132394236546635e-01,-2.732132394236546635e-01,-2.732132394236546635e-01,-2.732132394236546635e-01,-2.732132394236546635e-01,-2.732132394236546635e-01,-2.732132394236546635e-01,-2.732132394236546635e-01,-2.732132394236546635e-01,-2.732132394236546635e-01,-2.546378350435761218e-01,-1.153223021929873915e-01,2.399323065760139775e-02,2.399323065760139775e-02,2.399323065760139775e-02,2.399323065760139775e-02,2.399323065760139775e-02
2.399323065760139775e-02,2.399323065760139775e-02,2.399323065760139775e-02,2.399323065760139775e-02,2.399323065760139775e-02,2.399323065760139775e-02,2.399323065760139775e-02,2.399323065760139775e-02,2.167130511009158350e-02,-1.547950365006541679e-03,-2.399323065760140469e-02,-4.721248613269952987e-02,-7.043174160779766546e-02,-9.287702190039251460e-02,-1.160962773754906641e-01,-1.393155328505887858e-01,-1.617608131431836349e-01,-1.849800686182817844e-01,-2.081993240933799061e-01,-2.306446043859747275e-01,-2.538638598610728492e-01,-2.732132394236547190e-01,-2.732132394236547190e-01,-2.732132394236546635e-01,-2.732132394236546635e-01,-2.732132394236546635e-01,-2.732132394236546635e-01,-2.732132394236546635e-01,-2.732132394236546635e-01,-2.732132394236546635e-01,-2.732132394236546635e-01,-2.732132394236546635e-01,-2.732132394236546635e-01,-2.732132394236546635e-01,-2.732132394236546635e-01,-2.732132394236546080e-01,-2.732132394236546635e-01,-2.732132394236546635e-01,-2.732132394236546635e-01,-2.732132394236546635e-01,-2.732132394236546635e-01,-1.710485153332229058e-01,-3.173298248263412003e-02,2.399323065760139775e-02,2.399323065760139775e-02,2.399323065760139775e-02,2.399323065760139775e-02
2.399323065760139775e-02,2.399323065760139775e-02,2.399323065760139775e-02,2.399323065760139775e-02,2.399323065760139775e-02,2.399323065760139775e-02,2.399323065760139775e-02,2.399323065760139775e-02,2.399323065760139775e-02,7.739751825032708393e-03,-1.470552846756214768e-02,-3.792478394266028674e-02,-6.114403941775840845e-02,-8.358931971035327146e-02,-1.068085751854513932e-01,-1.300278306605495149e-01,-1.524731109531443640e-01,-1.756923664282425135e-01,-1.989116219033406630e-01,-2.213569021959354843e-01,-2.445761576710336338e-01,-2.677954131461317555e-01,-2.732132394236546635e-01,-2.732132394236546635e-01,-2.732132394236546635e-01,-2.732132394236546635e-01,-2.732132394236546635e-01,-2.732132394236546635e-01,-2.732132394236547190e-01,-2.732132394236546635e-01,-2.732132394236546080e-01,-2.732132394236546080e-01,-2.732132394236546635e-01,-2.732132394236546635e-01,-2.732132394236546635e-01,-2.732132394236547190e-01,-2.732132394236546635e-01,-2.732132394236546635e-01,-2.732132394236546635e-01,-2.732132394236546635e-01,-2.732132394236546635e-01,-2.267747284734584201e-01,-8.745919562286963433e-02,2.399323065760139775e-02,2.399323065760139775e-02,2.399323065760139775e-02,2.399323065760139775e-02
2.399323065760139775e-02,2.399323065760139775e-02,2.399323065760139775e-02,2.399323065760139775e-02,2.399323065760139775e-02,2.399323065760139775e-02,2.399323065760139775e-02,2.399323065760139775e-02,2.399323065760139775e-02,1.702745401507195847e-02,-5.417826277522897610e-03,-2.863708175262102626e-02,-5.185633722771916532e-02,-7.430161752031401445e-02,-9.752087299541213616e-02,-1.207401284705102995e-01,-1.431854087631051486e-01,-1.664046642382032704e-01,-1.896239197133013921e-01,-2.120692000058962412e-01,-2.352884554809943629e-01,-2.585077109560924846e-01,-2.732132394236546635e-01,-2.732132394236547190e-01,-2.732132394236546635e-01,-2.732132394236546635e-01,-2.732132394236546635e-01,-2.732132394236546635e-01,-2.732132394236546635e-01,-2.732132394236546635e-01,-2.732132394236546635e-01,-2.732132394236547190e-01,-2.732132394236546635e-01,-2.732132394236546635e-01,-2.732132394236546635e-01,-2.732132394236546635e-01,-2.732132394236546635e-01,-2.732132394236546635e-01,-2.732132394236546635e-01,-2.732132394236546635e-01,-2.732132394236546635e-01,-2.732132394236546635e-01,-1.431854087631051209e-01,-8.513727007535980967e-03,2.399323065760139775e-02,2.399323065760139775e-02,2.399323065760139775e-02
2.399323065760139775e-02,2.399323065760139775e-02,2.399323065760139775e-02,2.399323065760139775e-02,2.399323065760139775e-02,2.399323065760139775e-02,2.399323065760139775e-02,2.399323065760139775e-02,2.399323065760139775e-02,2.399323065760139775e-02,3.869875912516352462e-03,-1.934937956258177619e-02,-4.256863503767992218e-02,-6.501391533027475744e-02,-8.823317080537289303e-02,-1.114524262804710286e-01,-1.338977065730658778e-01,-1.571169620481640272e-01,-1.803362175232621489e-01,-2.027814978158569981e-01,-2.260007532909550920e-01,-2.492200087660533248e-01,-2.716652890586481184e-01,-2.732132394236546635e-01,-2.732132394236546635e-01,-2.732132394236546635e-01,-2.732132394236546635e-01,-2.732132394236546635e-01,-2.732132394236546635e-01,-2.732132394236546635e-01,-2.732132394236546635e-01,-2.732132394236546635e-01,-2.732132394236546635e-01,-2.732132394236546635e-01,-2.732132394236546635e-01,-2.732132394236546635e-01,-2.732132394236546635e-01,-2.732132394236546635e-01,-2.732132394236546635e-01,-2.732132394236546635e-01,-2.732132394236546635e-01,-2.732132394236546635e-01,-1.989116219033406630e-01,-6.423994014777149875e-02,2.399323065760139775e-02,2.399323065760139775e-02,2.399323065760139775e-02
2.399323065760139775e-02,2.399323065760139775e-02,2.399323065760139775e-02,2.399323065760139775e-02,2.399323065760139775e-02,2.399323065760139775e-02,2.399323065760139775e-02,2.399323065760139775e-02,2.399323065760139775e-02,2.399323065760139775e-02,1.315757810255560600e-02,-1.006167737254252612e-02,-3.328093284764065130e-02,-5.572621314023551431e-02,-7.894546861533363602e-02,-1.021647240904317855e-01,-1.246100043830266346e-01,-1.478292598581247841e-01,-1.710485153332228780e-01,-1.934937956258177549e-01,-2.167130511009158766e-01,-2.399323065760139984e-01,-2.623775868686088475e-01,-2.732132394236546080e-01,-2.732132394236546635e-01,-2.732132394236546635e-01,-2.732132394236546635e-01,-2.732132394236546635e-01,-2.732132394236546635e-01,-2.732132394236546080e-01,-2.732132394236546635e-01,-2.732132394236546635e-01,-2.732132394236546635e-01,-2.732132394236546635e-01,-2.732132394236547190e-01,-2.732132394236546635e-01,-2.732132394236546635e-01,-2.732132394236546080e-01,-2.732132394236546635e-01,-2.732132394236546635e-01,-2.732132394236547190e-01,-2.732132394236546635e-01,-2.546378350435761218e-01,-1.199661532880069992e-01,1.934937956258177272e-02,2.399323065760139775e-02,2.399323065760139775e-02
2.399323065760139775e-02,2.399323065760139775e-02,2.399323065760139775e-02,2.399323065760139775e-02,2.399323065760139775e-02,2.399323065760139775e-02,2.399323065760139775e-02,2.399323065760139775e-02,2.399323065760139775e-02,2.399323065760139775e-02,2.244528029259485608e-02,-7.739751825032725741e-04,-2.399323065760140469e-02,-4.643851095019625730e-02,-6.965776642529439289e-02,-9.287702190039251460e-02,-1.153223021929873915e-01,-1.385415576680855132e-01,-1.617608131431836349e-01,-1.842060934357784840e-01,-2.074253489108766613e-01,-2.306446043859747830e-01,-2.530898846785696321e-01,-2.732132394236546080e-01,-2.732132394236546635e-01,-2.732132394236546635e-01,-2.732132394236546635e-01,-2.732132394236546635e-01,-2.732132394236546635e-01,-2.732132394236546635e-01,-2.732132394236546635e-01,-2.732132394236546635e-01,-2.732132394236546635e-01,-2.732132394236546635e-01,-2.732132394236546635e-01,-2.732132394236546635e-01,-2.732132394236546635e-01,-2.732132394236546635e-01,-2.732132394236546635e-01,-2.732132394236546635e-01,-2.732132394236546635e-01,-2.732132394236546635e-01,-2.732132394236546635e-01,-1.756923664282425412e-01,-3.637683357765374159e-02,2.399323065760139775e-02,2.399323065760139775e-02
2.399323065760139775e-02,2.399323065760139775e-02,2.399323065760139775e-02,2.399323065760139775e-02,2.399323065760139775e-02,2.399323065760139775e-02,2.399323065760139775e-02,2.399323065760139775e-02,2.399323065760139775e-02,2.399323065760139775e-02,2.399323065760139775e-02,8.513727007535979233e-03,-1.470552846756214768e-02,-3.715080876015701417e-02,-6.037006423525514975e-02,-8.358931971035325759e-02,-1.060346000029481206e-01,-1.292538554780462701e-01,-1.524731109531443640e-01,-1.749183912457392409e-01,-1.981376467208373904e-01,-2.213569021959355121e-01,-2.438021824885303612e-01,-2.670214379636285384e-01,-2.732132394236546635e-01,-2.732132394236546635e-01,-2.732132394236546635e-01,-2.732132394236547190e-01,-2.732132394236546635e-01,-2.732132394236546635e-01,-2.732132394236546635e-01,-2.732132394236546635e-01,-2.732132394236546635e-01,-2.732132394236547190e-01,-2.732132394236546635e-01,-2.732132394236546635e-01,-2.732132394236546635e-01,-2.732132394236546635e-01,-2.732132394236546635e-01,-2.732132394236546635e-01,-2.732132394236547190e-01,-2.732132394236546635e-01,-2.732132394236547190e-01,-2.314185795684780000e-01,-9.210304671788925590e-02,2.399323065760139775e-02,2.399323065760139775e-02
2.399323065760139775e-02,2.399323065760139775e-02,2.399323065760139775e-02,2.399323065760139775e-02,2.399323065760139775e-02,2.399323065760139775e-02,2.399323065760139775e-02,2.399323065760139775e-02,2.399323065760139775e-02,2.399323065760139775e-02,2.399323065760139775e-02,1.780142919757523104e-02,-5.417826277522897610e-03,-2.786310657011776062e-02,-5.108236204521587887e-02,-7.430161752031401445e-02,-9.674689781290886359e-02,-1.199661532880070269e-01,-1.431854087631051209e-01,-1.656306890556999978e-01,-1.888499445307981195e-01,-2.120692000058962412e-01,-2.345144802984910903e-01,-2.577337357735892676e-01,-2.732132394236546635e-01,-2.732132394236546635e-01,-2.732132394236546080e-01,-2.732132394236546635e-01,-2.732132394236546635e-01,-2.732132394236547190e-01,-2.732132394236546635e-01,-2.732132394236546635e-01,-2.732132394236546080e-01,-2.732132394236546635e-01,-2.732132394236546635e-01,-2.732132394236546635e-01,-2.732132394236546635e-01,-2.732132394236546635e-01,-2.732132394236546635e-01,-2.732132394236546635e-01,-2.732132394236546635e-01,-2.732132394236547190e-01,-2.732132394236546635e-01,-2.732132394236546635e-01,-1.478292598581247563e-01,-1.315757810255560947e-02,2.399323065760139775e-02
2.399323065760139775e-02,2.399323065760139775e-02,2.399323065760139775e-02,2.399323065760139775e-02,2.399323065760139775e-02,2.399323065760139775e-02,2.399323065760139775e-02,2.399323065760139775e-02,2.399323065760139775e-02,2.399323065760139775e-02,2.399323065760139775e-02,2.399323065760139775e-02,3.869875912516352462e-03,-1.857540438007850361e-02,-4.179465985517663573e-02,-6.501391533027475744e-02,-8.745919562286962046e-02,-1.106784510979677560e-01,-1.338977065730658778e-01,-1.563429868656607269e-01,-1.795622423407588764e-01,-2.027814978158569981e-01,-2.252267781084518472e-01,-2.484460335835499967e-01,-2.716652890586481184e-01,-2.732132394236546635e-01,-2.732132394236546635e-01,-2.732132394236546080e-01,-2.732132394236546635e-01,-2.732132394236546635e-01,-2.732132394236546635e-01,-2.732132394236546635e-01,-2.732132394236546635e-01,-2.732132394236546635e-01,-2.732132394236546635e-01,-2.732132394236546635e-01,-2.732132394236547190e-01,-2.732132394236546635e-01,-2.732132394236546635e-01,-2.732132394236546635e-01,-2.732132394236546635e-01,-2.732132394236546635e-01,-2.732132394236546635e-01,-2.732132394236546635e-01,-2.035554729983602706e-01,-6.888379124279113419e-02,2.399323065760139775e-02
2.399323065760139775e-02,2.399323065760139775e-02,2.399323065760139775e-02,2.399323065760139775e-02,2.399323065760139775e-02,2.399323065760139775e-02,2.399323065760139775e-02,2.399323065760139775e-02,2.399323065760139775e-02,2.399323065760139775e-02,2.399323065760139775e-02,2.399323065760139775e-02,1.315757810255560427e-02,-9.287702190039253541e-03,-3.250695766513737872e-02,-5.572621314023551431e-02,-7.817149343283037732e-02,-1.013907489079284852e-01,-1.246100043830266346e-01,-1.470552846756214838e-01,-1.702745401507196332e-01,-1.934937956258177549e-01,-2.159390759184126041e-01,-2.391583313935107258e-01,-2.623775868686089030e-01,-2.732132394236546635e-01,-2.732132394236546635e-01,-2.732132394236546635e-01,-2.732132394236546635e-01,-2.732132394236546635e-01,-2.732132394236546080e-01,-2.732132394236547190e-01,-2.732132394236546635e-01,-2.732132394236546635e-01,-2.732132394236546635e-01,-2.732132394236546635e-01,-2.732132394236546635e-01,-2.732132394236546635e-01,-2.732132394236546080e-01,-2.732132394236546635e-01,-2.732132394236546080e-01,-2.732132394236546635e-01,-2.732132394236546080e-01,-2.732132394236546635e-01,-2.592816861385958127e-01,-1.246100043830266346e-01,1.470552846756214595e-02
2.399323065760139775e-02,2.399323065760139775e-02,2.399323065760139775e-02,2.399323065760139775e-02,2.399323065760139775e-02,2.399323065760139775e-02,2.399323065760139775e-02,2.399323065760139775e-02,2.399323065760139775e-02,2.399323065760139775e-02,2.399323065760139775e-02,2.399323065760139775e-02,2.244528029259485608e-02,0.000000000000000000e+00,-2.321925547509812518e-02,-4.643851095019627118e-02,-6.888379124279112031e-02,-9.210304671788924202e-02,-1.153223021929873915e-01,-1.377675824855822129e-01,-1.609868379606803623e-01,-1.842060934357784840e-01,-2.066513737283733609e-01,-2.298706292034714549e-01,-2.530898846785696321e-01,-2.732132394236546635e-01,-2.732132394236547190e-01,-2.732132394236546635e-01,-2.732132394236546635e-01,-2.732132394236546635e-01,-2.732132394236546080e-01,-2.732132394236546635e-01,-2.732132394236546635e-01,-2.732132394236546635e-01,-2.732132394236547190e-01,-2.732132394236546635e-01,-2.732132394236546635e-01,-2.732132394236546080e-01,-2.732132394236546635e-01,-2.732132394236546635e-01,-2.732132394236546635e-01,-2.732132394236546635e-01,-2.732132394236546635e-01,-2.732132394236546635e-01,-2.732132394236546635e-01,-1.803362175232621489e-01,-4.102068467267337704e-02
2.399323065760139775e-02,2.399323065760139775e-02,2.399323065760139775e-02,2.399323065760139775e-02,2.399323065760139775e-02,2.399323065760139775e-02,2.399323065760139775e-02,2.399323065760139775e-02,2.399323065760139775e-02,2.399323065760139775e-02,2.399323065760139775e-02,2.399323065760139775e-02,2.399323065760139775e-02,9.287702190039250072e-03,-1.393155328505887511e-02,-3.715080876015701417e-02,-5.959608905275187718e-02,-8.281534452784998501e-02,-1.060346000029481206e-01,-1.284798802955430252e-01,-1.516991357706411192e-01,-1.749183912457392687e-01,-1.973636715383341178e-01,-2.205829270134322118e-01,-2.438021824885303612e-01,-2.662474627811252104e-01,-2.732132394236547190e-01,-2.732132394236546635e-01,-2.732132394236546635e-01,-2.732132394236546635e-01,-2.732132394236547190e-01,-2.732132394236546635e-01,-2.732132394236546635e-01,-2.732132394236546635e-01,-2.732132394236546635e-01,-2.732132394236546635e-01,-2.732132394236546635e-01,-2.732132394236546635e-01,-2.732132394236546635e-01,-2.732132394236546635e-01,-2.732132394236546635e-01,-2.732132394236546080e-01,-2.732132394236546635e-01,-2.732132394236546635e-01,-2.732132394236546635e-01,-2.360624306634976910e-01,-9.674689781290887747e-02
2.399323065760139775e-02,2.399323065760139775e-02,2.399323065760139775e-02,2.399323065760139775e-02,2.399323065760139775e-02,2.399323065760139775e-02,2.399323065760139775e-02,2.399323065760139775e-02,2.399323065760139775e-02,2.399323065760139775e-02,2.399323065760139775e-02,2.399323065760139775e-02,2.399323065760139775e-02,1.857540438007850014e-02,-4.643851095019628505e-03,-2.786310657011775369e-02,-5.030838686271262017e-02,-7.352764233781074188e-02,-9.674689781290887747e-02,-1.191921781055037266e-01,-1.424114335806018761e-01,-1.656306890556999978e-01,-1.880759693482948747e-01,-2.112952248233929686e-01,-2.345144802984910903e-01,-2.569597605910859950e-01,-2.732132394236546635e-01,-2.732132394236546635e-01,-2.732132394236546635e-01,-2.732132394236547190e-01,-2.732132394236546635e-01,-2.732132394236546635e-01,-2.732132394236547190e-01,-2.732132394236546635e-01,-2.732132394236546635e-01,-2.732132394236547190e-01,-2.732132394236546635e-01,-2.732132394236546635e-01,-2.732132394236546635e-01,-2.732132394236546635e-01,-2.732132394236547190e-01,-2.732132394236546635e-01,-2.732132394236546635e-01,-2.732132394236546635e-01,-2.732132394236546635e-01,-2.732132394236546635e-01,-1.524731109531444195e-01
2.399323065760139775e-02,2.399323065760139775e-02,2.399323065760139775e-02,2.399323065760139775e-02,2.399323065760139775e-02,2.399323065760139775e-02,2.399323065760139775e-02,2.399323065760139775e-02,2.399323065760139775e-02,2.399323065760139775e-02,2.399323065760139775e-02,2.399323065760139775e-02,2.399323065760139775e-02,2.399323065760139775e-02,4.643851095019625036e-03,-1.857540438007850361e-02,-4.102068467267336316e-02,-6.423994014777149875e-02,-8.745919562286962046e-02,-1.099044759154644835e-01,-1.331237313905626052e-01,-1.563429868656607269e-01,-1.787882671582556038e-01,-2.020075226333537532e-01,-2.252267781084518472e-01,-2.476720584010467241e-01,-2.708913138761448458e-01,-2.732132394236546635e-01,-2.732132394236547190e-01,-2.732132394236547190e-01,-2.732132394236546635e-01,-2.732132394236547190e-01,-2.732132394236546635e-01,-2.732132394236546635e-01,-2.732132394236546635e-01,-2.732132394236546635e-01,-2.732132394236546635e-01,-2.732132394236546635e-01,-2.732132394236547190e-01,-2.732132394236546635e-01,-2.732132394236546635e-01,-2.732132394236546635e-01,-2.732132394236546635e-01,-2.732132394236546635e-01,-2.732132394236546635e-01,-2.732132394236546635e-01,-2.081993240933799061e-01
2.399323065760139775e-02,2.399323065760139775e-02,2.399323065760139775e-02,2.399323065760139775e-02,2.399323065760139775e-02,2.399323065760139775e-02,2.399323065760139775e-02,2.399323065760139775e-02,2.399323065760139775e-02,2.399323065760139775e-02,2.399323065760139775e-02,2.399323065760139775e-02,2.399323065760139775e-02,2.399323065760139775e-02,1.393155328505887511e-02,-9.287702190039253541e-03,-3.173298248263412003e-02,-5.495223795773224174e-02,-7.817149343283036345e-02,-1.006167737254252265e-01,-1.238360292005233620e-01,-1.470552846756214838e-01,-1.695005649682163607e-01,-1.927198204433144824e-01,-2.159390759184126041e-01,-2.383843562110074532e-01,-2.616036116861056304e-01,-2.732132394236546635e-01,-2.732132394236546635e-01,-2.732132394236546635e-01,-2.732132394236547190e-01,-2.732132394236546635e-01,-2.732132394236546635e-01,-2.732132394236546635e-01,-2.732132394236546635e-01,-2.732132394236546635e-01,-2.732132394236546635e-01,-2.732132394236546635e-01,-2.732132394236546635e-01,-2.732132394236546635e-01,-2.732132394236546635e-01,-2.732132394236546635e-01,-2.732132394236546635e-01,-2.732132394236546635e-01,-2.732132394236546080e-01,-2.732132394236546080e-01,-2.639255372336153926e-01
2.399323065760139775e-02,2.399323065760139775e-02,2.399323065760139775e-02,2.399323065760139775e-02,2.399323065760139775e-02,2.399323065760139775e-02,2.399323065760139775e-02,2.399323065760139775e-02,2.399323065760139775e-02,2.399323065760139775e-02,2.399323065760139775e-02,2.399323065760139775e-02,2.399323065760139775e-02,2.399323065760139775e-02,2.321925547509812518e-02,0.000000000000000000e+00,-2.244528029259485954e-02,-4.566453576769299860e-02,-6.888379124279112031e-02,-9.132907153538598333e-02,-1.145483270104841189e-01,-1.369936073030789681e-01,-1.602128627781770898e-01,-1.834321182532752392e-01,-2.058773985458700884e-01,-2.290966540209681823e-01,-2.523159094960663595e-01,-2.732132394236546635e-01,-2.732132394236546635e-01,-2.732132394236546635e-01,-2.732132394236546635e-01,-2.732132394236546635e-01,-2.732132394236546635e-01,-2.732132394236546635e-01,-2.732132394236546635e-01,-2.732132394236546635e-01,-2.732132394236547190e-01,-2.732132394236547190e-01,-2.732132394236546635e-01,-2.732132394236546635e-01,-2.732132394236546080e-01,-2.732132394236547190e-01,-2.732132394236546635e-01,-2.732132394236546635e-01,-2.732132394236546635e-01,-2.732132394236546635e-01,-2.732132394236546635e-01
2.399323065760139775e-02,2.399323065760139775e-02,2.399323065760139775e-02,2.399323065760139775e-02,2.399323065760139775e-02,2.399323065760139775e-02,2.399323065760139775e-02,2.399323065760139775e-02,2.399323065760139775e-02,2.399323065760139775e-02,2.399323065760139775e-02,2.399323065760139775e-02,2.399323065760139775e-02,2.399323065760139775e-02,2.399323065760139775e-02,9.287702190039248337e-03,-1.315757810255560947e-02,-3.637683357765374159e-02,-5.959608905275187718e-02,-8.204136934534672632e-02,-1.052606248204448480e-01,-1.277059051130397527e-01,-1.509251605881378744e-01,-1.741444160632359683e-01,-1.965896963558308452e-01,-2.198089518309289669e-01,-2.430282073060270887e-01,-2.654734875986219933e-01,-2.732132394236546635e-01,-2.732132394236546635e-01,-2.732132394236546635e-01,-2.732132394236546635e-01,-2.732132394236547190e-01,-2.732132394236546635e-01,-2.732132394236546635e-01,-2.732132394236546635e-01,-2.732132394236547190e-01,-2.732132394236546635e-01,-2.732132394236546635e-01,-2.732132394236546635e-01,-2.732132394236546635e-01,-2.732132394236546635e-01,-2.732132394236546635e-01,-2.732132394236546635e-01,-2.732132394236546635e-01,-2.453501328535369064e-01,-1.338977065730658778e-01
2.399323065760139775e-02,2.399323065760139775e-02,2.399323065760139775e-02,2.399323065760139775e-02,2.399323065760139775e-02,-2.724397694987365504e-01,-2.724397694987365504e-01,-2.724397694987365504e-01,2.399323065760139775e-02,2.399323065760139775e-02,2.399323065760139775e-02,2.399323065760139775e-02,2.399323065760139775e-02,2.399323065760139775e-02,2.399323065760139775e-02,1.857540438007850014e-02,-3.869875912516359401e-03,-2.708913138761448111e-02,-5.030838686271262017e-02,-7.275366715530748318e-02,-9.597292263040560489e-02,-1.184182029230004818e-01,-1.416374583980986035e-01,-1.648567138731967252e-01,-1.873019941657915743e-01,-2.105212496408896961e-01,-2.337405051159878733e-01,-2.561857854085827224e-01,-2.732132394236546635e-01,-2.732132394236546635e-01,-2.732132394236546635e-01,-2.732132394236546635e-01,-2.732132394236546635e-01,-2.732132394236546080e-01,-2.732132394236546635e-01,-2.732132394236546635e-01,-2.732132394236546635e-01,-2.732132394236546635e-01,-2.732132394236546635e-01,-2.732132394236546635e-01,-2.732132394236546635e-01,-2.732132394236546635e-01,-2.732132394236546635e-01,-1.989116219033406630e-01,-8.745919562286963433e-02,2.399323065760139775e-02,2.399323065760139775e-02
2.399323065760139775e-02,2.399323065760139775e-02,2.399323065760139775e-02,2.399323065760139775e-02,2.399323065760139775e-02,-2.724397694987365504e-01,-2.724397694987365504e-01,-2.724397694987365504e-01,2.399323065760139775e-02,2.399323065760139775e-02,2.399323065760139775e-02,2.399323065760139775e-02,2.399323065760139775e-02,2.399323065760139775e-02,2.399323065760139775e-02,2.399323065760139775e-02,5.417826277522897610e-03,-1.780142919757523104e-02,-4.024670949017009058e-02,-6.346596496526822617e-02,-8.668522044036634788e-02,-1.091305007329612109e-01,-1.323497562080593604e-01,-1.555690116831574821e-01,-1.780142919757523035e-01,-2.012335474508504807e-01,-2.244528029259485746e-01,-2.468980832185434515e-01,-2.701173386936415732e-01,-2.732132394236546635e-01,-2.732132394236546635e-01,-2.732132394236547190e-01,-2.732132394236546635e-01,-2.732132394236546635e-01,-2.732132394236547190e-01,-2.732132394236546635e-01,-2.732132394236546635e-01,-2.732132394236546635e-01,-2.732132394236547190e-01,-2.732132394236546635e-01,-2.546378350435761773e-01,-1.431854087631051209e-01,-3.173298248263412003e-02,2.399323065760139775e-02,2.399323065760139775e-02,2.399323065760139775e-02,2.399323065760139775e-02
2.399323065760139775e-02,2.399323065760139775e-02,2.399323065760139775e-02,2.399323065760139775e-02,2.399323065760139775e-02,-2.724397694987365504e-01,-2.724397694987365504e-01,-2.724397694987365504e-01,2.399323065760139775e-02,2.399323065760139775e-02,2.399323065760139775e-02,2.399323065760139775e-02,2.399323065760139775e-02,2.399323065760139775e-02,2.399323065760139775e-02,2.399323065760139775e-02,1.470552846756214595e-02,-8.513727007535980967e-03,-3.095900730013083704e-02,-5.417826277522896916e-02,-7.739751825032709087e-02,-9.984279854292195389e-02,-1.230620540180201172e-01,-1.462813094931182112e-01,-1.687265897857130603e-01,-1.919458452608112098e-01,-2.151651007359093315e-01,-2.376103810285041806e-01,-2.608296365036023023e-01,-2.732132394236546635e-01,-2.732132394236546635e-01,-2.732132394236546635e-01,-2.732132394236546635e-01,-2.732132394236546635e-01,-2.732132394236547190e-01,-2.732132394236546635e-01,-2.732132394236546635e-01,-2.732132394236546635e-01,-1.989116219033406630e-01,-8.745919562286963433e-02,2.399323065760139775e-02,2.399323065760139775e-02,2.399323065760139775e-02,2.399323065760139775e-02,2.399323065760139775e-02,2.399323065760139775e-02,2.399323065760139775e-02
2.399323065760139775e-02,2.399323065760139775e-02,2.399323065760139775e-02,2.399323065760139775e-02,2.399323065760139775e-02,2.399323065760139775e-02,2.399323065760139775e-02,2.399323065760139775e-02,2.399323065760139775e-02,2.399323065760139775e-02,2.399323065760139775e-02,2.399323065760139775e-02,2.399323065760139775e-02,2.399323065760139775e-02,2.399323065760139775e-02,2.399323065760139775e-02,2.399323065760139775e-02,7.739751825032691046e-04,-2.167130511009158697e-02,-4.489056058518972603e-02,-6.810981606028784774e-02,-9.055509635288269688e-02,-1.137743518279808463e-01,-1.369936073030789681e-01,-1.594388875956738172e-01,-1.826581430707719667e-01,-2.058773985458700884e-01,-2.283226788384649097e-01,-2.515419343135630870e-01,-2.732132394236547190e-01,-2.732132394236546635e-01,-2.732132394236546635e-01,-2.732132394236546635e-01,-2.732132394236546635e-01,-2.732132394236546635e-01,-2.639255372336154482e-01,-1.524731109531443918e-01,-4.102068467267336316e-02,2.399323065760139775e-02,2.399323065760139775e-02,2.399323065760139775e-02,2.399323065760139775e-02,2.399323065760139775e-02,2.399323065760139775e-02,2.399323065760139775e-02,2.399323065760139775e-02,2.399323065760139775e-02
2.399323065760139775e-02,2.399323065760139775e-02,2.399323065760139775e-02,2.399323065760139775e-02,2.399323065760139775e-02,2.399323065760139775e-02,2.399323065760139775e-02,2.399323065760139775e-02,2.399323065760139775e-02,2.399323065760139775e-02,2.399323065760139775e-02,2.399323065760139775e-02,2.399323065760139775e-02,2.399323065760139775e-02,2.399323065760139775e-02,2.399323065760139775e-02,2.399323065760139775e-02,1.006167737254252091e-02,-1.238360292005233690e-02,-3.560285839515046902e-02,-5.882211387024860461e-02,-8.126739416284345374e-02,-1.044866496379415755e-01,-1.277059051130396972e-01,-1.501511854056345463e-01,-1.733704408807326958e-01,-1.965896963558308452e-01,-2.190349766484256666e-01,-2.422542321235238161e-01,-2.654734875986219933e-01,-2.732132394236546635e-01,-2.732132394236547190e-01,-2.732132394236546635e-01,-2.081993240933798783e-01,-9.674689781290887747e-02,1.470552846756214595e-02,2.399323065760139775e-02,2.399323065760139775e-02,2.399323065760139775e-02,2.399323065760139775e-02,2.399323065760139775e-02,2.399323065760139775e-02,2.399323065760139775e-02,2.399323065760139775e-02,2.399323065760139775e-02,2.399323065760139775e-02,2.399323065760139775e-02
2.399323065760139775e-02,2.399323065760139775e-02,2.399323065760139775e-02,2.399323065760139775e-02,2.399323065760139775e-02,2.399323065760139775e-02,2.399323065760139775e-02,2.399323065760139775e-02,2.399323065760139775e-02,2.399323065760139775e-02,2.399323065760139775e-02,2.399323065760139775e-02,2.399323065760139775e-02,2.399323065760139775e-02,2.399323065760139775e-02,2.399323065760139775e-02,2.399323065760139775e-02,1.934937956258177272e-02,-3.095900730013086827e-03,-2.631515620511120854e-02,-4.953441168020934759e-02,-7.197969197280421061e-02,-9.519894744790233232e-02,-1.184182029230004818e-01,-1.408634832155953309e-01,-1.640827386906934526e-01,-1.873019941657915743e-01,-2.097472744583864512e-01,-2.329665299334845452e-01,-2.561857854085827224e-01,-2.639255372336153926e-01,-1.524731109531443918e-01,-4.102068467267337704e-02,2.399323065760139775e-02,2.399323065760139775e-02,2.399323065760139775e-02,2.399323065760139775e-02,2.399323065760139775e-02,2.399323065760139775e-02,2.399323065760139775e-02,2.399323065760139775e-02,2.399323065760139775e-02,2.399323065760139775e-02,2.399323065760139775e-02,2.399323065760139775e-02,2.399323065760139775e-02,2.399323065760139775e-02
2.399323065760139775e-02,2.399323065760139775e-02,2.399323065760139775e-02,2.399323065760139775e-02,2.399323065760139775e-02,2.399323065760139775e-02,2.399323065760139775e-02,2.399323065760139775e-02,2.399323065760139775e-02,2.399323065760139775e-02,2.399323065760139775e-02,2.399323065760139775e-02,2.399323065760139775e-02,2.399323065760139775e-02,2.399323065760139775e-02,2.399323065760139775e-02,2.399323065760139775e-02,2.399323065760139775e-02,6.191801460026166715e-03,-1.702745401507195847e-02,-4.024670949017009058e-02,-6.269198978276495360e-02,-8.591124525786307531e-02,-1.091305007329612109e-01,-1.315757810255560600e-01,-1.547950365006542095e-01,-1.780142919757523590e-01,-2.004595722683472081e-01,-1.772403167932490586e-01,-9.452171916321197576e-02,5.659693522055166820e-03,2.399323065760139775e-02,2.399323065760139775e-02,2.399323065760139775e-02,2.399323065760139775e-02,2.399323065760139775e-02,2.399323065760139775e-02,2.399323065760139775e-02,2.399323065760139775e-02,2.399323065760139775e-02,2.399323065760139775e-02,2.399323065760139775e-02,2.399323065760139775e-02,2.399323065760139775e-02,2.399323065760139775e-02,2.399323065760139775e-02,2.399323065760139775e-02
