-2.146177955862219044e-01,-2.146177955862219044e-01,-2.146177955862219044e-01,-2.146177955862219044e-01,-2.146177955862219044e-01,-2.146177955862219044e-01,-2.146177955862219044e-01,-2.146177955862219044e-01,-2.146177955862219044e-01,-2.146177955862219044e-01,-2.146177955862219044e-01,-2.146177955862219044e-01,-2.146177955862219044e-01,-2.146177955862219044e-01,-2.146177955862219044e-01,-2.146177955862219044e-01,-2.146177955862219044e-01,-2.146177955862219044e-01,-2.146177955862219044e-01,-2.146177955862219044e-01,-2.146177955862219044e-01,-2.146177955862219044e-01,-2.146177955862219044e-01,-2.146177955862219044e-01,-2.146177955862219044e-01,-2.146177955862219044e-01,-2.146177955862219044e-01,-2.146177955862219044e-01,-2.146177955862219044e-01,-2.146177955862219044e-01,-2.146177955862219044e-01,-2.146177955862219044e-01,-2.146177955862219044e-01,-2.146177955862219044e-01,-2.146177955862219044e-01,-2.146177955862219044e-01,-2.146177955862219044e-01,-2.146177955862219044e-01,-2.146177955862219044e-01,-2.146177955862219044e-01,-2.146177955862219044e-01,-2.146177955862219044e-01,-2.146177955862219044e-01,-2.146177955862219044e-01,-2.146177955862219044e-01,-2.146177955862219044e-01,-2.146177955862219044e-01
-2.146177955862219044e-01,-2.146177955862219044e-01,-2.146177955862219044e-01,-2.146177955862219044e-01,-2.146177955862219044e-01,-2.146177955862219044e-01,-2.146177955862219044e-01,-2.146177955862219044e-01,-2.146177955862219044e-01,-2.146177955862219044e-01,-2.146177955862219044e-01,-2.146177955862219044e-01,-2.146177955862219044e-01,-2.146177955862219044e-01,-2.146177955862219044e-01,-2.146177955862219044e-01,-2.146177955862219044e-01,-2.146177955862219044e-01,-2.146177955862219044e-01,-2.146177955862219044e-01,-2.146177955862219044e-01,-2.146177955862219044e-01,-2.146177955862219044e-01,-2.146177955862219044e-01,-2.146177955862219044e-01,-2.146177955862219044e-01,-2.146177955862219044e-01,-2.146177955862219044e-01,-2.146177955862219044e-01,-2.146177955862219044e-01,-2.146177955862219044e-01,-2.146177955862219044e-01,-2.146177955862219044e-01,-2.146177955862219044e-01,-2.146177955862219044e-01,-2.146177955862219044e-01,-2.146177955862219044e-01,-2.146177955862219044e-01,-2.146177955862219044e-01,-2.146177955862219044e-01,-2.146177955862219044e-01,-2.146177955862219044e-01,-2.146177955862219044e-01,-2.146177955862219044e-01,-2.146177955862219044e-01,-2.146177955862219044e-01,-2.146177955862219044e-01
-2.146177955862219044e-01,-2.146177955862219044e-01,-2.146177955862219044e-01,-2.146177955862219044e-01,-2.146177955862219044e-01,-2.146177955862219044e-01,-2.146177955862219044e-01,-2.146177955862219044e-01,-2.146177955862219044e-01,-2.137603913957584756e-01,-2.119503158825579159e-01,-2.146177955862219044e-01,-2.146177955862219044e-01,-2.146177955862219044e-01,-2.146177955862219044e-01,-2.146177955862219044e-01,-2.146177955862219044e-01,-2.146177955862219044e-01,-2.146177955862219044e-01,-2.146177955862219044e-01,-2.146177955862219044e-01,-2.146177955862219044e-01,-2.146177955862219044e-01,-2.146177955862219044e-01,-2.146177955862219044e-01,-2.146177955862219044e-01,-2.146177955862219044e-01,-2.146177955862219044e-01,-2.146177955862219044e-01,-2.146177955862219044e-01,-2.146177955862219044e-01,-2.146177955862219044e-01,-2.146177955862219044e-01,-2.146177955862219044e-01,-2.146177955862219044e-01,-2.146177955862219044e-01,-2.146177955862219044e-01,-2.146177955862219044e-01,-2.146177955862219044e-01,-2.146177955862219044e-01,-2.146177955862219044e-01,-2.146177955862219044e-01,-2.146177955862219044e-01,-2.146177955862219044e-01,-2.146177955862219044e-01,-2.146177955862219044e-01,-2.146177955862219044e-01
-2.146177955862219044e-01,-2.146177955862219044e-01,-2.146177955862219044e-01,-2.146177955862219044e-01,-2.146177955862219044e-01,-2.146177955862219044e-01,-2.146177955862219044e-01,-2.146177955862219044e-01,-2.146177955862219044e-01,-2.030904725811025768e-01,-2.036430219482900927e-01,-2.097401184138077690e-01,-2.146177955862219044e-01,-2.146177955862219044e-01,-2.146177955862219044e-01,-2.146177955862219044e-01,-2.146177955862219044e-01,-2.146177955862219044e-01,-2.146177955862219044e-01,-2.146177955862219044e-01,-2.146177955862219044e-01,-2.146177955862219044e-01,-2.146177955862219044e-01,-2.146177955862219044e-01,-2.146177955862219044e-01,-2.146177955862219044e-01,-2.146177955862219044e-01,-2.146177955862219044e-01,-2.146177955862219044e-01,-2.146177955862219044e-01,-2.146177955862219044e-01,-2.146177955862219044e-01,-2.146177955862219044e-01,-2.146177955862219044e-01,-2.146177955862219044e-01,-2.146177955862219044e-01,-2.146177955862219044e-01,-2.146177955862219044e-01,-2.146177955862219044e-01,-2.146177955862219044e-01,-2.146177955862219044e-01,-2.146177955862219044e-01,-2.146177955862219044e-01,-2.146177955862219044e-01,-2.146177955862219044e-01,-2.146177955862219044e-01,-2.146177955862219044e-01
-2.146177955862219044e-01,-2.146177955862219044e-01,-2.146177955862219044e-01,-2.146177955862219044e-01,-2.146177955862219044e-01,-2.146177955862219044e-01,-2.146177955862219044e-01,-2.146177955862219044e-01,-1.993750544224277277e-01,-1.899245549008753420e-01,-1.960216513663930182e-01,-2.018138930086348093e-01,-2.079109894741524578e-01,-2.140080859396701340e-01,-2.146177955862219044e-01,-2.146177955862219044e-01,-2.146177955862219044e-01,-2.146177955862219044e-01,-2.146177955862219044e-01,-2.146177955862219044e-01,-2.146177955862219044e-01,-2.146177955862219044e-01,-2.146177955862219044e-01,-2.146177955862219044e-01,-2.146177955862219044e-01,-2.146177955862219044e-01,-2.146177955862219044e-01,-2.146177955862219044e-01,-2.146177955862219044e-01,-2.146177955862219044e-01,-2.146177955862219044e-01,-2.146177955862219044e-01,-2.146177955862219044e-01,-2.146177955862219044e-01,-2.146177955862219044e-01,-2.146177955862219044e-01,-2.146177955862219044e-01,-2.146177955862219044e-01,-2.146177955862219044e-01,-2.146177955862219044e-01,-2.146177955862219044e-01,-2.146177955862219044e-01,-2.146177955862219044e-01,-2.146177955862219044e-01,-2.146177955862219044e-01,-2.146177955862219044e-01,-2.146177955862219044e-01
-2.146177955862219044e-01,-2.146177955862219044e-01,-2.146177955862219044e-01,-2.146177955862219044e-01,-2.146177955862219044e-01,-2.146177955862219044e-01,-2.146177955862219044e-01,-1.994226879885646064e-01,-1.762060878534605912e-01,-1.823031843189782675e-01,-1.884002807844959437e-01,-1.941925224267377070e-01,-2.002896188922553833e-01,-2.060818605344971743e-01,-2.121789570000148506e-01,-2.146177955862219044e-01,-2.146177955862219044e-01,-2.146177955862219044e-01,-2.146177955862219044e-01,-2.146177955862219044e-01,-2.146177955862219044e-01,-2.146177955862219044e-01,-2.146177955862219044e-01,-2.146177955862219044e-01,-2.146177955862219044e-01,-2.146177955862219044e-01,-2.146177955862219044e-01,-2.146177955862219044e-01,-2.146177955862219044e-01,-2.146177955862219044e-01,-2.146177955862219044e-01,-2.146177955862219044e-01,-2.146177955862219044e-01,-2.146177955862219044e-01,-2.146177955862219044e-01,-2.146177955862219044e-01,-2.146177955862219044e-01,-2.146177955862219044e-01,-2.146177955862219044e-01,-2.146177955862219044e-01,-2.146177955862219044e-01,-2.146177955862219044e-01,-2.146177955862219044e-01,-2.146177955862219044e-01,-2.146177955862219044e-01,-2.146177955862219044e-01,-2.146177955862219044e-01
-2.146177955862219044e-01,-2.146177955862219044e-01,-2.146177955862219044e-01,-2.146177955862219044e-01,-2.146177955862219044e-01,-2.146177955862219044e-01,-2.055674180202191059e-01,-1.660315581266280094e-01,-1.685847172715635167e-01,-1.746818137370811930e-01,-1.804740553793229563e-01,-1.865711518448406325e-01,-1.923633934870824236e-01,-1.984604899526000721e-01,-2.045575864181177483e-01,-2.103498280603595394e-01,-2.146177955862219044e-01,-2.146177955862219044e-01,-2.146177955862219044e-01,-2.146177955862219044e-01,-2.146177955862219044e-01,-2.146177955862219044e-01,-2.146177955862219044e-01,-2.146177955862219044e-01,-2.146177955862219044e-01,-2.146177955862219044e-01,-2.146177955862219044e-01,-2.146177955862219044e-01,-2.146177955862219044e-01,-2.146177955862219044e-01,-2.146177955862219044e-01,-2.146177955862219044e-01,-2.146177955862219044e-01,-2.146177955862219044e-01,-2.146177955862219044e-01,-2.146177955862219044e-01,-2.146177955862219044e-01,-2.146177955862219044e-01,-2.146177955862219044e-01,-2.146177955862219044e-01,-2.146177955862219044e-01,-2.146177955862219044e-01,-2.146177955862219044e-01,-2.146177955862219044e-01,-2.146177955862219044e-01,-2.146177955862219044e-01,-2.146177955862219044e-01
-2.146177955862219044e-01,-2.146177955862219044e-01,-2.146177955862219044e-01,-2.146177955862219044e-01,-2.146177955862219044e-01,-2.146177955862219044e-01,-1.654599553329856865e-01,-1.548662502241487382e-01,-1.609633466896664422e-01,-2.202247635141581783e-01,-2.263218599796758546e-01,-2.321141016219176456e-01,-2.382111980874352941e-01,-1.908391193707029976e-01,-1.966313610129447886e-01,-2.027284574784624649e-01,-2.085206991207042282e-01,-2.146177955862219044e-01,-2.146177955862219044e-01,-2.146177955862219044e-01,-2.146177955862219044e-01,-2.146177955862219044e-01,-2.146177955862219044e-01,-2.146177955862219044e-01,-2.146177955862219044e-01,-2.146177955862219044e-01,-2.146177955862219044e-01,-2.146177955862219044e-01,-2.146177955862219044e-01,-2.146177955862219044e-01,-2.146177955862219044e-01,-2.146177955862219044e-01,-2.146177955862219044e-01,-2.146177955862219044e-01,-2.146177955862219044e-01,-2.146177955862219044e-01,-2.146177955862219044e-01,-2.146177955862219044e-01,-2.146177955862219044e-01,-2.146177955862219044e-01,-2.146177955862219044e-01,-2.146177955862219044e-01,-2.146177955862219044e-01,-2.146177955862219044e-01,-2.146177955862219044e-01,-2.146177955862219044e-01,-2.146177955862219044e-01
-2.146177955862219044e-01,-2.146177955862219044e-01,-2.146177955862219044e-01,-2.146177955862219044e-01,-2.146177955862219044e-01,-1.675558322430074076e-01,-1.411477831767339874e-01,-1.472448796422516637e-01,-1.533419761077693400e-01,-2.126033929322611038e-01,-2.187004893977787523e-01,-2.244927310400205434e-01,-2.305898275055382196e-01,-1.829128939655300379e-01,-1.890099904310476864e-01,-1.948022320732894774e-01,-2.008993285388071537e-01,-2.069964250043248299e-01,-2.127886666465665932e-01,-2.146177955862219044e-01,-2.146177955862219044e-01,-2.146177955862219044e-01,-2.146177955862219044e-01,-2.146177955862219044e-01,-2.146177955862219044e-01,-2.146177955862219044e-01,-2.146177955862219044e-01,-2.146177955862219044e-01,-2.146177955862219044e-01,-2.146177955862219044e-01,-2.146177955862219044e-01,-2.146177955862219044e-01,-2.146177955862219044e-01,-2.146177955862219044e-01,-2.146177955862219044e-01,-2.146177955862219044e-01,-2.146177955862219044e-01,-2.146177955862219044e-01,-2.146177955862219044e-01,-2.146177955862219044e-01,-2.146177955862219044e-01,-2.146177955862219044e-01,-2.146177955862219044e-01,-2.146177955862219044e-01,-2.146177955862219044e-01,-2.146177955862219044e-01,-2.146177955862219044e-01
-2.146177955862219044e-01,-2.146177955862219044e-01,-2.146177955862219044e-01,-2.146177955862219044e-01,-1.768443776396944889e-01,-1.274293161293192644e-01,-1.335264125948369129e-01,-1.396235090603545892e-01,-1.454157507025963803e-01,-2.049820223503640015e-01,-2.107742639926057926e-01,-2.168713604581234689e-01,-2.226636021003652599e-01,-1.752915233836329634e-01,-1.813886198491506119e-01,-1.871808614913924029e-01,-1.932779579569100514e-01,-1.990701995991518425e-01,-2.051672960646695187e-01,-2.109595377069113098e-01,-2.146177955862219044e-01,-2.146177955862219044e-01,-2.146177955862219044e-01,-2.146177955862219044e-01,-2.146177955862219044e-01,-2.146177955862219044e-01,-2.146177955862219044e-01,-2.146177955862219044e-01,-2.146177955862219044e-01,-2.146177955862219044e-01,-2.146177955862219044e-01,-2.146177955862219044e-01,-2.146177955862219044e-01,-2.146177955862219044e-01,-2.146177955862219044e-01,-2.146177955862219044e-01,-2.146177955862219044e-01,-2.146177955862219044e-01,-2.146177955862219044e-01,-2.146177955862219044e-01,-2.146177955862219044e-01,-2.146177955862219044e-01,-2.146177955862219044e-01,-2.146177955862219044e-01,-2.146177955862219044e-01,-2.146177955862219044e-01,-2.146177955862219044e-01
-2.146177955862219044e-01,-2.146177955862219044e-01,-2.146177955862219044e-01,-1.912773481791620878e-01,-1.140157039051803989e-01,-1.198079455474221761e-01,-1.259050420129398384e-01,-1.316972836551816295e-01,-1.377943801206992780e-01,-1.970557969451910418e-01,-2.031528934107087181e-01,-2.092499898762263943e-01,-2.150422315184681576e-01,-1.676701528017358611e-01,-1.734623944439776522e-01,-1.795594909094953007e-01,-1.853517325517370917e-01,-1.914488290172547680e-01,-1.972410706594965590e-01,-2.033381671250142075e-01,-2.094352635905318838e-01,-2.146177955862219044e-01,-2.146177955862219044e-01,-2.146177955862219044e-01,-2.146177955862219044e-01,-2.146177955862219044e-01,-2.146177955862219044e-01,-2.146177955862219044e-01,-2.146177955862219044e-01,-2.146177955862219044e-01,-2.146177955862219044e-01,-2.146177955862219044e-01,-2.146177955862219044e-01,-2.146177955862219044e-01,-2.146177955862219044e-01,-2.146177955862219044e-01,-2.146177955862219044e-01,-2.146177955862219044e-01,-2.146177955862219044e-01,-2.146177955862219044e-01,-2.146177955862219044e-01,-2.146177955862219044e-01,-2.146177955862219044e-01,-2.146177955862219044e-01,-2.146177955862219044e-01,-2.146177955862219044e-01,-2.146177955862219044e-01
-2.146177955862219044e-01,-2.146177955862219044e-01,-2.108547438614102321e-01,-1.181598241590869069e-01,-1.060894785000074392e-01,-1.121865749655250877e-01,-1.179788166077668787e-01,-1.240759130732845411e-01,-1.301730095388022035e-01,-1.359652511810439945e-01,-1.420623476465616708e-01,-1.478545892888034341e-01,-1.539516857543211104e-01,-1.597439273965629014e-01,-1.658410238620805499e-01,-1.716332655043223410e-01,-1.777303619698400172e-01,-1.838274584353576935e-01,-1.896197000775994568e-01,-1.957167965431171330e-01,-2.015090381853589241e-01,-2.076061346508765726e-01,-2.133983762931183636e-01,-2.146177955862219044e-01,-2.146177955862219044e-01,-2.146177955862219044e-01,-2.146177955862219044e-01,-2.146177955862219044e-01,-2.146177955862219044e-01,-2.146177955862219044e-01,-2.146177955862219044e-01,-2.146177955862219044e-01,-2.146177955862219044e-01,-2.146177955862219044e-01,-2.146177955862219044e-01,-3.289292004215960685e-01,-3.289292004215960685e-01,-3.289292004215960685e-01,-3.289292004215960685e-01,-2.146177955862219044e-01,-2.146177955862219044e-01,-2.146177955862219044e-01,-2.146177955862219044e-01,-2.146177955862219044e-01,-2.146177955862219044e-01,-2.146177955862219044e-01,-2.146177955862219044e-01
-2.146177955862219044e-01,-2.146177955862219044e-01,-1.305921849208065422e-01,-9.237101145259266066e-02,-3.401328186809783327e-01,-3.462299151464960367e-01,-3.520221567887377723e-01,-3.581192532542554208e-01,-1.222467841336292438e-01,-1.283438805991469200e-01,-1.341361222413886833e-01,-1.402332187069063596e-01,-1.460254603491481507e-01,-1.521225568146657992e-01,-1.582196532801834754e-01,-1.640118949224252665e-01,-1.701089913879429427e-01,-1.759012330301847060e-01,-1.819983294957023823e-01,-1.877905711379441733e-01,-1.938876676034618218e-01,-1.996799092457036129e-01,-2.057770057112212891e-01,-2.118741021767389654e-01,-2.146177955862219044e-01,-2.146177955862219044e-01,-2.146177955862219044e-01,-2.146177955862219044e-01,-2.146177955862219044e-01,-2.146177955862219044e-01,-2.146177955862219044e-01,-2.146177955862219044e-01,-2.146177955862219044e-01,-2.146177955862219044e-01,-2.146177955862219044e-01,-3.289292004215960685e-01,-3.289292004215960685e-01,-3.289292004215960685e-01,-3.289292004215960685e-01,-2.146177955862219044e-01,-2.146177955862219044e-01,-2.146177955862219044e-01,-2.146177955862219044e-01,-2.146177955862219044e-01,-2.146177955862219044e-01,-2.146177955862219044e-01,-2.146177955862219044e-01
-2.146177955862219044e-01,-1.481689708253066950e-01,-7.895739922845379510e-02,-8.474964087069558616e-02,-3.325114480990812305e-01,-3.383036897413230215e-01,-3.444007862068406700e-01,-3.501930278490825166e-01,-1.146254135517321693e-01,-1.204176551939739326e-01,-1.265147516594916088e-01,-1.326118481250092573e-01,-1.384040897672510484e-01,-1.445011862327687246e-01,-1.502934278750104879e-01,-1.563905243405281642e-01,-1.621827659827699553e-01,-1.682798624482876315e-01,-1.740721040905294226e-01,-1.801692005560470711e-01,-1.862662970215647473e-01,-1.920585386638065384e-01,-1.981556351293242146e-01,-2.039478767715659779e-01,-2.100449732370836542e-01,-2.146177955862219044e-01,-2.146177955862219044e-01,-2.146177955862219044e-01,-2.146177955862219044e-01,-2.146177955862219044e-01,-2.146177955862219044e-01,-2.146177955862219044e-01,-2.146177955862219044e-01,-2.146177955862219044e-01,-2.146177955862219044e-01,-3.289292004215960685e-01,-3.289292004215960685e-01,-3.289292004215960685e-01,-3.289292004215960685e-01,-2.146177955862219044e-01,-2.146177955862219044e-01,-2.146177955862219044e-01,-2.146177955862219044e-01,-2.146177955862219044e-01,-2.146177955862219044e-01,-2.146177955862219044e-01,-2.146177955862219044e-01
-1.708901818725873656e-01,-6.523893218103904434e-02,-7.103117382328083540e-02,-7.712827028879848390e-02,-3.245852226939082708e-01,-3.306823191594259193e-01,-3.364745608016677103e-01,-3.425716572671854143e-01,-1.070040429698350948e-01,-1.127962846120768581e-01,-1.188933810775945343e-01,-1.246856227198363115e-01,-1.307827191853539739e-01,-1.365749608275957372e-01,-1.426720572931134134e-01,-1.484642989353552045e-01,-1.545613954008728808e-01,-1.606584918663905293e-01,-1.664507335086323203e-01,-1.725478299741499966e-01,-1.783400716163917876e-01,-1.844371680819094361e-01,-1.902294097241512272e-01,-1.963265061896689034e-01,-2.024236026551865797e-01,-2.082158442974283430e-01,-2.143129407629460192e-01,-2.146177955862219044e-01,-2.146177955862219044e-01,-2.146177955862219044e-01,-2.146177955862219044e-01,-2.146177955862219044e-01,-2.146177955862219044e-01,-2.146177955862219044e-01,-2.146177955862219044e-01,-3.289292004215960685e-01,-3.289292004215960685e-01,-3.289292004215960685e-01,-3.289292004215960685e-01,-2.146177955862219044e-01,-2.146177955862219044e-01,-2.146177955862219044e-01,-2.146177955862219044e-01,-2.146177955862219044e-01,-2.146177955862219044e-01,-2.146177955862219044e-01,-2.146177955862219044e-01
-6.681083986355532134e-02,-5.731270677586608464e-02,-6.340980324138373314e-02,-6.920204488362552420e-02,-3.169638521120111685e-01,-3.230609485775288725e-01,-4.662551949680276420e-01,-4.723522914335452905e-01,-2.364798223129190857e-01,-2.425769187784367897e-01,-2.483691604206785808e-01,-1.170642521379392231e-01,-1.228564937801810142e-01,-1.289535902456986904e-01,-1.350506867112163389e-01,-1.408429283534581300e-01,-1.469400248189757785e-01,-1.527322664612175696e-01,-1.588293629267352458e-01,-1.646216045689770091e-01,-1.707187010344947131e-01,-1.768157975000123616e-01,-1.826080391422541527e-01,-1.887051356077718012e-01,-1.944973772500135922e-01,-2.005944737155312685e-01,-2.063867153577730595e-01,-2.124838118232907080e-01,-2.146177955862219044e-01,-2.146177955862219044e-01,-2.146177955862219044e-01,-2.146177955862219044e-01,-2.146177955862219044e-01,-2.146177955862219044e-01,-2.146177955862219044e-01,-2.146177955862219044e-01,-2.146177955862219044e-01,-2.146177955862219044e-01,-2.146177955862219044e-01,-2.146177955862219044e-01,-2.146177955862219044e-01,-2.146177955862219044e-01,-2.146177955862219044e-01,-2.146177955862219044e-01,-2.146177955862219044e-01,-2.146177955862219044e-01,-2.146177955862219044e-01
-4.359423972845133388e-02,-4.969133619396901014e-02,-5.578843265948665864e-02,-6.158067430172842194e-02,-6.767777076724609819e-02,-7.347001240948788925e-02,-2.169691136232625717e-01,-2.227613552655043627e-01,-2.288584517310220112e-01,-2.346506933732637745e-01,-2.407477898387814785e-01,-1.094428815560421347e-01,-1.152351231982839258e-01,-1.213322196638015882e-01,-1.271244613060433792e-01,-1.332215577715610277e-01,-1.390137994138028188e-01,-1.451108958793204950e-01,-1.509031375215622583e-01,-1.570002339870799346e-01,-1.630973304525976109e-01,-1.688895720948394019e-01,-1.749866685603570504e-01,-1.807789102025988415e-01,-1.868760066681165177e-01,-1.926682483103583088e-01,-1.987653447758759573e-01,-2.048624412413936335e-01,-2.106546828836354246e-01,-2.146177955862219044e-01,-2.146177955862219044e-01,-2.146177955862219044e-01,-2.146177955862219044e-01,-2.146177955862219044e-01,-2.146177955862219044e-01,-2.146177955862219044e-01,-2.146177955862219044e-01,-2.146177955862219044e-01,-2.146177955862219044e-01,-2.146177955862219044e-01,-2.146177955862219044e-01,-2.146177955862219044e-01,-2.146177955862219044e-01,-2.146177955862219044e-01,-2.146177955862219044e-01,-2.146177955862219044e-01,-2.146177955862219044e-01
-3.597286914655423162e-02,-4.206996561207190788e-02,-4.786220725431369893e-02,-5.395930371983137519e-02,-5.975154536207311073e-02,-6.584864182759081475e-02,-2.090428882180896120e-01,-2.151399846836072605e-01,-2.212370811491249367e-01,-2.270293227913667278e-01,-2.331264192568843763e-01,-1.015166561508691612e-01,-1.076137526163868513e-01,-1.134059942586286285e-01,-1.195030907241463047e-01,-1.252953323663880680e-01,-1.313924288319057443e-01,-1.374895252974233928e-01,-1.432817669396651838e-01,-1.493788634051828601e-01,-1.551711050474246234e-01,-1.612682015129422997e-01,-1.670604431551840907e-01,-1.731575396207017670e-01,-1.792546360862194432e-01,-1.850468777284612065e-01,-1.911439741939788828e-01,-1.969362158362206738e-01,-2.030333123017383223e-01,-2.088255539439801134e-01,-2.146177955862219044e-01,-2.146177955862219044e-01,-2.146177955862219044e-01,-2.146177955862219044e-01,-2.146177955862219044e-01,-2.146177955862219044e-01,-2.146177955862219044e-01,-2.146177955862219044e-01,-2.146177955862219044e-01,-2.146177955862219044e-01,-2.146177955862219044e-01,-2.146177955862219044e-01,-2.146177955862219044e-01,-2.146177955862219044e-01,-2.146177955862219044e-01,-2.146177955862219044e-01,-2.146177955862219044e-01
-2.835149856465712936e-02,-3.414374020689892042e-02,-4.024083667241665219e-02,-4.603307831465841549e-02,-5.213017478017606399e-02,-5.822727124569371249e-02,-2.014215176361925097e-01,-2.075186141017101860e-01,-4.516396146827406088e-01,-4.577367111482583129e-01,-4.635289527905001039e-01,-3.322240445077607740e-01,-3.380162861500025651e-01,-1.057846236767315540e-01,-1.118817201422492164e-01,-1.176739617844909935e-01,-1.237710582500086559e-01,-1.295632998922504331e-01,-1.356603963577681093e-01,-1.414526380000099004e-01,-1.475497344655275489e-01,-1.536468309310452252e-01,-1.594390725732869885e-01,-1.655361690388046925e-01,-1.713284106810464558e-01,-1.774255071465641320e-01,-1.832177487888059231e-01,-1.893148452543235716e-01,-1.951070868965653626e-01,-2.012041833620830389e-01,-2.073012798276007151e-01,-2.130935214698424784e-01,-2.146177955862219044e-01,-2.146177955862219044e-01,-2.146177955862219044e-01,-2.146177955862219044e-01,-2.146177955862219044e-01,-2.146177955862219044e-01,-2.146177955862219044e-01,-2.146177955862219044e-01,-2.146177955862219044e-01,-2.146177955862219044e-01,-2.146177955862219044e-01,-2.146177955862219044e-01,-2.146177955862219044e-01,-2.146177955862219044e-01,-2.146177955862219044e-01
-2.042527315948416966e-02,-2.652236962500181816e-02,-3.261946609051952217e-02,-3.841170773276131323e-02,-4.450880419827898948e-02,-5.030104584052075278e-02,-1.938001470542954352e-01,-1.995923886965371985e-01,-4.440182441008435621e-01,-4.498104857430853531e-01,-4.559075822086030017e-01,-3.246026739258636717e-01,-3.303949155681054628e-01,-9.816325309483443784e-02,-1.039554947370762428e-01,-1.100525912025939052e-01,-1.158448328448356962e-01,-1.219419293103533586e-01,-1.280390257758710071e-01,-1.338312674181127981e-01,-1.399283638836304744e-01,-1.457206055258722377e-01,-1.518177019913899140e-01,-1.576099436336317050e-01,-1.637070400991493813e-01,-1.694992817413911723e-01,-1.755963782069088208e-01,-1.816934746724264971e-01,-1.874857163146682881e-01,-1.935828127801859366e-01,-1.993750544224277277e-01,-2.054721508879454039e-01,-2.112643925301871950e-01,-2.146177955862219044e-01,-2.146177955862219044e-01,-2.146177955862219044e-01,-2.146177955862219044e-01,-2.146177955862219044e-01,-2.146177955862219044e-01,-2.146177955862219044e-01,-2.146177955862219044e-01,-2.146177955862219044e-01,-2.146177955862219044e-01,-2.146177955862219044e-01,-2.146177955862219044e-01,-2.146177955862219044e-01,-2.146177955862219044e-01
-1.280390257758712291e-02,-1.890099904310479917e-02,-2.469324068534656247e-02,-3.079033715086421097e-02,-3.658257879310600202e-02,-4.267967525862367828e-02,-4.847191690086546934e-02,-5.456901336638311784e-02,-2.989948687706894814e-01,-3.047871104129312725e-01,-3.108842068784489210e-01,-3.166764485206907120e-01,-3.227735449862083605e-01,-9.023702768966146426e-02,-9.633412415517914051e-02,-1.024312206206968306e-01,-1.082234622629386078e-01,-1.143205587284562841e-01,-1.201128003706980474e-01,-1.262098968362157514e-01,-1.320021384784574869e-01,-1.380992349439751632e-01,-1.438914765862169542e-01,-1.499885730517346305e-01,-1.560856695172522790e-01,-1.618779111594940701e-01,-1.679750076250117463e-01,-1.737672492672535096e-01,-1.798643457327712136e-01,-1.856565873750129769e-01,-1.917536838405306532e-01,-1.975459254827724442e-01,-2.036430219482900927e-01,-2.097401184138077690e-01,-2.146177955862219044e-01,-2.146177955862219044e-01,-2.146177955862219044e-01,-2.146177955862219044e-01,-2.146177955862219044e-01,-2.146177955862219044e-01,-2.146177955862219044e-01,-2.146177955862219044e-01,-2.146177955862219044e-01,-2.146177955862219044e-01,-2.146177955862219044e-01,-2.146177955862219044e-01,-2.146177955862219044e-01
-5.182531995690020654e-03,-1.097477363793178395e-02,-1.707187010344946021e-02,-2.286411174569125127e-02,-2.896120821120889977e-02,-3.505830467672660378e-02,-4.085054631896836708e-02,-4.694764278448604333e-02,-2.910686433655165217e-01,-2.971657398310341702e-01,-3.029579814732759613e-01,-3.090550779387936098e-01,-3.148473195810354008e-01,-8.261565710776436200e-02,-8.871275357328206601e-02,-9.450499521552382931e-02,-1.006020916810415194e-01,-1.063943333232833244e-01,-1.124914297888009868e-01,-1.182836714310427639e-01,-1.243807678965604263e-01,-1.304778643620780887e-01,-1.362701060043198797e-01,-1.423672024698375282e-01,-1.481594441120793193e-01,-1.542565405775969956e-01,-1.600487822198387589e-01,-1.661458786853564351e-01,-1.719381203275982262e-01,-1.780352167931159024e-01,-1.841323132586335509e-01,-1.899245549008753420e-01,-1.960216513663930182e-01,-2.018138930086348093e-01,-2.079109894741524578e-01,-2.137032311163942488e-01,-2.146177955862219044e-01,-2.146177955862219044e-01,-2.146177955862219044e-01,-2.146177955862219044e-01,-2.146177955862219044e-01,-2.146177955862219044e-01,-2.146177955862219044e-01,-2.146177955862219044e-01,-2.146177955862219044e-01,-2.146177955862219044e-01,-2.146177955862219044e-01
0.000000000000000000e+00,-3.353403056034709451e-03,-9.450499521552357951e-03,-1.524274116379417676e-02,-2.133983762931182526e-02,-2.713207927155358856e-02,-3.322917573707129257e-02,-3.902141737931308363e-02,-2.834472727836194195e-01,-2.892395144258612105e-01,-2.953366108913788590e-01,-3.014337073568965630e-01,-3.072259489991382986e-01,-7.499428652586731525e-02,-8.078652816810910631e-02,-8.688362463362675481e-02,-9.267586627586854586e-02,-9.877296274138620824e-02,-1.048700592069038984e-01,-1.106623008491456894e-01,-1.167593973146633379e-01,-1.225516389569051290e-01,-1.286487354224228052e-01,-1.344409770646645685e-01,-1.405380735301822448e-01,-1.463303151724240081e-01,-1.524274116379416844e-01,-1.585245081034593606e-01,-1.643167497457011517e-01,-1.704138462112188002e-01,-1.762060878534605912e-01,-1.823031843189782675e-01,-1.880954259612200585e-01,-1.941925224267377070e-01,-2.002896188922553833e-01,-2.060818605344971743e-01,-2.121789570000148506e-01,-2.146177955862219044e-01,-2.146177955862219044e-01,-2.146177955862219044e-01,-2.146177955862219044e-01,-2.146177955862219044e-01,-2.146177955862219044e-01,-2.146177955862219044e-01,-2.146177955862219044e-01,-2.146177955862219044e-01,-2.146177955862219044e-01
-4.471204074712964438e-03,0.000000000000000000e+00,-1.524274116379398247e-03,-7.621370581897102259e-03,-1.341361222413889331e-02,-1.951070868965654181e-02,-2.530295033189830511e-02,-3.140004679741598137e-02,-3.749714326293365763e-02,-4.328938490517544868e-02,-4.938648137069312494e-02,-5.517872301293488824e-02,-6.127581947845256449e-02,-6.706806112069432779e-02,-7.316515758621200405e-02,-7.926225405172968030e-02,-8.505449569397144360e-02,-9.115159215948911986e-02,-9.694383380173089704e-02,-1.030409302672485872e-01,-1.088331719094903921e-01,-1.149302683750080406e-01,-1.207225100172498178e-01,-1.268196064827674940e-01,-1.329167029482851425e-01,-1.387089445905269613e-01,-1.448060410560446098e-01,-1.505982826982864009e-01,-1.566953791638040494e-01,-1.624876208060458405e-01,-1.685847172715635167e-01,-1.743769589138052800e-01,-1.804740553793229563e-01,-1.865711518448406325e-01,-1.923633934870824236e-01,-1.984604899526000721e-01,-2.042527315948418631e-01,-2.103498280603595394e-01,-2.146177955862219044e-01,-2.146177955862219044e-01,-2.146177955862219044e-01,-2.146177955862219044e-01,-2.146177955862219044e-01,-2.146177955862219044e-01,-2.146177955862219044e-01,-2.146177955862219044e-01,-2.146177955862219044e-01
-6.036125500862490889e-02,-1.788481629885183000e-02,0.000000000000000000e+00,0.000000000000000000e+00,-5.792241642241791055e-03,-1.188933810775943956e-02,-1.768157975000125837e-02,-2.377867621551887911e-02,-2.957091785776067017e-02,-3.566801432327837418e-02,-4.146025596552013748e-02,-4.755735243103781373e-02,-5.365444889655548999e-02,-5.944669053879725329e-02,-6.554378700431492955e-02,-7.133602864655672060e-02,-7.743312511207436910e-02,-8.322536675431616016e-02,-8.932246321983380866e-02,-9.511470486207559971e-02,-1.012118013275932760e-01,-1.073088977931109661e-01,-1.131011394353527433e-01,-1.191982359008704057e-01,-1.249904775431121828e-01,-1.310875740086298591e-01,-1.368798156508716501e-01,-1.429769121163892986e-01,-1.487691537586310897e-01,-1.548662502241487382e-01,-1.609633466896664422e-01,-1.667555883319082055e-01,-1.728526847974258818e-01,-1.786449264396676728e-01,-1.847420229051853213e-01,-1.905342645474271124e-01,-1.966313610129447886e-01,-2.027284574784624649e-01,-2.085206991207042282e-01,-2.146177955862219044e-01,-2.146177955862219044e-01,-2.146177955862219044e-01,-2.146177955862219044e-01,-2.146177955862219044e-01,-2.146177955862219044e-01,-2.146177955862219044e-01,-2.146177955862219044e-01
-1.184869079798933356e-01,-7.377486723276377445e-02,-2.906282648563418558e-02,-2.775557561562891351e-17,0.000000000000000000e+00,-3.963112702586479852e-03,-1.006020916810412835e-02,-1.585245081034591941e-02,-2.194954727586359566e-02,-2.804664374138124416e-02,-3.383888538362306297e-02,-3.993598184914073923e-02,-4.572822349138253029e-02,-5.182531995690017879e-02,-5.761756159914196984e-02,-6.371465806465961834e-02,-6.950689970690140940e-02,-7.560399617241908565e-02,-8.170109263793673415e-02,-8.749333428017852521e-02,-9.359043074569618759e-02,-9.938267238793797864e-02,-1.054797688534556549e-01,-1.112720104956974460e-01,-1.173691069612151083e-01,-1.231613486034568994e-01,-1.292584450689745479e-01,-1.353555415344922241e-01,-1.411477831767339874e-01,-1.472448796422516915e-01,-1.530371212844934548e-01,-1.591342177500111310e-01,-1.649264593922529221e-01,-1.710235558577705706e-01,-1.771206523232882468e-01,-1.829128939655300101e-01,-1.890099904310476864e-01,-1.948022320732894774e-01,-2.008993285388071537e-01,-2.066915701810489447e-01,-2.127886666465665932e-01,-2.146177955862219044e-01,-2.146177955862219044e-01,-2.146177955862219044e-01,-2.146177955862219044e-01,-2.146177955862219044e-01,-2.146177955862219044e-01
-1.743769589138052800e-01,-1.296649181666757189e-01,-8.718847945690264001e-02,-4.247643870977307889e-02,0.000000000000000000e+00,0.000000000000000000e+00,-2.438838586207053849e-03,-8.231080228448844904e-03,-1.432817669396649340e-02,-2.012041833620831222e-02,-2.621751480172596072e-02,-3.200975644396775177e-02,-3.810685290948542803e-02,-4.389909455172721908e-02,-4.999619101724489534e-02,-5.609328748276254384e-02,-6.188552912500430714e-02,-6.798262559052198339e-02,-7.377486723276377445e-02,-7.987196369828145071e-02,-8.566420534052321401e-02,-9.176130180604089026e-02,-9.755354344828266744e-02,-1.036506399138003576e-01,-1.097477363793180338e-01,-1.155399780215598110e-01,-1.216370744870774734e-01,-1.274293161293192644e-01,-1.335264125948369129e-01,-1.393186542370787040e-01,-1.454157507025963803e-01,-1.515128471681140288e-01,-1.573050888103558198e-01,-1.634021852758734961e-01,-1.691944269181152871e-01,-1.752915233836329356e-01,-1.810837650258747267e-01,-1.871808614913924029e-01,-1.929731031336341940e-01,-1.990701995991518425e-01,-2.051672960646695187e-01,-2.109595377069113098e-01,-2.146177955862219044e-01,-2.146177955862219044e-01,-2.146177955862219044e-01,-2.146177955862219044e-01,-2.146177955862219044e-01
-2.146177955862219044e-01,-1.877905711379441733e-01,-1.430785303908145845e-01,-9.836648964368502335e-02,-5.589005093391194445e-02,-1.117801018678238334e-02,0.000000000000000000e+00,-6.097096465517704011e-04,-6.401951288793533701e-03,-1.249904775431120996e-02,-1.829128939655302877e-02,-2.438838586207064951e-02,-3.048548232758832577e-02,-3.627772396983011682e-02,-4.237482043534779308e-02,-4.816706207758958413e-02,-5.426415854310726039e-02,-6.005640018534902369e-02,-6.615349665086667219e-02,-7.194573829310846325e-02,-7.804283475862613950e-02,-8.413993122414381576e-02,-8.993217286638557906e-02,-9.602926933190325531e-02,-1.018215109741450464e-01,-1.079186074396627226e-01,-1.137108490819044998e-01,-1.198079455474221761e-01,-1.259050420129398384e-01,-1.316972836551816295e-01,-1.377943801206992780e-01,-1.435866217629410690e-01,-1.496837182284587175e-01,-1.554759598707005086e-01,-1.615730563362181849e-01,-1.673652979784599759e-01,-1.734623944439776522e-01,-1.795594909094953007e-01,-1.853517325517370917e-01,-1.914488290172547680e-01,-1.972410706594965590e-01,-2.033381671250142075e-01,-2.091304087672559986e-01,-2.146177955862219044e-01,-2.146177955862219044e-01,-2.146177955862219044e-01,-2.146177955862219044e-01
-2.146177955862219044e-01,-2.146177955862219044e-01,-1.989685813247265567e-01,-1.564921426149534778e-01,-1.117801018678239167e-01,-6.930366315805083777e-02,-2.459162241092124890e-02,2.775557561562891351e-17,0.000000000000000000e+00,-4.877677172414135454e-03,-1.066991881465589875e-02,-1.676701528017360276e-02,-2.255925692241539382e-02,-2.865635338793304232e-02,-3.444859503017480562e-02,-4.054569149569248188e-02,-4.633793313793427293e-02,-5.243502960345192143e-02,-5.853212606896959769e-02,-6.432436771121136099e-02,-7.042146417672903724e-02,-7.621370581897085605e-02,-8.231080228448850455e-02,-8.810304392673029561e-02,-9.420014039224795799e-02,-9.999238203448973517e-02,-1.060894785000074392e-01,-1.121865749655250877e-01,-1.179788166077668787e-01,-1.240759130732845411e-01,-1.298681547155263183e-01,-1.359652511810439945e-01,-1.417574928232857578e-01,-1.478545892888034341e-01,-1.539516857543211104e-01,-1.597439273965629014e-01,-1.658410238620805499e-01,-1.716332655043223410e-01,-1.777303619698400172e-01,-1.835226036120818083e-01,-1.896197000775994568e-01,-1.954119417198412478e-01,-2.015090381853589241e-01,-2.076061346508765726e-01,-2.133983762931183636e-01,-2.146177955862219044e-01,-2.146177955862219044e-01
-2.146177955862219044e-01,-2.146177955862219044e-01,-2.146177955862219044e-01,-2.123821935488654222e-01,-1.699057548390923433e-01,-1.251937140919627822e-01,-8.048167334483319335e-02,-3.800523463506011446e-02,0.000000000000000000e+00,0.000000000000000000e+00,-3.048548232758852006e-03,-8.840789875000643061e-03,-1.493788634051829156e-02,-2.073012798276008262e-02,-2.682722444827773112e-02,-3.292432091379540737e-02,-3.871656255603719843e-02,-4.481365902155487468e-02,-5.060590066379663798e-02,-5.670299712931431424e-02,-6.249523877155607754e-02,-6.859233523707375380e-02,-7.468943170259143005e-02,-8.048167334483322111e-02,-8.657876981035089736e-02,-9.237101145259266066e-02,-9.846810791811030916e-02,-1.042603495603521141e-01,-1.103574460258697904e-01,-1.161496876681115675e-01,-1.222467841336292438e-01,-1.283438805991469200e-01,-1.341361222413886833e-01,-1.402332187069063596e-01,-1.460254603491481507e-01,-1.521225568146657992e-01,-1.579147984569075902e-01,-1.640118949224252665e-01,-1.698041365646670298e-01,-1.759012330301847060e-01,-1.819983294957023823e-01,-1.877905711379441733e-01,-1.938876676034618218e-01,-1.996799092457036129e-01,-2.057770057112212891e-01,-2.115692473534630802e-01,-2.146177955862219044e-01
-2.146177955862219044e-01,-2.146177955862219044e-01,-2.146177955862219044e-01,-2.146177955862219044e-01,-2.146177955862219044e-01,-1.810837650258747267e-01,-1.386073263161016200e-01,-9.389528556897205891e-02,-5.141884685919900777e-02,-6.706806112069446657e-03,0.000000000000000000e+00,-1.219419293103513047e-03,-7.316515758621217058e-03,-1.310875740086298036e-02,-1.920585386638065661e-02,-2.499809550862241991e-02,-3.109519197414009617e-02,-3.688743361638188722e-02,-4.298453008189956348e-02,-4.877677172414135454e-02,-5.487386818965900304e-02,-6.097096465517667929e-02,-6.676320629741844259e-02,-7.286030276293611885e-02,-7.865254440517788215e-02,-8.474964087069558616e-02,-9.054188251293734946e-02,-9.663897897845502571e-02,-1.027360754439727020e-01,-1.085283170862145208e-01,-1.146254135517321554e-01,-1.204176551939739326e-01,-1.265147516594916088e-01,-1.323069933017333999e-01,-1.384040897672510484e-01,-1.441963314094928394e-01,-1.502934278750104879e-01,-1.563905243405281642e-01,-1.621827659827699553e-01,-1.682798624482876315e-01,-1.740721040905294226e-01,-1.801692005560470711e-01,-1.859614421982888621e-01,-1.920585386638065384e-01,-1.978507803060483017e-01,-2.039478767715659779e-01,-2.100449732370836542e-01
-2.146177955862219044e-01,-2.146177955862219044e-01,-2.146177955862219044e-01,-2.146177955862219044e-01,-2.146177955862219044e-01,-2.146177955862219044e-01,-1.944973772500135922e-01,-1.520209385402405133e-01,-1.073088977931109522e-01,-6.259685704598139111e-02,-2.012041833620828446e-02,0.000000000000000000e+00,0.000000000000000000e+00,-5.487386818965905855e-03,-1.127962846120769691e-02,-1.737672492672534541e-02,-2.316896656896713647e-02,-2.926606303448478497e-02,-3.536315950000246122e-02,-4.115540114224428003e-02,-4.725249760776192853e-02,-5.304473925000371959e-02,-5.914183571552136809e-02,-6.493407735776315914e-02,-7.103117382328080764e-02,-7.712827028879848390e-02,-8.292051193104027496e-02,-8.901760839655792346e-02,-9.480985003879971451e-02,-1.009069465043173908e-01,-1.066991881465591957e-01,-1.127962846120768581e-01,-1.185885262543186353e-01,-1.246856227198362976e-01,-1.307827191853539739e-01,-1.365749608275957372e-01,-1.426720572931134134e-01,-1.484642989353552045e-01,-1.545613954008728808e-01,-1.603536370431146718e-01,-1.664507335086323203e-01,-1.722429751508741114e-01,-1.783400716163917599e-01,-1.844371680819094361e-01,-1.902294097241512272e-01,-1.963265061896689034e-01,-2.032905335588773565e-01
-2.146177955862219044e-01,-2.146177955862219044e-01,-2.146177955862219044e-01,-2.146177955862219044e-01,-2.146177955862219044e-01,-2.146177955862219044e-01,-2.146177955862219044e-01,-2.079109894741524578e-01,-1.631989487270228967e-01,-1.207225100172498178e-01,-7.601046927012025667e-02,-3.353403056034715002e-02,0.000000000000000000e+00,0.000000000000000000e+00,-3.658257879310622407e-03,-9.755354344828270907e-03,-1.554759598707006196e-02,-2.164469245258771046e-02,-2.743693409482950152e-02,-3.353403056034717777e-02,-3.932627220258894107e-02,-4.542336866810664509e-02,-5.152046513362429359e-02,-5.731270677586608464e-02,-6.340980324138373314e-02,-6.920204488362552420e-02,-7.529914134914320045e-02,-8.109138299138496375e-02,-8.718847945690266776e-02,-9.298072109914443106e-02,-9.907781756466209344e-02,-1.051749140301797697e-01,-1.109671556724215746e-01,-1.170642521379392231e-01,-1.228564937801810142e-01,-1.289535902456986904e-01,-1.347458318879404537e-01,-1.408429283534581300e-01,-1.469400248189757785e-01,-1.527322664612175696e-01,-1.588293629267352181e-01,-1.646216045689770369e-01,-1.707187010344947131e-01,-1.765109426767364764e-01,-1.826080391422541527e-01,-1.884002807844959437e-01,-2.089589279291633184e-01
-2.146177955862219044e-01,-2.146177955862219044e-01,-2.146177955862219044e-01,-2.146177955862219044e-01,-2.146177955862219044e-01,-2.146177955862219044e-01,-2.146177955862219044e-01,-2.146177955862219044e-01,-2.146177955862219044e-01,-1.766125609511617900e-01,-1.341361222413886833e-01,-8.942408149425912223e-02,-4.471204074712956111e-02,-2.235602037356482219e-03,0.000000000000000000e+00,-1.829128939655338959e-03,-7.926225405172959704e-03,-1.371846704741475076e-02,-1.981556351293242701e-02,-2.591265997845007552e-02,-3.170490162069183881e-02,-3.780199808620954283e-02,-4.359423972845133388e-02,-4.969133619396898238e-02,-5.548357783621077344e-02,-6.158067430172842194e-02,-6.737291594397021299e-02,-7.347001240948788925e-02,-7.956710887500556550e-02,-8.535935051724735656e-02,-9.145644698276500506e-02,-9.724868862500678224e-02,-1.033457850905244724e-01,-1.091380267327662773e-01,-1.152351231982839258e-01,-1.210273648405257030e-01,-1.271244613060433792e-01,-1.332215577715610277e-01,-1.390137994138028188e-01,-1.451108958793204673e-01,-1.509031375215622583e-01,-1.570002339870799346e-01,-1.627924756293217257e-01,-1.688895720948394019e-01,-1.749866685603570504e-01,-1.987558180626485815e-01,-2.146177955862219044e-01
-2.146177955862219044e-01,-2.146177955862219044e-01,-2.146177955862219044e-01,-2.146177955862219044e-01,-2.146177955862219044e-01,-2.146177955862219044e-01,-2.146177955862219044e-01,-2.146177955862219044e-01,-2.146177955862219044e-01,-2.146177955862219044e-01,-1.900261731753006278e-01,-1.453141324281710944e-01,-1.028376937183979878e-01,-5.812565297126839892e-02,-1.564921426149534778e-02,0.000000000000000000e+00,-3.048548232758852006e-04,-6.097096465517648500e-03,-1.219419293103532476e-02,-1.798643457327711581e-02,-2.408353103879479207e-02,-2.987577268103658312e-02,-3.597286914655423162e-02,-4.176511078879602268e-02,-4.786220725431372669e-02,-5.395930371983137519e-02,-5.975154536207311073e-02,-6.584864182759081475e-02,-7.164088346983260580e-02,-7.773797993535025430e-02,-8.353022157759204536e-02,-8.962731804310972161e-02,-9.541955968535149879e-02,-1.015166561508691612e-01,-1.076137526163868513e-01,-1.134059942586286285e-01,-1.195030907241463047e-01,-1.252953323663880680e-01,-1.313924288319057443e-01,-1.371846704741475076e-01,-1.432817669396651838e-01,-1.493788634051828601e-01,-1.551711050474246234e-01,-1.612682015129422997e-01,-1.834082830533533270e-01,-2.146177955862219044e-01,-2.146177955862219044e-01
-2.146177955862219044e-01,-2.146177955862219044e-01,-2.146177955862219044e-01,-2.146177955862219044e-01,-2.146177955862219044e-01,-2.146177955862219044e-01,-2.146177955862219044e-01,-2.146177955862219044e-01,-2.146177955862219044e-01,-2.146177955862219044e-01,-2.146177955862219044e-01,-2.034397853994395211e-01,-1.587277446523099322e-01,-1.162513059425368533e-01,-7.153926519540729223e-02,-2.682722444827773112e-02,-2.775557561562891351e-17,0.000000000000000000e+00,-4.267967525862365052e-03,-1.036506399138006906e-02,-1.615730563362183236e-02,-2.225440209913948086e-02,-2.835149856465712936e-02,-3.414374020689892042e-02,-4.024083667241662443e-02,-4.603307831465841549e-02,-5.213017478017606399e-02,-5.792241642241785504e-02,-6.401951288793550354e-02,-6.981175453017729460e-02,-7.590885099569497085e-02,-8.200594746121261935e-02,-8.779818910345441041e-02,-9.389528556897207279e-02,-9.968752721121384996e-02,-1.057846236767315401e-01,-1.115768653189733312e-01,-1.176739617844909797e-01,-1.237710582500086698e-01,-1.295632998922504331e-01,-1.356603963577681093e-01,-1.414526380000099004e-01,-1.475497344655275489e-01,-1.629163229012775549e-01,-2.128934604920676987e-01,-2.146177955862219044e-01,-2.146177955862219044e-01
-2.146177955862219044e-01,-2.146177955862219044e-01,-2.146177955862219044e-01,-2.146177955862219044e-01,-2.146177955862219044e-01,-2.146177955862219044e-01,-2.146177955862219044e-01,-2.146177955862219044e-01,-2.146177955862219044e-01,-2.146177955862219044e-01,-2.146177955862219044e-01,-2.146177955862219044e-01,-2.146177955862219044e-01,-1.721413568764488256e-01,-1.274293161293192367e-01,-8.495287741954615779e-02,-4.024083667241659668e-02,-2.775557561562891351e-17,0.000000000000000000e+00,-2.743693409482939050e-03,-8.535935051724730105e-03,-1.463303151724240636e-02,-2.042527315948419742e-02,-2.652236962500181816e-02,-3.231461126724363697e-02,-3.841170773276131323e-02,-4.420394937500310428e-02,-5.030104584052075278e-02,-5.639814230603842904e-02,-6.219038394828019234e-02,-6.828748041379786859e-02,-7.407972205603965965e-02,-8.017681852155733591e-02,-8.596906016379912696e-02,-9.206615662931676158e-02,-9.816325309483443784e-02,-1.039554947370762428e-01,-1.100525912025939052e-01,-1.158448328448356962e-01,-1.219419293103533586e-01,-1.277341709525951496e-01,-1.338312674181127981e-01,-1.396235090603545892e-01,-1.995465352605204079e-01,-2.146177955862219044e-01,-2.146177955862219044e-01,-2.146177955862219044e-01
-2.146177955862219044e-01,-2.146177955862219044e-01,-2.146177955862219044e-01,-2.146177955862219044e-01,-2.146177955862219044e-01,-2.146177955862219044e-01,-2.146177955862219044e-01,-2.146177955862219044e-01,-2.146177955862219044e-01,-2.146177955862219044e-01,-2.146177955862219044e-01,-2.146177955862219044e-01,-2.146177955862219044e-01,-2.146177955862219044e-01,-1.855549691005876911e-01,-1.408429283534581300e-01,-9.613088760632854113e-02,-5.365444889655546223e-02,-8.942408149425928876e-03,0.000000000000000000e+00,-9.145644698276556017e-04,-6.706806112069446657e-03,-1.280390257758712291e-02,-1.859614421982888621e-02,-2.469324068534656247e-02,-3.079033715086421097e-02,-3.658257879310600202e-02,-4.267967525862370604e-02,-4.847191690086546934e-02,-5.456901336638311784e-02,-6.036125500862490889e-02,-6.645835147414258515e-02,-7.255544793966023365e-02,-7.834768958190202470e-02,-8.444478604741967320e-02,-9.023702768966146426e-02,-9.633412415517914051e-02,-1.021263657974209316e-01,-1.082234622629386217e-01,-1.140157039051803989e-01,-1.201128003706980613e-01,-1.262098968362157514e-01,-1.810551848861925994e-01,-2.146177955862219044e-01,-2.146177955862219044e-01,-2.146177955862219044e-01,-2.146177955862219044e-01
-2.146177955862219044e-01,-2.146177955862219044e-01,-2.146177955862219044e-01,-2.146177955862219044e-01,-2.146177955862219044e-01,-2.146177955862219044e-01,-2.146177955862219044e-01,-2.146177955862219044e-01,-2.146177955862219044e-01,-2.146177955862219044e-01,-2.146177955862219044e-01,-2.146177955862219044e-01,-2.146177955862219044e-01,-2.146177955862219044e-01,-2.146177955862219044e-01,-1.967329792873700745e-01,-1.542565405775969956e-01,-1.095444998304674206e-01,-6.706806112069432779e-02,-2.235602037356479443e-02,2.775557561562891351e-17,0.000000000000000000e+00,-5.182531995689992899e-03,-1.097477363793178395e-02,-1.707187010344948797e-02,-2.286411174569127902e-02,-2.896120821120889977e-02,-3.475344985345069082e-02,-4.085054631896839483e-02,-4.664278796121018589e-02,-5.273988442672780663e-02,-5.883698089224548289e-02,-6.462922253448727394e-02,-7.072631900000495020e-02,-7.651856064224671350e-02,-8.261565710776441751e-02,-8.840789875000618081e-02,-9.450499521552384319e-02,-1.006020916810415194e-01,-1.063943333232833244e-01,-1.124914297888009729e-01,-1.574194093690842733e-01,-2.146177955862219044e-01,-2.146177955862219044e-01,-2.146177955862219044e-01,-2.146177955862219044e-01,-2.146177955862219044e-01
-2.146177955862219044e-01,-2.146177955862219044e-01,-2.146177955862219044e-01,-2.146177955862219044e-01,-2.146177955862219044e-01,-2.146177955862219044e-01,-2.146177955862219044e-01,-2.146177955862219044e-01,-2.146177955862219044e-01,-2.146177955862219044e-01,-2.146177955862219044e-01,-2.146177955862219044e-01,-2.146177955862219044e-01,-2.146177955862219044e-01,-2.146177955862219044e-01,-2.146177955862219044e-01,-2.101465915115089400e-01,-1.676701528017358611e-01,-1.229581120546063000e-01,-7.824607130747673889e-02,-3.576963259770365999e-02,0.000000000000000000e+00,0.000000000000000000e+00,-3.353403056034709451e-03,-9.145644698276500506e-03,-1.524274116379417676e-02,-2.103498280603594006e-02,-2.713207927155358856e-02,-3.322917573707126482e-02,-3.902141737931308363e-02,-4.511851384483073213e-02,-5.091075548707252318e-02,-5.700785195259017168e-02,-6.280009359483196274e-02,-6.889719006034963900e-02,-7.499428652586731525e-02,-8.078652816810910631e-02,-8.688362463362675481e-02,-9.267586627586854586e-02,-9.877296274138620824e-02,-1.286392087091954295e-01,-2.146177955862219044e-01,-2.146177955862219044e-01,-2.146177955862219044e-01,-2.146177955862219044e-01,-2.146177955862219044e-01,-2.146177955862219044e-01
-2.146177955862219044e-01,-2.146177955862219044e-01,-2.146177955862219044e-01,-2.146177955862219044e-01,-2.146177955862219044e-01,-2.146177955862219044e-01,-2.146177955862219044e-01,-2.146177955862219044e-01,-2.146177955862219044e-01,-2.146177955862219044e-01,-2.146177955862219044e-01,-2.146177955862219044e-01,-2.146177955862219044e-01,-2.146177955862219044e-01,-2.146177955862219044e-01,-2.146177955862219044e-01,-2.146177955862219044e-01,-2.146177955862219044e-01,-1.788481629885182445e-01,-1.363717242787451656e-01,-9.165968353161560445e-02,-4.918324482184252555e-02,-4.471204074712964438e-03,0.000000000000000000e+00,-1.524274116379426003e-03,-7.621370581897074503e-03,-1.341361222413889331e-02,-1.951070868965654181e-02,-2.530295033189830511e-02,-3.140004679741598137e-02,-3.719228843965777243e-02,-4.328938490517544868e-02,-4.938648137069312494e-02,-5.517872301293488824e-02,-6.127581947845256449e-02,-6.706806112069432779e-02,-7.316515758621200405e-02,-7.895739922845379510e-02,-8.505449569397147136e-02,-9.858242847683879040e-02,-1.962312390573952015e-01,-2.146177955862219044e-01,-2.146177955862219044e-01,-2.146177955862219044e-01,-2.146177955862219044e-01,-2.146177955862219044e-01,-2.146177955862219044e-01
-2.146177955862219044e-01,-2.146177955862219044e-01,-2.146177955862219044e-01,-2.146177955862219044e-01,-2.146177955862219044e-01,-2.146177955862219044e-01,-2.146177955862219044e-01,-2.146177955862219044e-01,-2.146177955862219044e-01,-2.146177955862219044e-01,-2.146177955862219044e-01,-2.146177955862219044e-01,-2.146177955862219044e-01,-2.146177955862219044e-01,-2.146177955862219044e-01,-2.146177955862219044e-01,-2.146177955862219044e-01,-2.146177955862219044e-01,-2.146177955862219044e-01,-1.922617752126571100e-01,-1.497853365028840311e-01,-1.050732957557544700e-01,-6.036125500862490889e-02,-1.788481629885180224e-02,5.551115123125782702e-17,0.000000000000000000e+00,-5.792241642241791055e-03,-1.158448328448358211e-02,-1.768157975000123061e-02,-2.377867621551890687e-02,-2.957091785776064241e-02,-3.566801432327837418e-02,-4.146025596552013748e-02,-4.755735243103781373e-02,-5.334959407327960479e-02,-5.944669053879725329e-02,-6.523893218103904434e-02,-7.133602864655669284e-02,-7.743312511207436910e-02,-1.694516481752543213e-01,-2.146177955862219044e-01,-2.146177955862219044e-01,-2.146177955862219044e-01,-2.146177955862219044e-01,-2.146177955862219044e-01,-2.146177955862219044e-01,-2.146177955862219044e-01
-2.146177955862219044e-01,-2.146177955862219044e-01,-2.146177955862219044e-01,-2.146177955862219044e-01,-2.146177955862219044e-01,-2.146177955862219044e-01,-2.146177955862219044e-01,-2.146177955862219044e-01,-2.146177955862219044e-01,-2.146177955862219044e-01,-2.146177955862219044e-01,-2.146177955862219044e-01,-2.146177955862219044e-01,-2.146177955862219044e-01,-2.146177955862219044e-01,-2.146177955862219044e-01,-2.146177955862219044e-01,-2.146177955862219044e-01,-2.146177955862219044e-01,-2.146177955862219044e-01,-2.056753874367960033e-01,-1.609633466896664145e-01,-1.184869079798933356e-01,-7.377486723276377445e-02,-3.129842852299069555e-02,2.775557561562891351e-17,0.000000000000000000e+00,-3.963112702586479852e-03,-1.006020916810415611e-02,-1.585245081034591941e-02,-2.194954727586356791e-02,-2.774178891810535896e-02,-3.383888538362306297e-02,-3.963112702586488179e-02,-4.572822349138250253e-02,-5.182531995690020654e-02,-5.761756159914194209e-02,-6.371465806465964610e-02,-1.420623476465616708e-01,-2.146177955862219044e-01,-2.146177955862219044e-01,-2.146177955862219044e-01,-2.146177955862219044e-01,-2.146177955862219044e-01,-2.146177955862219044e-01,-2.146177955862219044e-01,-2.146177955862219044e-01
-2.146177955862219044e-01,-2.146177955862219044e-01,-2.146177955862219044e-01,-2.146177955862219044e-01,-2.146177955862219044e-01,-2.146177955862219044e-01,-2.146177955862219044e-01,-2.146177955862219044e-01,-2.146177955862219044e-01,-2.146177955862219044e-01,-2.146177955862219044e-01,-2.146177955862219044e-01,-2.146177955862219044e-01,-2.146177955862219044e-01,-2.146177955862219044e-01,-2.146177955862219044e-01,-2.146177955862219044e-01,-2.146177955862219044e-01,-2.146177955862219044e-01,-2.146177955862219044e-01,-2.146177955862219044e-01,-2.146177955862219044e-01,-1.743769589138052800e-01,-1.296649181666757189e-01,-8.718847945690264001e-02,-4.247643870977307889e-02,0.000000000000000000e+00,0.000000000000000000e+00,-2.133983762931196404e-03,-8.231080228448844904e-03,-1.402332187069066372e-02,-2.012041833620828446e-02,-2.621751480172596072e-02,-3.200975644396775177e-02,-3.810685290948542803e-02,-4.389909455172724684e-02,-4.999619101724489534e-02,-1.054226085740914282e-01,-4.571698253195936590e-01,-4.571698253195936590e-01,-4.571698253195936590e-01,-4.571698253195936590e-01,-2.146177955862219044e-01,-2.146177955862219044e-01,-2.146177955862219044e-01,-2.146177955862219044e-01,-2.146177955862219044e-01
-2.146177955862219044e-01,-2.146177955862219044e-01,-2.146177955862219044e-01,-2.146177955862219044e-01,-2.146177955862219044e-01,-2.146177955862219044e-01,-2.146177955862219044e-01,-2.146177955862219044e-01,-2.146177955862219044e-01,-2.146177955862219044e-01,-2.146177955862219044e-01,-2.146177955862219044e-01,-2.146177955862219044e-01,-2.146177955862219044e-01,-2.146177955862219044e-01,-2.146177955862219044e-01,-2.146177955862219044e-01,-2.146177955862219044e-01,-2.146177955862219044e-01,-2.146177955862219044e-01,-2.146177955862219044e-01,-2.146177955862219044e-01,-2.146177955862219044e-01,-1.877905711379441733e-01,-1.430785303908145845e-01,-1.006020916810415056e-01,-5.589005093391194445e-02,-1.341361222413886556e-02,0.000000000000000000e+00,-6.097096465517426456e-04,-6.401951288793561456e-03,-1.249904775431123771e-02,-1.829128939655302877e-02,-2.438838586207067727e-02,-3.018062750431241281e-02,-3.627772396983014458e-02,-6.363844435884066786e-02,-1.990130393197876157e-01,-4.571698253195936590e-01,-4.571698253195936590e-01,-4.571698253195936590e-01,-4.571698253195936590e-01,-2.146177955862219044e-01,-2.146177955862219044e-01,-2.146177955862219044e-01,-2.146177955862219044e-01,-2.146177955862219044e-01
-2.146177955862219044e-01,-2.146177955862219044e-01,-2.146177955862219044e-01,-2.146177955862219044e-01,-2.146177955862219044e-01,-2.146177955862219044e-01,-2.146177955862219044e-01,-2.146177955862219044e-01,-2.146177955862219044e-01,-2.146177955862219044e-01,-2.146177955862219044e-01,-2.146177955862219044e-01,-2.146177955862219044e-01,-2.146177955862219044e-01,-2.146177955862219044e-01,-2.146177955862219044e-01,-2.146177955862219044e-01,-2.146177955862219044e-01,-2.146177955862219044e-01,-2.146177955862219044e-01,-2.146177955862219044e-01,-2.146177955862219044e-01,-2.146177955862219044e-01,-2.146177955862219044e-01,-2.012041833620830389e-01,-1.564921426149534778e-01,-1.117801018678239028e-01,-6.930366315805081001e-02,-2.459162241092127665e-02,2.775557561562891351e-17,0.000000000000000000e+00,-4.572822349138250253e-03,-1.066991881465589875e-02,-1.646216045689768981e-02,-2.255925692241536606e-02,-2.865635338793301456e-02,-1.695754954472101228e-01,-2.146177955862219044e-01,-4.571698253195936590e-01,-4.571698253195936590e-01,-4.571698253195936590e-01,-4.571698253195936590e-01,-2.146177955862219044e-01,-2.146177955862219044e-01,-2.146177955862219044e-01,-2.146177955862219044e-01,-2.146177955862219044e-01
-2.146177955862219044e-01,-2.146177955862219044e-01,-2.146177955862219044e-01,-2.146177955862219044e-01,-2.146177955862219044e-01,-2.146177955862219044e-01,-2.146177955862219044e-01,-2.146177955862219044e-01,-2.146177955862219044e-01,-2.146177955862219044e-01,-2.146177955862219044e-01,-2.146177955862219044e-01,-2.146177955862219044e-01,-2.146177955862219044e-01,-2.146177955862219044e-01,-2.146177955862219044e-01,-2.146177955862219044e-01,-2.146177955862219044e-01,-2.146177955862219044e-01,-2.146177955862219044e-01,-2.146177955862219044e-01,-2.146177955862219044e-01,-2.146177955862219044e-01,-2.146177955862219044e-01,-2.146177955862219044e-01,-2.123821935488654222e-01,-1.699057548390923433e-01,-1.251937140919627822e-01,-8.271727538218967557e-02,-3.800523463506011446e-02,0.000000000000000000e+00,0.000000000000000000e+00,-3.048548232758824250e-03,-8.840789875000587550e-03,-1.493788634051829156e-02,-1.297919410097073678e-01,-2.146177955862219044e-01,-2.146177955862219044e-01,-4.571698253195936590e-01,-4.571698253195936590e-01,-4.571698253195936590e-01,-4.571698253195936590e-01,-2.146177955862219044e-01,-2.146177955862219044e-01,-2.146177955862219044e-01,-2.146177955862219044e-01,-2.146177955862219044e-01
