-2.155491296642189913e-01,-2.155491296642189913e-01,-2.155491296642189913e-01,-2.155491296642189913e-01,-2.153872087434976768e-01,-2.122459428815040849e-01,-2.069997050501333757e-01,-2.012677044565987228e-01,-1.923944380010704780e-01,-1.840717026759947084e-01,-1.715714075963089280e-01,-1.606579375396920695e-01,-1.445306138358487535e-01,-1.310264090476908061e-01,-1.112720567196899824e-01,-9.517711719999094599e-02,-7.179573624783255892e-02,-5.388728241605478253e-02,-4.715137211404790696e-02,-3.367955151003423908e-02,-2.694364120802741902e-02,-1.347182060401372339e-02,-6.735910302006875572e-03,-2.775557561562891351e-17,-2.775557561562891351e-17,-2.775557561562891351e-17,-2.775557561562891351e-17,-2.775557561562891351e-17,-2.775557561562891351e-17,-2.775557561562891351e-17,-2.775557561562891351e-17,-2.775557561562891351e-17,-7.484344780007978759e-04,-2.469833777402513642e-02,-4.864824107004941944e-02,-7.259814436607378574e-02,-9.654804766209812428e-02,-1.204979509581224351e-01,-1.444478542541467458e-01,-1.683977575501711121e-01,-1.923476608461954229e-01,-2.155491296642189913e-01,-2.155491296642189913e-01,-2.155491296642189913e-01,-2.155491296642189913e-01,-2.155491296642189913e-01,-2.155491296642189913e-01
-2.155491296642189913e-01,-2.155491296642189913e-01,-2.155491296642189913e-01,-2.155491296642189913e-01,-2.150309827179107680e-01,-1.984502804360477879e-01,-1.818695781541847800e-01,-1.652888758723217721e-01,-1.487081735904587920e-01,-1.321274713085957841e-01,-1.155467690267327763e-01,-9.896606674486978228e-02,-8.238536446300678828e-02,-6.632280912745203150e-02,-4.974210684558902362e-02,-3.316140456372601575e-02,-1.658070228186300787e-02,-2.775557561562891351e-17,-2.775557561562891351e-17,-2.775557561562891351e-17,-2.775557561562891351e-17,-2.775557561562891351e-17,-2.775557561562891351e-17,-2.775557561562891351e-17,-2.775557561562891351e-17,-2.775557561562891351e-17,-2.775557561562891351e-17,-2.775557561562891351e-17,-2.775557561562891351e-17,-2.775557561562891351e-17,-2.775557561562891351e-17,-2.775557561562891351e-17,-2.775557561562891351e-17,-2.394990329602436629e-02,-4.789980659204867708e-02,-7.184970988807301562e-02,-9.579961318409735416e-02,-1.197495164801216927e-01,-1.436994197761460035e-01,-1.676493230721703420e-01,-1.915992263681946528e-01,-2.155491296642189913e-01,-2.155491296642189913e-01,-2.155491296642189913e-01,-2.155491296642189913e-01,-2.155491296642189913e-01,-2.155491296642189913e-01
-2.155491296642189913e-01,-2.155491296642189913e-01,-2.155491296642189913e-01,-2.155491296642189913e-01,-2.155491296642189913e-01,-1.994865743286642068e-01,-1.829058720468012267e-01,-1.663251697649382188e-01,-1.497444674830752387e-01,-1.331637652012122308e-01,-1.165830629193492229e-01,-1.000023606374862151e-01,-8.342165835562326270e-02,-6.684095607376022707e-02,-5.026025379189724696e-02,-3.367955151003423908e-02,-1.709884922817123121e-02,-5.181469463082233329e-04,-5.551115123125782702e-17,-2.775557561562891351e-17,-2.775557561562891351e-17,-2.775557561562891351e-17,-2.775557561562891351e-17,-2.775557561562891351e-17,-2.775557561562891351e-17,-2.775557561562891351e-17,-2.775557561562891351e-17,-5.551115123125782702e-17,-2.775557561562891351e-17,-2.775557561562891351e-17,-2.775557561562891351e-17,-2.775557561562891351e-17,-2.775557561562891351e-17,-2.245303434002288157e-02,-4.640293763604716459e-02,-7.035284093207150313e-02,-9.430274422809582779e-02,-1.182526475241201525e-01,-1.422025508201444910e-01,-1.661524541161688018e-01,-1.901023574121931403e-01,-2.140522607082174789e-01,-2.155491296642189913e-01,-2.155491296642189913e-01,-2.155491296642189913e-01,-2.155491296642189913e-01,-2.155491296642189913e-01
-2.155491296642189913e-01,-2.155491296642189913e-01,-2.155491296642189913e-01,-2.155491296642189913e-01,-2.155491296642189913e-01,-2.000047212749724301e-01,-1.834240189931094223e-01,-1.668433167112464144e-01,-1.502626144293834343e-01,-1.336819121475204541e-01,-1.171012098656574324e-01,-1.005205075837944384e-01,-8.393980530193145828e-02,-6.735910302006845041e-02,-5.077840073820544253e-02,-3.471584540265068575e-02,-1.813514312078767787e-02,-1.554440838924669999e-03,-2.775557561562891351e-17,-2.775557561562891351e-17,-2.775557561562891351e-17,0.000000000000000000e+00,-2.775557561562891351e-17,-2.775557561562891351e-17,0.000000000000000000e+00,-2.775557561562891351e-17,-2.775557561562891351e-17,-2.775557561562891351e-17,0.000000000000000000e+00,-2.775557561562891351e-17,0.000000000000000000e+00,-2.775557561562891351e-17,0.000000000000000000e+00,-2.170459986202205593e-02,-4.565450315804642223e-02,-6.960440645407073301e-02,-9.355430975009508543e-02,-1.175042130461193962e-01,-1.414541163421437209e-01,-1.654040196381680317e-01,-1.893539229341923702e-01,-2.133038262302167087e-01,-2.155491296642189913e-01,-2.155491296642189913e-01,-2.155491296642189913e-01,-2.155491296642189913e-01,-2.155491296642189913e-01
-2.155491296642189913e-01,-2.155491296642189913e-01,-2.155491296642189913e-01,-2.155491296642189913e-01,-2.155491296642189913e-01,-2.010410151675888768e-01,-1.844603128857258689e-01,-1.678796106038628611e-01,-1.512989083219998809e-01,-1.347182060401368731e-01,-1.181375037582738652e-01,-1.015568014764108851e-01,-8.497609919454790495e-02,-6.839539691268489707e-02,-5.181469463082191695e-02,-3.523399234895890908e-02,-1.865329006709587345e-02,-2.072587785232893332e-03,-2.775557561562891351e-17,-2.775557561562891351e-17,-2.775557561562891351e-17,-5.551115123125782702e-17,-2.775557561562891351e-17,-2.775557561562891351e-17,-5.551115123125782702e-17,-2.775557561562891351e-17,-2.775557561562891351e-17,-2.775557561562891351e-17,0.000000000000000000e+00,-5.551115123125782702e-17,-2.775557561562891351e-17,-5.551115123125782702e-17,-2.775557561562891351e-17,-2.020773090602057120e-02,-4.415763420204485423e-02,-6.810753749806922053e-02,-9.205744079409354519e-02,-1.160073440901178837e-01,-1.399572473861421806e-01,-1.639071506821665469e-01,-1.878570539781908577e-01,-2.118069572742151963e-01,-2.155491296642189913e-01,-2.155491296642189913e-01,-2.155491296642189913e-01,-2.155491296642189913e-01,-2.155491296642189913e-01
-2.155491296642189913e-01,-2.155491296642189913e-01,-2.155491296642189913e-01,-2.155491296642189913e-01,-2.155491296642189913e-01,-2.015591621138970724e-01,-1.849784598320340923e-01,-1.683977575501710844e-01,-1.518170552683080765e-01,-1.352363529864450964e-01,-1.186556507045821024e-01,-1.020749484227191084e-01,-8.549424614085610052e-02,-6.891354385899309265e-02,-5.233284157713011253e-02,-3.575213929526713241e-02,-1.917143701340412454e-02,-2.590734731541116664e-03,-2.775557561562891351e-17,-2.775557561562891351e-17,-2.775557561562891351e-17,-2.775557561562891351e-17,-2.775557561562891351e-17,-2.775557561562891351e-17,-5.551115123125782702e-17,-2.775557561562891351e-17,-5.551115123125782702e-17,-2.775557561562891351e-17,-2.775557561562891351e-17,0.000000000000000000e+00,-2.775557561562891351e-17,-2.775557561562891351e-17,-2.775557561562891351e-17,-1.945929642801980108e-02,-4.340919972404411187e-02,-6.735910302006845041e-02,-9.130900631609278895e-02,-1.152589096121171275e-01,-1.392088129081414383e-01,-1.631587162041657768e-01,-1.871086195001901153e-01,-2.110585227962144261e-01,-2.155491296642189913e-01,-2.155491296642189913e-01,-2.155491296642189913e-01,-2.155491296642189913e-01,-2.155491296642189913e-01
-2.155491296642189913e-01,-2.155491296642189913e-01,-2.155491296642189913e-01,-2.155491296642189913e-01,-2.155491296642189913e-01,-2.025954560065135190e-01,-1.860147537246505389e-01,-1.694340514427875310e-01,-1.528533491609245232e-01,-1.362726468790615431e-01,-1.196919445971985352e-01,-1.031112423153355273e-01,-8.653054003347254719e-02,-6.994983775160956707e-02,-5.336913546974655920e-02,-3.678843318788355132e-02,-2.020773090602054345e-02,-3.627028624157563330e-03,0.000000000000000000e+00,-2.775557561562891351e-17,-2.775557561562891351e-17,0.000000000000000000e+00,-5.551115123125782702e-17,-5.551115123125782702e-17,0.000000000000000000e+00,-2.775557561562891351e-17,-2.775557561562891351e-17,-2.775557561562891351e-17,-5.551115123125782702e-17,-2.775557561562891351e-17,-2.775557561562891351e-17,-5.551115123125782702e-17,-2.775557561562891351e-17,-1.871086195001908647e-02,-4.191233076804259938e-02,-6.586223406406693792e-02,-8.981213736009127646e-02,-1.137620406561156011e-01,-1.377119439521399258e-01,-1.616618472481642366e-01,-1.856117505441885751e-01,-2.095616538402129136e-01,-2.155491296642189913e-01,-2.155491296642189913e-01,-2.155491296642189913e-01,-2.155491296642189913e-01,-2.155491296642189913e-01
-2.155491296642189913e-01,-2.155491296642189913e-01,-2.155491296642189913e-01,-2.155491296642189913e-01,-2.155491296642189913e-01,-2.031136029528217424e-01,-1.865329006709587345e-01,-1.699521983890957544e-01,-1.533714961072327465e-01,-1.367907938253697664e-01,-1.202100915435067585e-01,-1.036293892616437506e-01,-8.704868697978074277e-02,-7.046798469791776265e-02,-5.388728241605478253e-02,-3.730658013419174690e-02,-2.072587785232876678e-02,-4.145175570465758907e-03,-5.551115123125782702e-17,-2.775557561562891351e-17,-2.775557561562891351e-17,-2.775557561562891351e-17,-2.775557561562891351e-17,-2.775557561562891351e-17,-2.775557561562891351e-17,-2.775557561562891351e-17,-2.775557561562891351e-17,-2.775557561562891351e-17,-2.775557561562891351e-17,-2.775557561562891351e-17,-2.775557561562891351e-17,-2.775557561562891351e-17,-2.775557561562891351e-17,-1.721399299401749072e-02,-4.116389629004185702e-02,-6.511379958606616780e-02,-8.906370288209050634e-02,-1.130136061781148449e-01,-1.369635094741391557e-01,-1.609134127701634942e-01,-1.848633160661878327e-01,-2.088132193622121435e-01,-2.155491296642189913e-01,-2.155491296642189913e-01,-2.155491296642189913e-01,-2.155491296642189913e-01,-2.155491296642189913e-01
-2.155491296642189913e-01,-2.155491296642189913e-01,-2.155491296642189913e-01,-2.155491296642189913e-01,-2.155491296642189913e-01,-2.036317498991299657e-01,-1.875691945635751812e-01,-1.709884922817121733e-01,-1.544077899998491932e-01,-1.378270877179861853e-01,-1.212463854361231913e-01,-1.046656831542601973e-01,-8.808498087239718943e-02,-7.150427859053420931e-02,-5.492357630867120144e-02,-3.834287402680822132e-02,-2.176217174494518569e-02,-5.181469463082205573e-03,-2.775557561562891351e-17,-2.775557561562891351e-17,-2.775557561562891351e-17,-2.775557561562891351e-17,-2.775557561562891351e-17,-2.775557561562891351e-17,-2.775557561562891351e-17,-2.775557561562891351e-17,-2.775557561562891351e-17,-2.775557561562891351e-17,-2.775557561562891351e-17,-2.775557561562891351e-17,-2.775557561562891351e-17,-2.775557561562891351e-17,-2.775557561562891351e-17,-1.646555851601674836e-02,-4.041546181204105914e-02,-6.436536510806539768e-02,-8.756683392608899386e-02,-1.115167372221133324e-01,-1.354666405181376432e-01,-1.594165438141619817e-01,-1.833664471101862925e-01,-2.073163504062106310e-01,-2.155491296642189913e-01,-2.155491296642189913e-01,-2.155491296642189913e-01,-2.155491296642189913e-01,-2.155491296642189913e-01
-2.155491296642189913e-01,-2.155491296642189913e-01,-2.155491296642189913e-01,-2.155491296642189913e-01,-2.155491296642189913e-01,-2.046680437917464124e-01,-1.880873415098834045e-01,-1.715066392280203966e-01,-1.549259369461574165e-01,-1.383452346642944086e-01,-1.217645323824314146e-01,-1.051838301005684206e-01,-8.860312781870541277e-02,-7.202242553684243265e-02,-5.544172325497939702e-02,-3.886102097311644465e-02,-2.228031869125343678e-02,-5.699616409390456662e-03,-2.775557561562891351e-17,-2.775557561562891351e-17,-2.775557561562891351e-17,-2.775557561562891351e-17,-2.775557561562891351e-17,-2.775557561562891351e-17,-2.775557561562891351e-17,-2.775557561562891351e-17,-2.775557561562891351e-17,-2.775557561562891351e-17,-2.775557561562891351e-17,-2.775557561562891351e-17,-2.775557561562891351e-17,-2.775557561562891351e-17,-2.775557561562891351e-17,-1.496868956001526363e-02,-3.891859285603957441e-02,-6.286849615206388520e-02,-8.681839944808822374e-02,-1.107683027441125623e-01,-1.347182060401368731e-01,-1.586681093361612116e-01,-1.826180126321855501e-01,-2.065679159282098609e-01,-2.155491296642189913e-01,-2.155491296642189913e-01,-2.155491296642189913e-01,-2.155491296642189913e-01,-2.155491296642189913e-01
-2.155491296642189913e-01,-2.155491296642189913e-01,-2.155491296642189913e-01,-2.155491296642189913e-01,-2.155491296642189913e-01,-2.051861907380546080e-01,-1.886054884561916278e-01,-1.720247861743286200e-01,-1.559622308387738632e-01,-1.393815285569108553e-01,-1.228008262750478474e-01,-1.062201239931848396e-01,-8.963942171132185943e-02,-7.305871942945885156e-02,-5.647801714759587144e-02,-3.989731486573286356e-02,-2.331661258386985569e-02,-6.735910302006847816e-03,0.000000000000000000e+00,-2.775557561562891351e-17,-5.551115123125782702e-17,-2.775557561562891351e-17,-2.775557561562891351e-17,-2.775557561562891351e-17,-2.775557561562891351e-17,-5.551115123125782702e-17,-2.775557561562891351e-17,-2.775557561562891351e-17,-2.775557561562891351e-17,0.000000000000000000e+00,0.000000000000000000e+00,-5.551115123125782702e-17,-5.551115123125782702e-17,-1.422025508201449351e-02,-3.817015837803880429e-02,-6.212006167406314283e-02,-8.606996497008748137e-02,-1.100198682661117922e-01,-1.332213370841353606e-01,-1.571712403801596714e-01,-1.811211436761840099e-01,-2.050710469722083484e-01,-2.155491296642189913e-01,-2.155491296642189913e-01,-2.155491296642189913e-01,-2.155491296642189913e-01,-2.155491296642189913e-01
-2.155491296642189913e-01,-2.155491296642189913e-01,-2.155491296642189913e-01,-2.155491296642189913e-01,-2.155491296642189913e-01,-2.062224846306710546e-01,-1.896417823488080467e-01,-1.730610800669450666e-01,-1.564803777850820588e-01,-1.398996755032190786e-01,-1.233189732213560708e-01,-1.067382709394930629e-01,-9.015756865763005501e-02,-7.357686637576707489e-02,-5.699616409390409477e-02,-4.041546181204105914e-02,-2.383475953017807902e-02,-7.254057248315071149e-03,-2.775557561562891351e-17,-2.775557561562891351e-17,-2.775557561562891351e-17,-2.775557561562891351e-17,-2.775557561562891351e-17,-2.775557561562891351e-17,-2.775557561562891351e-17,-2.775557561562891351e-17,-2.775557561562891351e-17,-2.775557561562891351e-17,-2.775557561562891351e-17,-2.775557561562891351e-17,-2.775557561562891351e-17,-2.775557561562891351e-17,-2.775557561562891351e-17,-1.272338612601295327e-02,-3.667328942203729181e-02,-6.062319271806160259e-02,-8.457309601408594113e-02,-1.085229993101102658e-01,-1.324729026061345905e-01,-1.564228059021589290e-01,-1.803727091981832675e-01,-2.043226124942075783e-01,-2.155491296642189913e-01,-2.155491296642189913e-01,-2.155491296642189913e-01,-2.155491296642189913e-01,-2.155491296642189913e-01
-2.155491296642189913e-01,-2.155491296642189913e-01,-2.155491296642189913e-01,-2.155491296642189913e-01,-2.155491296642189913e-01,-2.067406315769792780e-01,-1.901599292951162701e-01,-1.735792270132532900e-01,-1.569985247313902821e-01,-1.404178224495272742e-01,-1.243552671139725035e-01,-1.077745648321094957e-01,-9.119386255024651555e-02,-7.461316026838352156e-02,-5.803245798652054144e-02,-4.145175570465753356e-02,-2.487105342279452569e-02,-8.290351140931517815e-03,-2.775557561562891351e-17,-2.775557561562891351e-17,-2.775557561562891351e-17,-2.775557561562891351e-17,-2.775557561562891351e-17,-2.775557561562891351e-17,-2.775557561562891351e-17,-2.775557561562891351e-17,-2.775557561562891351e-17,-2.775557561562891351e-17,-2.775557561562891351e-17,-2.775557561562891351e-17,-2.775557561562891351e-17,-2.775557561562891351e-17,-2.775557561562891351e-17,-1.197495164801218315e-02,-3.592485494403652169e-02,-5.987475824006083247e-02,-8.382466153608517101e-02,-1.077745648321095373e-01,-1.317244681281338481e-01,-1.556743714241581589e-01,-1.788758402421817273e-01,-2.028257435382060658e-01,-2.155491296642189913e-01,-2.155491296642189913e-01,-2.155491296642189913e-01,-2.155491296642189913e-01,-2.155491296642189913e-01
-2.155491296642189913e-01,-2.155491296642189913e-01,-2.155491296642189913e-01,-2.155491296642189913e-01,-2.155491296642189913e-01,-2.077769254695957246e-01,-1.911962231877327167e-01,-1.746155209058697089e-01,-1.580348186240067010e-01,-1.414541163421437209e-01,-1.248734140602807130e-01,-1.082927117784177051e-01,-9.171200949655473889e-02,-7.513130721469174489e-02,-5.855060493282873701e-02,-4.196990265096575690e-02,-2.538920036910272127e-02,-8.808498087239741148e-03,-2.775557561562891351e-17,-2.775557561562891351e-17,-2.775557561562891351e-17,-2.775557561562891351e-17,-2.775557561562891351e-17,-2.775557561562891351e-17,-2.775557561562891351e-17,0.000000000000000000e+00,-2.775557561562891351e-17,-2.775557561562891351e-17,-2.775557561562891351e-17,-2.775557561562891351e-17,-2.775557561562891351e-17,-2.775557561562891351e-17,-2.775557561562891351e-17,-1.047808269201067066e-02,-3.442798598803500920e-02,-5.837788928405931999e-02,-8.232779258008365852e-02,-1.062776958761079971e-01,-1.302275991721323356e-01,-1.541775024681566464e-01,-1.781274057641809849e-01,-2.020773090602052957e-01,-2.155491296642189913e-01,-2.155491296642189913e-01,-2.155491296642189913e-01,-2.155491296642189913e-01,-2.155491296642189913e-01
-2.155491296642189913e-01,-2.155491296642189913e-01,-2.155491296642189913e-01,-2.155491296642189913e-01,-2.155491296642189913e-01,-2.082950724159039202e-01,-1.917143701340409401e-01,-1.751336678521779322e-01,-1.585529655703149521e-01,-1.419722632884519442e-01,-1.253915610065889363e-01,-1.088108587247259423e-01,-9.223015644286293446e-02,-7.616760110730819155e-02,-5.958689882544518368e-02,-4.300619654358217581e-02,-2.642549426171916793e-02,-9.844791979856187814e-03,-2.775557561562891351e-17,-2.775557561562891351e-17,-2.775557561562891351e-17,-2.775557561562891351e-17,-2.775557561562891351e-17,-2.775557561562891351e-17,-5.551115123125782702e-17,-2.775557561562891351e-17,0.000000000000000000e+00,-2.775557561562891351e-17,-2.775557561562891351e-17,-2.775557561562891351e-17,-2.775557561562891351e-17,-2.775557561562891351e-17,-2.775557561562891351e-17,-9.729648214009928298e-03,-3.367955151003423908e-02,-5.762945480605857762e-02,-8.157935810208291616e-02,-1.055292613981072408e-01,-1.294791646941315655e-01,-1.534290679901558763e-01,-1.773789712861802148e-01,-2.013288745822045533e-01,-2.155491296642189913e-01,-2.155491296642189913e-01,-2.155491296642189913e-01,-2.155491296642189913e-01,-2.155491296642189913e-01
-2.155491296642189913e-01,-2.155491296642189913e-01,-2.155491296642189913e-01,-2.155491296642189913e-01,-2.155491296642189913e-01,-2.093313663085203669e-01,-1.927506640266573590e-01,-1.761699617447943789e-01,-1.595892594629313710e-01,-1.430085571810683631e-01,-1.264278548992053830e-01,-1.098471526173423751e-01,-9.326645033547939501e-02,-7.668574805361638713e-02,-6.010504577175340701e-02,-4.352434348989039914e-02,-2.694364120802736351e-02,-1.036293892616438339e-02,-2.775557561562891351e-17,-2.775557561562891351e-17,-2.775557561562891351e-17,-2.775557561562891351e-17,-2.775557561562891351e-17,-2.775557561562891351e-17,-5.551115123125782702e-17,-2.775557561562891351e-17,-2.775557561562891351e-17,-2.775557561562891351e-17,-2.775557561562891351e-17,-2.542469095182799954e-01,-2.542469095182799954e-01,-2.542469095182799954e-01,-2.542469095182799954e-01,-2.624796887762883557e-01,-3.218268255403272660e-02,-5.613258585005706514e-02,-8.008248914608137592e-02,-1.040323924421057145e-01,-1.279822957381300252e-01,-1.519321990341543638e-01,-1.758821023301787023e-01,-1.998320056262030131e-01,-2.155491296642189913e-01,-2.155491296642189913e-01,-2.155491296642189913e-01,-2.155491296642189913e-01,-2.155491296642189913e-01
-2.155491296642189913e-01,-2.155491296642189913e-01,-2.155491296642189913e-01,-2.155491296642189913e-01,-2.155491296642189913e-01,-2.098495132548285902e-01,-1.932688109729655823e-01,-1.766881086911025744e-01,-1.601074064092395943e-01,-1.435267041273765865e-01,-1.269460018455135786e-01,-1.103652995636505985e-01,-9.378459728178759058e-02,-7.720389499992461046e-02,-6.062319271806163035e-02,-4.456063738250684580e-02,-2.797993510064381018e-02,-1.139923281878083006e-02,-2.775557561562891351e-17,-2.775557561562891351e-17,-2.775557561562891351e-17,-2.775557561562891351e-17,-2.775557561562891351e-17,-2.775557561562891351e-17,-2.775557561562891351e-17,-2.775557561562891351e-17,-2.775557561562891351e-17,-2.775557561562891351e-17,-2.775557561562891351e-17,-2.542469095182799954e-01,-2.542469095182799954e-01,-2.542469095182799954e-01,-2.542469095182799954e-01,-2.617312542982875856e-01,-3.143424807603198423e-02,-5.538415137205629502e-02,-7.933405466808063355e-02,-1.032839579641049582e-01,-1.272338612601292829e-01,-1.511837645561536214e-01,-1.751336678521779322e-01,-1.990835711482022707e-01,-2.155491296642189913e-01,-2.155491296642189913e-01,-2.155491296642189913e-01,-2.155491296642189913e-01,-2.155491296642189913e-01
-2.155491296642189913e-01,-2.155491296642189913e-01,-2.155491296642189913e-01,-2.155491296642189913e-01,-2.155491296642189913e-01,-2.108858071474450369e-01,-1.943051048655820290e-01,-1.777244025837190211e-01,-1.611437003018560410e-01,-1.445629980199930331e-01,-1.279822957381300252e-01,-1.114015934562670312e-01,-9.482089117440403725e-02,-7.824018889254105713e-02,-6.165948661067807701e-02,-4.507878432881504138e-02,-2.849808204695206126e-02,-1.191737976508902563e-02,-2.775557561562891351e-17,-2.775557561562891351e-17,-2.775557561562891351e-17,-2.775557561562891351e-17,-2.775557561562891351e-17,-2.775557561562891351e-17,-2.775557561562891351e-17,-2.775557561562891351e-17,-2.775557561562891351e-17,0.000000000000000000e+00,-2.775557561562891351e-17,-2.542469095182799954e-01,-2.542469095182799954e-01,-2.542469095182800509e-01,-2.542469095182799954e-01,-2.602343853422861009e-01,-2.993737912003044399e-02,-5.388728241605475477e-02,-7.783718571207912107e-02,-1.017870890081034319e-01,-1.257369923041277704e-01,-1.496868956001520812e-01,-1.736367988961764197e-01,-1.975867021922007583e-01,-2.155491296642189913e-01,-2.155491296642189913e-01,-2.155491296642189913e-01,-2.155491296642189913e-01,-2.155491296642189913e-01
-2.155491296642189913e-01,-2.155491296642189913e-01,-2.155491296642189913e-01,-2.155491296642189913e-01,-2.155491296642189913e-01,-2.114039540937532324e-01,-1.948232518118902523e-01,-1.782425495300272444e-01,-1.616618472481642366e-01,-1.450811449663012564e-01,-1.285004426844382486e-01,-1.119197404025752407e-01,-9.533903812071226058e-02,-7.875833583884925271e-02,-6.217763355698627259e-02,-4.559693127512329247e-02,-2.901622899326025684e-02,-1.243552671139727672e-02,-2.775557561562891351e-17,-2.775557561562891351e-17,-2.775557561562891351e-17,-2.775557561562891351e-17,-2.775557561562891351e-17,-2.775557561562891351e-17,0.000000000000000000e+00,-2.775557561562891351e-17,-2.775557561562891351e-17,-2.775557561562891351e-17,0.000000000000000000e+00,-2.542469095182799954e-01,-2.542469095182799954e-01,-2.542469095182799954e-01,-2.542469095182799954e-01,-2.594859508642853863e-01,-2.918894464202967387e-02,-5.313884793805398465e-02,-7.708875123407835095e-02,-1.010386545301026756e-01,-1.249885578261270003e-01,-1.489384611221513111e-01,-1.728883644181756496e-01,-1.968382677141999881e-01,-2.155491296642189913e-01,-2.155491296642189913e-01,-2.155491296642189913e-01,-2.155491296642189913e-01,-2.155491296642189913e-01
-2.155491296642189913e-01,-2.155491296642189913e-01,-2.155491296642189913e-01,-2.155491296642189913e-01,-2.155491296642189913e-01,-2.124402479863696791e-01,-1.958595457045066712e-01,-1.792788434226436911e-01,-1.626981411407806832e-01,-1.461174388589177031e-01,-1.295367365770546952e-01,-1.129560342951916874e-01,-9.637533201332867949e-02,-7.979462973146569937e-02,-6.321392744960271926e-02,-4.663322516773971138e-02,-3.005252288587670351e-02,-1.347182060401369563e-02,-2.775557561562891351e-17,-2.775557561562891351e-17,-2.775557561562891351e-17,-2.775557561562891351e-17,-2.775557561562891351e-17,-2.775557561562891351e-17,-2.775557561562891351e-17,-2.775557561562891351e-17,-2.775557561562891351e-17,-2.775557561562891351e-17,-2.775557561562891351e-17,-2.542469095182799954e-01,-2.542469095182799954e-01,-2.542469095182799954e-01,-2.542469095182799954e-01,-2.587375163862846161e-01,-2.769207568602818914e-02,-5.164197898205247217e-02,-7.559188227807681071e-02,-9.954178557410116313e-02,-1.234916888701254878e-01,-1.474415921661497986e-01,-1.713914954621741371e-01,-1.953413987581984479e-01,-2.155491296642189913e-01,-2.155491296642189913e-01,-2.155491296642189913e-01,-2.155491296642189913e-01,-2.155491296642189913e-01
-2.155491296642189913e-01,-2.155491296642189913e-01,-2.155491296642189913e-01,-2.155491296642189913e-01,-2.155491296642189913e-01,-2.129583949326779024e-01,-1.963776926508148946e-01,-1.797969903689519144e-01,-1.632162880870889066e-01,-1.466355858052258987e-01,-1.300548835233629186e-01,-1.134741812414999107e-01,-9.689347895963690283e-02,-8.031277667777392271e-02,-6.373207439591091483e-02,-4.715137211404793471e-02,-3.057066983218492684e-02,-1.398996755032191897e-02,-2.775557561562891351e-17,-2.775557561562891351e-17,-2.775557561562891351e-17,-2.775557561562891351e-17,-2.775557561562891351e-17,-2.775557561562891351e-17,-5.551115123125782702e-17,-2.775557561562891351e-17,-2.775557561562891351e-17,-5.551115123125782702e-17,-2.775557561562891351e-17,-2.775557561562891351e-17,-2.775557561562891351e-17,-2.775557561562891351e-17,-2.775557561562891351e-17,-2.993737912003080481e-03,-2.694364120802741902e-02,-5.089354450405172980e-02,-7.484344780007606834e-02,-9.879335109610039301e-02,-1.227432543921247177e-01,-1.466931576881490562e-01,-1.706430609841733670e-01,-1.945929642801977055e-01,-2.155491296642189913e-01,-2.155491296642189913e-01,-2.155491296642189913e-01,-2.155491296642189913e-01,-2.155491296642189913e-01
-2.155491296642189913e-01,-2.155491296642189913e-01,-2.155491296642189913e-01,-2.155491296642189913e-01,-2.155491296642189913e-01,-2.134765418789861258e-01,-1.974139865434313412e-01,-1.808332842615683334e-01,-1.642525819797053255e-01,-1.476718796978423454e-01,-1.310911774159793652e-01,-1.145104751341163435e-01,-9.792977285225334949e-02,-8.134907057039034162e-02,-6.476836828852736150e-02,-4.818766600666438138e-02,-3.160696372480134575e-02,-1.502626144293836563e-02,-2.775557561562891351e-17,-2.775557561562891351e-17,-2.775557561562891351e-17,-2.775557561562891351e-17,-2.775557561562891351e-17,-2.775557561562891351e-17,-2.775557561562891351e-17,-2.775557561562891351e-17,-2.775557561562891351e-17,0.000000000000000000e+00,-2.775557561562891351e-17,-2.775557561562891351e-17,0.000000000000000000e+00,-2.775557561562891351e-17,-2.775557561562891351e-17,-2.245303434002282605e-03,-2.619520673002664890e-02,-5.014511002605095968e-02,-7.334657884407455586e-02,-9.729648214009888052e-02,-1.212463854361232052e-01,-1.451962887321475160e-01,-1.691461920281718545e-01,-1.930960953241961930e-01,-2.155491296642189913e-01,-2.155491296642189913e-01,-2.155491296642189913e-01,-2.155491296642189913e-01,-2.155491296642189913e-01
-2.155491296642189913e-01,-2.155491296642189913e-01,-2.155491296642189913e-01,-2.155491296642189913e-01,-2.155491296642189913e-01,-2.145128357716025447e-01,-1.979321334897395646e-01,-1.813514312078765567e-01,-1.647707289260135488e-01,-1.481900266441505687e-01,-1.316093243622875608e-01,-1.150286220804245529e-01,-9.844791979856155895e-02,-8.186721751669859271e-02,-6.528651523483558483e-02,-4.870581295297257696e-02,-3.212511067110959684e-02,-1.554440838924656121e-02,-2.775557561562891351e-17,-2.775557561562891351e-17,-2.775557561562891351e-17,-2.775557561562891351e-17,-2.775557561562891351e-17,-2.775557561562891351e-17,-2.775557561562891351e-17,-2.775557561562891351e-17,-2.775557561562891351e-17,-2.775557561562891351e-17,-2.775557561562891351e-17,-2.775557561562891351e-17,-2.775557561562891351e-17,-2.775557561562891351e-17,-2.775557561562891351e-17,-7.484344780007978759e-04,-2.469833777402510866e-02,-4.864824107004941944e-02,-7.259814436607378574e-02,-9.654804766209811040e-02,-1.204979509581224351e-01,-1.444478542541467458e-01,-1.683977575501711121e-01,-1.923476608461954229e-01,-2.155491296642189913e-01,-2.155491296642189913e-01,-2.155491296642189913e-01,-2.155491296642189913e-01,-2.155491296642189913e-01
-2.155491296642189913e-01,-2.155491296642189913e-01,-2.155491296642189913e-01,-2.155491296642189913e-01,-2.155491296642189913e-01,-2.150309827179107680e-01,-1.984502804360477879e-01,-1.818695781541847800e-01,-1.658070228186299955e-01,-1.492263205367669876e-01,-1.326456182549040075e-01,-1.160649159730409996e-01,-9.948421369117800561e-02,-8.290351140931501162e-02,-6.632280912745203150e-02,-4.974210684558902362e-02,-3.316140456372604350e-02,-1.658070228186300787e-02,-2.775557561562891351e-17,-2.775557561562891351e-17,-2.775557561562891351e-17,-2.775557561562891351e-17,-2.775557561562891351e-17,-2.775557561562891351e-17,-2.775557561562891351e-17,-2.775557561562891351e-17,-2.775557561562891351e-17,-2.775557561562891351e-17,-2.775557561562891351e-17,-2.775557561562891351e-17,-2.775557561562891351e-17,-2.775557561562891351e-17,-2.775557561562891351e-17,-2.775557561562891351e-17,-2.394990329602436629e-02,-4.789980659204867708e-02,-7.184970988807301562e-02,-9.579961318409735416e-02,-1.190010820021209226e-01,-1.429509852981452611e-01,-1.669008885941695719e-01,-1.908507918901939104e-01,-2.148006951862182212e-01,-2.155491296642189913e-01,-2.155491296642189913e-01,-2.155491296642189913e-01,-2.155491296642189913e-01
-2.155491296642189913e-01,-2.155491296642189913e-01,-2.155491296642189913e-01,-2.155491296642189913e-01,-2.155491296642189913e-01,-2.155491296642189913e-01,-1.994865743286642068e-01,-1.829058720468011989e-01,-1.663251697649382188e-01,-1.497444674830752387e-01,-1.331637652012122308e-01,-1.165830629193492229e-01,-1.000023606374862289e-01,-8.342165835562326270e-02,-6.684095607376025483e-02,-5.026025379189724696e-02,-3.367955151003423908e-02,-1.709884922817123121e-02,-5.181469463082510885e-04,-2.775557561562891351e-17,-2.775557561562891351e-17,-2.775557561562891351e-17,-2.775557561562891351e-17,-2.775557561562891351e-17,-2.775557561562891351e-17,0.000000000000000000e+00,-5.551115123125782702e-17,-5.551115123125782702e-17,0.000000000000000000e+00,-2.775557561562891351e-17,-2.775557561562891351e-17,-2.775557561562891351e-17,-5.551115123125782702e-17,-5.551115123125782702e-17,-2.245303434002282605e-02,-4.640293763604713684e-02,-7.035284093207150313e-02,-9.430274422809582779e-02,-1.182526475241201525e-01,-1.422025508201444910e-01,-1.661524541161688295e-01,-1.901023574121931403e-01,-2.140522607082174789e-01,-2.155491296642189913e-01,-2.155491296642189913e-01,-2.155491296642189913e-01,-2.155491296642189913e-01
-2.155491296642189913e-01,-2.155491296642189913e-01,-2.155491296642189913e-01,-2.155491296642189913e-01,-2.155491296642189913e-01,-2.155491296642189913e-01,-2.000047212749724301e-01,-1.834240189931094500e-01,-1.668433167112464421e-01,-1.502626144293834343e-01,-1.342000590938286497e-01,-1.176193568119656557e-01,-1.010386545301026617e-01,-8.445795224823968161e-02,-6.787724996637667374e-02,-5.129654768451369362e-02,-3.471584540265065799e-02,-1.813514312078767787e-02,-1.554440838924669999e-03,-2.775557561562891351e-17,-2.775557561562891351e-17,-2.775557561562891351e-17,0.000000000000000000e+00,-2.775557561562891351e-17,-2.775557561562891351e-17,-2.775557561562891351e-17,-2.775557561562891351e-17,-2.775557561562891351e-17,-2.775557561562891351e-17,-2.775557561562891351e-17,-2.775557561562891351e-17,-2.775557561562891351e-17,-2.775557561562891351e-17,0.000000000000000000e+00,-2.170459986202208369e-02,-4.565450315804642223e-02,-6.960440645407073301e-02,-9.355430975009508543e-02,-1.175042130461193962e-01,-1.414541163421437209e-01,-1.646555851601672893e-01,-1.886054884561916278e-01,-2.125553917522159386e-01,-2.155491296642189913e-01,-2.155491296642189913e-01,-2.155491296642189913e-01,-2.155491296642189913e-01
-2.155491296642189913e-01,-2.155491296642189913e-01,-2.155491296642189913e-01,-2.155491296642189913e-01,-2.155491296642189913e-01,-2.155491296642189913e-01,-2.010410151675888768e-01,-1.844603128857258689e-01,-1.678796106038628611e-01,-1.512989083219998809e-01,-1.347182060401369008e-01,-1.181375037582738652e-01,-1.015568014764108851e-01,-8.497609919454790495e-02,-6.839539691268489707e-02,-5.181469463082188920e-02,-3.523399234895890908e-02,-1.865329006709587345e-02,-2.072587785232893332e-03,-2.775557561562891351e-17,-2.775557561562891351e-17,-2.775557561562891351e-17,-5.551115123125782702e-17,-2.775557561562891351e-17,-2.775557561562891351e-17,-2.775557561562891351e-17,-2.775557561562891351e-17,-2.775557561562891351e-17,-2.775557561562891351e-17,-2.775557561562891351e-17,-2.775557561562891351e-17,-2.775557561562891351e-17,-2.775557561562891351e-17,-2.775557561562891351e-17,-2.020773090602057120e-02,-4.415763420204485423e-02,-6.810753749806919277e-02,-9.205744079409354519e-02,-1.160073440901178837e-01,-1.399572473861421806e-01,-1.639071506821665469e-01,-1.878570539781908577e-01,-2.118069572742151963e-01,-2.155491296642189913e-01,-2.155491296642189913e-01,-2.155491296642189913e-01,-2.155491296642189913e-01
-2.155491296642189913e-01,-2.155491296642189913e-01,-2.155491296642189913e-01,-2.155491296642189913e-01,-2.155491296642189913e-01,-2.155491296642189913e-01,-2.015591621138970724e-01,-1.849784598320340923e-01,-1.683977575501710844e-01,-1.518170552683080765e-01,-1.352363529864450964e-01,-1.186556507045821024e-01,-1.025930953690273179e-01,-8.601239308716432386e-02,-6.943169080530134374e-02,-5.285098852343836362e-02,-3.627028624157532799e-02,-1.968958395971232012e-02,-3.108881677849339997e-03,-2.775557561562891351e-17,-2.775557561562891351e-17,0.000000000000000000e+00,-2.775557561562891351e-17,-2.775557561562891351e-17,-2.775557561562891351e-17,0.000000000000000000e+00,-2.775557561562891351e-17,-2.775557561562891351e-17,-2.775557561562891351e-17,0.000000000000000000e+00,-2.775557561562891351e-17,-2.775557561562891351e-17,-2.775557561562891351e-17,-2.775557561562891351e-17,-1.945929642801982884e-02,-4.340919972404411187e-02,-6.735910302006845041e-02,-9.130900631609278895e-02,-1.152589096121171275e-01,-1.392088129081414383e-01,-1.631587162041657768e-01,-1.871086195001900876e-01,-2.103100883182136838e-01,-2.155491296642189913e-01,-2.155491296642189913e-01,-2.155491296642189913e-01,-2.155491296642189913e-01
-2.155491296642189913e-01,-2.155491296642189913e-01,-2.155491296642189913e-01,-2.155491296642189913e-01,-2.155491296642189913e-01,-2.155491296642189913e-01,-2.025954560065135190e-01,-1.860147537246505389e-01,-1.694340514427875310e-01,-1.528533491609245232e-01,-1.362726468790615431e-01,-1.196919445971985352e-01,-1.031112423153355412e-01,-8.653054003347254719e-02,-6.994983775160956707e-02,-5.336913546974655920e-02,-3.678843318788355132e-02,-2.020773090602054345e-02,-3.627028624157507819e-03,-2.775557561562891351e-17,-2.775557561562891351e-17,-2.775557561562891351e-17,0.000000000000000000e+00,-2.775557561562891351e-17,-5.551115123125782702e-17,-5.551115123125782702e-17,-2.775557561562891351e-17,-2.775557561562891351e-17,0.000000000000000000e+00,0.000000000000000000e+00,-2.775557561562891351e-17,-2.775557561562891351e-17,0.000000000000000000e+00,0.000000000000000000e+00,-1.796242747201828860e-02,-4.191233076804259938e-02,-6.586223406406693792e-02,-8.981213736009127646e-02,-1.137620406561155872e-01,-1.377119439521399258e-01,-1.616618472481642366e-01,-1.856117505441885751e-01,-2.095616538402129136e-01,-2.155491296642189913e-01,-2.155491296642189913e-01,-2.155491296642189913e-01,-2.155491296642189913e-01
-2.155491296642189913e-01,-2.155491296642189913e-01,-2.155491296642189913e-01,-2.155491296642189913e-01,-2.155491296642189913e-01,-2.155491296642189913e-01,-2.031136029528217424e-01,-1.865329006709587345e-01,-1.699521983890957544e-01,-1.533714961072327465e-01,-1.367907938253697386e-01,-1.202100915435067585e-01,-1.036293892616437506e-01,-8.704868697978074277e-02,-7.046798469791776265e-02,-5.440542936236300586e-02,-3.782472708049997023e-02,-2.124402479863699011e-02,-4.663322516773954485e-03,-2.775557561562891351e-17,-2.775557561562891351e-17,-2.775557561562891351e-17,-2.775557561562891351e-17,-2.775557561562891351e-17,-2.775557561562891351e-17,-2.775557561562891351e-17,-2.775557561562891351e-17,-2.775557561562891351e-17,-2.775557561562891351e-17,-2.775557561562891351e-17,-2.775557561562891351e-17,-2.775557561562891351e-17,-2.775557561562891351e-17,-2.775557561562891351e-17,-1.721399299401749072e-02,-4.116389629004185702e-02,-6.511379958606616780e-02,-8.906370288209050634e-02,-1.130136061781148449e-01,-1.369635094741391557e-01,-1.609134127701634942e-01,-1.848633160661878327e-01,-2.088132193622121435e-01,-2.155491296642189913e-01,-2.155491296642189913e-01,-2.155491296642189913e-01,-2.155491296642189913e-01
-2.155491296642189913e-01,-2.155491296642189913e-01,-2.155491296642189913e-01,-2.155491296642189913e-01,-2.155491296642189913e-01,-2.155491296642189913e-01,-2.041498968454381890e-01,-1.875691945635751812e-01,-1.709884922817121733e-01,-1.544077899998491932e-01,-1.378270877179861853e-01,-1.212463854361231913e-01,-1.046656831542601973e-01,-8.808498087239718943e-02,-7.150427859053420931e-02,-5.492357630867120144e-02,-3.834287402680822132e-02,-2.176217174494521345e-02,-5.181469463082205573e-03,-2.775557561562891351e-17,-2.775557561562891351e-17,-2.775557561562891351e-17,-2.775557561562891351e-17,-2.775557561562891351e-17,-2.775557561562891351e-17,-2.775557561562891351e-17,-2.775557561562891351e-17,-2.775557561562891351e-17,-2.775557561562891351e-17,-2.775557561562891351e-17,-2.775557561562891351e-17,-2.775557561562891351e-17,-2.775557561562891351e-17,-2.775557561562891351e-17,-1.571712403801603375e-02,-3.966702733404034453e-02,-6.361693063006465532e-02,-8.756683392608899386e-02,-1.115167372221133324e-01,-1.354666405181376432e-01,-1.594165438141619817e-01,-1.833664471101862925e-01,-2.073163504062106310e-01,-2.155491296642189913e-01,-2.155491296642189913e-01,-2.155491296642189913e-01,-2.155491296642189913e-01
-2.155491296642189913e-01,-2.155491296642189913e-01,-2.155491296642189913e-01,-2.155491296642189913e-01,-2.155491296642189913e-01,-2.155491296642189913e-01,-2.046680437917464124e-01,-1.880873415098834045e-01,-1.715066392280203966e-01,-1.549259369461574165e-01,-1.383452346642944086e-01,-1.217645323824314008e-01,-1.051838301005684068e-01,-8.860312781870541277e-02,-7.202242553684243265e-02,-5.544172325497945253e-02,-3.886102097311641690e-02,-2.279846563756163236e-02,-6.217763355698652239e-03,-2.775557561562891351e-17,-5.551115123125782702e-17,-2.775557561562891351e-17,-2.775557561562891351e-17,-2.775557561562891351e-17,-5.551115123125782702e-17,-2.775557561562891351e-17,-5.551115123125782702e-17,-2.775557561562891351e-17,-5.551115123125782702e-17,-2.775557561562891351e-17,-2.775557561562891351e-17,-2.775557561562891351e-17,-2.775557561562891351e-17,-2.775557561562891351e-17,-1.496868956001523587e-02,-3.891859285603957441e-02,-6.286849615206388520e-02,-8.681839944808822374e-02,-1.107683027441125623e-01,-1.347182060401368731e-01,-1.586681093361612116e-01,-1.826180126321855224e-01,-2.065679159282098609e-01,-2.155491296642189913e-01,-2.155491296642189913e-01,-2.155491296642189913e-01,-2.155491296642189913e-01
-2.155491296642189913e-01,-2.155491296642189913e-01,-2.155491296642189913e-01,-2.155491296642189913e-01,-2.155491296642189913e-01,-2.155491296642189913e-01,-2.057043376843628313e-01,-1.891236354024998234e-01,-1.725429331206368433e-01,-1.559622308387738632e-01,-1.393815285569108275e-01,-1.228008262750478474e-01,-1.062201239931848534e-01,-8.963942171132185943e-02,-7.305871942945887931e-02,-5.647801714759587144e-02,-3.989731486573286356e-02,-2.331661258386985569e-02,-6.735910302006847816e-03,-2.775557561562891351e-17,-2.775557561562891351e-17,-2.775557561562891351e-17,-2.775557561562891351e-17,-2.775557561562891351e-17,-5.551115123125782702e-17,-5.551115123125782702e-17,-5.551115123125782702e-17,-2.775557561562891351e-17,-2.775557561562891351e-17,-2.775557561562891351e-17,-2.775557561562891351e-17,0.000000000000000000e+00,-2.775557561562891351e-17,-2.775557561562891351e-17,-1.347182060401369563e-02,-3.742172390003803417e-02,-6.137162719606234496e-02,-8.532153049208671125e-02,-1.092714337881110498e-01,-1.332213370841353606e-01,-1.571712403801596714e-01,-1.811211436761840377e-01,-2.050710469722083484e-01,-2.155491296642189913e-01,-2.155491296642189913e-01,-2.155491296642189913e-01,-2.155491296642189913e-01
-2.155491296642189913e-01,-2.155491296642189913e-01,-2.155491296642189913e-01,-2.155491296642189913e-01,-2.155491296642189913e-01,-2.155491296642189913e-01,-2.062224846306710546e-01,-1.896417823488080467e-01,-1.730610800669450666e-01,-1.564803777850820588e-01,-1.398996755032190786e-01,-1.233189732213560708e-01,-1.067382709394930629e-01,-9.015756865763005501e-02,-7.357686637576707489e-02,-5.699616409390409477e-02,-4.041546181204105914e-02,-2.383475953017807902e-02,-7.254057248315071149e-03,-2.775557561562891351e-17,-2.775557561562891351e-17,-2.775557561562891351e-17,-2.775557561562891351e-17,-2.775557561562891351e-17,-2.775557561562891351e-17,-2.775557561562891351e-17,-2.775557561562891351e-17,-2.775557561562891351e-17,-2.775557561562891351e-17,-2.775557561562891351e-17,-2.775557561562891351e-17,-2.775557561562891351e-17,-2.775557561562891351e-17,-2.775557561562891351e-17,-1.272338612601295327e-02,-3.667328942203729181e-02,-6.062319271806160259e-02,-8.457309601408594113e-02,-1.085229993101102658e-01,-1.324729026061345905e-01,-1.564228059021589290e-01,-1.803727091981832675e-01,-2.043226124942075783e-01,-2.155491296642189913e-01,-2.155491296642189913e-01,-2.155491296642189913e-01,-2.155491296642189913e-01
-2.155491296642189913e-01,-2.155491296642189913e-01,-2.155491296642189913e-01,-2.155491296642189913e-01,-2.155491296642189913e-01,-2.155491296642189913e-01,-2.072587785232875013e-01,-1.906780762414244934e-01,-1.740973739595614855e-01,-1.575166716776985054e-01,-1.409359693958355253e-01,-1.243552671139725035e-01,-1.077745648321095095e-01,-9.119386255024651555e-02,-7.461316026838352156e-02,-5.803245798652051368e-02,-4.145175570465753356e-02,-2.487105342279452569e-02,-8.290351140931517815e-03,-2.775557561562891351e-17,-2.775557561562891351e-17,-2.775557561562891351e-17,-2.775557561562891351e-17,-2.775557561562891351e-17,-2.775557561562891351e-17,-2.775557561562891351e-17,-2.775557561562891351e-17,-2.775557561562891351e-17,-2.775557561562891351e-17,-2.775557561562891351e-17,-2.775557561562891351e-17,-2.775557561562891351e-17,-5.551115123125782702e-17,-2.775557561562891351e-17,-1.197495164801218315e-02,-3.592485494403652169e-02,-5.912632376206009011e-02,-8.307622705808440089e-02,-1.070261303541087533e-01,-1.309760336501330780e-01,-1.549259369461574165e-01,-1.788758402421817273e-01,-2.028257435382060658e-01,-2.155491296642189913e-01,-2.155491296642189913e-01,-2.155491296642189913e-01,-2.155491296642189913e-01
-2.155491296642189913e-01,-2.155491296642189913e-01,-2.155491296642189913e-01,-2.155491296642189913e-01,-2.155491296642189913e-01,-2.155491296642189913e-01,-2.077769254695957246e-01,-1.911962231877327167e-01,-1.746155209058697089e-01,-1.580348186240067010e-01,-1.414541163421437209e-01,-1.248734140602807269e-01,-1.082927117784177190e-01,-9.171200949655472501e-02,-7.513130721469174489e-02,-5.855060493282873701e-02,-4.196990265096575690e-02,-2.538920036910272127e-02,-8.808498087239741148e-03,-2.775557561562891351e-17,-2.775557561562891351e-17,-2.775557561562891351e-17,-2.775557561562891351e-17,-2.775557561562891351e-17,-2.775557561562891351e-17,-2.775557561562891351e-17,-2.775557561562891351e-17,-2.775557561562891351e-17,-2.775557561562891351e-17,-2.775557561562891351e-17,-2.775557561562891351e-17,-2.775557561562891351e-17,-2.775557561562891351e-17,-2.775557561562891351e-17,-1.047808269201069842e-02,-3.442798598803500920e-02,-5.837788928405934774e-02,-8.232779258008368628e-02,-1.062776958761079971e-01,-1.302275991721323356e-01,-1.541775024681566464e-01,-1.781274057641809849e-01,-2.020773090602052957e-01,-2.155491296642189913e-01,-2.155491296642189913e-01,-2.155491296642189913e-01,-2.155491296642189913e-01
-2.155491296642189913e-01,-2.155491296642189913e-01,-2.155491296642189913e-01,-2.155491296642189913e-01,-2.155491296642189913e-01,-2.155491296642189913e-01,-2.082950724159039202e-01,-1.917143701340409401e-01,-1.756518147984861555e-01,-1.590711125166231477e-01,-1.424904102347601675e-01,-1.259097079528971597e-01,-1.093290056710341657e-01,-9.274830338917117167e-02,-7.616760110730819155e-02,-5.958689882544518368e-02,-4.300619654358217581e-02,-2.642549426171916793e-02,-9.844791979856187814e-03,-2.775557561562891351e-17,-2.775557561562891351e-17,-2.775557561562891351e-17,-2.775557561562891351e-17,-2.775557561562891351e-17,-2.775557561562891351e-17,-2.775557561562891351e-17,-2.775557561562891351e-17,0.000000000000000000e+00,-2.775557561562891351e-17,-2.775557561562891351e-17,-5.551115123125782702e-17,-2.775557561562891351e-17,-2.775557561562891351e-17,-2.775557561562891351e-17,-9.729648214009928298e-03,-3.367955151003423908e-02,-5.762945480605857762e-02,-8.083092362408214604e-02,-1.047808269201064707e-01,-1.287307302161307954e-01,-1.526806335121551339e-01,-1.766305368081794724e-01,-2.005804401042037832e-01,-2.155491296642189913e-01,-2.155491296642189913e-01,-2.155491296642189913e-01,-2.155491296642189913e-01
-2.155491296642189913e-01,-2.155491296642189913e-01,-2.155491296642189913e-01,-2.155491296642189913e-01,-2.155491296642189913e-01,-2.155491296642189913e-01,-2.093313663085203669e-01,-1.927506640266573590e-01,-1.761699617447943789e-01,-1.595892594629313710e-01,-1.430085571810683631e-01,-1.264278548992053830e-01,-1.098471526173423751e-01,-9.326645033547936725e-02,-7.668574805361638713e-02,-6.010504577175340701e-02,-4.352434348989039914e-02,-2.694364120802736351e-02,-1.036293892616438339e-02,-2.775557561562891351e-17,-2.775557561562891351e-17,-2.775557561562891351e-17,-2.775557561562891351e-17,-2.775557561562891351e-17,-2.775557561562891351e-17,-2.775557561562891351e-17,-2.775557561562891351e-17,-2.775557561562891351e-17,-2.775557561562891351e-17,-2.775557561562891351e-17,-2.775557561562891351e-17,-2.775557561562891351e-17,0.000000000000000000e+00,-2.775557561562891351e-17,-8.232779258008388057e-03,-3.218268255403269884e-02,-5.613258585005706514e-02,-8.008248914608137592e-02,-1.040323924421057145e-01,-1.279822957381300252e-01,-1.519321990341543638e-01,-1.758821023301787023e-01,-1.998320056262030131e-01,-2.155491296642189913e-01,-2.155491296642189913e-01,-2.155491296642189913e-01,-2.155491296642189913e-01
-2.155491296642189913e-01,-2.155491296642189913e-01,-2.155491296642189913e-01,-2.155491296642189913e-01,-2.155491296642189913e-01,-2.155491296642189913e-01,-2.098495132548285902e-01,-1.932688109729655823e-01,-1.766881086911025744e-01,-1.601074064092395943e-01,-1.440448510736848098e-01,-1.274641487918218019e-01,-1.108834465099587940e-01,-9.430274422809581392e-02,-7.772204194623283380e-02,-6.114133966436985368e-02,-4.456063738250684580e-02,-2.797993510064381018e-02,-1.139923281878083006e-02,-2.775557561562891351e-17,-2.775557561562891351e-17,-2.775557561562891351e-17,-2.775557561562891351e-17,-2.775557561562891351e-17,-2.775557561562891351e-17,-2.775557561562891351e-17,-2.775557561562891351e-17,-2.775557561562891351e-17,-2.775557561562891351e-17,-2.775557561562891351e-17,-2.775557561562891351e-17,-2.775557561562891351e-17,-2.775557561562891351e-17,-2.775557561562891351e-17,-7.484344780007645692e-03,-3.143424807603195648e-02,-5.538415137205629502e-02,-7.933405466808060580e-02,-1.032839579641049582e-01,-1.272338612601292829e-01,-1.504353300781528513e-01,-1.743852333741771621e-01,-1.983351366702015006e-01,-2.155491296642189913e-01,-2.155491296642189913e-01,-2.155491296642189913e-01,-2.155491296642189913e-01
-2.155491296642189913e-01,-2.155491296642189913e-01,-2.155491296642189913e-01,-2.155491296642189913e-01,-2.155491296642189913e-01,-2.155491296642189913e-01,-2.108858071474450369e-01,-1.943051048655820290e-01,-1.777244025837190211e-01,-1.611437003018560410e-01,-1.445629980199930331e-01,-1.279822957381300252e-01,-1.114015934562670312e-01,-9.482089117440402337e-02,-7.824018889254105713e-02,-6.165948661067807701e-02,-4.507878432881504138e-02,-2.849808204695206126e-02,-1.191737976508902563e-02,-2.775557561562891351e-17,-2.775557561562891351e-17,-2.775557561562891351e-17,-2.775557561562891351e-17,-2.775557561562891351e-17,-2.775557561562891351e-17,-2.775557561562891351e-17,-2.775557561562891351e-17,-5.551115123125782702e-17,-2.775557561562891351e-17,-2.775557561562891351e-17,-2.775557561562891351e-17,0.000000000000000000e+00,-2.775557561562891351e-17,-2.775557561562891351e-17,-5.987475824006105452e-03,-2.993737912003044399e-02,-5.388728241605475477e-02,-7.783718571207909331e-02,-1.017870890081034319e-01,-1.257369923041277704e-01,-1.496868956001520812e-01,-1.736367988961764197e-01,-1.975867021922007583e-01,-2.155491296642189913e-01,-2.155491296642189913e-01,-2.155491296642189913e-01,-2.155491296642189913e-01
-2.155491296642189913e-01,-2.155491296642189913e-01,-2.155491296642189913e-01,-2.155491296642189913e-01,-2.155491296642189913e-01,-2.155491296642189913e-01,-2.114039540937532324e-01,-1.948232518118902523e-01,-1.782425495300272444e-01,-1.616618472481642366e-01,-1.450811449663012564e-01,-1.285004426844382763e-01,-1.124378873488834779e-01,-9.585718506702048392e-02,-7.927648278515750380e-02,-6.269578050329449592e-02,-4.611507822143148805e-02,-2.953437593956848017e-02,-1.295367365770547230e-02,-2.775557561562891351e-17,-2.775557561562891351e-17,-2.775557561562891351e-17,-2.775557561562891351e-17,-2.775557561562891351e-17,-2.775557561562891351e-17,0.000000000000000000e+00,-2.775557561562891351e-17,-2.775557561562891351e-17,0.000000000000000000e+00,-2.775557561562891351e-17,-2.775557561562891351e-17,-2.775557561562891351e-17,-2.775557561562891351e-17,-2.775557561562891351e-17,-5.239041346005363087e-03,-2.918894464202970163e-02,-5.313884793805398465e-02,-7.708875123407835095e-02,-1.010386545301026756e-01,-1.249885578261270003e-01,-1.489384611221513111e-01,-1.728883644181756774e-01,-1.960898332361992180e-01,-2.155491296642189913e-01,-2.155491296642189913e-01,-2.155491296642189913e-01,-2.155491296642189913e-01
-2.155491296642189913e-01,-2.155491296642189913e-01,-2.155491296642189913e-01,-2.155491296642189913e-01,-2.155491296642189913e-01,-2.155491296642189913e-01,-2.124402479863696791e-01,-1.958595457045066712e-01,-1.792788434226436911e-01,-1.626981411407806832e-01,-1.461174388589177031e-01,-1.295367365770546952e-01,-1.129560342951916874e-01,-9.637533201332867949e-02,-7.979462973146569937e-02,-6.321392744960271926e-02,-4.663322516773971138e-02,-3.005252288587670351e-02,-1.347182060401369563e-02,-2.775557561562891351e-17,-2.775557561562891351e-17,-2.775557561562891351e-17,-2.775557561562891351e-17,-2.775557561562891351e-17,-2.775557561562891351e-17,-2.775557561562891351e-17,-2.775557561562891351e-17,-2.775557561562891351e-17,-2.775557561562891351e-17,-2.775557561562891351e-17,-2.775557561562891351e-17,-2.775557561562891351e-17,-2.775557561562891351e-17,-2.775557561562891351e-17,-3.742172390003822846e-03,-2.769207568602818914e-02,-5.164197898205247217e-02,-7.559188227807681071e-02,-9.954178557410116313e-02,-1.234916888701254739e-01,-1.474415921661497986e-01,-1.713914954621741371e-01,-1.953413987581984756e-01,-2.155491296642189913e-01,-2.155491296642189913e-01,-2.155491296642189913e-01,-2.155491296642189913e-01
-2.155491296642189913e-01,-2.155491296642189913e-01,-2.155491296642189913e-01,-2.155491296642189913e-01,-2.155491296642189913e-01,-2.155491296642189913e-01,-2.129583949326779024e-01,-1.963776926508148946e-01,-1.797969903689519144e-01,-1.632162880870889066e-01,-1.466355858052258987e-01,-1.300548835233629186e-01,-1.134741812414999107e-01,-9.689347895963691670e-02,-8.031277667777392271e-02,-6.425022134221916592e-02,-4.766951906035615805e-02,-3.108881677849315017e-02,-1.450811449663014230e-02,-2.775557561562891351e-17,-2.775557561562891351e-17,-2.775557561562891351e-17,-2.775557561562891351e-17,-2.775557561562891351e-17,-2.775557561562891351e-17,-5.551115123125782702e-17,-2.775557561562891351e-17,-2.775557561562891351e-17,-2.775557561562891351e-17,-2.775557561562891351e-17,-2.775557561562891351e-17,-2.775557561562891351e-17,-2.775557561562891351e-17,-2.775557561562891351e-17,-2.993737912003080481e-03,-2.694364120802741902e-02,-5.089354450405172980e-02,-7.484344780007604059e-02,-9.879335109610039301e-02,-1.227432543921247177e-01,-1.466931576881490562e-01,-1.706430609841733670e-01,-1.945929642801977055e-01,-2.155491296642189913e-01,-2.155491296642189913e-01,-2.155491296642189913e-01,-2.155491296642189913e-01
-2.155491296642189913e-01,-2.155491296642189913e-01,-2.155491296642189913e-01,-2.155491296642189913e-01,-2.155491296642189913e-01,-2.155491296642189913e-01,-2.139946888252943213e-01,-1.974139865434313412e-01,-1.808332842615683334e-01,-1.642525819797053255e-01,-1.476718796978423454e-01,-1.310911774159793652e-01,-1.145104751341163435e-01,-9.792977285225334949e-02,-8.134907057039034162e-02,-6.476836828852736150e-02,-4.818766600666438138e-02,-3.160696372480134575e-02,-1.502626144293833788e-02,-2.775557561562891351e-17,-2.775557561562891351e-17,-2.775557561562891351e-17,-2.775557561562891351e-17,-2.775557561562891351e-17,-2.775557561562891351e-17,-2.775557561562891351e-17,-2.775557561562891351e-17,-5.551115123125782702e-17,-2.775557561562891351e-17,-2.775557561562891351e-17,0.000000000000000000e+00,-2.775557561562891351e-17,-2.775557561562891351e-17,-2.775557561562891351e-17,-1.496868956001540241e-03,-2.544677225202587878e-02,-4.939667554805018956e-02,-7.334657884407455586e-02,-9.729648214009888052e-02,-1.212463854361231913e-01,-1.451962887321475160e-01,-1.691461920281718545e-01,-1.930960953241961930e-01,-2.155491296642189913e-01,-2.155491296642189913e-01,-2.155491296642189913e-01,-2.155491296642189913e-01
-2.155491296642189913e-01,-2.155491296642189913e-01,-2.155491296642189913e-01,-2.155491296642189913e-01,-2.155491296642189913e-01,-2.155491296642189913e-01,-2.145128357716025447e-01,-1.979321334897395646e-01,-1.813514312078765567e-01,-1.647707289260135766e-01,-1.481900266441505687e-01,-1.316093243622875608e-01,-1.150286220804245529e-01,-9.844791979856157282e-02,-8.186721751669859271e-02,-6.528651523483561259e-02,-4.870581295297257696e-02,-3.264325761741779242e-02,-1.606255533555481230e-02,-2.775557561562891351e-17,-2.775557561562891351e-17,-2.775557561562891351e-17,-2.775557561562891351e-17,-2.775557561562891351e-17,-2.775557561562891351e-17,-2.775557561562891351e-17,-2.775557561562891351e-17,-2.775557561562891351e-17,-2.775557561562891351e-17,-2.775557561562891351e-17,-2.775557561562891351e-17,-2.775557561562891351e-17,-2.775557561562891351e-17,-2.775557561562891351e-17,-7.484344780007978759e-04,-2.469833777402513642e-02,-4.864824107004941944e-02,-7.259814436607378574e-02,-9.654804766209811040e-02,-1.204979509581224351e-01,-1.444478542541467736e-01,-1.683977575501711121e-01,-1.923476608461954229e-01,-2.155491296642189913e-01,-2.155491296642189913e-01,-2.155491296642189913e-01,-2.155491296642189913e-01
-2.155491296642189913e-01,-2.155491296642189913e-01,-2.155491296642189913e-01,-2.155491296642189913e-01,-2.155491296642189913e-01,-2.155491296642189913e-01,-2.155491296642189913e-01,-1.989684273823559835e-01,-1.823877251004930033e-01,-1.658070228186299955e-01,-1.492263205367669876e-01,-1.326456182549040075e-01,-1.160649159730409996e-01,-9.948421369117800561e-02,-8.290351140931501162e-02,-6.632280912745203150e-02,-4.974210684558902362e-02,-3.316140456372604350e-02,-1.658070228186300787e-02,-2.775557561562891351e-17,-2.775557561562891351e-17,-2.775557561562891351e-17,-2.775557561562891351e-17,-2.775557561562891351e-17,-2.775557561562891351e-17,-2.775557561562891351e-17,-2.775557561562891351e-17,-2.775557561562891351e-17,-2.775557561562891351e-17,-2.775557561562891351e-17,-2.775557561562891351e-17,-2.775557561562891351e-17,-2.775557561562891351e-17,-2.775557561562891351e-17,-2.775557561562891351e-17,-2.320146881802359617e-02,-4.715137211404790696e-02,-7.110127541007224550e-02,-9.505117870609658404e-02,-1.190010820021209087e-01,-1.429509852981452611e-01,-1.669008885941695719e-01,-1.908507918901939104e-01,-2.148006951862182212e-01,-2.155491296642189913e-01,-2.155491296642189913e-01,-2.155491296642189913e-01
-2.155491296642189913e-01,-2.155491296642189913e-01,-2.155491296642189913e-01,-2.155491296642189913e-01,-2.155491296642189913e-01,-2.155491296642189913e-01,-2.155491296642189913e-01,-1.994865743286642068e-01,-1.829058720468011989e-01,-1.663251697649382188e-01,-1.497444674830752387e-01,-1.331637652012122031e-01,-1.165830629193492229e-01,-1.000023606374862151e-01,-8.342165835562323495e-02,-6.684095607376025483e-02,-5.026025379189724696e-02,-3.367955151003423908e-02,-1.709884922817123121e-02,-1.036293892616446666e-03,-2.775557561562891351e-17,-5.551115123125782702e-17,-2.775557561562891351e-17,-2.775557561562891351e-17,-6.735910302006875572e-03,-1.347182060401372339e-02,-2.694364120802741902e-02,-3.367955151003423908e-02,-4.715137211404790696e-02,-5.388728241605478253e-02,-6.062319271806160259e-02,-7.409501332207529822e-02,-8.083092362408214604e-02,-9.430274422809582779e-02,-1.010386545301026617e-01,-1.250353349810020553e-01,-1.415476706518938310e-01,-1.611005213896636867e-01,-1.738706846705516673e-01,-1.881844940623161877e-01,-1.972124849532003732e-01,-2.062872529989595860e-01,-2.115730714998399487e-01,-2.153620210447187988e-01,-2.155491296642189913e-01,-2.155491296642189913e-01,-2.155491296642189913e-01
