5.541976721811087137e-03,5.541976721811087137e-03,5.541976721811087137e-03,5.541976721811087137e-03,5.541976721811087137e-03,5.541976721811087137e-03,5.541976721811087137e-03,5.541976721811087137e-03,5.541976721811087137e-03,5.541976721811087137e-03,5.541976721811087137e-03,5.541976721811087137e-03,5.541976721811087137e-03,5.541976721811087137e-03,5.541976721811087137e-03,5.541976721811087137e-03,3.872838063470346141e-03,-6.714737543847881796e-03,-1.828415942077831272e-02,-2.504798927810680462e-02,-2.635711763758973036e-02,-2.766624599707266652e-02,-2.893173674457283351e-02,-3.024086510405576966e-02,-3.154999346353870582e-02,-3.281548421103887281e-02,-3.412461257052180896e-02,-3.543374093000474512e-02,-3.669923167750491905e-02,-3.774653436509126103e-02,-3.774653436509126103e-02,-3.740834287222483817e-02,-2.726259808623209685e-02,-1.711685330023936247e-02,-7.309300007113047476e-03,2.836444778879690376e-03,5.541976721811087137e-03,5.541976721811087137e-03,5.541976721811087137e-03,5.541976721811087137e-03,5.541976721811087137e-03,5.541976721811087137e-03,5.541976721811087137e-03,5.541976721811087137e-03,5.541976721811087137e-03,5.541976721811087137e-03,5.541976721811087137e-03
5.541976721811087137e-03,5.541976721811087137e-03,5.541976721811087137e-03,5.541976721811087137e-03,5.541976721811087137e-03,5.541976721811087137e-03,5.541976721811087137e-03,5.541976721811087137e-03,5.541976721811087137e-03,5.541976721811087137e-03,5.541976721811087137e-03,5.541976721811087137e-03,5.541976721811087137e-03,5.541976721811087137e-03,3.777380787258052472e-04,-9.252537415720529096e-03,-1.982238524317075576e-02,-2.194971882733052354e-02,-2.325884718681345970e-02,-2.452433793431362669e-02,-2.583346629379656284e-02,-2.714259465327949206e-02,-2.840808540077966599e-02,-2.971721376026259520e-02,-3.102634211974553136e-02,-3.229183286724570529e-02,-3.360096122672863450e-02,-3.491008958621156372e-02,-3.617558033371174459e-02,-3.748470869319467380e-02,-3.774653436509126103e-02,-3.774653436509126103e-02,-3.132089600062919199e-02,-2.117515121463645761e-02,-1.136759792151014262e-02,-1.221853135517404765e-03,5.541976721811087137e-03,5.541976721811087137e-03,5.541976721811087137e-03,5.541976721811087137e-03,5.541976721811087137e-03,5.541976721811087137e-03,5.541976721811087137e-03,5.541976721811087137e-03,5.541976721811087137e-03,5.541976721811087137e-03,5.541976721811087137e-03
5.541976721811087137e-03,5.541976721811087137e-03,5.541976721811087137e-03,5.541976721811087137e-03,5.541976721811087137e-03,5.541976721811087137e-03,5.541976721811087137e-03,5.541976721811087137e-03,5.541976721811087137e-03,5.541976721811087137e-03,5.541976721811087137e-03,4.941959557048075311e-03,-2.790079816148004210e-03,-1.146987357459474527e-02,-1.754232001707131325e-02,-1.885144837655424593e-02,-2.011693912405441986e-02,-2.142606748353734908e-02,-2.273519584302028523e-02,-2.400068659052045569e-02,-2.530981495000338838e-02,-2.661894330948631759e-02,-2.788443405698649152e-02,-2.919356241646943462e-02,-3.050269077595235689e-02,-3.176818152345253082e-02,-3.307730988293546698e-02,-3.438643824241839619e-02,-3.565192898991856318e-02,-3.696105734940149934e-02,-3.774653436509126797e-02,-3.774653436509126103e-02,-3.537919391502628713e-02,-2.523344912903354928e-02,-1.542589583590723776e-02,-5.280151049914499906e-03,4.865593736078237946e-03,5.541976721811087137e-03,5.541976721811087137e-03,5.541976721811087137e-03,5.541976721811087137e-03,5.541976721811087137e-03,5.541976721811087137e-03,5.541976721811087137e-03,5.541976721811087137e-03,5.541976721811087137e-03,5.541976721811087137e-03
5.541976721811087137e-03,5.541976721811087137e-03,5.541976721811087137e-03,5.541976721811087137e-03,5.541976721811087137e-03,5.541976721811087137e-03,5.541976721811087137e-03,5.541976721811087137e-03,5.541976721811087137e-03,2.019603229577318117e-03,-4.770136459865939940e-03,-1.255126814654262957e-02,-1.444404956629503911e-02,-1.570954031379520610e-02,-1.701866867327813879e-02,-1.832779703276107494e-02,-1.959328778026124540e-02,-2.090241613974417462e-02,-2.221154449922711424e-02,-2.347703524672728470e-02,-2.478616360621021392e-02,-2.609529196569314313e-02,-2.736078271319331706e-02,-2.866991107267625322e-02,-2.997903943215918243e-02,-3.124453017965934942e-02,-3.255365853914229252e-02,-3.386278689862522173e-02,-3.512827764612538872e-02,-3.643740600560833182e-02,-3.774653436509126103e-02,-3.774653436509126103e-02,-3.774653436509126103e-02,-2.929174704343064789e-02,-1.948419375030433290e-02,-9.338448964311595046e-03,8.072958216811428056e-04,5.541976721811087137e-03,5.541976721811087137e-03,5.541976721811087137e-03,5.541976721811087137e-03,5.541976721811087137e-03,5.541976721811087137e-03,5.541976721811087137e-03,5.541976721811087137e-03,5.541976721811087137e-03,5.541976721811087137e-03
5.541976721811087137e-03,5.541976721811087137e-03,5.541976721811087137e-03,5.541976721811087137e-03,5.541976721811087137e-03,5.541976721811087137e-03,5.541976721811087137e-03,6.818376872306953357e-04,-5.160147616961898581e-03,-1.003665075603582535e-02,-1.130214150353599581e-02,-1.261126986301892849e-02,-1.392039822250186465e-02,-1.518588897000203164e-02,-1.649501732948496779e-02,-1.780414568896790048e-02,-1.906963643646807094e-02,-2.037876479595100362e-02,-2.168789315543393631e-02,-2.295338390293411024e-02,-2.426251226241704292e-02,-2.557164062189997561e-02,-2.683713136940014260e-02,-2.814625972888308569e-02,-2.945538808836601491e-02,-3.072087883586618190e-02,-3.203000719534912499e-02,-3.333913555483205421e-02,-3.460462630233221426e-02,-3.591375466181515735e-02,-3.722288302129808657e-02,-3.774653436509126103e-02,-3.774653436509126103e-02,-3.335004495782774303e-02,-2.354249166470142457e-02,-1.339674687870869019e-02,-3.251002092715952335e-03,5.541976721811087137e-03,5.541976721811087137e-03,5.541976721811087137e-03,5.541976721811087137e-03,5.541976721811087137e-03,5.541976721811087137e-03,5.541976721811087137e-03,5.541976721811087137e-03,5.541976721811087137e-03,5.541976721811087137e-03
5.541976721811087137e-03,5.541976721811087137e-03,5.541976721811087137e-03,5.541976721811087137e-03,3.938294481444492949e-03,-5.454701497845278191e-06,-4.931050154052383019e-03,-6.894742693276787251e-03,-8.203871052759718202e-03,-9.512999412242652622e-03,-1.077849015974282135e-02,-1.208761851922575403e-02,-1.339674687870868672e-02,-1.466223762620885718e-02,-1.597136598569179333e-02,-1.728049434517472949e-02,-1.854598509267489648e-02,-1.985511345215782916e-02,-2.116424181164076185e-02,-2.242973255914093578e-02,-2.373886091862386846e-02,-2.504798927810680115e-02,-2.631348002560696814e-02,-2.762260838508990429e-02,-2.893173674457283351e-02,-3.019722749207301438e-02,-3.150635585155594359e-02,-3.281548421103887281e-02,-3.408097495853904674e-02,-3.539010331802197595e-02,-3.669923167750491211e-02,-3.774653436509126103e-02,-3.774653436509126103e-02,-3.740834287222483817e-02,-2.760078957909851971e-02,-1.745504479310578533e-02,-7.309300007113047476e-03,2.498253286013265781e-03,5.541976721811087137e-03,5.541976721811087137e-03,5.541976721811087137e-03,5.541976721811087137e-03,5.541976721811087137e-03,5.541976721811087137e-03,5.541976721811087137e-03,5.541976721811087137e-03,5.541976721811087137e-03
5.541976721811087137e-03,5.541976721811087137e-03,3.496463660119002864e-03,4.691043288147182105e-04,-2.487343883017573490e-03,-3.796472242500507910e-03,-5.105600601983440595e-03,-6.371091349483612790e-03,-7.680219708966545475e-03,-8.989348068449479895e-03,-1.025483881594965035e-02,-1.156396717543258304e-02,-1.287309553491551573e-02,-1.413858628241568618e-02,-1.544771464189862234e-02,-1.675684300138155503e-02,-1.802233374888172202e-02,-1.933146210836465817e-02,-2.064059046784759086e-02,-2.190608121534776132e-02,-2.321520957483069747e-02,-2.452433793431363016e-02,-2.578982868181379368e-02,-2.709895704129672983e-02,-2.840808540077966599e-02,-2.967357614827983298e-02,-3.098270450776276219e-02,-3.229183286724570529e-02,-3.355732361474587228e-02,-3.486645197422880149e-02,-3.617558033371173765e-02,-3.744107108121190464e-02,-3.774653436509126103e-02,-3.774653436509126103e-02,-3.165908749349561485e-02,-2.151334270750288047e-02,-1.136759792151014262e-02,-1.560044628383829360e-03,5.541976721811087137e-03,5.541976721811087137e-03,5.541976721811087137e-03,5.541976721811087137e-03,5.541976721811087137e-03,5.541976721811087137e-03,5.541976721811087137e-03,5.541976721811087137e-03,5.541976721811087137e-03
4.290122728055531173e-03,2.259610095482522500e-03,6.109265677587032498e-04,-6.982017917242311703e-04,-1.963692539224400763e-03,-3.272820898707335183e-03,-4.581949258190269603e-03,-5.847440005690436593e-03,-7.156568365173372748e-03,-8.465696724656305433e-03,-9.731187472156475893e-03,-1.104031583163940858e-02,-1.234944419112234126e-02,-1.361493493862251172e-02,-1.492406329810544788e-02,-1.623319165758838056e-02,-1.749868240508855102e-02,-1.880781076457148371e-02,-2.011693912405441986e-02,-2.138242987155458685e-02,-2.269155823103751954e-02,-2.400068659052045222e-02,-2.526617733802062615e-02,-2.657530569750355537e-02,-2.788443405698649152e-02,-2.914992480448665851e-02,-3.045905316396959467e-02,-3.176818152345253082e-02,-3.303367227095269781e-02,-3.434280063043563397e-02,-3.565192898991856318e-02,-3.691741973741874405e-02,-3.774653436509126103e-02,-3.774653436509126103e-02,-3.571738540789271693e-02,-2.557164062189997561e-02,-1.542589583590723776e-02,-5.618342542780924501e-03,4.527402243211813351e-03,5.541976721811087137e-03,5.541976721811087137e-03,5.541976721811087137e-03,5.541976721811087137e-03,5.541976721811087137e-03,5.541976721811087137e-03,5.541976721811087137e-03,5.541976721811087137e-03
3.709197018534979989e-03,2.443706271034810397e-03,1.134577911551876844e-03,-1.745504479310575757e-04,-1.440041195431227168e-03,-2.749169554914160721e-03,-4.058297914397095141e-03,-5.323788661897263866e-03,-6.632917021380198286e-03,-7.942045380863130971e-03,-9.207536128363301431e-03,-1.051666448784623759e-02,-1.182579284732917027e-02,-1.309128359482934073e-02,-1.440041195431226995e-02,-1.570954031379520957e-02,-1.697503106129537656e-02,-1.828415942077830925e-02,-1.959328778026124540e-02,-2.085877852776141586e-02,-2.216790688724434855e-02,-2.347703524672728123e-02,-2.474252599422745169e-02,-2.605165435371038091e-02,-2.736078271319331706e-02,-2.862627346069349099e-02,-2.993540182017642021e-02,-3.124453017965935636e-02,-3.251002092715953029e-02,-3.381914928664245951e-02,-3.512827764612538872e-02,-3.639376839362556959e-02,-3.770289675310849187e-02,-3.774653436509126103e-02,-3.774653436509126103e-02,-2.962993853629707075e-02,-1.948419375030433290e-02,-9.676640457178019641e-03,4.691043288147182105e-04,5.541976721811087137e-03,5.541976721811087137e-03,5.541976721811087137e-03,5.541976721811087137e-03,5.541976721811087137e-03,5.541976721811087137e-03,5.541976721811087137e-03,5.541976721811087137e-03
4.232848362328153584e-03,2.967357614827983991e-03,1.658229255345050005e-03,3.491008958621160188e-04,-9.163898516380535736e-04,-2.225518211120987994e-03,-3.534646570603920679e-03,-4.800137318104089404e-03,-6.109265677587025559e-03,-7.418394037069959979e-03,-8.683884784570128704e-03,-9.993013144053063124e-03,-1.130214150353599581e-02,-1.256763225103616627e-02,-1.387676061051909895e-02,-1.518588897000203164e-02,-1.645137971750220210e-02,-1.776050807698513478e-02,-1.906963643646806747e-02,-2.033512718396823793e-02,-2.164425554345117408e-02,-2.295338390293411024e-02,-2.421887465043427723e-02,-2.552800300991721338e-02,-2.683713136940014954e-02,-2.810262211690031653e-02,-2.941175047638324574e-02,-3.072087883586618190e-02,-3.198636958336635583e-02,-3.329549794284928504e-02,-3.460462630233221426e-02,-3.587011704983238819e-02,-3.717924540931532434e-02,-3.774653436509126103e-02,-3.774653436509126797e-02,-3.368823645069416589e-02,-2.354249166470142804e-02,-1.373493837157511305e-02,-3.589193585582376930e-03,5.541976721811087137e-03,5.541976721811087137e-03,5.541976721811087137e-03,5.541976721811087137e-03,5.541976721811087137e-03,5.541976721811087137e-03,5.541976721811087137e-03,5.541976721811087137e-03
4.756499706121327178e-03,3.491008958621157586e-03,2.181880599138223600e-03,8.727522396552896133e-04,-3.927385078448799791e-04,-1.701866867327814399e-03,-3.010995226810747952e-03,-4.276485974310916677e-03,-5.585614333793851097e-03,-6.894742693276787251e-03,-8.160233440776955977e-03,-9.469361800259886927e-03,-1.077849015974282135e-02,-1.204398090724298834e-02,-1.335310926672592449e-02,-1.466223762620885718e-02,-1.592772837370902764e-02,-1.723685673319196379e-02,-1.854598509267489648e-02,-1.981147584017507041e-02,-2.112060419965799962e-02,-2.242973255914093578e-02,-2.369522330664110277e-02,-2.500435166612403545e-02,-2.631348002560696814e-02,-2.757897077310714207e-02,-2.888809913259007822e-02,-3.019722749207300744e-02,-3.146271823957318137e-02,-3.277184659905611752e-02,-3.408097495853903980e-02,-3.534646570603921373e-02,-3.665559406552214294e-02,-3.774653436509126103e-02,-3.774653436509126103e-02,-3.774653436509126103e-02,-2.760078957909852665e-02,-1.779323628597220819e-02,-7.647491499979470336e-03,2.498253286013265781e-03,5.541976721811087137e-03,5.541976721811087137e-03,5.541976721811087137e-03,5.541976721811087137e-03,5.541976721811087137e-03,5.541976721811087137e-03,5.541976721811087137e-03
5.280151049914499906e-03,4.014660302414331181e-03,2.705531942931396761e-03,1.396403583448463208e-03,1.309128359482936155e-04,-1.178215523534640805e-03,-2.487343883017575225e-03,-3.752834630517742215e-03,-5.061962990000676635e-03,-6.371091349483612790e-03,-7.636582096983781515e-03,-8.945710456466715935e-03,-1.025483881594965035e-02,-1.152032956344981734e-02,-1.282945792293275003e-02,-1.413858628241568618e-02,-1.540407702991585664e-02,-1.671320538939879280e-02,-1.802233374888172202e-02,-1.928782449638189248e-02,-2.059695285586482516e-02,-2.190608121534776132e-02,-2.317157196284792831e-02,-2.448070032233086446e-02,-2.578982868181379368e-02,-2.705531942931396761e-02,-2.836444778879690376e-02,-2.967357614827983298e-02,-3.093906689578000690e-02,-3.224819525526294306e-02,-3.355732361474587228e-02,-3.482281436224603927e-02,-3.613194272172898236e-02,-3.744107108121191158e-02,-3.774653436509126103e-02,-3.774653436509126103e-02,-3.165908749349562179e-02,-2.185153420036930333e-02,-1.170578941437656895e-02,-1.560044628383829360e-03,5.541976721811087137e-03,5.541976721811087137e-03,5.541976721811087137e-03,5.541976721811087137e-03,5.541976721811087137e-03,5.541976721811087137e-03,5.541976721811087137e-03
5.541976721811087137e-03,4.538311646207504775e-03,3.229183286724570789e-03,1.920054927241636802e-03,6.545641797414672100e-04,-6.545641797414672100e-04,-1.963692539224400763e-03,-3.229183286724571222e-03,-4.538311646207503908e-03,-5.847440005690436593e-03,-7.112930753190607053e-03,-8.422059112673541473e-03,-9.731187472156475893e-03,-1.099667821965664635e-02,-1.230580657913957557e-02,-1.361493493862251172e-02,-1.488042568612268218e-02,-1.618955404560561834e-02,-1.749868240508854755e-02,-1.876417315258872148e-02,-2.007330151207165417e-02,-2.138242987155458685e-02,-2.264792061905476078e-02,-2.395704897853769000e-02,-2.526617733802062268e-02,-2.653166808552079314e-02,-2.784079644500372930e-02,-2.914992480448666545e-02,-3.041541555198682550e-02,-3.172454391146976166e-02,-3.303367227095269087e-02,-3.429916301845286480e-02,-3.560829137793579402e-02,-3.691741973741873711e-02,-3.774653436509126103e-02,-3.774653436509126103e-02,-3.571738540789270999e-02,-2.590983211476639847e-02,-1.576408732877366409e-02,-5.618342542780922766e-03,4.189210750345388756e-03,5.541976721811087137e-03,5.541976721811087137e-03,5.541976721811087137e-03,5.541976721811087137e-03,5.541976721811087137e-03,5.541976721811087137e-03
5.541976721811087137e-03,5.061962990000678370e-03,3.752834630517744383e-03,2.443706271034810397e-03,1.178215523534640805e-03,-1.309128359482936155e-04,-1.440041195431227168e-03,-2.705531942931398495e-03,-4.014660302414331181e-03,-5.323788661897263866e-03,-6.589279409397434326e-03,-7.898407768880367011e-03,-9.207536128363303166e-03,-1.047302687586346842e-02,-1.178215523534640458e-02,-1.309128359482933726e-02,-1.435677434232950772e-02,-1.566590270181244388e-02,-1.697503106129537656e-02,-1.824052180879554702e-02,-1.954965016827847971e-02,-2.085877852776141239e-02,-2.212426927526157938e-02,-2.343339763474451554e-02,-2.474252599422745169e-02,-2.600801674172761868e-02,-2.731714510121055484e-02,-2.862627346069349099e-02,-2.989176420819365798e-02,-3.120089256767659414e-02,-3.251002092715953029e-02,-3.377551167465969728e-02,-3.508464003414262650e-02,-3.639376839362556959e-02,-3.765925914112573658e-02,-3.774653436509126103e-02,-3.774653436509126103e-02,-2.996813002916349361e-02,-1.982238524317075923e-02,-9.676640457178019641e-03,1.309128359482936155e-04,5.541976721811087137e-03,5.541976721811087137e-03,5.541976721811087137e-03,5.541976721811087137e-03,5.541976721811087137e-03,5.541976721811087137e-03
5.541976721811087137e-03,5.541976721811087137e-03,4.276485974310917544e-03,2.967357614827983991e-03,1.701866867327813965e-03,3.927385078448799791e-04,-9.163898516380535736e-04,-2.181880599138224033e-03,-3.491008958621158453e-03,-4.800137318104089404e-03,-6.065628065604258129e-03,-7.374756425087194284e-03,-8.683884784570128704e-03,-9.949375532070297429e-03,-1.125850389155323358e-02,-1.256763225103616627e-02,-1.383312299853632979e-02,-1.514225135801926941e-02,-1.645137971750220210e-02,-1.771687046500237256e-02,-1.902599882448530524e-02,-2.033512718396824140e-02,-2.160061793146840839e-02,-2.290974629095134801e-02,-2.421887465043428070e-02,-2.548436539793444422e-02,-2.679349375741738037e-02,-2.810262211690031653e-02,-2.936811286440048352e-02,-3.067724122388341274e-02,-3.198636958336635583e-02,-3.325186033086652282e-02,-3.456098869034945203e-02,-3.587011704983238819e-02,-3.713560779733256212e-02,-3.774653436509126103e-02,-3.774653436509126103e-02,-3.402642794356058875e-02,-2.388068315756785090e-02,-1.373493837157511305e-02,-3.927385078448801525e-03,5.541976721811087137e-03,5.541976721811087137e-03,5.541976721811087137e-03,5.541976721811087137e-03,5.541976721811087137e-03,5.541976721811087137e-03
5.541976721811087137e-03,5.541976721811087137e-03,4.800137318104091139e-03,3.491008958621157586e-03,2.225518211120987560e-03,9.163898516380535736e-04,-3.927385078448799791e-04,-1.658229255345049571e-03,-2.967357614827983991e-03,-4.276485974310916677e-03,-5.541976721811087137e-03,-6.851105081294019822e-03,-8.160233440776955977e-03,-9.425724188277124702e-03,-1.073485254776005912e-02,-1.204398090724299181e-02,-1.330947165474315880e-02,-1.461860001422609495e-02,-1.592772837370903111e-02,-1.719321912120919810e-02,-1.850234748069213425e-02,-1.981147584017506347e-02,-2.107696658767523393e-02,-2.238609494715817008e-02,-2.369522330664110277e-02,-2.496071405414127670e-02,-2.626984241362420591e-02,-2.757897077310714207e-02,-2.884446152060730906e-02,-3.015358988009023827e-02,-3.146271823957317443e-02,-3.272820898707334836e-02,-3.403733734655628451e-02,-3.534646570603921373e-02,-3.661195645353938766e-02,-3.774653436509126103e-02,-3.774653436509126103e-02,-3.774653436509126103e-02,-2.793898107196495645e-02,-1.779323628597221166e-02,-7.985682992845896666e-03,2.160061793146841186e-03,5.541976721811087137e-03,5.541976721811087137e-03,5.541976721811087137e-03,5.541976721811087137e-03,5.541976721811087137e-03
5.541976721811087137e-03,5.541976721811087137e-03,5.323788661897264733e-03,4.014660302414331181e-03,2.749169554914161588e-03,1.440041195431227168e-03,1.309128359482936155e-04,-1.134577911551875977e-03,-2.443706271034809530e-03,-3.752834630517743950e-03,-5.018325378017912675e-03,-6.327453737500847095e-03,-7.636582096983781515e-03,-8.902072844483951974e-03,-1.021120120396688466e-02,-1.152032956344981734e-02,-1.278582031094998434e-02,-1.409494867043292049e-02,-1.540407702991585664e-02,-1.666956777741602364e-02,-1.797869613689895632e-02,-1.928782449638189594e-02,-2.055331524388206293e-02,-2.186244360336499909e-02,-2.317157196284793177e-02,-2.443706271034810223e-02,-2.574619106983103145e-02,-2.705531942931396761e-02,-2.832081017681413460e-02,-2.962993853629707075e-02,-3.093906689577999997e-02,-3.220455764328017390e-02,-3.351368600276311005e-02,-3.482281436224603927e-02,-3.608830510974621320e-02,-3.739743346922914935e-02,-3.774653436509126103e-02,-3.774653436509126103e-02,-3.199727898636203771e-02,-2.185153420036930680e-02,-1.204398090724299181e-02,-1.898236121250253955e-03,5.541976721811087137e-03,5.541976721811087137e-03,5.541976721811087137e-03,5.541976721811087137e-03,5.541976721811087137e-03
5.541976721811087137e-03,5.541976721811087137e-03,5.541976721811087137e-03,4.538311646207504775e-03,3.272820898707335183e-03,1.963692539224401196e-03,6.545641797414672100e-04,-6.109265677587023824e-04,-1.920054927241636802e-03,-3.229183286724571222e-03,-4.494674034224738213e-03,-5.803802393707674367e-03,-7.112930753190607053e-03,-8.378421500690777513e-03,-9.687549860173710198e-03,-1.099667821965664635e-02,-1.226216896715681334e-02,-1.357129732663974603e-02,-1.488042568612268218e-02,-1.614591643362284917e-02,-1.745504479310578533e-02,-1.876417315258872148e-02,-2.002966390008888847e-02,-2.133879225957182463e-02,-2.264792061905475731e-02,-2.391341136655492777e-02,-2.522253972603786046e-02,-2.653166808552079314e-02,-2.779715883302096707e-02,-2.910628719250389629e-02,-3.041541555198683244e-02,-3.168090629948699943e-02,-3.299003465896993559e-02,-3.429916301845286480e-02,-3.556465376595303873e-02,-3.687378212543597489e-02,-3.774653436509126103e-02,-3.774653436509126103e-02,-3.605557690075913979e-02,-2.590983211476639847e-02,-1.610227882164008695e-02,-5.956534035647349096e-03,4.189210750345388756e-03,5.541976721811087137e-03,5.541976721811087137e-03,5.541976721811087137e-03,5.541976721811087137e-03
5.541976721811087137e-03,5.541976721811087137e-03,5.541976721811087137e-03,5.061962990000678370e-03,3.796472242500508777e-03,2.487343883017574791e-03,1.178215523534640805e-03,-8.727522396552878786e-05,-1.396403583448463208e-03,-2.705531942931396761e-03,-3.971022690431565486e-03,-5.280151049914499906e-03,-6.589279409397434326e-03,-7.854770156897604785e-03,-9.163898516380535736e-03,-1.047302687586347189e-02,-1.173851762336363888e-02,-1.304764598284657157e-02,-1.435677434232950772e-02,-1.562226508982967818e-02,-1.693139344931261087e-02,-1.824052180879554702e-02,-1.950601255629571748e-02,-2.081514091577864670e-02,-2.212426927526158285e-02,-2.338976002276175331e-02,-2.469888838224468947e-02,-2.600801674172761868e-02,-2.727350748922779261e-02,-2.858263584871072183e-02,-2.989176420819365798e-02,-3.115725495569382497e-02,-3.246638331517676113e-02,-3.377551167465969728e-02,-3.504100242215986427e-02,-3.635013078164280043e-02,-3.765925914112573658e-02,-3.774653436509126103e-02,-3.774653436509126103e-02,-2.996813002916349361e-02,-2.016057673603718209e-02,-1.001483195004444424e-02,1.309128359482936155e-04,5.541976721811087137e-03,5.541976721811087137e-03,5.541976721811087137e-03,5.541976721811087137e-03
5.541976721811087137e-03,5.541976721811087137e-03,5.541976721811087137e-03,5.541976721811087137e-03,4.320123586293682372e-03,3.010995226810748385e-03,1.701866867327813965e-03,4.363761198276456740e-04,-8.727522396552887460e-04,-2.181880599138224033e-03,-3.447371346638392758e-03,-4.756499706121325444e-03,-6.065628065604261598e-03,-7.331118813104430323e-03,-8.640247172587364743e-03,-9.949375532070295694e-03,-1.121486627957046789e-02,-1.252399463905340404e-02,-1.383312299853633673e-02,-1.509861374603650372e-02,-1.640774210551943640e-02,-1.771687046500237256e-02,-1.898236121250254302e-02,-2.029148957198547570e-02,-2.160061793146840839e-02,-2.286610867896857885e-02,-2.417523703845151500e-02,-2.548436539793444422e-02,-2.674985614543461121e-02,-2.805898450491754736e-02,-2.936811286440048352e-02,-3.063360361190065745e-02,-3.194273197138359360e-02,-3.325186033086652282e-02,-3.451735107836668981e-02,-3.582647943784962596e-02,-3.713560779733255518e-02,-3.774653436509126103e-02,-3.774653436509126103e-02,-3.402642794356058875e-02,-2.421887465043427723e-02,-1.407312986444153938e-02,-3.927385078448801525e-03,5.541976721811087137e-03,5.541976721811087137e-03,5.541976721811087137e-03,5.541976721811087137e-03
5.541976721811087137e-03,5.541976721811087137e-03,5.541976721811087137e-03,5.541976721811087137e-03,4.843774930086855966e-03,3.534646570603921546e-03,2.225518211120987994e-03,9.600274636208184012e-04,-3.491008958621151514e-04,-1.658229255345049571e-03,-2.923720002845218296e-03,-4.232848362328152717e-03,-5.541976721811085402e-03,-6.807467469311255862e-03,-8.116595828794192016e-03,-9.425724188277122967e-03,-1.069121493577729343e-02,-1.200034329526022958e-02,-1.330947165474316227e-02,-1.457496240224333273e-02,-1.588409076172626541e-02,-1.719321912120919810e-02,-1.845870986870936856e-02,-1.976783822819230471e-02,-2.107696658767523740e-02,-2.234245733517540439e-02,-2.365158569465834054e-02,-2.496071405414127323e-02,-2.622620480164144369e-02,-2.753533316112437290e-02,-2.884446152060730906e-02,-3.010995226810747605e-02,-3.141908062759041220e-02,-3.272820898707334836e-02,-3.399369973457351535e-02,-3.530282809405645150e-02,-3.661195645353938766e-02,-3.774653436509126103e-02,-3.774653436509126103e-02,-3.774653436509126103e-02,-2.827717256483137237e-02,-1.813142777883863452e-02,-7.985682992845896666e-03,1.821870300280416591e-03,5.541976721811087137e-03,5.541976721811087137e-03,5.541976721811087137e-03
5.541976721811087137e-03,5.541976721811087137e-03,5.541976721811087137e-03,5.541976721811087137e-03,5.367426273880029561e-03,4.058297914397095141e-03,2.749169554914161588e-03,1.483678807413991128e-03,1.745504479310593104e-04,-1.134577911551876844e-03,-2.400068659052045569e-03,-3.709197018534979989e-03,-5.018325378017912675e-03,-6.283816125518083134e-03,-7.592944485001017554e-03,-8.902072844483950240e-03,-1.016756359198411896e-02,-1.147669195146705512e-02,-1.278582031094998780e-02,-1.405131105845015826e-02,-1.536043941793309095e-02,-1.666956777741602364e-02,-1.793505852491619409e-02,-1.924418688439912678e-02,-2.055331524388206293e-02,-2.181880599138222993e-02,-2.312793435086516608e-02,-2.443706271034810223e-02,-2.570255345784826576e-02,-2.701168181733119844e-02,-2.832081017681414153e-02,-2.958630092431430852e-02,-3.089542928379723774e-02,-3.220455764328017390e-02,-3.347004839078034089e-02,-3.477917675026327704e-02,-3.608830510974621320e-02,-3.735379585724638019e-02,-3.774653436509126103e-02,-3.774653436509126103e-02,-3.233547047922846751e-02,-2.218972569323572966e-02,-1.204398090724299181e-02,-2.236427614116678550e-03,5.541976721811087137e-03,5.541976721811087137e-03,5.541976721811087137e-03
5.541976721811087137e-03,5.541976721811087137e-03,5.541976721811087137e-03,5.541976721811087137e-03,5.541976721811087137e-03,4.581949258190268735e-03,3.272820898707335183e-03,2.007330151207165157e-03,6.982017917242311703e-04,-6.109265677587023824e-04,-1.876417315258871107e-03,-3.185545674741805527e-03,-4.494674034224739947e-03,-5.760164781724908672e-03,-7.069293141207843092e-03,-8.378421500690777513e-03,-9.643912248190947972e-03,-1.095304060767387719e-02,-1.226216896715681334e-02,-1.352765971465698380e-02,-1.483678807413991649e-02,-1.614591643362284917e-02,-1.741140718112301963e-02,-1.872053554060595232e-02,-2.002966390008888847e-02,-2.129515464758905546e-02,-2.260428300707199509e-02,-2.391341136655492777e-02,-2.517890211405509476e-02,-2.648803047353802398e-02,-2.779715883302096707e-02,-2.906264958052113406e-02,-3.037177794000406328e-02,-3.168090629948699943e-02,-3.294639704698716642e-02,-3.425552540647010258e-02,-3.556465376595303873e-02,-3.683014451345321266e-02,-3.774653436509126103e-02,-3.774653436509126103e-02,-3.639376839362556265e-02,-2.624802360763282133e-02,-1.610227882164008695e-02,-6.294725528513773691e-03,3.851019257478964161e-03,5.541976721811087137e-03,5.541976721811087137e-03
5.541976721811087137e-03,5.541976721811087137e-03,5.541976721811087137e-03,5.541976721811087137e-03,5.541976721811087137e-03,5.105600601983442330e-03,3.796472242500508777e-03,2.530981495000339185e-03,1.221853135517404765e-03,-8.727522396552878786e-05,-1.352765971465698380e-03,-2.661894330948632800e-03,-3.971022690431567220e-03,-5.236513437931734211e-03,-6.545641797414668631e-03,-7.854770156897603051e-03,-9.120260904397773510e-03,-1.042938926388070620e-02,-1.173851762336363888e-02,-1.300400837086380934e-02,-1.431313673034674550e-02,-1.562226508982967818e-02,-1.688775583732984864e-02,-1.819688419681278133e-02,-1.950601255629571748e-02,-2.077150330379588447e-02,-2.208063166327881716e-02,-2.338976002276175331e-02,-2.465525077026192030e-02,-2.596437912974485646e-02,-2.727350748922778567e-02,-2.853899823672795960e-02,-2.984812659621088882e-02,-3.115725495569382497e-02,-3.242274570319399890e-02,-3.373187406267692812e-02,-3.504100242215986427e-02,-3.630649316966003820e-02,-3.761562152914296742e-02,-3.774653436509126103e-02,-3.774653436509126103e-02,-3.030632152202991647e-02,-2.016057673603718209e-02,-1.035302344291087057e-02,-2.072786569181309796e-04,5.541976721811087137e-03,5.541976721811087137e-03
5.541976721811087137e-03,5.541976721811087137e-03,5.541976721811087137e-03,5.541976721811087137e-03,5.541976721811087137e-03,5.541976721811087137e-03,4.320123586293682372e-03,3.054632838793512779e-03,1.745504479310578793e-03,4.363761198276448067e-04,-8.291146276725247857e-04,-2.138242987155458338e-03,-3.447371346638392758e-03,-4.712862094138561483e-03,-6.021990453621495903e-03,-7.331118813104430323e-03,-8.596609560604599048e-03,-9.905737920087531734e-03,-1.121486627957046789e-02,-1.248035702707063835e-02,-1.378948538655357103e-02,-1.509861374603650719e-02,-1.636410449353667418e-02,-1.767323285301960686e-02,-1.898236121250254302e-02,-2.024785196000271348e-02,-2.155698031948564616e-02,-2.286610867896857885e-02,-2.413159942646874584e-02,-2.544072778595168199e-02,-2.674985614543461121e-02,-2.801534689293478514e-02,-2.932447525241772129e-02,-3.063360361190065051e-02,-3.189909435940082444e-02,-3.320822271888376059e-02,-3.451735107836668981e-02,-3.578284182586686374e-02,-3.709197018534979295e-02,-3.774653436509126103e-02,-3.774653436509126103e-02,-3.436461943642701855e-02,-2.421887465043427723e-02,-1.441132135730796571e-02,-4.265576571315226120e-03,5.541976721811087137e-03,5.541976721811087137e-03
5.541976721811087137e-03,5.541976721811087137e-03,5.541976721811087137e-03,5.541976721811087137e-03,5.541976721811087137e-03,5.541976721811087137e-03,4.843774930086855966e-03,3.578284182586686374e-03,2.269155823103752821e-03,9.600274636208175338e-04,-3.054632838793511912e-04,-1.614591643362284744e-03,-2.923720002845218296e-03,-4.189210750345388756e-03,-5.498339109828323176e-03,-6.807467469311254127e-03,-8.072958216811426321e-03,-9.382086576294359007e-03,-1.069121493577729343e-02,-1.195670568327746389e-02,-1.326583404276039657e-02,-1.457496240224332926e-02,-1.584045314974349972e-02,-1.714958150922643587e-02,-1.845870986870936856e-02,-1.972420061620953902e-02,-2.103332897569246823e-02,-2.234245733517540439e-02,-2.360794808267557832e-02,-2.491707644215851100e-02,-2.622620480164144369e-02,-2.749169554914161068e-02,-2.880082390862454683e-02,-3.010995226810747605e-02,-3.137544301560764998e-02,-3.268457137509057919e-02,-3.399369973457351535e-02,-3.525919048207368234e-02,-3.656831884155661849e-02,-3.774653436509126103e-02,-3.774653436509126103e-02,-3.774653436509126103e-02,-2.827717256483137237e-02,-1.846961927170505738e-02,-8.323874485712321261e-03,1.821870300280416591e-03,5.541976721811087137e-03
5.541976721811087137e-03,5.541976721811087137e-03,5.541976721811087137e-03,5.541976721811087137e-03,5.541976721811087137e-03,5.541976721811087137e-03,5.367426273880029561e-03,4.101935526379859968e-03,2.792807166896925982e-03,1.483678807413991996e-03,2.181880599138224033e-04,-1.090940299569111149e-03,-2.400068659052045569e-03,-3.665559406552214294e-03,-4.974687766035146980e-03,-6.283816125518083134e-03,-7.549306873018251859e-03,-8.858435232501186279e-03,-1.016756359198411896e-02,-1.143305433948428942e-02,-1.274218269896722211e-02,-1.405131105845015826e-02,-1.531680180595032525e-02,-1.662593016543326141e-02,-1.793505852491619409e-02,-1.920054927241636802e-02,-2.050967763189930071e-02,-2.181880599138222993e-02,-2.308429673888240385e-02,-2.439342509836533654e-02,-2.570255345784826922e-02,-2.696804420534843622e-02,-2.827717256483137237e-02,-2.958630092431430159e-02,-3.085179167181447552e-02,-3.216092003129741167e-02,-3.347004839078034089e-02,-3.473553913828050788e-02,-3.604466749776344403e-02,-3.735379585724638019e-02,-3.774653436509126103e-02,-3.774653436509126103e-02,-3.233547047922846751e-02,-2.252791718610215599e-02,-1.238217240010941467e-02,-2.236427614116678550e-03,5.541976721811087137e-03
5.541976721811087137e-03,5.541976721811087137e-03,5.541976721811087137e-03,5.541976721811087137e-03,5.541976721811087137e-03,5.541976721811087137e-03,5.541976721811087137e-03,4.625586870173033563e-03,3.316458510690099577e-03,2.007330151207165590e-03,7.418394037069959979e-04,-5.672889557759375548e-04,-1.876417315258871975e-03,-3.141908062759041567e-03,-4.451036422241974252e-03,-5.760164781724908672e-03,-7.025655529225079132e-03,-8.334783888708013552e-03,-9.643912248190947972e-03,-1.090940299569111496e-02,-1.221853135517405112e-02,-1.352765971465698380e-02,-1.479315046215715079e-02,-1.610227882164008695e-02,-1.741140718112301963e-02,-1.867689792862319009e-02,-1.998602628810612625e-02,-2.129515464758905546e-02,-2.256064539508922939e-02,-2.386977375457216208e-02,-2.517890211405509476e-02,-2.644439286155526869e-02,-2.775352122103819791e-02,-2.906264958052113406e-02,-3.032814032802130105e-02,-3.163726868750423027e-02,-3.294639704698717336e-02,-3.421188779448733341e-02,-3.552101615397026957e-02,-3.683014451345320572e-02,-3.774653436509126103e-02,-3.774653436509126103e-02,-3.639376839362556265e-02,-2.658621510049925113e-02,-1.644047031450651328e-02,-6.294725528513771956e-03,3.512827764612539566e-03
5.541976721811087137e-03,5.541976721811087137e-03,5.541976721811087137e-03,5.541976721811087137e-03,5.541976721811087137e-03,5.541976721811087137e-03,5.541976721811087137e-03,5.149238213966207157e-03,3.840109854483273171e-03,2.530981495000339185e-03,1.265490747500169592e-03,-4.363761198276396025e-05,-1.352765971465697513e-03,-2.618256718965867105e-03,-3.927385078448803260e-03,-5.236513437931734211e-03,-6.502004185431904670e-03,-7.811132544914839090e-03,-9.120260904397773510e-03,-1.038575165189794050e-02,-1.169488001138087666e-02,-1.300400837086380934e-02,-1.426949911836397980e-02,-1.557862747784691249e-02,-1.688775583732984517e-02,-1.815324658483001563e-02,-1.946237494431295179e-02,-2.077150330379588447e-02,-2.203699405129605493e-02,-2.334612241077899109e-02,-2.465525077026192377e-02,-2.592074151776208729e-02,-2.722986987724502345e-02,-2.853899823672795960e-02,-2.980448898422812659e-02,-3.111361734371106275e-02,-3.242274570319399890e-02,-3.368823645069416589e-02,-3.499736481017709511e-02,-3.630649316966003126e-02,-3.757198391716020519e-02,-3.774653436509126103e-02,-3.774653436509126103e-02,-3.064451301489634627e-02,-2.049876822890360842e-02,-1.035302344291087057e-02,-5.454701497845555747e-04
5.541976721811087137e-03,5.541976721811087137e-03,5.541976721811087137e-03,5.541976721811087137e-03,5.541976721811087137e-03,5.541976721811087137e-03,5.541976721811087137e-03,5.541976721811087137e-03,4.363761198276446332e-03,3.054632838793512779e-03,1.789142091293343621e-03,4.800137318104087669e-04,-8.291146276725239184e-04,-2.094605375172695245e-03,-3.403733734655628798e-03,-4.712862094138563218e-03,-5.978352841638730208e-03,-7.287481201121666363e-03,-8.596609560604599048e-03,-9.862100308104769508e-03,-1.117122866758770219e-02,-1.248035702707063488e-02,-1.374584777457080881e-02,-1.505497613405374496e-02,-1.636410449353667071e-02,-1.762959524103684464e-02,-1.893872360051977732e-02,-2.024785196000271348e-02,-2.151334270750288047e-02,-2.282247106698581662e-02,-2.413159942646874584e-02,-2.539709017396891283e-02,-2.670621853345184898e-02,-2.801534689293478514e-02,-2.928083764043495907e-02,-3.058996599991788828e-02,-3.189909435940082444e-02,-3.316458510690099837e-02,-3.447371346638392064e-02,-3.578284182586685680e-02,-3.704833257336703073e-02,-3.774653436509126103e-02,-3.774653436509126103e-02,-3.470281092929344141e-02,-2.455706614330070009e-02,-1.441132135730796224e-02,-4.603768064181650715e-03
5.541976721811087137e-03,5.541976721811087137e-03,5.541976721811087137e-03,5.541976721811087137e-03,5.541976721811087137e-03,5.541976721811087137e-03,5.541976721811087137e-03,5.541976721811087137e-03,4.887412542069619927e-03,3.578284182586686374e-03,2.312793435086516781e-03,1.003665075603583229e-03,-3.054632838793511912e-04,-1.570954031379520784e-03,-2.880082390862454336e-03,-4.189210750345388756e-03,-5.454701497845559216e-03,-6.763829857328491901e-03,-8.072958216811426321e-03,-9.338448964311595046e-03,-1.064757732379452773e-02,-1.195670568327746389e-02,-1.322219643077763088e-02,-1.453132479026056356e-02,-1.584045314974349972e-02,-1.710594389724366671e-02,-1.841507225672660286e-02,-1.972420061620953902e-02,-2.098969136370970601e-02,-2.229881972319263869e-02,-2.360794808267557485e-02,-2.487343883017574531e-02,-2.618256718965867452e-02,-2.749169554914161762e-02,-2.875718629664178461e-02,-3.006631465612471382e-02,-3.137544301560764998e-02,-3.264093376310782391e-02,-3.395006212259074618e-02,-3.525919048207368234e-02,-3.652468122957385627e-02,-3.774653436509126103e-02,-3.774653436509126103e-02,-3.774653436509126103e-02,-2.861536405769779523e-02,-1.846961927170506085e-02,-8.662065978578745856e-03
5.541976721811087137e-03,5.541976721811087137e-03,5.541976721811087137e-03,5.541976721811087137e-03,5.541976721811087137e-03,5.541976721811087137e-03,5.541976721811087137e-03,5.541976721811087137e-03,5.411063885862793521e-03,4.101935526379859968e-03,2.836444778879690376e-03,1.527316419396755956e-03,2.181880599138224033e-04,-1.047302687586347189e-03,-2.356431047069281609e-03,-3.665559406552216029e-03,-4.931050154052384754e-03,-6.240178513535317439e-03,-7.549306873018253594e-03,-8.814797620518420584e-03,-1.012392598000135674e-02,-1.143305433948428942e-02,-1.269854508698445988e-02,-1.400767344646739257e-02,-1.531680180595032525e-02,-1.658229255345049225e-02,-1.789142091293342840e-02,-1.920054927241636455e-02,-2.046604001991653501e-02,-2.177516837939946423e-02,-2.308429673888240038e-02,-2.434978748638257084e-02,-2.565891584586550353e-02,-2.696804420534843622e-02,-2.823353495284861014e-02,-2.954266331233153936e-02,-3.085179167181446858e-02,-3.211728241931464251e-02,-3.342641077879757866e-02,-3.473553913828050788e-02,-3.600102988578068181e-02,-3.731015824526361102e-02,-3.774653436509126103e-02,-3.774653436509126103e-02,-3.267366197209489037e-02,-2.252791718610215252e-02,-1.272036389297584100e-02
5.541976721811087137e-03,5.541976721811087137e-03,5.541976721811087137e-03,5.541976721811087137e-03,5.541976721811087137e-03,5.541976721811087137e-03,5.541976721811087137e-03,5.541976721811087137e-03,5.541976721811087137e-03,4.625586870173033563e-03,3.360096122672863971e-03,2.050967763189929984e-03,7.418394037069959979e-04,-5.236513437931727272e-04,-1.832779703276107147e-03,-3.141908062759041567e-03,-4.407398810259210292e-03,-5.716527169742142978e-03,-7.025655529225079132e-03,-8.291146276725249592e-03,-9.600274636208182277e-03,-1.090940299569111843e-02,-1.217489374319128542e-02,-1.348402210267421811e-02,-1.479315046215715426e-02,-1.605864120965732125e-02,-1.736776956914025741e-02,-1.867689792862319009e-02,-1.994238867612336055e-02,-2.125151703560629324e-02,-2.256064539508922939e-02,-2.382613614258939985e-02,-2.513526450207232907e-02,-2.644439286155525481e-02,-2.770988360905543568e-02,-2.901901196853836490e-02,-3.032814032802130799e-02,-3.159363107552147498e-02,-3.290275943500440420e-02,-3.421188779448734035e-02,-3.547737854198750040e-02,-3.678650690147044350e-02,-3.774653436509126103e-02,-3.774653436509126103e-02,-3.673195988649198551e-02,-2.658621510049925113e-02,-1.677866180737293614e-02
5.541976721811087137e-03,5.541976721811087137e-03,5.541976721811087137e-03,5.541976721811087137e-03,5.541976721811087137e-03,5.541976721811087137e-03,5.541976721811087137e-03,5.541976721811087137e-03,5.541976721811087137e-03,5.149238213966207157e-03,3.883747466466037565e-03,2.574619106983104012e-03,1.265490747500169592e-03,0.000000000000000000e+00,-1.309128359482933553e-03,-2.618256718965868840e-03,-3.883747466466037565e-03,-5.192875825948971985e-03,-6.502004185431904670e-03,-7.767494932932075130e-03,-9.076623292415007815e-03,-1.038575165189794397e-02,-1.165124239939811096e-02,-1.296037075888104365e-02,-1.426949911836397980e-02,-1.553498986586415026e-02,-1.684411822534708295e-02,-1.815324658483001563e-02,-1.941873733233018609e-02,-2.072786569181311878e-02,-2.203699405129605493e-02,-2.330248479879622539e-02,-2.461161315827916155e-02,-2.592074151776208729e-02,-2.718623226526226122e-02,-2.849536062474519738e-02,-2.980448898422812659e-02,-3.106997973172829358e-02,-3.237910809121123668e-02,-3.368823645069416589e-02,-3.495372719819433288e-02,-3.626285555767727597e-02,-3.757198391716019825e-02,-3.774653436509126103e-02,-3.774653436509126103e-02,-3.064451301489634627e-02,-2.083695972177003128e-02
5.541976721811087137e-03,5.541976721811087137e-03,5.541976721811087137e-03,5.541976721811087137e-03,5.541976721811087137e-03,5.541976721811087137e-03,5.541976721811087137e-03,5.541976721811087137e-03,5.541976721811087137e-03,5.541976721811087137e-03,4.407398810259211160e-03,3.098270450776277607e-03,1.789142091293343187e-03,5.236513437931735945e-04,-7.854770156897599581e-04,-2.094605375172695245e-03,-3.360096122672863103e-03,-4.669224482155797523e-03,-5.978352841638730208e-03,-7.243843589138900668e-03,-8.552971948621833354e-03,-9.862100308104769508e-03,-1.112759105560493997e-02,-1.243671941508786918e-02,-1.374584777457080534e-02,-1.501133852207097580e-02,-1.632046688155391195e-02,-1.762959524103684117e-02,-1.889508598853701163e-02,-2.020421434801994778e-02,-2.151334270750288047e-02,-2.277883345500305093e-02,-2.408796181448598708e-02,-2.539709017396891630e-02,-2.666258092146908676e-02,-2.797170928095202291e-02,-2.928083764043495907e-02,-3.054632838793512606e-02,-3.185545674741806221e-02,-3.316458510690099837e-02,-3.443007585440115842e-02,-3.573920421388409457e-02,-3.704833257336702379e-02,-3.774653436509126103e-02,-3.774653436509126103e-02,-3.470281092929344141e-02,-2.489525763616712642e-02
5.541976721811087137e-03,5.541976721811087137e-03,5.541976721811087137e-03,5.541976721811087137e-03,5.541976721811087137e-03,5.541976721811087137e-03,5.541976721811087137e-03,5.541976721811087137e-03,5.541976721811087137e-03,5.541976721811087137e-03,4.931050154052384754e-03,3.621921794569451201e-03,2.312793435086516781e-03,1.047302687586347189e-03,-2.618256718965863636e-04,-1.570954031379519916e-03,-2.836444778879690376e-03,-4.145573138362624796e-03,-5.454701497845557481e-03,-6.720192245345726206e-03,-8.029320604828662361e-03,-9.338448964311595046e-03,-1.060393971181176551e-02,-1.191306807129469819e-02,-1.322219643077763435e-02,-1.448768717827780134e-02,-1.579681553776073402e-02,-1.710594389724366671e-02,-1.837143464474384064e-02,-1.968056300422677679e-02,-2.098969136370970601e-02,-2.225518211120987647e-02,-2.356431047069280915e-02,-2.487343883017574531e-02,-2.613892957767591230e-02,-2.744805793715884845e-02,-2.875718629664178461e-02,-3.002267704414194466e-02,-3.133180540362488775e-02,-3.264093376310782391e-02,-3.390642451060799090e-02,-3.521555287009092011e-02,-3.652468122957386321e-02,-3.774653436509126103e-02,-3.774653436509126103e-02,-3.774653436509126103e-02,-2.895355555056422503e-02
5.541976721811087137e-03,5.541976721811087137e-03,5.541976721811087137e-03,5.541976721811087137e-03,5.541976721811087137e-03,5.541976721811087137e-03,5.541976721811087137e-03,5.541976721811087137e-03,5.541976721811087137e-03,5.541976721811087137e-03,5.454701497845558349e-03,4.145573138362624796e-03,2.836444778879690376e-03,1.570954031379520784e-03,2.618256718965872309e-04,-1.047302687586347189e-03,-2.312793435086515914e-03,-3.621921794569450334e-03,-4.931050154052383019e-03,-6.196540901552553479e-03,-7.505669261035487899e-03,-8.814797620518420584e-03,-1.008028836801859104e-02,-1.138941672750152720e-02,-1.269854508698445641e-02,-1.396403583448462687e-02,-1.527316419396756303e-02,-1.658229255345049225e-02,-1.784778330095066270e-02,-1.915691166043360233e-02,-2.046604001991653501e-02,-2.173153076741670200e-02,-2.304065912689964163e-02,-2.434978748638257084e-02,-2.561527823388273784e-02,-2.692440659336567399e-02,-2.823353495284861014e-02,-2.949902570034877713e-02,-3.080815405983170635e-02,-3.211728241931464944e-02,-3.338277316681481643e-02,-3.469190152629775259e-02,-3.600102988578068874e-02,-3.726652063328084880e-02,-3.774653436509126103e-02,-3.774653436509126103e-02,-3.301185346496131323e-02
5.541976721811087137e-03,5.541976721811087137e-03,5.541976721811087137e-03,5.541976721811087137e-03,5.541976721811087137e-03,5.541976721811087137e-03,5.541976721811087137e-03,5.541976721811087137e-03,5.541976721811087137e-03,5.541976721811087137e-03,5.541976721811087137e-03,4.669224482155797523e-03,3.360096122672863971e-03,2.094605375172694812e-03,7.854770156897608255e-04,-5.236513437931735945e-04,-1.789142091293343187e-03,-3.098270450776277607e-03,-4.407398810259210292e-03,-5.672889557759380752e-03,-6.982017917242315172e-03,-8.291146276725247857e-03,-9.556637024225416582e-03,-1.086576538370835274e-02,-1.217489374319128542e-02,-1.344038449069145241e-02,-1.474951285017439204e-02,-1.605864120965732472e-02,-1.732413195715749171e-02,-1.863326031664042787e-02,-1.994238867612335708e-02,-2.120787942362353101e-02,-2.251700778310646717e-02,-2.382613614258939638e-02,-2.509162689008956684e-02,-2.640075524957249953e-02,-2.770988360905543568e-02,-2.897537435655560267e-02,-3.028450271603853883e-02,-3.159363107552146804e-02,-3.285912182302164197e-02,-3.416825018250457813e-02,-3.547737854198750040e-02,-3.674286928948768127e-02,-3.774653436509126103e-02,-3.774653436509126103e-02,-3.707015137935841531e-02
5.541976721811087137e-03,5.541976721811087137e-03,5.541976721811087137e-03,5.541976721811087137e-03,5.541976721811087137e-03,5.541976721811087137e-03,5.541976721811087137e-03,5.541976721811087137e-03,5.541976721811087137e-03,5.541976721811087137e-03,5.541976721811087137e-03,5.192875825948971118e-03,3.883747466466037565e-03,2.618256718965867973e-03,1.309128359482934420e-03,0.000000000000000000e+00,-1.265490747500170460e-03,-2.574619106983103145e-03,-3.883747466466037565e-03,-5.149238213966206290e-03,-6.458366573449140710e-03,-7.767494932932075130e-03,-9.032985680432243855e-03,-1.034211403991517828e-02,-1.165124239939811096e-02,-1.291673314689827795e-02,-1.422586150638121757e-02,-1.553498986586415026e-02,-1.680048061336431725e-02,-1.810960897284724994e-02,-1.941873733233018956e-02,-2.068422807983035655e-02,-2.199335643931329271e-02,-2.330248479879622539e-02,-2.456797554629639585e-02,-2.587710390577932507e-02,-2.718623226526226122e-02,-2.845172301276242821e-02,-2.976085137224536437e-02,-3.106997973172829358e-02,-3.233547047922846751e-02,-3.364459883871140367e-02,-3.495372719819433288e-02,-3.621921794569450681e-02,-3.752834630517743603e-02,-3.774653436509126103e-02,-3.774653436509126103e-02
5.541976721811087137e-03,5.541976721811087137e-03,5.541976721811087137e-03,5.541976721811087137e-03,5.541976721811087137e-03,5.541976721811087137e-03,5.541976721811087137e-03,5.541976721811087137e-03,5.541976721811087137e-03,5.541976721811087137e-03,5.541976721811087137e-03,5.541976721811087137e-03,4.407398810259211160e-03,3.141908062759041567e-03,1.832779703276107581e-03,5.236513437931735945e-04,-7.418394037069959979e-04,-2.050967763189930418e-03,-3.360096122672863103e-03,-4.625586870173033563e-03,-5.934715229655967983e-03,-7.243843589138900668e-03,-8.509334336639069393e-03,-9.818462696122003813e-03,-1.112759105560493650e-02,-1.239308180310510696e-02,-1.370221016258804311e-02,-1.501133852207097580e-02,-1.627682926957114279e-02,-1.758595762905407894e-02,-1.889508598853701163e-02,-2.016057673603718209e-02,-2.146970509552011477e-02,-2.277883345500305440e-02,-2.404432420250322139e-02,-2.535345256198615060e-02,-2.666258092146908676e-02,-2.792807166896925375e-02,-2.923720002845218990e-02,-3.054632838793512606e-02,-3.181181913543529305e-02,-3.312094749491822920e-02,-3.443007585440116536e-02,-3.569556660190133235e-02,-3.700469496138426850e-02,-3.368823645069416589e-02,-1.745504479310578533e-02
5.541976721811087137e-03,5.541976721811087137e-03,5.541976721811087137e-03,5.541976721811087137e-03,5.541976721811087137e-03,5.541976721811087137e-03,5.541976721811087137e-03,5.541976721811087137e-03,5.541976721811087137e-03,5.541976721811087137e-03,5.541976721811087137e-03,5.541976721811087137e-03,4.931050154052384754e-03,3.665559406552215162e-03,2.356431047069281175e-03,1.047302687586347189e-03,-2.181880599138224033e-04,-1.527316419396755956e-03,-2.836444778879690376e-03,-4.101935526379859101e-03,-5.411063885862791786e-03,-6.720192245345727941e-03,-7.985682992845898401e-03,-9.294811352328831086e-03,-1.060393971181176551e-02,-1.186943045931193597e-02,-1.317855881879486518e-02,-1.448768717827780134e-02,-6.790208181334647652e-02,-6.921121017282939880e-02,-7.052033853231233496e-02,-7.178582927981250195e-02,-7.309495763929543810e-02,-2.225518211120987300e-02,-2.352067285871005040e-02,-2.482980121819297961e-02,-2.613892957767591230e-02,-2.740442032517607929e-02,-2.871354868465902238e-02,-3.002267704414195160e-02,-3.128816779164211859e-02,-3.259729615112505474e-02,-3.390642451060799090e-02,-2.499344226312834663e-02,-1.021665590546472907e-02,5.541976721811087137e-03,5.541976721811087137e-03
5.541976721811087137e-03,5.541976721811087137e-03,5.541976721811087137e-03,5.541976721811087137e-03,5.541976721811087137e-03,5.541976721811087137e-03,5.541976721811087137e-03,5.541976721811087137e-03,5.541976721811087137e-03,5.541976721811087137e-03,5.541976721811087137e-03,5.541976721811087137e-03,5.454701497845558349e-03,4.189210750345388756e-03,2.880082390862454770e-03,1.570954031379520784e-03,3.054632838793511912e-04,-1.003665075603582361e-03,-2.312793435086515914e-03,-3.578284182586684639e-03,-4.887412542069619059e-03,-6.196540901552551744e-03,-7.462031649052725674e-03,-8.771160008535656624e-03,-1.008028836801859104e-02,-1.134577911551876150e-02,-1.265490747500169419e-02,-1.396403583448462687e-02,-6.737843046955328818e-02,-6.868755882903622434e-02,-6.999668718851916049e-02,-7.126217793601932748e-02,-7.257130629550226364e-02,-2.173153076741670200e-02,-2.299702151491687246e-02,-2.430614987439980862e-02,-2.561527823388273784e-02,-2.688076898138290483e-02,-2.818989734086584792e-02,-2.949902570034877713e-02,-2.849536062474519044e-02,-1.561681038833183377e-02,-1.756413882306268916e-03,5.541976721811087137e-03,5.541976721811087137e-03,5.541976721811087137e-03,5.541976721811087137e-03
5.541976721811087137e-03,5.541976721811087137e-03,5.541976721811087137e-03,5.541976721811087137e-03,5.541976721811087137e-03,5.541976721811087137e-03,5.541976721811087137e-03,5.541976721811087137e-03,5.541976721811087137e-03,5.541976721811087137e-03,5.541976721811087137e-03,5.541976721811087137e-03,5.541976721811087137e-03,4.712862094138562351e-03,3.403733734655628364e-03,2.094605375172694378e-03,8.291146276725247857e-04,-4.800137318104087669e-04,-1.789142091293343187e-03,-3.054632838793511912e-03,-4.363761198276446332e-03,-5.672889557759380752e-03,-6.938380305259549477e-03,-8.247508664742483897e-03,-9.556637024225416582e-03,-1.082212777172558704e-02,-1.213125613120852320e-02,-1.344038449069145588e-02,-6.685477912576011372e-02,-6.816390748524304988e-02,-6.947303584472598603e-02,-7.073852659222615302e-02,-7.204765495170908918e-02,-2.120787942362353101e-02,-2.247337017112369800e-02,-2.378249853060663416e-02,-2.509162689008957031e-02,-2.635711763758973036e-02,-1.936419031735173157e-02,-7.402029932576423277e-03,5.541976721811087137e-03,5.541976721811087137e-03,5.541976721811087137e-03,5.541976721811087137e-03,5.541976721811087137e-03,5.541976721811087137e-03,5.541976721811087137e-03
5.541976721811087137e-03,5.541976721811087137e-03,5.541976721811087137e-03,5.541976721811087137e-03,5.541976721811087137e-03,5.541976721811087137e-03,5.541976721811087137e-03,5.541976721811087137e-03,5.541976721811087137e-03,5.541976721811087137e-03,5.541976721811087137e-03,5.541976721811087137e-03,5.541976721811087137e-03,5.236513437931735945e-03,3.927385078448801525e-03,2.618256718965867973e-03,1.352765971465698380e-03,4.363761198276396025e-05,-1.265490747500168725e-03,-2.530981495000339185e-03,-3.840109854483271870e-03,-5.149238213966206290e-03,-6.414728961466378485e-03,-7.723857320949311170e-03,-9.032985680432243855e-03,-1.029847642793241258e-02,-1.160760478741534873e-02,-1.291673314689828142e-02,-6.633112778196693926e-02,-6.764025614144987542e-02,-6.894938450093281157e-02,-7.021487524843297856e-02,-7.152400360791591472e-02,-2.068422807983035308e-02,-2.194971882733052354e-02,-2.235882143966894456e-02,-1.233580743737772850e-02,-1.321401437853085212e-03,5.541976721811087137e-03,5.541976721811087137e-03,5.541976721811087137e-03,5.541976721811087137e-03,5.541976721811087137e-03,5.541976721811087137e-03,5.541976721811087137e-03,5.541976721811087137e-03,5.541976721811087137e-03
5.541976721811087137e-03,5.541976721811087137e-03,5.541976721811087137e-03,5.541976721811087137e-03,5.541976721811087137e-03,5.541976721811087137e-03,5.541976721811087137e-03,5.541976721811087137e-03,5.541976721811087137e-03,5.541976721811087137e-03,5.541976721811087137e-03,5.541976721811087137e-03,5.541976721811087137e-03,5.541976721811087137e-03,4.451036422241975987e-03,3.141908062759042001e-03,1.876417315258871975e-03,5.672889557759384221e-04,-7.418394037069959979e-04,-2.007330151207165590e-03,-3.316458510690099143e-03,-4.625586870173031828e-03,-5.891077617673202288e-03,-7.200205977156136708e-03,-8.509334336639071128e-03,-9.774825084139239853e-03,-1.108395344362217427e-02,-1.239308180310510696e-02,-6.580747643817377868e-02,-6.711660479765670095e-02,-6.842573315713963711e-02,-6.969122390463980410e-02,-7.100035226412274025e-02,-1.453814316713287341e-02,-5.413791236611715726e-03,4.658315079160106967e-03,5.541976721811087137e-03,5.541976721811087137e-03,5.541976721811087137e-03,5.541976721811087137e-03,5.541976721811087137e-03,5.541976721811087137e-03,5.541976721811087137e-03,5.541976721811087137e-03,5.541976721811087137e-03,5.541976721811087137e-03,5.541976721811087137e-03
5.541976721811087137e-03,5.541976721811087137e-03,5.541976721811087137e-03,5.541976721811087137e-03,5.541976721811087137e-03,5.541976721811087137e-03,5.541976721811087137e-03,5.541976721811087137e-03,5.541976721811087137e-03,5.541976721811087137e-03,5.541976721811087137e-03,5.541976721811087137e-03,5.541976721811087137e-03,5.541976721811087137e-03,4.974687766035148714e-03,3.665559406552215162e-03,2.400068659052045569e-03,1.090940299569112017e-03,-2.181880599138215360e-04,-1.483678807413991128e-03,-2.792807166896926416e-03,-4.101935526379860836e-03,-5.367426273880027826e-03,-6.676554633362963981e-03,-7.985682992845896666e-03,-9.251173740346067126e-03,-1.056030209982900328e-02,-1.186943045931193250e-02,-1.313492120681210296e-02,-1.444404956629503911e-02,-1.508770434304081143e-02,-7.853406481523141081e-03,3.204637129984267904e-04,5.541976721811087137e-03,5.541976721811087137e-03,5.541976721811087137e-03,5.541976721811087137e-03,5.541976721811087137e-03,5.541976721811087137e-03,5.541976721811087137e-03,5.541976721811087137e-03,5.541976721811087137e-03,5.541976721811087137e-03,5.541976721811087137e-03,5.541976721811087137e-03,5.541976721811087137e-03,5.541976721811087137e-03
5.541976721811087137e-03,5.541976721811087137e-03,5.541976721811087137e-03,5.541976721811087137e-03,5.541976721811087137e-03,5.541976721811087137e-03,5.541976721811087137e-03,5.541976721811087137e-03,5.541976721811087137e-03,5.541976721811087137e-03,5.541976721811087137e-03,5.541976721811087137e-03,5.541976721811087137e-03,5.541976721811087137e-03,5.498339109828322309e-03,4.189210750345388756e-03,2.923720002845219598e-03,1.614591643362285611e-03,3.054632838793520586e-04,-9.600274636208175338e-04,-2.269155823103751954e-03,-3.578284182586686374e-03,-4.843774930086855099e-03,-6.152903289569789519e-03,-7.462031649052723939e-03,-8.727522396552892664e-03,-1.003665075603582535e-02,-1.134577911551876150e-02,-9.207536128363301431e-03,-2.972812316325828402e-03,4.243757765323844140e-03,5.541976721811087137e-03,5.541976721811087137e-03,5.541976721811087137e-03,5.541976721811087137e-03,5.541976721811087137e-03,5.541976721811087137e-03,5.541976721811087137e-03,5.541976721811087137e-03,5.541976721811087137e-03,5.541976721811087137e-03,5.541976721811087137e-03,5.541976721811087137e-03,5.541976721811087137e-03,5.541976721811087137e-03,5.541976721811087137e-03,5.541976721811087137e-03
