0.000000000000000000e+00,0.000000000000000000e+00,0.000000000000000000e+00,0.000000000000000000e+00,0.000000000000000000e+00,0.000000000000000000e+00,0.000000000000000000e+00,0.000000000000000000e+00,-2.145141684048691971e-03,-6.120059659085318182e-03,-9.674490443374268722e-03,-1.463821032790347740e-02,-1.724654493301015432e-02,-1.943439234736915600e-02,-2.120175257098048244e-02,-2.254862560384413711e-02,-2.347501144596010961e-02,-2.517995560219482565e-02,-2.523580155721600465e-02,-2.480217414175746315e-02,-2.394805953555124295e-02,-2.267345773859735097e-02,-2.097836875089578029e-02,-1.829119279752391275e-02,-1.492729527154250564e-02,-1.156339774556109506e-02,-8.199500219579684487e-03,-4.835602693598275645e-03,-1.471705167616866585e-03,0.000000000000000000e+00,0.000000000000000000e+00,0.000000000000000000e+00,0.000000000000000000e+00,0.000000000000000000e+00,0.000000000000000000e+00,0.000000000000000000e+00,0.000000000000000000e+00,0.000000000000000000e+00,0.000000000000000000e+00,0.000000000000000000e+00,0.000000000000000000e+00,0.000000000000000000e+00,0.000000000000000000e+00,0.000000000000000000e+00,0.000000000000000000e+00,0.000000000000000000e+00,0.000000000000000000e+00
0.000000000000000000e+00,-1.170794021738060832e-02,-3.541290559578084973e-02,-5.087895008046881828e-02,-5.550430917869325631e-02,-6.012966827691769434e-02,-6.706770692425434444e-02,-6.996184141682233737e-02,-6.885477748493197547e-02,-6.549087995895055969e-02,-6.212698243296915779e-02,-5.876308490698775588e-02,-5.539918738100634010e-02,-5.203528985502492432e-02,-4.867139232904352242e-02,-4.530749480306210664e-02,-4.204871907476761400e-02,-3.868482154878621210e-02,-3.532092402280479632e-02,-3.195702649682338747e-02,-2.859312897084197863e-02,-2.522923144486057326e-02,-2.186533391887916095e-02,-1.850143639289775210e-02,-1.513753886691634326e-02,-1.177364134093493268e-02,-8.409743814953523841e-03,-5.045846288972114999e-03,-1.681948762990704638e-03,0.000000000000000000e+00,0.000000000000000000e+00,0.000000000000000000e+00,0.000000000000000000e+00,0.000000000000000000e+00,0.000000000000000000e+00,0.000000000000000000e+00,0.000000000000000000e+00,0.000000000000000000e+00,0.000000000000000000e+00,0.000000000000000000e+00,0.000000000000000000e+00,0.000000000000000000e+00,0.000000000000000000e+00,0.000000000000000000e+00,0.000000000000000000e+00,0.000000000000000000e+00,0.000000000000000000e+00
0.000000000000000000e+00,-1.734509661834164260e-02,-5.434796940413715027e-02,-7.400574557159100841e-02,-7.400574557159099454e-02,-7.400574557159100841e-02,-7.400574557159100841e-02,-7.242891860628722367e-02,-6.906502108030580789e-02,-6.570112355432439211e-02,-6.233722602834299020e-02,-5.897332850236158830e-02,-5.560943097638018640e-02,-5.235065524808567988e-02,-4.898675772210427104e-02,-4.562286019612286220e-02,-4.225896267014145335e-02,-3.889506514416004451e-02,-3.553116761817863567e-02,-3.216727009219722683e-02,-2.880337256621581798e-02,-2.543947504023440567e-02,-2.207557751425300030e-02,-1.871167998827159146e-02,-1.534778246229017915e-02,-1.198388493630877030e-02,-8.619987410327361460e-03,-5.361211682032870560e-03,-1.997314156051461717e-03,0.000000000000000000e+00,0.000000000000000000e+00,0.000000000000000000e+00,0.000000000000000000e+00,0.000000000000000000e+00,0.000000000000000000e+00,0.000000000000000000e+00,0.000000000000000000e+00,0.000000000000000000e+00,0.000000000000000000e+00,0.000000000000000000e+00,0.000000000000000000e+00,0.000000000000000000e+00,0.000000000000000000e+00,0.000000000000000000e+00,0.000000000000000000e+00,0.000000000000000000e+00,0.000000000000000000e+00
0.000000000000000000e+00,-1.503241706922942358e-02,-5.203528985502492432e-02,-7.400574557159100841e-02,-7.400574557159100841e-02,-7.400574557159100841e-02,-7.400574557159100841e-02,-7.263916220166105608e-02,-6.927526467567965418e-02,-6.591136714969823840e-02,-6.254746962371683650e-02,-5.928869389542234386e-02,-5.592479636944093502e-02,-5.256089884345951230e-02,-4.919700131747810345e-02,-4.583310379149670155e-02,-4.246920626551529271e-02,-3.910530873953388387e-02,-3.574141121355247502e-02,-3.237751368757106618e-02,-2.901361616158965734e-02,-2.564971863560824850e-02,-2.228582110962683618e-02,-1.892192358364542734e-02,-1.555802605766401850e-02,-1.229925032936952760e-02,-8.935352803388118756e-03,-5.571455277406709046e-03,-2.207557751425299770e-03,0.000000000000000000e+00,0.000000000000000000e+00,0.000000000000000000e+00,0.000000000000000000e+00,0.000000000000000000e+00,0.000000000000000000e+00,0.000000000000000000e+00,0.000000000000000000e+00,0.000000000000000000e+00,0.000000000000000000e+00,0.000000000000000000e+00,0.000000000000000000e+00,0.000000000000000000e+00,0.000000000000000000e+00,0.000000000000000000e+00,0.000000000000000000e+00,0.000000000000000000e+00,0.000000000000000000e+00
0.000000000000000000e+00,-1.271973752011720457e-02,-4.972261030591271225e-02,-7.400574557159100841e-02,-7.400574557159100841e-02,-7.400574557159100841e-02,-7.400574557159099454e-02,-7.284940579703488850e-02,-6.948550827105348660e-02,-6.622673254275898702e-02,-6.286283501677758512e-02,-5.949893749079618321e-02,-5.613503996481477437e-02,-5.277114243883336553e-02,-4.940724491285194975e-02,-4.604334738687053397e-02,-4.267944986088913206e-02,-3.931555233490772322e-02,-3.595165480892631438e-02,-3.258775728294490553e-02,-2.922385975696349322e-02,-2.585996223098208438e-02,-2.260118650268759521e-02,-1.923728897670618637e-02,-1.587339145072477406e-02,-1.250949392474336522e-02,-9.145596398761956375e-03,-5.781698872780546665e-03,-2.417801346799137822e-03,0.000000000000000000e+00,0.000000000000000000e+00,0.000000000000000000e+00,0.000000000000000000e+00,0.000000000000000000e+00,0.000000000000000000e+00,0.000000000000000000e+00,0.000000000000000000e+00,0.000000000000000000e+00,0.000000000000000000e+00,0.000000000000000000e+00,0.000000000000000000e+00,0.000000000000000000e+00,0.000000000000000000e+00,0.000000000000000000e+00,0.000000000000000000e+00,0.000000000000000000e+00,0.000000000000000000e+00
0.000000000000000000e+00,-1.040705797100498556e-02,-4.740993075680049323e-02,-7.400574557159100841e-02,-7.400574557159100841e-02,-7.400574557159099454e-02,-7.400574557159100841e-02,-7.316477119009566488e-02,-6.980087366411424910e-02,-6.643697613813283331e-02,-6.307307861215141753e-02,-5.970918108617002257e-02,-5.634528356018861373e-02,-5.298138603420719794e-02,-4.961748850822578910e-02,-4.625359098224437332e-02,-4.288969345626296448e-02,-3.952579593028156257e-02,-3.616189840430014679e-02,-3.279800087831874489e-02,-2.953922515002425225e-02,-2.617532762404284341e-02,-2.281143009806143110e-02,-1.944753257208002573e-02,-1.608363504609861688e-02,-1.271973752011720457e-02,-9.355839994135795729e-03,-5.991942468154386019e-03,-2.628044942172975875e-03,0.000000000000000000e+00,0.000000000000000000e+00,0.000000000000000000e+00,0.000000000000000000e+00,0.000000000000000000e+00,0.000000000000000000e+00,0.000000000000000000e+00,0.000000000000000000e+00,0.000000000000000000e+00,0.000000000000000000e+00,0.000000000000000000e+00,0.000000000000000000e+00,0.000000000000000000e+00,0.000000000000000000e+00,0.000000000000000000e+00,0.000000000000000000e+00,0.000000000000000000e+00,0.000000000000000000e+00
0.000000000000000000e+00,-8.094378421892766545e-03,-4.509725120768826728e-02,-7.400574557159100841e-02,-7.400574557159100841e-02,-7.400574557159100841e-02,-7.400574557159100841e-02,-7.337501478546949729e-02,-7.001111725948808151e-02,-6.664721973350666573e-02,-6.328332220752526383e-02,-5.991942468154386192e-02,-5.655552715556244614e-02,-5.319162962958103730e-02,-4.982773210359962845e-02,-4.646383457761821961e-02,-4.309993705163681077e-02,-3.973603952565539499e-02,-3.647726379736090929e-02,-3.311336627137949351e-02,-2.974946874539809161e-02,-2.638557121941667583e-02,-2.302167369343527045e-02,-1.965777616745385814e-02,-1.629387864147245277e-02,-1.292998111549104046e-02,-9.566083589509631613e-03,-6.202186063528222770e-03,-2.838288537546813928e-03,0.000000000000000000e+00,0.000000000000000000e+00,0.000000000000000000e+00,0.000000000000000000e+00,0.000000000000000000e+00,0.000000000000000000e+00,0.000000000000000000e+00,0.000000000000000000e+00,0.000000000000000000e+00,0.000000000000000000e+00,0.000000000000000000e+00,0.000000000000000000e+00,0.000000000000000000e+00,0.000000000000000000e+00,0.000000000000000000e+00,0.000000000000000000e+00,0.000000000000000000e+00,0.000000000000000000e+00
0.000000000000000000e+00,-5.781698872780547532e-03,-4.162823188401994223e-02,-7.400574557159100841e-02,-7.400574557159100841e-02,-7.400574557159100841e-02,-7.400574557159100841e-02,-7.358525838084332971e-02,-7.022136085486191392e-02,-6.685746332888051202e-02,-6.349356580289909624e-02,-6.012966827691770128e-02,-5.676577075093628549e-02,-5.340187322495487665e-02,-5.003797569897346781e-02,-4.677919997067897517e-02,-4.341530244469756633e-02,-4.005140491871615749e-02,-3.668750739273475558e-02,-3.332360986675333286e-02,-2.995971234077193096e-02,-2.659581481479051865e-02,-2.323191728880910981e-02,-1.986801976282769749e-02,-1.650412223684628865e-02,-1.314022471086487981e-02,-9.776327184883469232e-03,-6.412429658902061257e-03,-3.153653930607571224e-03,0.000000000000000000e+00,0.000000000000000000e+00,0.000000000000000000e+00,0.000000000000000000e+00,0.000000000000000000e+00,0.000000000000000000e+00,0.000000000000000000e+00,0.000000000000000000e+00,0.000000000000000000e+00,0.000000000000000000e+00,0.000000000000000000e+00,0.000000000000000000e+00,0.000000000000000000e+00,0.000000000000000000e+00,0.000000000000000000e+00,0.000000000000000000e+00,0.000000000000000000e+00,0.000000000000000000e+00
0.000000000000000000e+00,-2.312679549112219013e-03,-3.931555233490772322e-02,-7.400574557159100841e-02,-7.400574557159100841e-02,-7.400574557159100841e-02,-7.400574557159100841e-02,-7.379550197621717600e-02,-7.043160445023574634e-02,-6.706770692425435831e-02,-6.370380939827294253e-02,-6.033991187229154063e-02,-5.708113614399704799e-02,-5.371723861801562527e-02,-5.035334109203422337e-02,-4.698944356605281453e-02,-4.362554604007139875e-02,-4.026164851408999684e-02,-3.689775098810859494e-02,-3.353385346212717222e-02,-3.016995593614576338e-02,-2.680605841016435453e-02,-2.344216088418294569e-02,-2.007826335820153685e-02,-1.671436583222012801e-02,-1.335046830623871916e-02,-1.009169257794422826e-02,-6.727795051962819420e-03,-3.363897525981409710e-03,0.000000000000000000e+00,0.000000000000000000e+00,0.000000000000000000e+00,0.000000000000000000e+00,0.000000000000000000e+00,0.000000000000000000e+00,0.000000000000000000e+00,0.000000000000000000e+00,0.000000000000000000e+00,0.000000000000000000e+00,0.000000000000000000e+00,0.000000000000000000e+00,0.000000000000000000e+00,0.000000000000000000e+00,0.000000000000000000e+00,0.000000000000000000e+00,0.000000000000000000e+00,0.000000000000000000e+00
0.000000000000000000e+00,0.000000000000000000e+00,-3.700287278579550421e-02,-7.400574557159100841e-02,-7.400574557159100841e-02,-7.400574557159100841e-02,-7.400574557159100841e-02,-7.400574557159100841e-02,-7.064184804560959263e-02,-6.727795051962819073e-02,-6.401917479133369115e-02,-6.065527726535228925e-02,-5.729137973937088735e-02,-5.392748221338947157e-02,-5.056358468740805578e-02,-4.719968716142664694e-02,-4.383578963544523810e-02,-4.047189210946383620e-02,-3.710799458348242735e-02,-3.374409705750101157e-02,-3.038019953151960620e-02,-2.701630200553819042e-02,-2.365240447955678504e-02,-2.039362875126229241e-02,-1.702973122528088357e-02,-1.366583369929947472e-02,-1.030193617331806588e-02,-6.938038647336657039e-03,-3.574141121355247329e-03,-2.102435953738380798e-04,0.000000000000000000e+00,0.000000000000000000e+00,0.000000000000000000e+00,0.000000000000000000e+00,0.000000000000000000e+00,0.000000000000000000e+00,0.000000000000000000e+00,0.000000000000000000e+00,0.000000000000000000e+00,0.000000000000000000e+00,0.000000000000000000e+00,0.000000000000000000e+00,0.000000000000000000e+00,0.000000000000000000e+00,0.000000000000000000e+00,0.000000000000000000e+00,0.000000000000000000e+00
0.000000000000000000e+00,0.000000000000000000e+00,-3.469019323668328519e-02,-7.169306602247878246e-02,-7.400574557159100841e-02,-7.400574557159100841e-02,-7.400574557159099454e-02,-7.400574557159100841e-02,-7.095721343867034125e-02,-6.759331591268893935e-02,-6.422941838670753745e-02,-6.086552086072612860e-02,-5.750162333474471976e-02,-5.413772580876330398e-02,-5.077382828278190208e-02,-4.740993075680048630e-02,-4.404603323081908439e-02,-4.068213570483766861e-02,-3.731823817885626671e-02,-3.395434065287485093e-02,-3.059044312689344555e-02,-2.733166739859895292e-02,-2.396776987261754061e-02,-2.060387234663613176e-02,-1.723997482065472292e-02,-1.387607729467331408e-02,-1.051217976869190524e-02,-7.148282242710494658e-03,-3.784384716729085815e-03,-4.204871907476761595e-04,0.000000000000000000e+00,0.000000000000000000e+00,0.000000000000000000e+00,0.000000000000000000e+00,0.000000000000000000e+00,0.000000000000000000e+00,0.000000000000000000e+00,0.000000000000000000e+00,0.000000000000000000e+00,0.000000000000000000e+00,0.000000000000000000e+00,0.000000000000000000e+00,0.000000000000000000e+00,0.000000000000000000e+00,0.000000000000000000e+00,0.000000000000000000e+00,0.000000000000000000e+00
0.000000000000000000e+00,0.000000000000000000e+00,-3.237751368757106618e-02,-6.938038647336657039e-02,-7.400574557159100841e-02,-7.400574557159100841e-02,-7.400574557159100841e-02,-7.400574557159100841e-02,-7.116745703404418755e-02,-6.780355950806278564e-02,-6.443966198208136986e-02,-6.107576445609996796e-02,-5.771186693011855912e-02,-5.434796940413713640e-02,-5.098407187815573449e-02,-4.762017435217432565e-02,-4.425627682619291681e-02,-4.089237930021150796e-02,-3.752848177423009912e-02,-3.426970604593561343e-02,-3.090580851995419764e-02,-2.754191099397278880e-02,-2.417801346799137649e-02,-2.081411594200997112e-02,-1.745021841602856227e-02,-1.408632089004715170e-02,-1.072242336406574112e-02,-7.358525838084332277e-03,-3.994628312102923434e-03,-6.307307861215141580e-04,0.000000000000000000e+00,0.000000000000000000e+00,0.000000000000000000e+00,0.000000000000000000e+00,0.000000000000000000e+00,0.000000000000000000e+00,0.000000000000000000e+00,0.000000000000000000e+00,0.000000000000000000e+00,0.000000000000000000e+00,0.000000000000000000e+00,0.000000000000000000e+00,0.000000000000000000e+00,0.000000000000000000e+00,0.000000000000000000e+00,0.000000000000000000e+00,0.000000000000000000e+00
0.000000000000000000e+00,0.000000000000000000e+00,-3.006483413845884717e-02,-6.591136714969823840e-02,-7.400574557159100841e-02,-7.400574557159102229e-02,-7.400574557159100841e-02,-7.400574557159100841e-02,-7.137770062941803384e-02,-6.801380310343661806e-02,-6.464990557745521615e-02,-6.128600805147380731e-02,-5.792211052549239847e-02,-5.455821299951098269e-02,-5.119431547352956691e-02,-4.783041794754816500e-02,-4.457164221925367237e-02,-4.120774469327226353e-02,-3.784384716729085468e-02,-3.447994964130944584e-02,-3.111605211532804047e-02,-2.775215458934662816e-02,-2.438825706336521584e-02,-2.102435953738381047e-02,-1.766046201140240163e-02,-1.429656448542098932e-02,-1.093266695943958047e-02,-7.568769433458171630e-03,-4.204871907476761921e-03,-8.409743814953523191e-04,0.000000000000000000e+00,0.000000000000000000e+00,0.000000000000000000e+00,0.000000000000000000e+00,0.000000000000000000e+00,0.000000000000000000e+00,0.000000000000000000e+00,0.000000000000000000e+00,0.000000000000000000e+00,0.000000000000000000e+00,0.000000000000000000e+00,0.000000000000000000e+00,0.000000000000000000e+00,0.000000000000000000e+00,0.000000000000000000e+00,0.000000000000000000e+00,0.000000000000000000e+00
0.000000000000000000e+00,0.000000000000000000e+00,-2.659581481479051518e-02,-6.359868760058601245e-02,-7.400574557159100841e-02,-7.400574557159100841e-02,-7.400574557159100841e-02,-7.400574557159102229e-02,-7.158794422479186625e-02,-6.822404669881046435e-02,-6.486014917282904857e-02,-6.149625164684764667e-02,-5.813235412086623088e-02,-5.476845659488482898e-02,-5.150968086659032941e-02,-4.814578334060892056e-02,-4.478188581462751172e-02,-4.141798828864610288e-02,-3.805409076266469404e-02,-3.469019323668328519e-02,-3.132629571070187635e-02,-2.796239818472046751e-02,-2.459850065873905867e-02,-2.123460313275764635e-02,-1.787070560677623751e-02,-1.450680808079482867e-02,-1.114291055481341983e-02,-7.779013028832009249e-03,-4.520237300537519216e-03,-1.156339774556109506e-03,0.000000000000000000e+00,0.000000000000000000e+00,0.000000000000000000e+00,0.000000000000000000e+00,0.000000000000000000e+00,0.000000000000000000e+00,0.000000000000000000e+00,0.000000000000000000e+00,0.000000000000000000e+00,0.000000000000000000e+00,0.000000000000000000e+00,0.000000000000000000e+00,0.000000000000000000e+00,0.000000000000000000e+00,0.000000000000000000e+00,0.000000000000000000e+00,0.000000000000000000e+00
0.000000000000000000e+00,0.000000000000000000e+00,-2.428313526567829964e-02,-6.128600805147380731e-02,-7.400574557159100841e-02,-7.400574557159100841e-02,-7.400574557159102229e-02,-7.400574557159100841e-02,-7.179818782016569867e-02,-6.843429029418429677e-02,-6.507039276820289486e-02,-6.170649524222147908e-02,-5.844771951392699338e-02,-5.508382198794557760e-02,-5.171992446196416182e-02,-4.835602693598275992e-02,-4.499212941000135801e-02,-4.162823188401994223e-02,-3.826433435803853339e-02,-3.490043683205712455e-02,-3.153653930607571571e-02,-2.817264178009430339e-02,-2.480874425411289108e-02,-2.144484672813148224e-02,-1.808094920215007340e-02,-1.482217347385558423e-02,-1.145827594787417539e-02,-8.094378421892766545e-03,-2.281833602464484745e-01,-2.248194627204670726e-01,-2.234528793505371203e-01,-2.234528793505371203e-01,0.000000000000000000e+00,0.000000000000000000e+00,0.000000000000000000e+00,0.000000000000000000e+00,0.000000000000000000e+00,0.000000000000000000e+00,0.000000000000000000e+00,0.000000000000000000e+00,0.000000000000000000e+00,0.000000000000000000e+00,0.000000000000000000e+00,0.000000000000000000e+00,0.000000000000000000e+00,0.000000000000000000e+00,0.000000000000000000e+00
0.000000000000000000e+00,0.000000000000000000e+00,-2.197045571656608062e-02,-5.897332850236158830e-02,-7.400574557159100841e-02,-7.400574557159100841e-02,-7.400574557159100841e-02,-7.400574557159100841e-02,-7.200843141553954496e-02,-6.874965568724505927e-02,-6.538575816126365736e-02,-6.202186063528224158e-02,-5.865796310930082580e-02,-5.529406558331941696e-02,-5.193016805733800811e-02,-4.856627053135660621e-02,-4.520237300537519043e-02,-4.183847547939378159e-02,-3.847457795341237274e-02,-3.511068042743095696e-02,-3.174678290144955506e-02,-2.838288537546814275e-02,-2.501898784948673043e-02,-2.176021212119224474e-02,-1.839631459521083243e-02,-1.503241706922942358e-02,-1.166851954324801474e-02,-8.304622017266605899e-03,-2.283936038418223069e-01,-2.250297063158409050e-01,-2.234528793505371203e-01,-2.234528793505371203e-01,0.000000000000000000e+00,0.000000000000000000e+00,0.000000000000000000e+00,0.000000000000000000e+00,0.000000000000000000e+00,0.000000000000000000e+00,0.000000000000000000e+00,0.000000000000000000e+00,0.000000000000000000e+00,0.000000000000000000e+00,0.000000000000000000e+00,0.000000000000000000e+00,0.000000000000000000e+00,0.000000000000000000e+00,0.000000000000000000e+00
0.000000000000000000e+00,0.000000000000000000e+00,-1.965777616745386161e-02,-5.666064895324936235e-02,-7.400574557159100841e-02,-7.400574557159100841e-02,-7.400574557159100841e-02,-7.400574557159100841e-02,-7.232379680860029358e-02,-6.895989928261889168e-02,-6.559600175663747590e-02,-6.223210423065607400e-02,-5.886820670467466515e-02,-5.550430917869325631e-02,-5.214041165271184053e-02,-4.877651412673043863e-02,-4.541261660074902978e-02,-4.204871907476762094e-02,-3.868482154878620516e-02,-3.532092402280479632e-02,-3.206214829451030368e-02,-2.869825076852889484e-02,-2.533435324254748947e-02,-2.197045571656607715e-02,-1.860655819058467178e-02,-1.524266066460325947e-02,-1.187876313862185236e-02,-8.514865612640443518e-03,-2.286038474371961393e-01,-2.252399499112147374e-01,-2.234528793505371203e-01,-2.234528793505371203e-01,0.000000000000000000e+00,0.000000000000000000e+00,0.000000000000000000e+00,0.000000000000000000e+00,0.000000000000000000e+00,0.000000000000000000e+00,0.000000000000000000e+00,0.000000000000000000e+00,0.000000000000000000e+00,0.000000000000000000e+00,0.000000000000000000e+00,0.000000000000000000e+00,0.000000000000000000e+00,0.000000000000000000e+00,0.000000000000000000e+00
0.000000000000000000e+00,0.000000000000000000e+00,-1.734509661834164260e-02,-5.434796940413714333e-02,-7.400574557159100841e-02,-7.400574557159100841e-02,-7.400574557159100841e-02,-7.400574557159100841e-02,-7.253404040397413988e-02,-6.917014287799272410e-02,-6.580624535201132219e-02,-6.244234782602990641e-02,-5.907845030004850451e-02,-5.571455277406710260e-02,-5.235065524808568682e-02,-4.898675772210427104e-02,-4.562286019612286914e-02,-4.225896267014145335e-02,-3.900018694184696072e-02,-3.563628941586555188e-02,-3.227239188988414997e-02,-2.890849436390273766e-02,-2.554459683792132535e-02,-2.218069931193991651e-02,-1.881680178595850766e-02,-1.545290425997709882e-02,-1.208900673399568998e-02,-8.725109208014281137e-03,-2.288140910325699995e-01,-2.254501935065885698e-01,-2.234528793505371203e-01,-2.234528793505371203e-01,0.000000000000000000e+00,0.000000000000000000e+00,0.000000000000000000e+00,0.000000000000000000e+00,0.000000000000000000e+00,0.000000000000000000e+00,0.000000000000000000e+00,0.000000000000000000e+00,0.000000000000000000e+00,0.000000000000000000e+00,0.000000000000000000e+00,0.000000000000000000e+00,0.000000000000000000e+00,0.000000000000000000e+00,0.000000000000000000e+00
0.000000000000000000e+00,0.000000000000000000e+00,-1.387607729467331408e-02,-5.087895008046881828e-02,-7.400574557159100841e-02,-7.400574557159102229e-02,-7.400574557159100841e-02,-7.400574557159100841e-02,-7.274428399934798617e-02,-6.938038647336655651e-02,-6.601648894738516848e-02,-6.265259142140375270e-02,-5.928869389542235080e-02,-5.592479636944093502e-02,-5.256089884345951924e-02,-4.930212311516503354e-02,-4.593822558918362470e-02,-4.257432806320220892e-02,-3.921043053722080007e-02,-3.584653301123939123e-02,-3.248263548525798239e-02,-2.911873795927657702e-02,-2.575484043329516817e-02,-2.239094290731375586e-02,-1.902704538133234702e-02,-1.566314785535093818e-02,-1.229925032936952933e-02,-8.935352803388118756e-03,-5.571455277406709046e-03,-2.312679549112219013e-03,0.000000000000000000e+00,0.000000000000000000e+00,0.000000000000000000e+00,0.000000000000000000e+00,0.000000000000000000e+00,0.000000000000000000e+00,0.000000000000000000e+00,0.000000000000000000e+00,0.000000000000000000e+00,0.000000000000000000e+00,0.000000000000000000e+00,0.000000000000000000e+00,0.000000000000000000e+00,0.000000000000000000e+00,0.000000000000000000e+00,0.000000000000000000e+00,0.000000000000000000e+00
0.000000000000000000e+00,0.000000000000000000e+00,-1.156339774556109506e-02,-4.856627053135659927e-02,-7.400574557159100841e-02,-7.400574557159100841e-02,-7.400574557159100841e-02,-7.400574557159100841e-02,-7.295452759472181858e-02,-6.959063006874040280e-02,-6.622673254275900090e-02,-6.286283501677758512e-02,-5.949893749079617628e-02,-5.624016176250168364e-02,-5.287626423652027480e-02,-4.951236671053886595e-02,-4.614846918455746405e-02,-4.278457165857605521e-02,-3.942067413259463943e-02,-3.605677660661323058e-02,-3.269287908063182868e-02,-2.932898155465041637e-02,-2.596508402866900406e-02,-2.260118650268759521e-02,-1.923728897670618637e-02,-1.587339145072477406e-02,-1.261461572243028489e-02,-9.250718196448876052e-03,-5.886820670467466342e-03,-2.522923144486056632e-03,0.000000000000000000e+00,0.000000000000000000e+00,0.000000000000000000e+00,0.000000000000000000e+00,0.000000000000000000e+00,0.000000000000000000e+00,0.000000000000000000e+00,0.000000000000000000e+00,0.000000000000000000e+00,0.000000000000000000e+00,0.000000000000000000e+00,0.000000000000000000e+00,0.000000000000000000e+00,0.000000000000000000e+00,0.000000000000000000e+00,0.000000000000000000e+00,0.000000000000000000e+00
0.000000000000000000e+00,0.000000000000000000e+00,-9.250718196448876052e-03,-4.625359098224438026e-02,-7.400574557159100841e-02,-7.400574557159100841e-02,-7.400574557159100841e-02,-7.400574557159100841e-02,-7.316477119009565100e-02,-6.980087366411424910e-02,-6.643697613813283331e-02,-6.317820040983834762e-02,-5.981430288385693878e-02,-5.645040535787552993e-02,-5.308650783189412109e-02,-4.972261030591270531e-02,-4.635871277993129647e-02,-4.299481525394988762e-02,-3.963091772796847878e-02,-3.626702020198706994e-02,-3.290312267600566110e-02,-2.953922515002425225e-02,-2.617532762404283994e-02,-2.281143009806143110e-02,-1.955265436976694193e-02,-1.618875684378553309e-02,-1.282485931780412425e-02,-9.460961791822713671e-03,-6.097064265841304828e-03,-2.733166739859895118e-03,0.000000000000000000e+00,0.000000000000000000e+00,0.000000000000000000e+00,0.000000000000000000e+00,0.000000000000000000e+00,0.000000000000000000e+00,0.000000000000000000e+00,0.000000000000000000e+00,0.000000000000000000e+00,0.000000000000000000e+00,0.000000000000000000e+00,0.000000000000000000e+00,0.000000000000000000e+00,0.000000000000000000e+00,0.000000000000000000e+00,0.000000000000000000e+00,0.000000000000000000e+00
0.000000000000000000e+00,0.000000000000000000e+00,-6.938038647336657039e-03,-4.394091143313216125e-02,-7.400574557159100841e-02,-7.400574557159100841e-02,-7.400574557159100841e-02,-7.400574557159100841e-02,-7.348013658315641350e-02,-7.011623905717499772e-02,-6.675234153119359581e-02,-6.338844400521218003e-02,-6.002454647923077813e-02,-5.666064895324936235e-02,-5.329675142726794657e-02,-4.993285390128655160e-02,-4.656895637530512888e-02,-4.320505884932372698e-02,-3.984116132334231813e-02,-3.647726379736090929e-02,-3.311336627137950045e-02,-2.974946874539809161e-02,-2.649069301710359203e-02,-2.312679549112219013e-02,-1.976289796514078129e-02,-1.639900043915937244e-02,-1.303510291317796013e-02,-9.671205387196551290e-03,-6.307307861215143314e-03,-2.943410335233733171e-03,0.000000000000000000e+00,0.000000000000000000e+00,0.000000000000000000e+00,0.000000000000000000e+00,0.000000000000000000e+00,0.000000000000000000e+00,0.000000000000000000e+00,0.000000000000000000e+00,0.000000000000000000e+00,0.000000000000000000e+00,0.000000000000000000e+00,0.000000000000000000e+00,0.000000000000000000e+00,0.000000000000000000e+00,0.000000000000000000e+00,0.000000000000000000e+00,0.000000000000000000e+00
0.000000000000000000e+00,0.000000000000000000e+00,-4.625359098224438026e-03,-4.162823188401994223e-02,-7.400574557159100841e-02,-7.400574557159100841e-02,-7.400574557159100841e-02,-7.400574557159099454e-02,-7.369038017853025979e-02,-7.032648265254884401e-02,-6.696258512656744211e-02,-6.359868760058601245e-02,-6.023479007460461748e-02,-5.687089254862320864e-02,-5.350699502264179980e-02,-5.014309749666038402e-02,-4.677919997067897517e-02,-4.341530244469755939e-02,-4.005140491871615055e-02,-3.679262919042167179e-02,-3.342873166444025601e-02,-3.006483413845885064e-02,-2.670093661247743486e-02,-2.333703908649602948e-02,-1.997314156051461717e-02,-1.660924403453321180e-02,-1.324534650855179949e-02,-9.881448982570392378e-03,-6.517551456588980066e-03,-3.153653930607571224e-03,0.000000000000000000e+00,0.000000000000000000e+00,0.000000000000000000e+00,0.000000000000000000e+00,0.000000000000000000e+00,0.000000000000000000e+00,0.000000000000000000e+00,0.000000000000000000e+00,0.000000000000000000e+00,0.000000000000000000e+00,0.000000000000000000e+00,0.000000000000000000e+00,0.000000000000000000e+00,0.000000000000000000e+00,0.000000000000000000e+00,0.000000000000000000e+00,0.000000000000000000e+00
0.000000000000000000e+00,0.000000000000000000e+00,-2.312679549112219013e-03,-3.931555233490772322e-02,-7.400574557159099454e-02,-7.400574557159100841e-02,-7.400574557159102229e-02,-7.400574557159102229e-02,-7.390062377390409221e-02,-7.053672624792266255e-02,-6.717282872194127452e-02,-6.380893119595985874e-02,-6.044503366997844990e-02,-5.708113614399704105e-02,-5.371723861801563915e-02,-5.035334109203421643e-02,-4.698944356605281453e-02,-4.373066783775832189e-02,-4.036677031177691305e-02,-3.700287278579550421e-02,-3.363897525981409536e-02,-3.027507773383268652e-02,-2.691118020785127421e-02,-2.354728268186986537e-02,-2.018338515588845652e-02,-1.681948762990704768e-02,-1.345559010392563710e-02,-1.009169257794422826e-02,-6.727795051962818552e-03,-3.363897525981409276e-03,0.000000000000000000e+00,0.000000000000000000e+00,0.000000000000000000e+00,0.000000000000000000e+00,0.000000000000000000e+00,0.000000000000000000e+00,0.000000000000000000e+00,0.000000000000000000e+00,0.000000000000000000e+00,0.000000000000000000e+00,0.000000000000000000e+00,0.000000000000000000e+00,0.000000000000000000e+00,0.000000000000000000e+00,0.000000000000000000e+00,0.000000000000000000e+00,0.000000000000000000e+00
0.000000000000000000e+00,0.000000000000000000e+00,0.000000000000000000e+00,-3.584653301123939817e-02,-7.284940579703488850e-02,-7.400574557159100841e-02,-7.400574557159100841e-02,-7.400574557159100841e-02,-7.400574557159100841e-02,-7.074696984329650884e-02,-6.738307231731510694e-02,-6.401917479133369115e-02,-6.065527726535228925e-02,-5.729137973937088735e-02,-5.392748221338947157e-02,-5.066870648509497199e-02,-4.730480895911357009e-02,-4.394091143313216125e-02,-4.057701390715075240e-02,-3.721311638116934356e-02,-3.384921885518793472e-02,-3.048532132920652588e-02,-2.712142380322511356e-02,-2.375752627724370472e-02,-2.039362875126229588e-02,-1.702973122528088704e-02,-1.366583369929947472e-02,-1.030193617331806588e-02,-7.043160445023574981e-03,-3.679262919042166138e-03,-3.153653930607571332e-04,0.000000000000000000e+00,0.000000000000000000e+00,0.000000000000000000e+00,0.000000000000000000e+00,0.000000000000000000e+00,0.000000000000000000e+00,0.000000000000000000e+00,0.000000000000000000e+00,0.000000000000000000e+00,0.000000000000000000e+00,0.000000000000000000e+00,0.000000000000000000e+00,0.000000000000000000e+00,0.000000000000000000e+00,0.000000000000000000e+00,0.000000000000000000e+00
0.000000000000000000e+00,0.000000000000000000e+00,0.000000000000000000e+00,-3.353385346212717916e-02,-7.053672624792269030e-02,-7.400574557159100841e-02,-7.400574557159100841e-02,-7.400574557159100841e-02,-7.400574557159102229e-02,-7.095721343867034125e-02,-6.759331591268895323e-02,-6.422941838670753745e-02,-6.097064265841305175e-02,-5.760674513243164291e-02,-5.424284760645022019e-02,-5.087895008046881828e-02,-4.751505255448740250e-02,-4.415115502850600060e-02,-4.078725750252458482e-02,-3.742335997654318291e-02,-3.405946245056177407e-02,-3.069556492458036523e-02,-2.733166739859894598e-02,-2.396776987261754061e-02,-2.060387234663613176e-02,-1.723997482065472292e-02,-1.398119909236023202e-02,-1.061730156637882318e-02,-7.253404040397413467e-03,-3.889506514416004625e-03,-5.256089884345951316e-04,0.000000000000000000e+00,0.000000000000000000e+00,0.000000000000000000e+00,0.000000000000000000e+00,0.000000000000000000e+00,0.000000000000000000e+00,0.000000000000000000e+00,0.000000000000000000e+00,0.000000000000000000e+00,0.000000000000000000e+00,0.000000000000000000e+00,0.000000000000000000e+00,0.000000000000000000e+00,0.000000000000000000e+00,0.000000000000000000e+00,0.000000000000000000e+00
0.000000000000000000e+00,0.000000000000000000e+00,0.000000000000000000e+00,-3.122117391301495321e-02,-6.822404669881046435e-02,-7.400574557159100841e-02,-7.400574557159100841e-02,-7.400574557159100841e-02,-7.400574557159100841e-02,-7.116745703404418755e-02,-6.790868130574970185e-02,-6.454478377976828607e-02,-6.118088625378688417e-02,-5.781698872780547532e-02,-5.445309120182405954e-02,-5.108919367584265070e-02,-4.772529614986124186e-02,-4.436139862387983301e-02,-4.099750109789842417e-02,-3.763360357191701533e-02,-3.426970604593561343e-02,-3.090580851995420111e-02,-2.754191099397278880e-02,-2.428313526567829964e-02,-2.091923773969689079e-02,-1.755534021371547848e-02,-1.419144268773407137e-02,-1.082754516175266080e-02,-7.463647635771251954e-03,-4.099750109789843111e-03,-7.358525838084331843e-04,0.000000000000000000e+00,0.000000000000000000e+00,0.000000000000000000e+00,0.000000000000000000e+00,0.000000000000000000e+00,0.000000000000000000e+00,0.000000000000000000e+00,0.000000000000000000e+00,0.000000000000000000e+00,0.000000000000000000e+00,0.000000000000000000e+00,0.000000000000000000e+00,0.000000000000000000e+00,0.000000000000000000e+00,0.000000000000000000e+00,0.000000000000000000e+00
0.000000000000000000e+00,0.000000000000000000e+00,0.000000000000000000e+00,-2.890849436390273766e-02,-6.591136714969825228e-02,-7.400574557159100841e-02,-7.400574557159100841e-02,-7.400574557159100841e-02,-7.400574557159100841e-02,-7.148282242710495005e-02,-6.811892490112353427e-02,-6.475502737514213236e-02,-6.139112984916072352e-02,-5.802723232317931468e-02,-5.466333479719789890e-02,-5.129943727121649699e-02,-4.793553974523508121e-02,-4.457164221925367237e-02,-4.120774469327226353e-02,-3.784384716729085468e-02,-3.447994964130944584e-02,-3.122117391301495667e-02,-2.785727638703354783e-02,-2.449337886105213899e-02,-2.112948133507072668e-02,-1.776558380908931783e-02,-1.440168628310790899e-02,-1.103778875712650015e-02,-7.673891231145089573e-03,-4.309993705163680730e-03,-9.460961791822713454e-04,0.000000000000000000e+00,0.000000000000000000e+00,0.000000000000000000e+00,0.000000000000000000e+00,0.000000000000000000e+00,0.000000000000000000e+00,0.000000000000000000e+00,0.000000000000000000e+00,0.000000000000000000e+00,0.000000000000000000e+00,0.000000000000000000e+00,0.000000000000000000e+00,0.000000000000000000e+00,0.000000000000000000e+00,0.000000000000000000e+00,0.000000000000000000e+00
0.000000000000000000e+00,0.000000000000000000e+00,0.000000000000000000e+00,-2.659581481479051865e-02,-6.359868760058602633e-02,-7.400574557159100841e-02,-7.400574557159100841e-02,-7.400574557159100841e-02,-7.400574557159102229e-02,-7.169306602247878246e-02,-6.832916849649738056e-02,-6.496527097051596478e-02,-6.160137344453456287e-02,-5.823747591855316097e-02,-5.487357839257174519e-02,-5.150968086659032941e-02,-4.814578334060892056e-02,-4.478188581462751172e-02,-4.152311008633302603e-02,-3.815921256035161024e-02,-3.479531503437020834e-02,-3.143141750838879256e-02,-2.806751998240738372e-02,-2.470362245642597487e-02,-2.133972493044456603e-02,-1.797582740446315719e-02,-1.461192987848174835e-02,-1.124803235250033950e-02,-7.884134826518927192e-03,-4.520237300537519216e-03,-1.156339774556109506e-03,0.000000000000000000e+00,0.000000000000000000e+00,0.000000000000000000e+00,0.000000000000000000e+00,0.000000000000000000e+00,0.000000000000000000e+00,0.000000000000000000e+00,0.000000000000000000e+00,0.000000000000000000e+00,0.000000000000000000e+00,0.000000000000000000e+00,0.000000000000000000e+00,0.000000000000000000e+00,0.000000000000000000e+00,0.000000000000000000e+00,0.000000000000000000e+00
0.000000000000000000e+00,0.000000000000000000e+00,0.000000000000000000e+00,-2.312679549112219013e-02,-6.012966827691769434e-02,-7.400574557159100841e-02,-7.400574557159100841e-02,-7.400574557159102229e-02,-7.400574557159100841e-02,-7.190330961785262875e-02,-6.853941209187121297e-02,-6.517551456588979719e-02,-6.181161703990839529e-02,-5.844771951392699338e-02,-5.508382198794557760e-02,-5.171992446196416182e-02,-4.846114873366967613e-02,-4.509725120768826728e-02,-4.173335368170685844e-02,-3.836945615572544960e-02,-3.500555862974404769e-02,-3.164166110376263191e-02,-2.827776357778122654e-02,-2.491386605179981423e-02,-2.154996852581840538e-02,-1.818607099983699654e-02,-1.482217347385558597e-02,-1.145827594787417539e-02,-8.094378421892766545e-03,-4.835602693598275645e-03,-1.471705167616866369e-03,0.000000000000000000e+00,0.000000000000000000e+00,0.000000000000000000e+00,0.000000000000000000e+00,0.000000000000000000e+00,0.000000000000000000e+00,0.000000000000000000e+00,0.000000000000000000e+00,0.000000000000000000e+00,0.000000000000000000e+00,0.000000000000000000e+00,0.000000000000000000e+00,0.000000000000000000e+00,0.000000000000000000e+00,0.000000000000000000e+00,0.000000000000000000e+00
0.000000000000000000e+00,0.000000000000000000e+00,0.000000000000000000e+00,-2.081411594200997112e-02,-5.781698872780547532e-02,-7.400574557159100841e-02,-7.400574557159100841e-02,-7.400574557159100841e-02,-7.400574557159100841e-02,-7.211355321322646117e-02,-6.874965568724505927e-02,-6.538575816126364348e-02,-6.202186063528223464e-02,-5.865796310930082580e-02,-5.539918738100634010e-02,-5.203528985502492432e-02,-4.867139232904350854e-02,-4.530749480306210664e-02,-4.194359727708070473e-02,-3.857969975109928895e-02,-3.521580222511788011e-02,-3.185190469913647127e-02,-2.848800717315505895e-02,-2.512410964717365011e-02,-2.176021212119223780e-02,-1.839631459521083243e-02,-1.503241706922942358e-02,-1.177364134093493268e-02,-8.409743814953523841e-03,-5.045846288972114131e-03,-1.681948762990704638e-03,0.000000000000000000e+00,0.000000000000000000e+00,0.000000000000000000e+00,0.000000000000000000e+00,0.000000000000000000e+00,0.000000000000000000e+00,0.000000000000000000e+00,0.000000000000000000e+00,0.000000000000000000e+00,0.000000000000000000e+00,0.000000000000000000e+00,0.000000000000000000e+00,0.000000000000000000e+00,0.000000000000000000e+00,0.000000000000000000e+00,0.000000000000000000e+00
0.000000000000000000e+00,0.000000000000000000e+00,0.000000000000000000e+00,-3.032627105268501100e-01,-3.402655833126456142e-01,-3.587670197055433663e-01,-3.587670197055433663e-01,-7.400574557159100841e-02,-7.400574557159100841e-02,-7.232379680860029358e-02,-6.895989928261889168e-02,-6.570112355432440598e-02,-6.233722602834299714e-02,-5.897332850236159524e-02,-5.560943097638017946e-02,-5.224553345039876368e-02,-4.888163592441735483e-02,-4.551773839843594599e-02,-4.215384087245453715e-02,-3.878994334647312830e-02,-3.542604582049171946e-02,-3.206214829451031062e-02,-2.869825076852889831e-02,-2.533435324254748600e-02,-2.197045571656608062e-02,-1.871167998827159146e-02,-1.534778246229017915e-02,-1.198388493630877030e-02,-8.619987410327361460e-03,-5.256089884345952618e-03,-1.892192358364542691e-03,0.000000000000000000e+00,0.000000000000000000e+00,0.000000000000000000e+00,0.000000000000000000e+00,0.000000000000000000e+00,0.000000000000000000e+00,0.000000000000000000e+00,0.000000000000000000e+00,0.000000000000000000e+00,0.000000000000000000e+00,0.000000000000000000e+00,0.000000000000000000e+00,0.000000000000000000e+00,0.000000000000000000e+00,0.000000000000000000e+00,0.000000000000000000e+00
0.000000000000000000e+00,0.000000000000000000e+00,0.000000000000000000e+00,-3.009500309777378702e-01,-3.379529037635333744e-01,-3.587670197055433663e-01,-3.587670197055433663e-01,-7.400574557159100841e-02,-7.400574557159100841e-02,-7.263916220166105608e-02,-6.927526467567964030e-02,-6.591136714969825228e-02,-6.254746962371683650e-02,-5.918357209773542071e-02,-5.581967457175401187e-02,-5.245577704577260303e-02,-4.909187951979119419e-02,-4.572798199380978534e-02,-4.236408446782837650e-02,-3.900018694184696766e-02,-3.563628941586555882e-02,-3.227239188988414997e-02,-2.901361616158965387e-02,-2.564971863560824850e-02,-2.228582110962683965e-02,-1.892192358364542734e-02,-1.555802605766401850e-02,-1.219412853168260966e-02,-8.830231005701199079e-03,-5.466333479719790236e-03,-2.102435953738380527e-03,0.000000000000000000e+00,0.000000000000000000e+00,0.000000000000000000e+00,0.000000000000000000e+00,0.000000000000000000e+00,0.000000000000000000e+00,0.000000000000000000e+00,0.000000000000000000e+00,0.000000000000000000e+00,0.000000000000000000e+00,0.000000000000000000e+00,0.000000000000000000e+00,0.000000000000000000e+00,0.000000000000000000e+00,0.000000000000000000e+00,0.000000000000000000e+00
0.000000000000000000e+00,0.000000000000000000e+00,0.000000000000000000e+00,-2.986373514286256858e-01,-3.356402242144211900e-01,-3.587670197055433663e-01,-3.587670197055433663e-01,-7.400574557159099454e-02,-7.400574557159100841e-02,-7.284940579703488850e-02,-6.948550827105348660e-02,-6.612161074507208469e-02,-6.275771321909066891e-02,-5.939381569310926701e-02,-5.602991816712785123e-02,-5.266602064114643544e-02,-4.930212311516503354e-02,-4.593822558918361776e-02,-4.257432806320220892e-02,-3.921043053722080007e-02,-3.595165480892631438e-02,-3.258775728294490553e-02,-2.922385975696349322e-02,-2.585996223098208785e-02,-2.249606470500067554e-02,-1.913216717901926670e-02,-1.576826965303785438e-02,-1.240437212705644728e-02,-9.040474601075036698e-03,-5.676577075093627855e-03,-2.312679549112219013e-03,0.000000000000000000e+00,0.000000000000000000e+00,0.000000000000000000e+00,0.000000000000000000e+00,0.000000000000000000e+00,0.000000000000000000e+00,0.000000000000000000e+00,0.000000000000000000e+00,0.000000000000000000e+00,0.000000000000000000e+00,0.000000000000000000e+00,0.000000000000000000e+00,0.000000000000000000e+00,0.000000000000000000e+00,0.000000000000000000e+00,0.000000000000000000e+00
0.000000000000000000e+00,0.000000000000000000e+00,0.000000000000000000e+00,-2.963246718795134460e-01,-3.321712048907528581e-01,-3.587670197055433663e-01,-3.587670197055433663e-01,-7.400574557159100841e-02,-7.400574557159100841e-02,-7.305964939240873479e-02,-6.969575186642731901e-02,-6.633185434044591711e-02,-6.296795681446450133e-02,-5.960405928848310636e-02,-5.624016176250169058e-02,-5.287626423652028174e-02,-4.951236671053887289e-02,-4.614846918455745711e-02,-4.288969345626297142e-02,-3.952579593028156257e-02,-3.616189840430015373e-02,-3.279800087831874489e-02,-2.943410335233733258e-02,-2.607020582635592026e-02,-2.270630830037451142e-02,-1.934241077439310605e-02,-1.597851324841169721e-02,-1.261461572243028489e-02,-9.250718196448876052e-03,-5.886820670467466342e-03,-2.522923144486056632e-03,0.000000000000000000e+00,0.000000000000000000e+00,0.000000000000000000e+00,0.000000000000000000e+00,0.000000000000000000e+00,0.000000000000000000e+00,0.000000000000000000e+00,0.000000000000000000e+00,0.000000000000000000e+00,0.000000000000000000e+00,0.000000000000000000e+00,0.000000000000000000e+00,0.000000000000000000e+00,0.000000000000000000e+00,0.000000000000000000e+00,0.000000000000000000e+00
0.000000000000000000e+00,0.000000000000000000e+00,0.000000000000000000e+00,-8.094378421892766545e-03,-4.509725120768826728e-02,-7.400574557159100841e-02,-7.400574557159100841e-02,-7.400574557159100841e-02,-7.400574557159100841e-02,-7.326989298778258108e-02,-6.990599546180116530e-02,-6.654209793581974952e-02,-6.317820040983834762e-02,-5.981430288385693184e-02,-5.645040535787552993e-02,-5.319162962958103730e-02,-4.982773210359962152e-02,-4.646383457761821267e-02,-4.309993705163680383e-02,-3.973603952565539499e-02,-3.637214199967399308e-02,-3.300824447369258424e-02,-2.964434694771117540e-02,-2.628044942172975962e-02,-2.291655189574834731e-02,-1.955265436976694193e-02,-1.618875684378553309e-02,-1.282485931780412251e-02,-9.566083589509631613e-03,-6.202186063528222770e-03,-2.838288537546813928e-03,0.000000000000000000e+00,0.000000000000000000e+00,0.000000000000000000e+00,0.000000000000000000e+00,0.000000000000000000e+00,0.000000000000000000e+00,0.000000000000000000e+00,0.000000000000000000e+00,0.000000000000000000e+00,0.000000000000000000e+00,0.000000000000000000e+00,0.000000000000000000e+00,0.000000000000000000e+00,0.000000000000000000e+00,0.000000000000000000e+00,0.000000000000000000e+00
0.000000000000000000e+00,0.000000000000000000e+00,0.000000000000000000e+00,-5.781698872780547532e-03,-4.278457165857605521e-02,-7.400574557159100841e-02,-7.400574557159100841e-02,-7.400574557159100841e-02,-7.400574557159100841e-02,-7.348013658315641350e-02,-7.011623905717499772e-02,-6.675234153119359581e-02,-6.349356580289909624e-02,-6.012966827691769434e-02,-5.676577075093629243e-02,-5.340187322495486971e-02,-5.003797569897346087e-02,-4.667407817299205203e-02,-4.331018064701064318e-02,-3.994628312102924128e-02,-3.658238559504782550e-02,-3.321848806906642360e-02,-2.985459054308501128e-02,-2.649069301710359897e-02,-2.312679549112219013e-02,-1.976289796514077782e-02,-1.650412223684628865e-02,-1.314022471086487981e-02,-9.776327184883470967e-03,-6.412429658902062124e-03,-3.048532132920652414e-03,0.000000000000000000e+00,0.000000000000000000e+00,0.000000000000000000e+00,0.000000000000000000e+00,0.000000000000000000e+00,0.000000000000000000e+00,0.000000000000000000e+00,0.000000000000000000e+00,0.000000000000000000e+00,0.000000000000000000e+00,0.000000000000000000e+00,0.000000000000000000e+00,0.000000000000000000e+00,0.000000000000000000e+00,0.000000000000000000e+00,0.000000000000000000e+00
0.000000000000000000e+00,0.000000000000000000e+00,0.000000000000000000e+00,-3.469019323668328519e-03,-4.047189210946383620e-02,-7.400574557159100841e-02,-7.400574557159100841e-02,-7.400574557159100841e-02,-7.400574557159099454e-02,-7.369038017853024591e-02,-7.043160445023576022e-02,-6.706770692425435831e-02,-6.370380939827294253e-02,-6.033991187229153369e-02,-5.697601434631013179e-02,-5.361211682032871600e-02,-5.024821929434730716e-02,-4.688432176836589138e-02,-4.352042424238448254e-02,-4.015652671640307370e-02,-3.679262919042166485e-02,-3.342873166444025601e-02,-3.006483413845884717e-02,-2.670093661247743486e-02,-2.344216088418294569e-02,-2.007826335820153685e-02,-1.671436583222012801e-02,-1.335046830623871743e-02,-9.986570780257308586e-03,-6.622673254275899743e-03,-3.258775728294490033e-03,0.000000000000000000e+00,0.000000000000000000e+00,0.000000000000000000e+00,0.000000000000000000e+00,0.000000000000000000e+00,0.000000000000000000e+00,0.000000000000000000e+00,0.000000000000000000e+00,0.000000000000000000e+00,0.000000000000000000e+00,0.000000000000000000e+00,0.000000000000000000e+00,0.000000000000000000e+00,0.000000000000000000e+00,0.000000000000000000e+00,0.000000000000000000e+00
0.000000000000000000e+00,0.000000000000000000e+00,0.000000000000000000e+00,-1.156339774556109506e-03,-3.815921256035161718e-02,-7.400574557159102229e-02,-7.400574557159100841e-02,-7.400574557159100841e-02,-7.400574557159100841e-02,-7.400574557159100841e-02,-7.064184804560959263e-02,-6.727795051962819073e-02,-6.391405299364677495e-02,-6.055015546766537304e-02,-5.718625794168395726e-02,-5.382236041570254842e-02,-5.045846288972113958e-02,-4.709456536373973073e-02,-4.373066783775832189e-02,-4.036677031177691305e-02,-3.700287278579550421e-02,-3.374409705750101157e-02,-3.038019953151960273e-02,-2.701630200553819042e-02,-2.365240447955678504e-02,-2.028850695357537620e-02,-1.692460942759396736e-02,-1.356071190161255678e-02,-1.019681437563114620e-02,-6.832916849649738229e-03,-3.469019323668328519e-03,-1.051217976869190399e-04,0.000000000000000000e+00,0.000000000000000000e+00,0.000000000000000000e+00,0.000000000000000000e+00,0.000000000000000000e+00,0.000000000000000000e+00,0.000000000000000000e+00,0.000000000000000000e+00,0.000000000000000000e+00,0.000000000000000000e+00,0.000000000000000000e+00,0.000000000000000000e+00,0.000000000000000000e+00,0.000000000000000000e+00,0.000000000000000000e+00
0.000000000000000000e+00,0.000000000000000000e+00,0.000000000000000000e+00,0.000000000000000000e+00,-3.584653301123939817e-02,-7.169306602247878246e-02,-7.400574557159100841e-02,-7.400574557159099454e-02,-7.400574557159100841e-02,-7.400574557159100841e-02,-7.085209164098342505e-02,-6.748819411500203702e-02,-6.412429658902060736e-02,-6.076039906303920546e-02,-5.739650153705780355e-02,-5.403260401107638777e-02,-5.066870648509497893e-02,-4.730480895911357009e-02,-4.394091143313216125e-02,-4.068213570483766861e-02,-3.731823817885625977e-02,-3.395434065287485093e-02,-3.059044312689343861e-02,-2.722654560091202977e-02,-2.386264807493062440e-02,-2.049875054894921556e-02,-1.713485302296780671e-02,-1.377095549698639440e-02,-1.040705797100498556e-02,-7.043160445023575848e-03,-3.679262919042166138e-03,-3.153653930607571332e-04,0.000000000000000000e+00,0.000000000000000000e+00,0.000000000000000000e+00,0.000000000000000000e+00,0.000000000000000000e+00,0.000000000000000000e+00,0.000000000000000000e+00,0.000000000000000000e+00,0.000000000000000000e+00,0.000000000000000000e+00,0.000000000000000000e+00,0.000000000000000000e+00,0.000000000000000000e+00,0.000000000000000000e+00,0.000000000000000000e+00
0.000000000000000000e+00,0.000000000000000000e+00,0.000000000000000000e+00,0.000000000000000000e+00,-3.237751368757106618e-02,-6.938038647336657039e-02,-7.400574557159100841e-02,-7.400574557159100841e-02,-7.400574557159100841e-02,-7.400574557159100841e-02,-7.106233523635727134e-02,-6.769843771037586944e-02,-6.433454018439445365e-02,-6.097064265841305175e-02,-5.760674513243164291e-02,-5.424284760645022019e-02,-5.087895008046881828e-02,-4.762017435217432565e-02,-4.425627682619291681e-02,-4.089237930021150796e-02,-3.752848177423009912e-02,-3.416458424824869028e-02,-3.080068672226728144e-02,-2.743678919628587259e-02,-2.407289167030446028e-02,-2.070899414432305144e-02,-1.734509661834164260e-02,-1.398119909236023375e-02,-1.061730156637882491e-02,-7.253404040397413467e-03,-3.994628312102923434e-03,-6.307307861215142664e-04,0.000000000000000000e+00,0.000000000000000000e+00,0.000000000000000000e+00,0.000000000000000000e+00,0.000000000000000000e+00,0.000000000000000000e+00,0.000000000000000000e+00,0.000000000000000000e+00,0.000000000000000000e+00,0.000000000000000000e+00,0.000000000000000000e+00,0.000000000000000000e+00,0.000000000000000000e+00,0.000000000000000000e+00,0.000000000000000000e+00
0.000000000000000000e+00,0.000000000000000000e+00,0.000000000000000000e+00,0.000000000000000000e+00,-3.006483413845884717e-02,-6.706770692425434444e-02,-7.400574557159100841e-02,-7.400574557159100841e-02,-7.400574557159100841e-02,-7.400574557159100841e-02,-7.127257883173110375e-02,-6.790868130574970185e-02,-6.454478377976829995e-02,-6.118088625378689110e-02,-5.792211052549239847e-02,-5.455821299951098269e-02,-5.119431547352956691e-02,-4.783041794754816500e-02,-4.446652042156674922e-02,-4.110262289558534732e-02,-3.773872536960393848e-02,-3.437482784362252963e-02,-3.101093031764112079e-02,-2.764703279165970848e-02,-2.428313526567829617e-02,-2.091923773969689079e-02,-1.755534021371547848e-02,-1.419144268773407137e-02,-1.093266695943958047e-02,-7.568769433458170763e-03,-4.204871907476761053e-03,-8.409743814953523191e-04,0.000000000000000000e+00,0.000000000000000000e+00,0.000000000000000000e+00,0.000000000000000000e+00,0.000000000000000000e+00,0.000000000000000000e+00,0.000000000000000000e+00,0.000000000000000000e+00,0.000000000000000000e+00,0.000000000000000000e+00,0.000000000000000000e+00,0.000000000000000000e+00,0.000000000000000000e+00,0.000000000000000000e+00,0.000000000000000000e+00
0.000000000000000000e+00,0.000000000000000000e+00,0.000000000000000000e+00,0.000000000000000000e+00,-2.775215458934662816e-02,-6.475502737514213236e-02,-7.400574557159100841e-02,-7.400574557159100841e-02,-7.400574557159100841e-02,-7.400574557159100841e-02,-7.148282242710495005e-02,-6.811892490112353427e-02,-6.486014917282904857e-02,-6.149625164684764667e-02,-5.813235412086623782e-02,-5.476845659488482204e-02,-5.140455906890341320e-02,-4.804066154292199742e-02,-4.467676401694058858e-02,-4.131286649095918667e-02,-3.794896896497777089e-02,-3.458507143899636899e-02,-3.122117391301495667e-02,-2.785727638703354783e-02,-2.449337886105213552e-02,-2.123460313275764635e-02,-1.787070560677623751e-02,-1.450680808079482867e-02,-1.114291055481341983e-02,-7.779013028832009249e-03,-4.415115502850600407e-03,-1.051217976869190480e-03,0.000000000000000000e+00,0.000000000000000000e+00,0.000000000000000000e+00,0.000000000000000000e+00,0.000000000000000000e+00,0.000000000000000000e+00,0.000000000000000000e+00,0.000000000000000000e+00,0.000000000000000000e+00,0.000000000000000000e+00,0.000000000000000000e+00,0.000000000000000000e+00,0.000000000000000000e+00,0.000000000000000000e+00,0.000000000000000000e+00
0.000000000000000000e+00,0.000000000000000000e+00,0.000000000000000000e+00,0.000000000000000000e+00,-2.543947504023440914e-02,-6.244234782602991335e-02,-7.400574557159100841e-02,-7.400574557159100841e-02,-7.400574557159099454e-02,-7.400574557159100841e-02,-7.179818782016569867e-02,-6.843429029418429677e-02,-6.507039276820289486e-02,-6.170649524222147908e-02,-5.834259771624007718e-02,-5.497870019025866140e-02,-5.161480266427725255e-02,-3.358975515475132179e-01,-3.325336540215317882e-01,-3.291697564955504141e-01,-3.815921256035161718e-02,-3.479531503437020140e-02,-3.143141750838879256e-02,-2.817264178009429992e-02,-2.480874425411289455e-02,-2.144484672813148224e-02,-1.808094920215007687e-02,-1.471705167616866629e-02,-1.135315415018725571e-02,-7.989256624205846868e-03,-4.625359098224437158e-03,-1.261461572243028533e-03,0.000000000000000000e+00,0.000000000000000000e+00,0.000000000000000000e+00,0.000000000000000000e+00,0.000000000000000000e+00,0.000000000000000000e+00,0.000000000000000000e+00,0.000000000000000000e+00,0.000000000000000000e+00,0.000000000000000000e+00,0.000000000000000000e+00,0.000000000000000000e+00,0.000000000000000000e+00,0.000000000000000000e+00,0.000000000000000000e+00
0.000000000000000000e+00,0.000000000000000000e+00,0.000000000000000000e+00,0.000000000000000000e+00,-2.312679549112219013e-02,-6.012966827691769434e-02,-7.400574557159100841e-02,-7.400574557159100841e-02,-7.400574557159100841e-02,-7.400574557159100841e-02,-7.200843141553954496e-02,-6.864453388955812918e-02,-6.528063636357672728e-02,-6.191673883759531843e-02,-5.855284131161390959e-02,-5.518894378563249381e-02,-5.182504625965108497e-02,-3.361077951428870780e-01,-3.327438976169056484e-01,-3.293800000909242742e-01,-3.847457795341236580e-02,-3.511068042743095696e-02,-3.174678290144955506e-02,-2.838288537546814275e-02,-2.501898784948673043e-02,-2.165509032350532159e-02,-1.829119279752391622e-02,-1.492729527154250391e-02,-1.156339774556109506e-02,-8.199500219579686222e-03,-4.835602693598275645e-03,-1.471705167616866585e-03,0.000000000000000000e+00,0.000000000000000000e+00,0.000000000000000000e+00,0.000000000000000000e+00,0.000000000000000000e+00,0.000000000000000000e+00,0.000000000000000000e+00,0.000000000000000000e+00,0.000000000000000000e+00,0.000000000000000000e+00,0.000000000000000000e+00,0.000000000000000000e+00,0.000000000000000000e+00,0.000000000000000000e+00,0.000000000000000000e+00
0.000000000000000000e+00,0.000000000000000000e+00,0.000000000000000000e+00,0.000000000000000000e+00,-1.965777616745386161e-02,-5.666064895324936929e-02,-7.400574557159100841e-02,-7.400574557159099454e-02,-7.400574557159100841e-02,-7.400574557159100841e-02,-7.221867501091337738e-02,-6.885477748493196160e-02,-6.549087995895055969e-02,-6.212698243296915779e-02,-5.876308490698775588e-02,-5.539918738100633316e-02,-5.203528985502492432e-02,-3.363180387382608827e-01,-3.330592630099664109e-01,-3.296953654839850367e-01,-3.868482154878620516e-02,-3.532092402280479632e-02,-3.195702649682338747e-02,-2.859312897084198210e-02,-2.522923144486056979e-02,-2.186533391887916095e-02,-1.850143639289774863e-02,-1.513753886691634326e-02,-1.177364134093493442e-02,-8.409743814953523841e-03,-5.045846288972113264e-03,-1.787070560677623664e-03,0.000000000000000000e+00,0.000000000000000000e+00,0.000000000000000000e+00,0.000000000000000000e+00,0.000000000000000000e+00,0.000000000000000000e+00,0.000000000000000000e+00,0.000000000000000000e+00,0.000000000000000000e+00,0.000000000000000000e+00,0.000000000000000000e+00,0.000000000000000000e+00,0.000000000000000000e+00,0.000000000000000000e+00,0.000000000000000000e+00
0.000000000000000000e+00,0.000000000000000000e+00,0.000000000000000000e+00,0.000000000000000000e+00,-1.734509661834164260e-02,-5.434796940413715027e-02,-7.400574557159100841e-02,-7.400574557159100841e-02,-7.400574557159099454e-02,-7.400574557159100841e-02,-7.242891860628722367e-02,-6.906502108030580789e-02,-6.570112355432439211e-02,-6.233722602834299714e-02,-5.897332850236159524e-02,-5.571455277406709566e-02,-5.235065524808567988e-02,-4.898675772210427104e-02,-4.562286019612286914e-02,-4.225896267014145335e-02,-3.889506514416004451e-02,-3.553116761817863567e-02,-3.216727009219722683e-02,-2.880337256621581798e-02,-2.543947504023440914e-02,-2.000599212229178109e-02,-1.578797999010415204e-02,-1.199045504866420343e-02,-8.613417297971928330e-03,-5.725852917759371996e-03,-3.015681571143490232e-03,-9.986570780257308586e-04,0.000000000000000000e+00,0.000000000000000000e+00,0.000000000000000000e+00,0.000000000000000000e+00,0.000000000000000000e+00,0.000000000000000000e+00,0.000000000000000000e+00,0.000000000000000000e+00,0.000000000000000000e+00,0.000000000000000000e+00,0.000000000000000000e+00,0.000000000000000000e+00,0.000000000000000000e+00,0.000000000000000000e+00,0.000000000000000000e+00
