5.079667048160461246e-04,5.079667048160461246e-04,5.079667048160461246e-04,5.079667048160461246e-04,5.079667048160461246e-04,5.079667048160461246e-04,5.079667048160461246e-04,5.079667048160461246e-04,5.079667048160461246e-04,5.079667048160461246e-04,5.079667048160461246e-04,5.079667048160461246e-04,5.079667048160461246e-04,5.079667048160461246e-04,5.079667048160461246e-04,5.079667048160461246e-04,2.727367743590805322e-04,-2.333102888399282400e-04,-6.095600457792554796e-04,-5.410436065249979269e-04,-4.725271672707405911e-04,-4.040107280164832552e-04,-3.354942887622258110e-04,-2.669778495079684752e-04,-1.984614102537111393e-04,-1.299449709994536951e-04,-6.142853174519635924e-05,7.087907509061085014e-06,7.560434676331842085e-05,1.441207860175758651e-04,2.126372252718332551e-04,2.811536645260906452e-04,3.496701037803479810e-04,4.181865430346054253e-04,4.867029822888628153e-04,5.079667048160461246e-04,5.079667048160461246e-04,5.079667048160461246e-04,5.079667048160461246e-04,5.079667048160461246e-04,5.079667048160461246e-04,5.079667048160461246e-04,5.079667048160461246e-04,5.079667048160461246e-04,5.079667048160461246e-04,5.079667048160461246e-04,5.079667048160461246e-04
5.079667048160461246e-04,5.079667048160461246e-04,5.079667048160461246e-04,5.079667048160461246e-04,5.079667048160461246e-04,5.079667048160461246e-04,5.079667048160461246e-04,5.079667048160461246e-04,5.079667048160461246e-04,5.079667048160461246e-04,5.079667048160461246e-04,5.079667048160461246e-04,5.079667048160461246e-04,5.079667048160461246e-04,1.517993524857253829e-04,-4.243884621050340780e-04,-7.796698259967221704e-04,-7.111533867424648346e-04,-6.426369474882072819e-04,-5.741205082339497293e-04,-5.056040689796923934e-04,-4.370876297254350576e-04,-3.685711904711777218e-04,-3.000547512169202775e-04,-2.315383119626629417e-04,-1.630218727084056058e-04,-9.450543345414816158e-05,-2.598899419989082575e-05,4.252744505436661850e-05,1.110438843086240085e-04,1.795603235628813986e-04,2.480767628171387886e-04,3.165932020713961787e-04,3.851096413256535687e-04,4.536260805799109588e-04,5.079667048160461246e-04,5.079667048160461246e-04,5.079667048160461246e-04,5.079667048160461246e-04,5.079667048160461246e-04,5.079667048160461246e-04,5.079667048160461246e-04,5.079667048160461246e-04,5.079667048160461246e-04,5.079667048160461246e-04,5.079667048160461246e-04,5.079667048160461246e-04
5.079667048160461246e-04,5.079667048160461246e-04,5.079667048160461246e-04,5.079667048160461246e-04,5.079667048160461246e-04,5.079667048160461246e-04,5.079667048160461246e-04,5.079667048160461246e-04,5.079667048160461246e-04,5.079667048160461246e-04,5.079667048160461246e-04,5.079667048160461246e-04,1.033653178404746534e-05,-6.349583810200576557e-04,-9.474169703778349133e-04,-8.789005311235775775e-04,-8.103840918693202416e-04,-7.418676526150629058e-04,-6.733512133608055700e-04,-6.048347741065480173e-04,-5.363183348522906815e-04,-4.678018955980332372e-04,-3.992854563437757930e-04,-3.307690170895185655e-04,-2.622525778352611213e-04,-1.937361385810037855e-04,-1.252196993267463412e-04,-5.670326007248889695e-05,1.181317918176843888e-05,8.032961843602588314e-05,1.488460576902832732e-04,2.173624969445406632e-04,2.858789361987979991e-04,3.543953754530554433e-04,4.229118147073127791e-04,4.890656181252164923e-04,5.079667048160461246e-04,5.079667048160461246e-04,5.079667048160461246e-04,5.079667048160461246e-04,5.079667048160461246e-04,5.079667048160461246e-04,5.079667048160461246e-04,5.079667048160461246e-04,5.079667048160461246e-04,5.079667048160461246e-04,5.079667048160461246e-04
5.079667048160461246e-04,5.079667048160461246e-04,5.079667048160461246e-04,5.079667048160461246e-04,5.079667048160461246e-04,5.079667048160461246e-04,5.079667048160461246e-04,5.079667048160461246e-04,5.079667048160461246e-04,5.079667048160461246e-04,-1.529806704039023569e-04,-8.684163345997579497e-04,-1.117526750595301604e-03,-1.049010311341044051e-03,-9.804938720867869325e-04,-9.119774328325295967e-04,-8.434609935782722608e-04,-7.749445543240147082e-04,-7.064281150697573723e-04,-6.379116758154998196e-04,-5.693952365612424838e-04,-5.008787973069851480e-04,-4.323623580527278121e-04,-3.638459187984703679e-04,-2.953294795442129236e-04,-2.268130402899554794e-04,-1.582966010356982520e-04,-8.978016178144069930e-05,-2.126372252718336346e-05,4.725271672707402658e-05,1.157691559813314166e-04,1.842855952355887525e-04,2.528020344898461967e-04,3.213184737441035868e-04,3.898349129983609768e-04,4.583513522526183668e-04,5.079667048160461246e-04,5.079667048160461246e-04,5.079667048160461246e-04,5.079667048160461246e-04,5.079667048160461246e-04,5.079667048160461246e-04,5.079667048160461246e-04,5.079667048160461246e-04,5.079667048160461246e-04,5.079667048160461246e-04,5.079667048160461246e-04
5.079667048160461246e-04,5.079667048160461246e-04,5.079667048160461246e-04,5.079667048160461246e-04,5.079667048160461246e-04,5.079667048160461246e-04,5.079667048160461246e-04,5.079667048160461246e-04,-3.365279419406306226e-04,-1.062890796879622114e-03,-1.285273894976414781e-03,-1.216757455722157011e-03,-1.148241016467899675e-03,-1.079724577213642340e-03,-1.011208137959385004e-03,-9.426916987051276679e-04,-8.741752594508705489e-04,-8.056588201966127794e-04,-7.371423809423554435e-04,-6.686259416880981077e-04,-6.001095024338405550e-04,-5.315930631795832192e-04,-4.630766239253257749e-04,-3.945601846710684391e-04,-3.260437454168111033e-04,-2.575273061625536590e-04,-1.890108669082963232e-04,-1.228570634903926101e-04,-5.434062423613516581e-05,1.417581501812217003e-05,8.269225427237956007e-05,1.512086935266370043e-04,2.197251327808943402e-04,2.882415720351517302e-04,3.567580112894091202e-04,4.252744505436665103e-04,4.937908897979239545e-04,5.079667048160461246e-04,5.079667048160461246e-04,5.079667048160461246e-04,5.079667048160461246e-04,5.079667048160461246e-04,5.079667048160461246e-04,5.079667048160461246e-04,5.079667048160461246e-04,5.079667048160461246e-04,5.079667048160461246e-04
5.079667048160461246e-04,5.079667048160461246e-04,5.079667048160461246e-04,5.079667048160461246e-04,5.079667048160461246e-04,3.724104737052524264e-04,-5.422249244431747925e-04,-1.333412600142121294e-03,-1.455383675193881472e-03,-1.386867235939623919e-03,-1.318350796685366366e-03,-1.249834357431109030e-03,-1.181317918176851695e-03,-1.112801478922594142e-03,-1.044285039668336806e-03,-9.757686004140794702e-04,-9.072521611598221344e-04,-8.387357219055647985e-04,-7.702192826513070290e-04,-7.017028433970499100e-04,-6.331864041427925742e-04,-5.646699648885350215e-04,-4.961535256342776857e-04,-4.276370863800203499e-04,-3.591206471257629056e-04,-2.906042078715055698e-04,-2.220877686172480171e-04,-1.535713293629908981e-04,-8.505489010873334543e-05,-1.653845085447600959e-05,5.197798839978143466e-05,-1.955452797670317322e-01,-1.954767633277774697e-01,-1.954082468885232071e-01,-1.953397304492689446e-01,3.945601846710683849e-04,4.630766239253257749e-04,5.079667048160461246e-04,5.079667048160461246e-04,5.079667048160461246e-04,5.079667048160461246e-04,5.079667048160461246e-04,5.079667048160461246e-04,5.079667048160461246e-04,5.079667048160461246e-04,5.079667048160461246e-04,5.079667048160461246e-04
5.079667048160461246e-04,5.079667048160461246e-04,5.079667048160461246e-04,2.158858495468195813e-04,-7.678566468149535147e-04,-1.622909322465336188e-03,-1.623130819574994214e-03,-1.554614380320736879e-03,-1.486097941066479109e-03,-1.417581501812221773e-03,-1.349065062557964437e-03,-1.280548623303707102e-03,-1.212032184049449983e-03,-1.143515744795192213e-03,-1.074999305540935094e-03,-1.006482866286677541e-03,-9.379664270324204224e-04,-8.718126236145166009e-04,-8.032961843602590482e-04,-7.347797451060017124e-04,-6.662633058517443765e-04,-5.977468665974870407e-04,-5.292304273432294880e-04,-4.607139880889721522e-04,-3.921975488347147079e-04,-3.236811095804573721e-04,-2.551646703262000363e-04,-1.866482310719425920e-04,-1.181317918176852562e-04,-4.961535256342781194e-05,1.890108669082963232e-05,-1.955783566687406827e-01,-1.955098402294864202e-01,-1.954413237902321576e-01,-1.953728073509778951e-01,3.614832829621165283e-04,4.299997222163739184e-04,4.985161614706313084e-04,5.079667048160461246e-04,5.079667048160461246e-04,5.079667048160461246e-04,5.079667048160461246e-04,5.079667048160461246e-04,5.079667048160461246e-04,5.079667048160461246e-04,5.079667048160461246e-04,5.079667048160461246e-04
5.079667048160461246e-04,8.224926005306323548e-05,-9.568675137232498379e-04,-1.835768044846827415e-03,-1.793240599792460688e-03,-1.724724160538203353e-03,-1.656207721283946017e-03,-1.587691282029688681e-03,-1.519174842775430911e-03,-1.450658403521173576e-03,-1.382141964266916457e-03,-1.313625525012658904e-03,-1.245109085758401568e-03,-1.176592646504144232e-03,-1.108076207249886896e-03,-1.039559767995629561e-03,-9.710433287413720079e-04,-9.025268894871146721e-04,-8.340104502328573362e-04,-7.654940109786000004e-04,-6.969775717243424477e-04,-6.284611324700851119e-04,-5.599446932158277761e-04,-4.914282539615702234e-04,-4.229118147073128876e-04,-3.543953754530555517e-04,-2.858789361987981075e-04,-2.173624969445407716e-04,-1.488460576902833274e-04,-8.032961843602599156e-05,-1.181317918176854730e-05,-1.956090709346132717e-01,-1.955405544953590091e-01,-1.954720380561047466e-01,-1.954035216168505118e-01,3.307690170895184029e-04,3.992854563437757930e-04,4.678018955980331830e-04,5.079667048160461246e-04,5.079667048160461246e-04,5.079667048160461246e-04,5.079667048160461246e-04,5.079667048160461246e-04,5.079667048160461246e-04,5.079667048160461246e-04,5.079667048160461246e-04,5.079667048160461246e-04
-5.782994203695004942e-04,-1.572097885509753795e-03,-1.835768044846827415e-03,-1.835768044846827415e-03,-1.823954865665058760e-03,-1.755438426410801424e-03,-1.686921987156544088e-03,-1.618405547902286752e-03,-1.549889108648029416e-03,-1.483735305230125378e-03,-1.415218865975868042e-03,-1.346702426721610706e-03,-1.278185987467353587e-03,-1.209669548213096251e-03,-1.141153108958838699e-03,-1.072636669704581146e-03,-1.004120230450323810e-03,-9.356037911960666913e-04,-8.670873519418093554e-04,-7.985709126875518028e-04,-7.300544734332942501e-04,-6.615380341790369143e-04,-5.930215949247795784e-04,-5.245051556705220257e-04,-4.559887164162646899e-04,-3.874722771620072457e-04,-3.189558379077498014e-04,-2.504393986534925740e-04,-1.819229593992351297e-04,-1.134065201449777939e-04,-4.489008089072045807e-05,-1.956421478363222222e-01,-1.955736313970679596e-01,-1.955051149578137248e-01,-1.954365985185594623e-01,2.976921153805665464e-04,3.662085546348239364e-04,4.347249938890813264e-04,5.032414331433387707e-04,5.079667048160461246e-04,5.079667048160461246e-04,5.079667048160461246e-04,5.079667048160461246e-04,5.079667048160461246e-04,5.079667048160461246e-04,5.079667048160461246e-04,5.079667048160461246e-04
-9.422191715378568349e-04,-1.367021094914252621e-03,-1.791823018290648623e-03,-1.835768044846827415e-03,-1.835768044846827415e-03,-1.788515328119753226e-03,-1.719998888865496324e-03,-1.651482449611238554e-03,-1.582966010356980785e-03,-1.514449571102723449e-03,-1.445933131848466113e-03,-1.377416692594208994e-03,-1.308900253339951658e-03,-1.240383814085694106e-03,-1.171867374831436770e-03,-1.103350935577179217e-03,-1.034834496322922098e-03,-9.663180570686647625e-04,-8.978016178144074266e-04,-8.292851785601498740e-04,-7.607687393058925381e-04,-6.922523000516349855e-04,-6.237358607973778665e-04,-5.552194215431203138e-04,-4.867029822888629779e-04,-4.181865430346054253e-04,-3.496701037803481979e-04,-2.811536645260907536e-04,-2.126372252718333094e-04,-1.441207860175759735e-04,-7.560434676331852927e-05,-7.087907509061085014e-06,6.142853174519625082e-05,1.299449709994536409e-04,1.984614102537110309e-04,2.669778495079683667e-04,3.354942887622258110e-04,4.040107280164832010e-04,4.725271672707405911e-04,5.079667048160461246e-04,5.079667048160461246e-04,5.079667048160461246e-04,5.079667048160461246e-04,5.079667048160461246e-04,5.079667048160461246e-04,5.079667048160461246e-04,5.079667048160461246e-04
-7.371423809423554435e-04,-1.161944304318751229e-03,-1.586746227695147015e-03,-1.835768044846827415e-03,-1.835768044846827415e-03,-1.821592229828705028e-03,-1.753075790574447693e-03,-1.684559351320190357e-03,-1.616042912065933021e-03,-1.547526472811675685e-03,-1.479010033557418349e-03,-1.410493594303161013e-03,-1.341977155048903461e-03,-1.273460715794645908e-03,-1.204944276540388789e-03,-1.136427837286131236e-03,-1.067911398031873901e-03,-9.993949587776163480e-04,-9.308785195233590121e-04,-8.623620802691018931e-04,-7.938456410148443405e-04,-7.253292017605867878e-04,-6.568127625063294520e-04,-5.882963232520721161e-04,-5.197798839978147803e-04,-4.512634447435572276e-04,-3.827470054893000002e-04,-3.142305662350425560e-04,-2.457141269807851117e-04,-1.771976877265278843e-04,-1.086812484722704400e-04,-4.016480921801299578e-05,2.835163003624439427e-05,9.686806929050178431e-05,1.653845085447591744e-04,2.339009477990165644e-04,3.024173870532739002e-04,3.709338263075313445e-04,4.394502655617887345e-04,5.079667048160461246e-04,5.079667048160461246e-04,5.079667048160461246e-04,5.079667048160461246e-04,5.079667048160461246e-04,5.079667048160461246e-04,5.079667048160461246e-04,5.079667048160461246e-04
-5.467139325322468383e-04,-9.715158559086428409e-04,-1.396317779285038627e-03,-1.821119702661434629e-03,-1.835768044846827415e-03,-1.835768044846827415e-03,-1.783790056447045764e-03,-1.715273617192788428e-03,-1.646757177938531092e-03,-1.578240738684273756e-03,-1.509724299430016421e-03,-1.441207860175758868e-03,-1.372691420921501532e-03,-1.304174981667244196e-03,-1.235658542412986644e-03,-1.167142103158729308e-03,-1.098625663904471972e-03,-1.030109224650214419e-03,-9.615927853959573002e-04,-8.930763461416999643e-04,-8.245599068874424117e-04,-7.560434676331850758e-04,-6.875270283789275232e-04,-6.190105891246701873e-04,-5.504941498704128515e-04,-4.819777106161552988e-04,-4.134612713618980714e-04,-3.449448321076406272e-04,-2.764283928533832913e-04,-2.079119535991259555e-04,-1.393955143448686197e-04,-7.087907509061117540e-05,-2.362635836353731145e-06,6.615380341790365890e-05,1.346702426721610489e-04,2.031866819264183848e-04,2.717031211806757748e-04,3.402195604349331649e-04,4.063733638528368780e-04,4.748898031070942680e-04,5.079667048160461246e-04,5.079667048160461246e-04,5.079667048160461246e-04,5.079667048160461246e-04,5.079667048160461246e-04,5.079667048160461246e-04,5.079667048160461246e-04
-3.416371419367455553e-04,-7.664390653131414495e-04,-1.191240988689537235e-03,-1.616042912065933021e-03,-1.835768044846827415e-03,-1.835768044846827415e-03,-1.816866958155998000e-03,-1.748350518901740230e-03,-1.679834079647482895e-03,-1.611317640393225559e-03,-1.542801201138968223e-03,-1.474284761884710453e-03,-1.405768322630453551e-03,-1.337251883376195999e-03,-1.268735444121938663e-03,-1.200219004867681327e-03,-1.131702565613423774e-03,-1.063186126359166438e-03,-9.946696871049091025e-04,-9.261532478506517667e-04,-8.576368085963944309e-04,-7.891203693421370950e-04,-7.206039300878795423e-04,-6.520874908336219897e-04,-5.835710515793646538e-04,-5.150546123251071012e-04,-4.465381730708497653e-04,-3.780217338165925379e-04,-3.095052945623352021e-04,-2.409888553080776494e-04,-1.724724160538204220e-04,-1.039559767995630862e-04,-3.543953754530553349e-05,3.307690170895180234e-05,1.015933409632091382e-04,1.701097802174665824e-04,2.386262194717239725e-04,3.071426587259813625e-04,3.756590979802387526e-04,4.441755372344961426e-04,5.079667048160461246e-04,5.079667048160461246e-04,5.079667048160461246e-04,5.079667048160461246e-04,5.079667048160461246e-04,5.079667048160461246e-04,5.079667048160461246e-04
-1.512086935266370585e-04,-5.760106169030328443e-04,-1.000812540279428630e-03,-1.425614463655824633e-03,-1.835768044846827415e-03,-1.835768044846827415e-03,-1.835768044846827415e-03,-1.779064784774338735e-03,-1.710548345520081399e-03,-1.642031906265823630e-03,-1.573515467011565860e-03,-1.504999027757308958e-03,-1.436482588503051406e-03,-1.367966149248794287e-03,-1.299449709994536734e-03,-1.230933270740279615e-03,-1.162416831486022062e-03,-1.093900392231764510e-03,-1.025383952977507174e-03,-9.568675137232498379e-04,-8.883510744689925021e-04,-8.198346352147351662e-04,-7.513181959604776135e-04,-6.828017567062202777e-04,-6.142853174519629419e-04,-5.457688781977056060e-04,-4.772524389434480534e-04,-4.110986355255444487e-04,-3.425821962712870044e-04,-2.740657570170295602e-04,-2.055493177627723328e-04,-1.370328785085148885e-04,-6.851643925425755267e-05,0.000000000000000000e+00,6.851643925425728162e-05,1.370328785085147259e-04,2.055493177627721159e-04,2.740657570170295060e-04,3.425821962712868960e-04,4.110986355255442861e-04,4.796150747798016761e-04,5.079667048160461246e-04,5.079667048160461246e-04,5.079667048160461246e-04,5.079667048160461246e-04,5.079667048160461246e-04,5.079667048160461246e-04
5.386809706886438705e-05,-3.709338263075314529e-04,-7.957357496839272386e-04,-1.220537673060323024e-03,-1.645339596436718593e-03,-1.835768044846827415e-03,-1.835768044846827415e-03,-1.812141686483290538e-03,-1.743625247229032768e-03,-1.675108807974775432e-03,-1.606592368720518096e-03,-1.538075929466260761e-03,-1.469559490212003425e-03,-1.401043050957745872e-03,-1.332526611703488753e-03,-1.264010172449231417e-03,-1.195493733194973865e-03,-1.126977293940716312e-03,-1.058460854686459193e-03,-9.899444154322014234e-04,-9.214279761779445212e-04,-8.529115369236869686e-04,-7.843950976694296327e-04,-7.158786584151722969e-04,-6.473622191609147442e-04,-5.788457799066574084e-04,-5.103293406523998557e-04,-4.418129013981425199e-04,-3.732964621438851840e-04,-3.047800228896277398e-04,-2.362635836353702955e-04,-1.677471443811130681e-04,-9.923070512685562387e-05,-3.071426587259817962e-05,3.780217338165915621e-05,1.063186126359166005e-04,1.748350518901739905e-04,2.433514911444313263e-04,3.118679303986887706e-04,3.803843696529461606e-04,4.489008089072035507e-04,5.079667048160461246e-04,5.079667048160461246e-04,5.079667048160461246e-04,5.079667048160461246e-04,5.079667048160461246e-04,5.079667048160461246e-04
2.442965454789728839e-04,-1.805053778974229561e-04,-6.053073012738188503e-04,-1.030109224650214853e-03,-1.454911148026610639e-03,-1.835768044846827415e-03,-1.835768044846827415e-03,-1.835768044846827415e-03,-1.774339513101631273e-03,-1.705823073847373503e-03,-1.637306634593116601e-03,-1.568790195338858832e-03,-1.500273756084601496e-03,-1.431757316830344160e-03,-1.363240877576086824e-03,-1.294724438321829272e-03,-1.226207999067571936e-03,-1.157691559813314600e-03,-1.089175120559057047e-03,-1.020658681304799711e-03,-9.545048778868961067e-04,-8.859884386326389877e-04,-8.174719993783814351e-04,-7.489555601241240992e-04,-6.804391208698665466e-04,-6.119226816156092107e-04,-5.434062423613516581e-04,-4.748898031070943222e-04,-4.063733638528369864e-04,-3.378569245985796506e-04,-2.693404853443222063e-04,-2.008240460900648705e-04,-1.323076068358074262e-04,-6.379116758155009038e-05,4.725271672707353869e-06,7.324171092696474391e-05,1.417581501812221882e-04,2.102745894354795240e-04,2.787910286897369140e-04,3.473074679439943041e-04,4.158239071982516941e-04,4.843403464525090842e-04,5.079667048160461246e-04,5.079667048160461246e-04,5.079667048160461246e-04,5.079667048160461246e-04,5.079667048160461246e-04
4.493733360744742752e-04,2.457141269807854370e-05,-4.002305106783173505e-04,-8.250324340547132446e-04,-1.249834357431109030e-03,-1.674636280807505033e-03,-1.835768044846827415e-03,-1.835768044846827415e-03,-1.807416414810583075e-03,-1.738899975556325739e-03,-1.670383536302067970e-03,-1.601867097047810634e-03,-1.533350657793553298e-03,-1.464834218539295962e-03,-1.396317779285038843e-03,-1.327801340030781291e-03,-1.259284900776523955e-03,-1.190768461522266402e-03,-1.122252022268009066e-03,-1.053735583013751731e-03,-9.852191437594943948e-04,-9.167027045052368421e-04,-8.481862652509797231e-04,-7.796698259967221704e-04,-7.111533867424646178e-04,-6.426369474882072819e-04,-5.741205082339497293e-04,-5.056040689796923934e-04,-4.370876297254351660e-04,-3.685711904711777218e-04,-3.000547512169203859e-04,-2.315383119626629417e-04,-1.630218727084056058e-04,-9.450543345414827000e-05,-2.598899419989082575e-05,4.252744505436661850e-05,1.110438843086240628e-04,1.795603235628813986e-04,2.480767628171387886e-04,3.165932020713961787e-04,3.851096413256535687e-04,4.536260805799109588e-04,5.079667048160461246e-04,5.079667048160461246e-04,5.079667048160461246e-04,5.079667048160461246e-04,5.079667048160461246e-04
5.079667048160461246e-04,2.149998611081869321e-04,-2.098020622682088537e-04,-6.346039856446046394e-04,-1.059405909021000642e-03,-1.484207832397396211e-03,-1.835768044846827415e-03,-1.835768044846827415e-03,-1.835768044846827415e-03,-1.771976877265277542e-03,-1.703460438011020206e-03,-1.634943998756762870e-03,-1.566427559502505101e-03,-1.497911120248247331e-03,-1.429394680993990212e-03,-1.360878241739733093e-03,-1.292361802485475757e-03,-1.223845363231218205e-03,-1.155328923976960869e-03,-1.086812484722703750e-03,-1.018296045468445980e-03,-9.497796062141886445e-04,-8.812631669599313086e-04,-8.127467277056739728e-04,-7.442302884514166370e-04,-6.757138491971593011e-04,-6.071974099429019653e-04,-5.386809706886444126e-04,-4.701645314343868599e-04,-4.016480921801296325e-04,-3.331316529258721883e-04,-2.646152136716147440e-04,-1.960987744173574082e-04,-1.275823351631000723e-04,-5.906589590884262810e-05,9.450543345414707738e-06,7.796698259967215199e-05,1.464834218539295420e-04,2.149998611081869863e-04,2.835163003624443221e-04,3.520327396167017122e-04,4.205491788709591022e-04,4.890656181252164923e-04,5.079667048160461246e-04,5.079667048160461246e-04,5.079667048160461246e-04,5.079667048160461246e-04
5.079667048160461246e-04,4.200766517036883777e-04,-4.725271672707462289e-06,-4.295271950491032480e-04,-8.543291184254990338e-04,-1.279131041801895036e-03,-1.703932965178290605e-03,-1.835768044846827415e-03,-1.835768044846827415e-03,-1.802691143137875179e-03,-1.734174703883618277e-03,-1.665658264629360508e-03,-1.597141825375103606e-03,-1.528625386120845836e-03,-1.460108946866588500e-03,-1.391592507612331164e-03,-1.323076068358073829e-03,-1.254559629103816276e-03,-1.186043189849559157e-03,-1.117526750595301387e-03,-1.049010311341044051e-03,-9.804938720867869325e-04,-9.119774328325295967e-04,-8.434609935782720440e-04,-7.749445543240147082e-04,-7.064281150697573723e-04,-6.379116758155000365e-04,-5.693952365612424838e-04,-5.008787973069849311e-04,-4.323623580527277037e-04,-3.638459187984702595e-04,-2.953294795442129236e-04,-2.268130402899554794e-04,-1.582966010356982520e-04,-8.978016178144069930e-05,-2.126372252718336346e-05,4.725271672707402658e-05,1.157691559813314166e-04,1.842855952355888067e-04,2.528020344898461967e-04,3.213184737441035868e-04,3.898349129983609768e-04,4.583513522526183668e-04,5.079667048160461246e-04,5.079667048160461246e-04,5.079667048160461246e-04,5.079667048160461246e-04
5.079667048160461246e-04,5.079667048160461246e-04,2.003515189227939833e-04,-2.244504044536017482e-04,-6.492523278299976424e-04,-1.074054251206393428e-03,-1.498856174582789431e-03,-1.835768044846827415e-03,-1.835768044846827415e-03,-1.835768044846827415e-03,-1.767251605592570080e-03,-1.698735166338312744e-03,-1.630218727084055408e-03,-1.561702287829798072e-03,-1.493185848575540303e-03,-1.424669409321282967e-03,-1.356152970067025631e-03,-1.287636530812768078e-03,-1.219120091558510742e-03,-1.150603652304253407e-03,-1.082087213049996071e-03,-1.013570773795738518e-03,-9.450543345414813990e-04,-8.765378952872238463e-04,-8.080214560329665105e-04,-7.395050167787091747e-04,-6.709885775244518388e-04,-6.024721382701945030e-04,-5.339556990159369503e-04,-4.654392597616795061e-04,-3.969228205074221702e-04,-3.284063812531648344e-04,-2.598899419989073901e-04,-1.913735027446500543e-04,-1.228570634903926101e-04,-5.434062423613516581e-05,1.417581501812217003e-05,8.269225427237961428e-05,1.512086935266369501e-04,2.197251327808942859e-04,2.882415720351517302e-04,3.567580112894091202e-04,4.252744505436665103e-04,4.937908897979239545e-04,5.079667048160461246e-04,5.079667048160461246e-04,5.079667048160461246e-04
5.079667048160461246e-04,5.079667048160461246e-04,3.907799673329024259e-04,-3.402195604349335985e-05,-4.588238794198891456e-04,-8.836258027962850398e-04,-1.308427726172680826e-03,-1.733229649549076611e-03,-1.835768044846827415e-03,-1.835768044846827415e-03,-1.797965871465168151e-03,-1.729449432210910815e-03,-1.660932992956653479e-03,-1.592416553702396143e-03,-1.523900114448138374e-03,-1.455383675193881038e-03,-1.386867235939623919e-03,-1.318350796685366366e-03,-1.249834357431109030e-03,-1.181317918176851695e-03,-1.112801478922594142e-03,-1.044285039668336806e-03,-9.757686004140794702e-04,-9.072521611598221344e-04,-8.387357219055647985e-04,-7.702192826513074627e-04,-7.017028433970499100e-04,-6.331864041427925742e-04,-5.646699648885350215e-04,-4.961535256342774688e-04,-4.276370863800203499e-04,-3.591206471257629056e-04,-2.906042078715054613e-04,-2.220877686172482339e-04,-1.535713293629906813e-04,-8.505489010873334543e-05,-1.653845085447600959e-05,5.197798839978143466e-05,1.181317918176851478e-04,1.866482310719424836e-04,2.551646703261998736e-04,3.236811095804572637e-04,3.921975488347146537e-04,4.607139880889720438e-04,5.079667048160461246e-04,5.079667048160461246e-04,5.079667048160461246e-04
5.079667048160461246e-04,5.079667048160461246e-04,5.079667048160461246e-04,1.710548345520080857e-04,-2.537470888243877542e-04,-6.785490122007836484e-04,-1.103350935577179434e-03,-1.528152858953575003e-03,-1.835768044846827415e-03,-1.835768044846827415e-03,-1.831042773174119953e-03,-1.762526333919862617e-03,-1.694009894665605281e-03,-1.625493455411347946e-03,-1.556977016157090610e-03,-1.488460576902833274e-03,-1.419944137648575721e-03,-1.351427698394318385e-03,-1.282911259140060833e-03,-1.214394819885803497e-03,-1.145878380631545944e-03,-1.077361941377288825e-03,-1.008845502123031489e-03,-9.403290628687739367e-04,-8.718126236145166009e-04,-8.032961843602590482e-04,-7.347797451060017124e-04,-6.662633058517443765e-04,-5.977468665974868239e-04,-5.292304273432294880e-04,-4.607139880889720438e-04,-3.921975488347148164e-04,-3.236811095804573721e-04,-2.551646703261999279e-04,-1.866482310719425920e-04,-1.181317918176852562e-04,-4.961535256342781194e-05,1.890108669082963232e-05,8.741752594508696815e-05,1.559339651993444124e-04,2.244504044536017482e-04,2.929668437078591383e-04,3.614832829621165283e-04,4.299997222163739184e-04,4.985161614706313084e-04,5.079667048160461246e-04,5.079667048160461246e-04
5.079667048160461246e-04,5.079667048160461246e-04,5.079667048160461246e-04,3.614832829621165283e-04,-6.331864041427925742e-05,-4.881205637906752600e-04,-9.129224871670710457e-04,-1.337724410543466831e-03,-1.762526333919862617e-03,-1.835768044846827415e-03,-1.835768044846827415e-03,-1.793240599792460688e-03,-1.724724160538203353e-03,-1.656207721283946017e-03,-1.587691282029688681e-03,-1.519174842775430911e-03,-1.450658403521173576e-03,-1.382141964266916457e-03,-1.313625525012658904e-03,-1.245109085758401568e-03,-1.176592646504144232e-03,-1.108076207249886896e-03,-1.039559767995629344e-03,-9.710433287413720079e-04,-9.025268894871148889e-04,-8.340104502328573362e-04,-7.654940109786000004e-04,-6.969775717243424477e-04,-6.284611324700851119e-04,-5.599446932158277761e-04,-4.937908897979239545e-04,-4.252744505436666187e-04,-3.567580112894091745e-04,-2.882415720351518386e-04,-2.197251327808943944e-04,-1.512086935266371670e-04,-8.269225427237961428e-05,-1.417581501812227845e-05,5.434062423613516581e-05,1.228570634903925016e-04,1.913735027446498917e-04,2.598899419989072817e-04,3.284063812531647260e-04,3.969228205074220618e-04,4.654392597616794519e-04,5.079667048160461246e-04,5.079667048160461246e-04
5.079667048160461246e-04,5.079667048160461246e-04,5.079667048160461246e-04,5.079667048160461246e-04,1.417581501812221340e-04,-2.830437731951736518e-04,-7.078456965715696544e-04,-1.132647619947965440e-03,-1.557449543324361009e-03,-1.835768044846827415e-03,-1.835768044846827415e-03,-1.826317501501412924e-03,-2.463980304045366165e-01,-2.463295139652823817e-01,-2.462609975260281192e-01,-1.552251744484382714e-03,-1.483735305230125812e-03,-1.415218865975868259e-03,-1.346702426721610706e-03,-1.278185987467353370e-03,-1.209669548213096035e-03,-1.141153108958838699e-03,-1.072636669704581580e-03,-1.004120230450323810e-03,-9.356037911960666913e-04,-8.670873519418091386e-04,-7.985709126875515859e-04,-7.300544734332942501e-04,-6.615380341790369143e-04,-5.930215949247795784e-04,-5.245051556705222426e-04,-4.559887164162646899e-04,-3.874722771620073541e-04,-3.189558379077500182e-04,-2.504393986534925740e-04,-1.819229593992351297e-04,-1.134065201449777939e-04,-4.489008089072045807e-05,2.362635836353698619e-05,9.214279761779437623e-05,1.606592368720517663e-04,2.291756761263091563e-04,2.976921153805665464e-04,3.662085546348239364e-04,4.347249938890813264e-04,5.032414331433387707e-04,5.079667048160461246e-04
5.079667048160461246e-04,5.079667048160461246e-04,5.079667048160461246e-04,5.079667048160461246e-04,3.321865985913306308e-04,-9.261532478506515498e-05,-5.174172481614610491e-04,-9.422191715378568349e-04,-1.367021094914252621e-03,-1.791823018290649057e-03,-1.835768044846827415e-03,-1.835768044846827415e-03,-2.464287446704092333e-01,-2.463602282311549707e-01,-2.462917117919007082e-01,-1.582966010356981219e-03,-1.514449571102723449e-03,-1.445933131848466113e-03,-1.377416692594209211e-03,-1.308900253339951658e-03,-1.242746449922047837e-03,-1.174230010667790501e-03,-1.105713571413533165e-03,-1.037197132159275613e-03,-9.686806929050182768e-04,-9.001642536507609409e-04,-8.316478143965038219e-04,-7.631313751422462693e-04,-6.946149358879887166e-04,-6.260984966337313808e-04,-5.575820573794738281e-04,-4.890656181252164923e-04,-4.205491788709592648e-04,-3.520327396167018206e-04,-2.835163003624443763e-04,-2.149998611081870405e-04,-1.464834218539295962e-04,-7.796698259967226041e-05,-9.450543345414816158e-06,5.906589590884257389e-05,1.275823351630999097e-04,1.960987744173572998e-04,2.646152136716147440e-04,3.331316529258720798e-04,4.016480921801294699e-04,4.701645314343868599e-04,5.079667048160461246e-04
5.079667048160461246e-04,5.079667048160461246e-04,5.079667048160461246e-04,5.079667048160461246e-04,5.079667048160461246e-04,1.124614658104362364e-04,-3.123404575659596578e-04,-7.371423809423554435e-04,-1.161944304318751446e-03,-1.586746227695147015e-03,-1.835768044846827415e-03,-1.835768044846827415e-03,-2.464618215721181838e-01,-2.463933051328639212e-01,-2.463247886936096587e-01,-1.616042912065933021e-03,-1.547526472811675685e-03,-1.479010033557418349e-03,-1.410493594303160797e-03,-1.341977155048903461e-03,-1.273460715794646125e-03,-1.204944276540388789e-03,-1.136427837286131236e-03,-1.067911398031874117e-03,-9.993949587776163480e-04,-9.308785195233592290e-04,-8.623620802691016763e-04,-7.938456410148441236e-04,-7.253292017605870046e-04,-6.568127625063294520e-04,-5.882963232520721161e-04,-5.197798839978147803e-04,-4.512634447435573360e-04,-3.827470054892998918e-04,-3.142305662350425560e-04,-2.457141269807852201e-04,-1.771976877265278843e-04,-1.086812484722703316e-04,-4.016480921801299578e-05,2.835163003624444848e-05,9.686806929050178431e-05,1.653845085447592286e-04,2.339009477990165644e-04,3.024173870532739002e-04,3.709338263075313445e-04,4.394502655617887345e-04,5.079667048160461246e-04
5.079667048160461246e-04,5.079667048160461246e-04,5.079667048160461246e-04,5.079667048160461246e-04,5.079667048160461246e-04,3.028899142205447332e-04,-1.219120091558511610e-04,-5.467139325322468383e-04,-9.715158559086428409e-04,-1.396317779285038627e-03,-1.821119702661434629e-03,-1.835768044846827415e-03,-1.835768044846827415e-03,-1.786152692283399495e-03,-1.717636253029142593e-03,-1.649119813774884823e-03,-1.580603374520627488e-03,-1.512086935266369718e-03,-1.443570496012112382e-03,-1.375054056757855263e-03,-1.306537617503597710e-03,-1.238021178249340591e-03,-1.169504738995083039e-03,-1.100988299740825703e-03,-1.032471860486568367e-03,-9.639554212323110313e-04,-8.954389819780536955e-04,-8.269225427237963597e-04,-7.584061034695385901e-04,-6.898896642152814711e-04,-6.213732249610239185e-04,-5.528567857067665826e-04,-4.843403464525090300e-04,-4.158239071982516941e-04,-3.473074679439944667e-04,-2.787910286897370225e-04,-2.102745894354796866e-04,-1.417581501812222424e-04,-7.324171092696479812e-05,-4.725271672707462289e-06,6.379116758154992775e-05,1.323076068358073178e-04,2.008240460900647078e-04,2.693404853443220979e-04,3.378569245985794879e-04,4.063733638528368780e-04,4.748898031070942680e-04
5.079667048160461246e-04,5.079667048160461246e-04,5.079667048160461246e-04,5.079667048160461246e-04,5.079667048160461246e-04,5.079667048160461246e-04,8.316478143965033883e-05,-3.416371419367455553e-04,-7.664390653131414495e-04,-1.191240988689537235e-03,-1.616042912065933021e-03,-1.835768044846827415e-03,-1.835768044846827415e-03,-1.816866958155997566e-03,-1.748350518901740230e-03,-1.679834079647482895e-03,-1.611317640393225559e-03,-1.542801201138968223e-03,-1.474284761884710887e-03,-1.405768322630453551e-03,-1.337251883376196215e-03,-1.268735444121938880e-03,-1.200219004867681544e-03,-1.131702565613423991e-03,-1.063186126359166438e-03,-9.946696871049091025e-04,-9.261532478506517667e-04,-8.576368085963944309e-04,-7.891203693421368782e-04,-7.206039300878795423e-04,-6.520874908336219897e-04,-5.835710515793646538e-04,-5.150546123251073180e-04,-4.465381730708497653e-04,-3.780217338165925379e-04,-3.095052945623352021e-04,-2.409888553080777578e-04,-1.724724160538204220e-04,-1.039559767995629777e-04,-3.543953754530553349e-05,3.307690170895174813e-05,1.015933409632091924e-04,1.701097802174665824e-04,2.386262194717239725e-04,3.071426587259813625e-04,3.756590979802387526e-04,4.441755372344961426e-04
5.079667048160461246e-04,5.079667048160461246e-04,5.079667048160461246e-04,5.079667048160461246e-04,5.079667048160461246e-04,5.079667048160461246e-04,2.882415720351517302e-04,-1.365603513412440555e-04,-5.613622747176400581e-04,-9.861641980940358439e-04,-1.410966121470431413e-03,-1.835768044846827415e-03,-1.835768044846827415e-03,-1.835768044846827415e-03,-1.781427420610692033e-03,-1.712910981356434697e-03,-1.644394542102177361e-03,-1.575878102847920025e-03,-1.507361663593662256e-03,-1.438845224339405137e-03,-1.370328785085147801e-03,-1.301812345830890465e-03,-1.233295906576633129e-03,-1.164779467322375577e-03,-1.096263028068118241e-03,-1.027746588813860905e-03,-9.592301495596035690e-04,-8.907137103053462332e-04,-8.221972710510886805e-04,-7.536808317968313447e-04,-6.851643925425740089e-04,-6.166479532883164562e-04,-5.481315140340593372e-04,-4.796150747798017845e-04,-4.110986355255443403e-04,-3.425821962712871128e-04,-2.740657570170295602e-04,-2.055493177627722243e-04,-1.370328785085148885e-04,-6.851643925425744425e-05,-1.084202172485504434e-19,6.851643925425733583e-05,1.370328785085148343e-04,2.055493177627721159e-04,2.740657570170295060e-04,3.425821962712868960e-04,4.110986355255442861e-04
5.079667048160461246e-04,5.079667048160461246e-04,5.079667048160461246e-04,5.079667048160461246e-04,5.079667048160461246e-04,5.079667048160461246e-04,4.786700204452602270e-04,5.386809706886444126e-05,-3.709338263075314529e-04,-7.957357496839272386e-04,-1.220537673060323024e-03,-1.645339596436718593e-03,-1.835768044846827415e-03,-1.835768044846827415e-03,-1.812141686483290538e-03,-1.743625247229032768e-03,-1.675108807974775866e-03,-1.606592368720518096e-03,-1.538075929466260761e-03,-1.469559490212003425e-03,-1.401043050957746089e-03,-1.332526611703488753e-03,-1.264010172449231417e-03,-1.195493733194974081e-03,-1.126977293940716312e-03,-1.058460854686459193e-03,-9.899444154322016402e-04,-9.214279761779445212e-04,-8.529115369236869686e-04,-7.843950976694294159e-04,-7.158786584151720801e-04,-6.473622191609147442e-04,-5.788457799066574084e-04,-5.103293406523998557e-04,-4.418129013981425199e-04,-3.732964621438851840e-04,-3.047800228896277398e-04,-2.362635836353704040e-04,-1.677471443811129597e-04,-9.923070512685562387e-05,-3.307690170895191076e-05,3.543953754530553349e-05,1.039559767995628693e-04,1.724724160538203136e-04,2.409888553080776494e-04,3.095052945623350395e-04,3.780217338165924295e-04
5.079667048160461246e-04,5.079667048160461246e-04,5.079667048160461246e-04,5.079667048160461246e-04,5.079667048160461246e-04,5.079667048160461246e-04,5.079667048160461246e-04,2.589448876643658326e-04,-1.658570357120299531e-04,-5.906589590884256304e-04,-1.015460882464821850e-03,-1.440262805841217419e-03,-1.835768044846827415e-03,-1.835768044846827415e-03,-1.835768044846827415e-03,-1.776702148937984570e-03,-1.708185709683727235e-03,-1.639669270429469899e-03,-1.571152831175212563e-03,-1.502636391920955227e-03,-1.434119952666697458e-03,-1.365603513412440555e-03,-1.297087074158183003e-03,-1.228570634903925667e-03,-1.160054195649668331e-03,-1.091537756395410995e-03,-1.023021317141153659e-03,-9.545048778868961067e-04,-8.859884386326387709e-04,-8.174719993783814351e-04,-7.489555601241238824e-04,-6.804391208698665466e-04,-6.119226816156092107e-04,-5.434062423613518749e-04,-4.748898031070943222e-04,-4.063733638528369864e-04,-3.378569245985795421e-04,-2.693404853443220979e-04,-2.008240460900647621e-04,-1.323076068358074262e-04,-6.379116758155009038e-05,4.725271672707353869e-06,7.324171092696474391e-05,1.417581501812221340e-04,2.102745894354795240e-04,2.787910286897369140e-04,3.473074679439943041e-04
5.079667048160461246e-04,5.079667048160461246e-04,5.079667048160461246e-04,5.079667048160461246e-04,5.079667048160461246e-04,5.079667048160461246e-04,5.079667048160461246e-04,4.493733360744742752e-04,2.457141269807843528e-05,-4.002305106783173505e-04,-8.250324340547132446e-04,-1.249834357431109030e-03,-1.674636280807505033e-03,-1.835768044846827415e-03,-1.835768044846827415e-03,-1.807416414810583075e-03,-1.738899975556325739e-03,-1.670383536302067970e-03,-1.601867097047810634e-03,-1.533350657793553298e-03,-1.464834218539295529e-03,-1.396317779285038627e-03,-1.327801340030781291e-03,-1.259284900776523955e-03,-1.190768461522266402e-03,-1.122252022268009066e-03,-1.053735583013751514e-03,-9.852191437594943948e-04,-9.167027045052370589e-04,-8.481862652509792894e-04,-7.820324618330759016e-04,-7.135160225788183489e-04,-6.449995833245610131e-04,-5.764831440703034604e-04,-5.079667048160461246e-04,-4.394502655617887887e-04,-3.709338263075314529e-04,-3.024173870532741171e-04,-2.339009477990165644e-04,-1.653845085447593370e-04,-9.686806929050189273e-05,-2.835163003624444848e-05,4.016480921801288736e-05,1.086812484722703316e-04,1.771976877265276674e-04,2.457141269807851117e-04,3.142305662350424475e-04
5.079667048160461246e-04,5.079667048160461246e-04,5.079667048160461246e-04,5.079667048160461246e-04,5.079667048160461246e-04,5.079667048160461246e-04,5.079667048160461246e-04,5.079667048160461246e-04,2.296482032935799351e-04,-1.951537200828158507e-04,-6.199556434592118533e-04,-1.044757566835607639e-03,-1.469559490212003425e-03,-1.835768044846827415e-03,-1.835768044846827415e-03,-1.835768044846827415e-03,-1.771976877265277542e-03,-1.703460438011020206e-03,-1.634943998756762870e-03,-1.566427559502505101e-03,-1.497911120248247331e-03,-1.429394680993990429e-03,-1.360878241739733093e-03,-1.292361802485475540e-03,-1.223845363231218421e-03,-1.155328923976960869e-03,-1.086812484722703533e-03,-1.018296045468445980e-03,-9.497796062141886445e-04,-8.812631669599313086e-04,-8.127467277056739728e-04,-7.442302884514166370e-04,-6.757138491971593011e-04,-6.071974099429017484e-04,-5.386809706886444126e-04,-4.701645314343868599e-04,-4.016480921801296325e-04,-3.331316529258721883e-04,-2.646152136716147440e-04,-1.960987744173575166e-04,-1.275823351631000723e-04,-5.906589590884262810e-05,9.450543345414707738e-06,7.796698259967215199e-05,1.464834218539295962e-04,2.149998611081869321e-04,2.835163003624443221e-04
5.079667048160461246e-04,5.079667048160461246e-04,5.079667048160461246e-04,5.079667048160461246e-04,5.079667048160461246e-04,5.079667048160461246e-04,5.079667048160461246e-04,5.079667048160461246e-04,4.200766517036883777e-04,-4.725271672707353869e-06,-4.295271950491032480e-04,-8.543291184254992506e-04,-1.279131041801894820e-03,-1.703932965178290605e-03,-1.835768044846827415e-03,-1.835768044846827415e-03,-1.802691143137875613e-03,-1.734174703883617844e-03,-1.665658264629360941e-03,-1.597141825375103172e-03,-1.528625386120846270e-03,-1.460108946866588500e-03,-1.393955143448684895e-03,-1.325438704194427560e-03,-1.256922264940170224e-03,-1.188405825685912671e-03,-1.119889386431655552e-03,-1.051372947177397999e-03,-9.828565079231404468e-04,-9.143400686688831110e-04,-8.458236294146257751e-04,-7.773071901603684393e-04,-7.087907509061111035e-04,-6.402743116518535508e-04,-5.717578723975962150e-04,-5.032414331433388791e-04,-4.347249938890814349e-04,-3.662085546348239906e-04,-2.976921153805666548e-04,-2.291756761263092105e-04,-1.606592368720518747e-04,-9.214279761779443044e-05,-2.362635836353709461e-05,4.489008089072024123e-05,1.134065201449777397e-04,1.819229593992351297e-04,2.504393986534924656e-04
5.079667048160461246e-04,5.079667048160461246e-04,5.079667048160461246e-04,5.079667048160461246e-04,5.079667048160461246e-04,5.079667048160461246e-04,5.079667048160461246e-04,5.079667048160461246e-04,5.079667048160461246e-04,2.003515189227939833e-04,-2.244504044536018567e-04,-6.492523278299976424e-04,-1.074054251206393428e-03,-1.498856174582788997e-03,-1.835768044846827415e-03,-1.835768044846827415e-03,-1.835768044846827415e-03,-1.767251605592570080e-03,-1.698735166338312744e-03,-1.630218727084055408e-03,-1.561702287829798072e-03,-1.493185848575540303e-03,-1.424669409321282967e-03,-1.356152970067025631e-03,-1.287636530812768295e-03,-1.219120091558510959e-03,-1.150603652304253623e-03,-1.082087213049996071e-03,-1.013570773795738518e-03,-9.450543345414811822e-04,-8.765378952872240632e-04,-8.080214560329665105e-04,-7.395050167787091747e-04,-6.709885775244516220e-04,-6.024721382701942862e-04,-5.339556990159369503e-04,-4.654392597616795061e-04,-3.969228205074221702e-04,-3.284063812531647260e-04,-2.598899419989073901e-04,-1.913735027446500543e-04,-1.228570634903927185e-04,-5.434062423613516581e-05,1.417581501812217003e-05,8.269225427237956007e-05,1.512086935266369501e-04,2.197251327808943944e-04
5.079667048160461246e-04,5.079667048160461246e-04,5.079667048160461246e-04,5.079667048160461246e-04,5.079667048160461246e-04,5.079667048160461246e-04,5.079667048160461246e-04,5.079667048160461246e-04,5.079667048160461246e-04,3.907799673329024259e-04,-3.402195604349335985e-05,-4.588238794198892540e-04,-8.689774606108920368e-04,-1.293779383987287823e-03,-1.718581307363683825e-03,-1.835768044846827415e-03,-1.835768044846827415e-03,-1.800328507301521882e-03,-1.731812068047264112e-03,-1.663295628793007210e-03,-1.594779189538749874e-03,-1.526262750284492105e-03,-1.457746311030234769e-03,-1.389229871775977650e-03,-1.320713432521720097e-03,-1.252196993267462762e-03,-1.183680554013205426e-03,-1.115164114758947873e-03,-1.046647675504690320e-03,-9.781312362504332013e-04,-9.096147969961758655e-04,-8.410983577419185297e-04,-7.725819184876609770e-04,-7.040654792334036412e-04,-6.355490399791460885e-04,-5.670326007248889695e-04,-4.985161614706314168e-04,-4.299997222163739726e-04,-3.614832829621165283e-04,-2.929668437078591925e-04,-2.244504044536018567e-04,-1.559339651993445208e-04,-8.741752594508696815e-05,-1.890108669082963232e-05,4.961535256342770352e-05,1.181317918176851478e-04,1.866482310719424836e-04
5.079667048160461246e-04,5.079667048160461246e-04,5.079667048160461246e-04,5.079667048160461246e-04,5.079667048160461246e-04,5.079667048160461246e-04,5.079667048160461246e-04,5.079667048160461246e-04,5.079667048160461246e-04,5.079667048160461246e-04,1.710548345520080857e-04,-2.537470888243877542e-04,-6.785490122007836484e-04,-1.103350935577179434e-03,-1.528152858953575437e-03,-1.835768044846827415e-03,-1.835768044846827415e-03,-1.831042773174119953e-03,-1.762526333919862617e-03,-1.694009894665605281e-03,-1.625493455411347512e-03,-1.556977016157090176e-03,-1.488460576902833274e-03,-1.419944137648575721e-03,-1.351427698394318602e-03,-1.282911259140060833e-03,-1.214394819885803497e-03,-1.145878380631545944e-03,-1.077361941377288608e-03,-1.008845502123031273e-03,-9.403290628687737199e-04,-8.718126236145166009e-04,-8.032961843602592650e-04,-7.347797451060017124e-04,-6.662633058517443765e-04,-5.977468665974870407e-04,-5.292304273432294880e-04,-4.607139880889721522e-04,-3.921975488347148164e-04,-3.236811095804573721e-04,-2.551646703262000363e-04,-1.866482310719425920e-04,-1.181317918176851478e-04,-4.961535256342781194e-05,1.890108669082963232e-05,8.741752594508696815e-05,1.559339651993443582e-04
5.079667048160461246e-04,5.079667048160461246e-04,5.079667048160461246e-04,5.079667048160461246e-04,5.079667048160461246e-04,5.079667048160461246e-04,5.079667048160461246e-04,5.079667048160461246e-04,5.079667048160461246e-04,5.079667048160461246e-04,3.761316251475095313e-04,-4.867029822888625443e-05,-4.734722216052820402e-04,-8.982741449816780428e-04,-1.323076068358073829e-03,-1.747877991734469831e-03,-1.835768044846827415e-03,-1.835768044846827415e-03,-1.795603235628814420e-03,-1.727086796374557084e-03,-1.658570357120299748e-03,-1.590053917866042412e-03,-1.521537478611785076e-03,-1.453021039357527307e-03,-1.384504600103270188e-03,-1.315988160849012635e-03,-1.247471721594755299e-03,-1.178955282340497963e-03,-1.110438843086240411e-03,-1.041922403831983075e-03,-9.734059645777255222e-04,-9.048895253234684032e-04,-8.363730860692108506e-04,-7.678566468149537316e-04,-6.993402075606961789e-04,-6.308237683064388431e-04,-5.623073290521812904e-04,-4.937908897979239545e-04,-4.252744505436666187e-04,-3.567580112894092829e-04,-2.882415720351518386e-04,-2.197251327808943944e-04,-1.512086935266371670e-04,-8.269225427237972270e-05,-1.417581501812227845e-05,5.434062423613511160e-05,1.228570634903925016e-04
5.079667048160461246e-04,5.079667048160461246e-04,5.079667048160461246e-04,5.079667048160461246e-04,5.079667048160461246e-04,5.079667048160461246e-04,5.079667048160461246e-04,5.079667048160461246e-04,5.079667048160461246e-04,5.079667048160461246e-04,5.079667048160461246e-04,1.417581501812221340e-04,-2.830437731951736518e-04,-7.078456965715694375e-04,-1.132647619947965223e-03,-1.557449543324361009e-03,-1.835768044846827415e-03,-1.835768044846827415e-03,-1.826317501501412491e-03,-1.757801062247155155e-03,-1.689284622992897819e-03,-1.620768183738640483e-03,-1.552251744484383147e-03,-1.483735305230125378e-03,-1.415218865975868259e-03,-1.346702426721610923e-03,-1.278185987467353370e-03,-1.209669548213096035e-03,-1.141153108958838699e-03,-1.072636669704581363e-03,-1.004120230450323810e-03,-9.356037911960664744e-04,-8.670873519418093554e-04,-7.985709126875518028e-04,-7.300544734332942501e-04,-6.615380341790369143e-04,-5.930215949247795784e-04,-5.245051556705220257e-04,-4.559887164162646899e-04,-3.874722771620073541e-04,-3.213184737441036410e-04,-2.528020344898461967e-04,-1.842855952355888609e-04,-1.157691559813315250e-04,-4.725271672707418921e-05,2.126372252718330925e-05,2.335317859495862668e-04
5.079667048160461246e-04,5.079667048160461246e-04,5.079667048160461246e-04,5.079667048160461246e-04,5.079667048160461246e-04,5.079667048160461246e-04,5.079667048160461246e-04,5.079667048160461246e-04,5.079667048160461246e-04,5.079667048160461246e-04,5.079667048160461246e-04,3.468349407767235795e-04,-7.796698259967226041e-05,-5.027689059760680462e-04,-9.275708293524638319e-04,-1.352372752728859618e-03,-1.777174676105255403e-03,-1.835768044846827415e-03,-1.835768044846827415e-03,-1.790877963956106957e-03,-1.722361524701849621e-03,-1.653845085447592286e-03,-1.585328646193334516e-03,-1.516812206939077180e-03,-1.448295767684819844e-03,-1.379779328430562725e-03,-1.311262889176305390e-03,-1.242746449922048054e-03,-1.174230010667790501e-03,-1.105713571413533165e-03,-1.037197132159275613e-03,-9.686806929050182768e-04,-9.001642536507609409e-04,-8.316478143965036051e-04,-7.631313751422460524e-04,-6.946149358879887166e-04,-6.260984966337313808e-04,-5.575820573794740449e-04,-4.890656181252164923e-04,-4.205491788709592648e-04,-3.520327396167018206e-04,-2.835163003624443763e-04,-2.149998611081869321e-04,-1.464834218539295962e-04,1.417581501812221340e-04,4.109509707857721779e-04,5.079667048160461246e-04
5.079667048160461246e-04,5.079667048160461246e-04,5.079667048160461246e-04,5.079667048160461246e-04,5.079667048160461246e-04,5.079667048160461246e-04,5.079667048160461246e-04,5.079667048160461246e-04,5.079667048160461246e-04,5.079667048160461246e-04,5.079667048160461246e-04,5.079667048160461246e-04,1.124614658104362364e-04,-3.123404575659596578e-04,-7.371423809423554435e-04,-1.161944304318751012e-03,-1.586746227695147015e-03,-1.835768044846827415e-03,-1.835768044846827415e-03,-1.821592229828705028e-03,-1.753075790574448126e-03,-1.684559351320190357e-03,-1.616042912065933021e-03,-1.547526472811675685e-03,-1.479010033557418349e-03,-1.410493594303161013e-03,-1.341977155048903461e-03,-1.273460715794645908e-03,-1.204944276540388572e-03,-1.136427837286131453e-03,-1.067911398031873684e-03,-9.993949587776163480e-04,-9.308785195233592290e-04,-8.647247161054556243e-04,-7.962082768511980716e-04,-7.276918375969407358e-04,-6.591753983426829663e-04,-5.906589590884258473e-04,-5.221425198341685114e-04,-4.536260805799109588e-04,-3.851096413256537314e-04,-2.908257049811637050e-04,8.269225427237956007e-05,4.220258262686801842e-04,5.079667048160461246e-04,5.079667048160461246e-04,5.079667048160461246e-04
5.079667048160461246e-04,5.079667048160461246e-04,5.079667048160461246e-04,-1.635827657809646729e-01,-1.635827657809646729e-01,-1.635827657809646729e-01,-1.635827657809646729e-01,5.079667048160461246e-04,5.079667048160461246e-04,5.079667048160461246e-04,5.079667048160461246e-04,5.079667048160461246e-04,3.175382564059376820e-04,-1.072636669704581580e-04,-5.320655903468540521e-04,-9.568675137232500547e-04,-1.381669437099645407e-03,-1.806471360476041409e-03,-1.835768044846827415e-03,-1.835768044846827415e-03,-1.786152692283399495e-03,-1.717636253029142593e-03,-1.649119813774884823e-03,-1.580603374520627054e-03,-1.512086935266370152e-03,-1.443570496012112382e-03,-1.375054056757855263e-03,-1.306537617503597927e-03,-1.238021178249340591e-03,-1.169504738995083039e-03,-1.100988299740825703e-03,-1.032471860486568367e-03,-9.639554212323110313e-04,-8.954389819780534786e-04,-8.269225427237961428e-04,-7.584061034695388070e-04,-6.898896642152812543e-04,-6.213732249610239185e-04,-5.528567857067665826e-04,-3.913115603960820588e-04,4.607139880889710680e-05,4.545120690185436079e-04,5.079667048160461246e-04,5.079667048160461246e-04,5.079667048160461246e-04,5.079667048160461246e-04,5.079667048160461246e-04
5.079667048160461246e-04,5.079667048160461246e-04,5.079667048160461246e-04,-1.635827657809646729e-01,-1.635827657809646729e-01,-1.635827657809646729e-01,-1.635827657809646729e-01,5.079667048160461246e-04,5.079667048160461246e-04,5.079667048160461246e-04,5.079667048160461246e-04,5.079667048160461246e-04,5.079667048160461246e-04,8.316478143965033883e-05,-3.416371419367454469e-04,-7.664390653131414495e-04,-1.191240988689537235e-03,-1.616042912065933021e-03,-1.835768044846827415e-03,-1.835768044846827415e-03,-1.816866958155998000e-03,-1.748350518901740664e-03,-1.682196715483836626e-03,-1.613680276229579290e-03,-1.545163836975321954e-03,-1.476647397721064618e-03,-1.408130958466807282e-03,-1.339614519212549730e-03,-1.271098079958292394e-03,-1.202581640704035275e-03,-1.134065201449777722e-03,-1.065548762195520386e-03,-9.970323229412628337e-04,-9.285158836870054978e-04,-8.599994444327481620e-04,-7.914830051784908262e-04,-7.229665659242332735e-04,-4.728224967502849159e-04,2.938528321464915164e-05,5.079667048160461246e-04,5.079667048160461246e-04,5.079667048160461246e-04,5.079667048160461246e-04,5.079667048160461246e-04,5.079667048160461246e-04,5.079667048160461246e-04,5.079667048160461246e-04
5.079667048160461246e-04,5.079667048160461246e-04,5.079667048160461246e-04,-1.635827657809646729e-01,-1.635827657809646729e-01,-1.635827657809646729e-01,-1.635827657809646729e-01,5.079667048160461246e-04,5.079667048160461246e-04,5.079667048160461246e-04,5.079667048160461246e-04,5.079667048160461246e-04,5.079667048160461246e-04,2.882415720351517302e-04,-1.365603513412440555e-04,-5.613622747176398413e-04,-9.861641980940356270e-04,-1.410966121470431413e-03,-1.835768044846827415e-03,-1.835768044846827415e-03,-1.835768044846827415e-03,-1.781427420610692466e-03,-1.712910981356434697e-03,-1.644394542102177361e-03,-1.575878102847920025e-03,-1.507361663593662689e-03,-1.438845224339405137e-03,-1.370328785085148018e-03,-1.301812345830890682e-03,-1.233295906576633129e-03,-1.164779467322375577e-03,-1.096263028068118241e-03,-1.027746588813860905e-03,-9.592301495596035690e-04,-8.907137103053462332e-04,-5.727915255760011350e-04,3.484887858621704649e-05,5.079667048160461246e-04,5.079667048160461246e-04,5.079667048160461246e-04,5.079667048160461246e-04,5.079667048160461246e-04,5.079667048160461246e-04,5.079667048160461246e-04,5.079667048160461246e-04,5.079667048160461246e-04,5.079667048160461246e-04
5.079667048160461246e-04,5.079667048160461246e-04,5.079667048160461246e-04,-1.635827657809646729e-01,-1.635827657809646729e-01,-1.635827657809646729e-01,-1.635827657809646729e-01,5.079667048160461246e-04,5.079667048160461246e-04,5.079667048160461246e-04,5.079667048160461246e-04,5.079667048160461246e-04,5.079667048160461246e-04,4.786700204452602270e-04,5.386809706886438705e-05,-3.562854841221384499e-04,-7.810874074985342357e-04,-1.205889330874930021e-03,-1.630691254251325807e-03,-1.835768044846827415e-03,-1.835768044846827415e-03,-1.814504322319643835e-03,-1.745987883065386933e-03,-1.677471443811129597e-03,-1.608955004556871828e-03,-1.540438565302614492e-03,-1.471922126048357156e-03,-1.403405686794099603e-03,-1.334889247539842267e-03,-1.266372808285585148e-03,-1.197856369031327596e-03,-1.129339929777070043e-03,-1.060823490522812924e-03,-6.172386122474048890e-04,6.054254330656354743e-05,5.079667048160461246e-04,5.079667048160461246e-04,5.079667048160461246e-04,5.079667048160461246e-04,5.079667048160461246e-04,5.079667048160461246e-04,5.079667048160461246e-04,5.079667048160461246e-04,5.079667048160461246e-04,5.079667048160461246e-04,5.079667048160461246e-04,5.079667048160461246e-04
5.079667048160461246e-04,5.079667048160461246e-04,5.079667048160461246e-04,5.079667048160461246e-04,5.079667048160461246e-04,5.079667048160461246e-04,5.079667048160461246e-04,5.079667048160461246e-04,5.079667048160461246e-04,5.079667048160461246e-04,5.079667048160461246e-04,5.079667048160461246e-04,5.079667048160461246e-04,5.079667048160461246e-04,2.589448876643658326e-04,-1.658570357120300615e-04,-5.906589590884258473e-04,-1.015460882464821850e-03,-1.440262805841217419e-03,-1.835768044846827415e-03,-1.835768044846827415e-03,-1.835768044846827415e-03,-1.776702148937985004e-03,-1.708185709683727668e-03,-1.639669270429469899e-03,-1.571152831175212563e-03,-1.502636391920955227e-03,-1.434119952666697891e-03,-1.365603513412440339e-03,-1.297087074158183220e-03,-1.228570634903925667e-03,-6.387976642541323604e-04,1.080905895131818446e-04,5.079667048160461246e-04,5.079667048160461246e-04,5.079667048160461246e-04,5.079667048160461246e-04,5.079667048160461246e-04,5.079667048160461246e-04,5.079667048160461246e-04,5.079667048160461246e-04,5.079667048160461246e-04,5.079667048160461246e-04,5.079667048160461246e-04,5.079667048160461246e-04,5.079667048160461246e-04,5.079667048160461246e-04
5.079667048160461246e-04,5.079667048160461246e-04,5.079667048160461246e-04,5.079667048160461246e-04,5.079667048160461246e-04,5.079667048160461246e-04,5.079667048160461246e-04,5.079667048160461246e-04,5.079667048160461246e-04,5.079667048160461246e-04,5.079667048160461246e-04,5.079667048160461246e-04,5.079667048160461246e-04,5.079667048160461246e-04,4.640216782598672240e-04,3.921975488347143827e-05,-3.855821684929244559e-04,-8.103840918693202416e-04,-1.235186015245716027e-03,-1.659987938622111813e-03,-1.835768044846827415e-03,-1.835768044846827415e-03,-1.809779050646936373e-03,-1.741262611392679471e-03,-1.672746172138421701e-03,-1.604229732884164365e-03,-1.535713293629907029e-03,-1.467196854375649694e-03,-1.398680415121392358e-03,-6.408649706109419836e-04,1.761640345481229643e-04,5.079667048160461246e-04,5.079667048160461246e-04,5.079667048160461246e-04,5.079667048160461246e-04,5.079667048160461246e-04,5.079667048160461246e-04,5.079667048160461246e-04,5.079667048160461246e-04,5.079667048160461246e-04,5.079667048160461246e-04,5.079667048160461246e-04,5.079667048160461246e-04,5.079667048160461246e-04,5.079667048160461246e-04,5.079667048160461246e-04,5.079667048160461246e-04
