-1.360648803799741069e-01,-1.360648803799741069e-01,-1.360648803799741069e-01,-1.360648803799741069e-01,-1.360648803799741069e-01,-1.360648803799741069e-01,-1.360648803799741069e-01,-1.360648803799741069e-01,-1.360648803799741069e-01,-1.360648803799741069e-01,-1.360648803799741069e-01,-1.360648803799741069e-01,-1.360648803799741069e-01,-1.360648803799741069e-01,-1.360648803799741069e-01,-1.360648803799741069e-01,-1.360648803799741069e-01,-1.123670283623294797e-01,-8.653671360869941154e-02,-5.534514677488014400e-02,-2.847869589348295261e-02,-2.435134866254337616e-02,-2.008642319057252212e-02,-1.582149771860161258e-02,-1.155657224663074467e-02,-7.429225015691209855e-03,-3.164299543720328067e-03,-2.044019581036726763e-03,-1.782620923077227193e-02,-3.669408228649598258e-02,-5.619088444407713268e-02,-7.568768660165828277e-02,-9.518448875923943286e-02,-1.146812909168205830e-01,-1.335491639725442936e-01,-1.360648803799741069e-01,-1.360648803799741069e-01,-1.360648803799741069e-01,-1.360648803799741069e-01,-1.360648803799741069e-01,-1.360648803799741069e-01,-1.360648803799741069e-01,-1.360648803799741069e-01,-1.360648803799741069e-01,-1.360648803799741069e-01,-1.360648803799741069e-01,-1.360648803799741069e-01
-1.360648803799741069e-01,-1.360648803799741069e-01,-1.360648803799741069e-01,-1.360648803799741069e-01,-1.360648803799741069e-01,-1.360648803799741069e-01,-1.360648803799741069e-01,-1.360648803799741069e-01,-1.360648803799741069e-01,-1.360648803799741069e-01,-1.360648803799741069e-01,-1.360648803799741069e-01,-1.360648803799741069e-01,-1.288807166061199383e-01,-1.057288782325683518e-01,-8.017801928103314435e-02,-5.222813975151432975e-02,-4.251167647867744315e-02,-3.824675100670657524e-02,-3.398182553473570733e-02,-2.971690006276482554e-02,-2.545197459079392988e-02,-2.132462735985439506e-02,-1.705970188788351327e-02,-1.279477641591261761e-02,-8.529850943941735819e-03,-4.402503713002214880e-03,-1.375782410313053372e-04,-1.285373851921176036e-02,-3.166264947163632826e-02,-5.053052252736001115e-02,-7.002732468494116125e-02,-8.952412684252232522e-02,-1.090209290001034753e-01,-1.285177311576846393e-01,-1.360648803799741069e-01,-1.360648803799741069e-01,-1.360648803799741069e-01,-1.360648803799741069e-01,-1.360648803799741069e-01,-1.360648803799741069e-01,-1.360648803799741069e-01,-1.360648803799741069e-01,-1.360648803799741069e-01,-1.360648803799741069e-01,-1.360648803799741069e-01,-1.360648803799741069e-01
-1.360648803799741069e-01,-1.360648803799741069e-01,-1.360648803799741069e-01,-1.360648803799741069e-01,-1.360648803799741069e-01,-1.360648803799741069e-01,-1.360648803799741069e-01,-1.360648803799741069e-01,-1.360648803799741069e-01,-1.360648803799741069e-01,-1.203809609024037858e-01,-1.025645786888480238e-01,-8.038868596261235233e-02,-6.053442605378017705e-02,-5.640707882284062835e-02,-5.214215335086974656e-02,-4.787722787889887865e-02,-4.361230240692798299e-02,-3.948495517598843429e-02,-3.522002970401756639e-02,-3.095510423204668460e-02,-2.669017876007580281e-02,-2.242525328810493490e-02,-1.829790605716537233e-02,-1.403298058519447666e-02,-9.768055113223622632e-03,-5.503129641252740845e-03,-1.375782410313192150e-03,-8.431580771776525651e-03,-2.600228755491920674e-02,-4.549908971250035683e-02,-6.436696276822405360e-02,-8.386376492580521758e-02,-1.033605670833863677e-01,-1.228573692409675178e-01,-1.360648803799741069e-01,-1.360648803799741069e-01,-1.360648803799741069e-01,-1.360648803799741069e-01,-1.360648803799741069e-01,-1.360648803799741069e-01,-1.360648803799741069e-01,-1.360648803799741069e-01,-1.360648803799741069e-01,-1.360648803799741069e-01,-1.360648803799741069e-01,-1.360648803799741069e-01
-1.360648803799741069e-01,-1.360648803799741069e-01,-1.360648803799741069e-01,-1.360648803799741069e-01,-1.360648803799741069e-01,-1.360648803799741069e-01,-1.318859413086478083e-01,-1.177497770426798179e-01,-1.012145921987282204e-01,-8.228038677679297419e-02,-7.456740663897468147e-02,-7.030248116700381356e-02,-6.603755569503293177e-02,-6.177263022306204998e-02,-5.750770475109118207e-02,-5.338035752015161950e-02,-4.911543204818073771e-02,-4.485050657620986980e-02,-4.058558110423898801e-02,-3.645823387329942544e-02,-3.219330840132855753e-02,-2.792838292935767575e-02,-2.366345745738679396e-02,-1.953611022644724526e-02,-1.527118475447636348e-02,-1.100625928250548169e-02,-6.741333810534599902e-03,-2.476408338563718115e-03,-4.009423024341263186e-03,-2.034192563820209909e-02,-3.983872779578326306e-02,-5.933552995336441316e-02,-7.820340300908809605e-02,-9.770020516666924615e-02,-1.171970073242504101e-01,-1.360648803799741069e-01,-1.360648803799741069e-01,-1.360648803799741069e-01,-1.360648803799741069e-01,-1.360648803799741069e-01,-1.360648803799741069e-01,-1.360648803799741069e-01,-1.360648803799741069e-01,-1.360648803799741069e-01,-1.360648803799741069e-01,-1.360648803799741069e-01,-1.360648803799741069e-01
-1.360648803799741069e-01,-1.360648803799741069e-01,-1.360648803799741069e-01,-1.283948934424780919e-01,-1.175004164808105545e-01,-1.054322251503445745e-01,-9.259015621407742924e-02,-8.846280898313786667e-02,-8.419788351116699876e-02,-7.993295803919611697e-02,-7.566803256722523519e-02,-7.154068533628567261e-02,-6.727575986431480470e-02,-6.301083439234392292e-02,-5.874590892037304113e-02,-5.448098344840217322e-02,-5.035363621746261065e-02,-4.608871074549174274e-02,-4.182378527352086095e-02,-3.755885980154996528e-02,-3.343151257061041659e-02,-2.916658709863953480e-02,-2.490166162666866689e-02,-2.063673615469778511e-02,-1.637181068272690332e-02,-1.224446345178734075e-02,-7.979537979816486715e-03,-3.714612507845604927e-03,-7.861613773216258316e-05,-1.481914196251631066e-02,-3.417836587906615542e-02,-5.367516803664730551e-02,-7.317197019422845561e-02,-9.203984324995215238e-02,-1.115366454075333025e-01,-1.310334475651144526e-01,-1.360648803799741069e-01,-1.360648803799741069e-01,-1.360648803799741069e-01,-1.360648803799741069e-01,-1.360648803799741069e-01,-1.360648803799741069e-01,-1.360648803799741069e-01,-1.360648803799741069e-01,-1.360648803799741069e-01,-1.360648803799741069e-01,-1.360648803799741069e-01
-1.297706758527912840e-01,-1.222511651164232688e-01,-1.123326338020716464e-01,-1.066231367992719198e-01,-1.023582113273010519e-01,-9.809328585533017009e-02,-9.382836038335928830e-02,-8.956343491138842039e-02,-8.543608768044885782e-02,-8.117116220847797603e-02,-7.690623673650709424e-02,-7.264131126453622633e-02,-6.851396403359666376e-02,-6.424903856162578197e-02,-3.110351191266196302e-01,-3.067701936546487484e-01,-3.025052681826778667e-01,-2.983779209517383180e-01,-2.941129954797674362e-01,-3.879706397083183822e-02,-3.453213849886097031e-02,-3.040479126792140774e-02,-2.613986579595051207e-02,-2.187494032397965804e-02,-1.761001485200877625e-02,-1.334508938003789447e-02,-9.217742149098318016e-03,-4.952816677127491740e-03,-6.878912051565821972e-04,-1.088833507590719618e-02,-2.851800396234904778e-02,-4.801480611993019787e-02,-6.751160827751134796e-02,-8.700841043509249806e-02,-1.058762834908161948e-01,-1.253730856483973310e-01,-1.360648803799741069e-01,-1.360648803799741069e-01,-1.360648803799741069e-01,-1.360648803799741069e-01,-1.360648803799741069e-01,-1.360648803799741069e-01,-1.360648803799741069e-01,-1.360648803799741069e-01,-1.360648803799741069e-01,-1.360648803799741069e-01,-1.360648803799741069e-01
-1.205185391434351050e-01,-1.162536136714642232e-01,-1.119886881994933553e-01,-1.077237627275224735e-01,-1.035964154965829109e-01,-9.933149002461202914e-02,-9.506656455264116123e-02,-9.080163908067029332e-02,-8.653671360869939766e-02,-8.240936637775984897e-02,-7.814444090578898106e-02,-7.387951543381809927e-02,-6.961458996184721748e-02,-6.548724273090766879e-02,-3.122733232959015170e-01,-3.080083978239306353e-01,-3.037434723519597535e-01,-2.994785468799888717e-01,-2.953511996490493230e-01,-4.003526814011371115e-02,-3.577034266814284325e-02,-3.150541719617194758e-02,-2.737806996523239889e-02,-2.311314449326153098e-02,-1.884821902129064919e-02,-1.458329354931975352e-02,-1.031836807734887174e-02,-6.191020846409350797e-03,-1.926095374438469010e-03,-6.466177328471961472e-03,-2.348657114748936570e-02,-4.235444420321309023e-02,-6.185124636079422644e-02,-8.134804851837539041e-02,-1.008448506759565266e-01,-1.197127237316802373e-01,-1.360648803799741069e-01,-1.360648803799741069e-01,-1.360648803799741069e-01,-1.360648803799741069e-01,-1.360648803799741069e-01,-1.360648803799741069e-01,-1.360648803799741069e-01,-1.360648803799741069e-01,-1.360648803799741069e-01,-1.360648803799741069e-01,-1.360648803799741069e-01
-1.216191650716856587e-01,-1.174918178407460961e-01,-1.132268923687752143e-01,-1.089619668968043464e-01,-1.046970414248334647e-01,-1.005696941938939021e-01,-9.630476872192303417e-02,-9.203984324995215238e-02,-8.777491777798127059e-02,-8.350999230601038881e-02,-7.938264507507084011e-02,-7.511771960309995833e-02,-7.085279413112907654e-02,-6.658786865915820863e-02,-3.135115274651834039e-01,-3.092466019932125221e-01,-3.049816765212416403e-01,-3.007167510492707585e-01,-2.964518255772998767e-01,-4.127347230939558409e-02,-3.700854683742470230e-02,-3.274362136545383439e-02,-2.847869589348295261e-02,-2.435134866254340391e-02,-2.008642319057250825e-02,-1.582149771860164034e-02,-1.155657224663074467e-02,-7.429225015691182099e-03,-3.164299543720328067e-03,-2.044019581036726763e-03,-1.782620923077228581e-02,-3.732301138835343590e-02,-5.619088444407711880e-02,-7.568768660165826889e-02,-9.518448875923943286e-02,-1.146812909168205830e-01,-1.335491639725442936e-01,-1.360648803799741069e-01,-1.360648803799741069e-01,-1.360648803799741069e-01,-1.360648803799741069e-01,-1.360648803799741069e-01,-1.360648803799741069e-01,-1.360648803799741069e-01,-1.360648803799741069e-01,-1.360648803799741069e-01,-1.360648803799741069e-01
-1.228573692409675178e-01,-1.185924437689966360e-01,-1.144650965380570873e-01,-1.102001710660862055e-01,-1.059352455941153237e-01,-1.016703201221444419e-01,-9.754297289120489323e-02,-9.327804741923401144e-02,-8.901312194726312965e-02,-8.474819647529226174e-02,-8.048327100332137995e-02,-7.635592377238183126e-02,-7.209099830041096335e-02,-6.782607282844008156e-02,-3.146121533934339576e-01,-3.104848061624943534e-01,-3.062198806905235271e-01,-3.019549552185525898e-01,-2.976900297465817635e-01,-4.237409823764613781e-02,-3.824675100670656136e-02,-3.398182553473569345e-02,-2.971690006276482554e-02,-2.545197459079392988e-02,-2.132462735985438118e-02,-1.705970188788351327e-02,-1.279477641591261761e-02,-8.529850943941763575e-03,-4.402503713002187125e-03,-1.375782410313053372e-04,-1.285373851921176036e-02,-3.166264947163632826e-02,-5.115945162921747835e-02,-7.002732468494116125e-02,-8.952412684252231134e-02,-1.090209290001034753e-01,-1.285177311576846393e-01,-1.360648803799741069e-01,-1.360648803799741069e-01,-1.360648803799741069e-01,-1.360648803799741069e-01,-1.360648803799741069e-01,-1.360648803799741069e-01,-1.360648803799741069e-01,-1.360648803799741069e-01,-1.360648803799741069e-01,-1.360648803799741069e-01
-1.240955734102493907e-01,-1.198306479382785089e-01,-1.155657224663076410e-01,-1.114383752353680784e-01,-1.071734497633971966e-01,-1.029085242914263287e-01,-9.864359881945544695e-02,-9.451625158851588437e-02,-9.025132611654501646e-02,-8.598640064457413468e-02,-8.172147517260325289e-02,-7.745654970063237110e-02,-7.332920246969280853e-02,-6.906427699772195450e-02,-3.158503575627157889e-01,-3.115854320907449071e-01,-3.074580848598053584e-01,-3.031931593878344766e-01,-2.989282339158635948e-01,-4.361230240692799687e-02,-3.934737693495711508e-02,-3.522002970401756639e-02,-3.095510423204668460e-02,-2.669017876007581669e-02,-2.242525328810492102e-02,-1.829790605716535845e-02,-1.403298058519447666e-02,-9.768055113223622632e-03,-5.503129641252740845e-03,-1.238204169281859057e-03,-8.431580771776525651e-03,-2.600228755491920674e-02,-4.549908971250035683e-02,-6.499589187008152080e-02,-8.386376492580520370e-02,-1.033605670833863677e-01,-1.228573692409675178e-01,-1.360648803799741069e-01,-1.360648803799741069e-01,-1.360648803799741069e-01,-1.360648803799741069e-01,-1.360648803799741069e-01,-1.360648803799741069e-01,-1.360648803799741069e-01,-1.360648803799741069e-01,-1.360648803799741069e-01,-1.360648803799741069e-01
-1.253337775795312636e-01,-1.210688521075603818e-01,-1.168039266355895001e-01,-1.125390011636186183e-01,-1.084116539326790696e-01,-1.041467284607081878e-01,-9.988180298873730600e-02,-9.561687751676643809e-02,-9.148953028582687552e-02,-8.722460481385599373e-02,-8.295967934188511195e-02,-7.869475386991424404e-02,-7.442982839794336225e-02,-7.030248116700381356e-02,-6.603755569503293177e-02,-6.177263022306204998e-02,-5.750770475109118207e-02,-5.338035752015161950e-02,-4.911543204818075159e-02,-4.485050657620986980e-02,-4.058558110423898801e-02,-3.632065563226810623e-02,-3.219330840132855753e-02,-2.792838292935767575e-02,-2.366345745738679396e-02,-1.939853198541591217e-02,-1.527118475447636348e-02,-1.100625928250548169e-02,-6.741333810534599902e-03,-2.476408338563745870e-03,-4.500773885167397292e-03,-2.034192563820209909e-02,-3.983872779578324919e-02,-5.933552995336439928e-02,-7.883233211094556325e-02,-9.770020516666924615e-02,-1.171970073242504101e-01,-1.360648803799741069e-01,-1.360648803799741069e-01,-1.360648803799741069e-01,-1.360648803799741069e-01,-1.360648803799741069e-01,-1.360648803799741069e-01,-1.360648803799741069e-01,-1.360648803799741069e-01,-1.360648803799741069e-01,-1.360648803799741069e-01
-1.264344035077817896e-01,-1.223070562768422409e-01,-1.180421308048713730e-01,-1.137772053329005051e-01,-1.095122798609296094e-01,-1.053849326299900468e-01,-1.011200071580191789e-01,-9.685508168604831103e-02,-9.259015621407742924e-02,-8.846280898313786667e-02,-8.419788351116699876e-02,-7.993295803919611697e-02,-7.566803256722523519e-02,-7.140310709525435340e-02,-6.727575986431480470e-02,-6.301083439234392292e-02,-5.874590892037304113e-02,-5.448098344840215934e-02,-5.035363621746261065e-02,-4.608871074549174274e-02,-4.182378527352084707e-02,-3.755885980154997916e-02,-3.329393432957911125e-02,-2.916658709863954868e-02,-2.490166162666866689e-02,-2.063673615469778511e-02,-1.637181068272690332e-02,-1.224446345178734075e-02,-7.979537979816486715e-03,-3.714612507845604927e-03,-7.861613773216258316e-05,-1.481914196251629678e-02,-3.417836587906615542e-02,-5.367516803664729164e-02,-7.317197019422845561e-02,-9.266877235180960570e-02,-1.115366454075333025e-01,-1.310334475651144526e-01,-1.360648803799741069e-01,-1.360648803799741069e-01,-1.360648803799741069e-01,-1.360648803799741069e-01,-1.360648803799741069e-01,-1.360648803799741069e-01,-1.360648803799741069e-01,-1.360648803799741069e-01,-1.360648803799741069e-01
-1.276726076770636764e-01,-1.234076822050927946e-01,-1.192803349741532321e-01,-1.150154095021823641e-01,-1.107504840302114824e-01,-1.064855585582406006e-01,-1.023582113273010519e-01,-9.809328585533017009e-02,-9.382836038335928830e-02,-8.956343491138840651e-02,-8.543608768044885782e-02,-8.117116220847797603e-02,-7.690623673650709424e-02,-7.264131126453622633e-02,-6.837638579256535842e-02,-6.424903856162578197e-02,-5.998411308965490019e-02,-5.571918761768403228e-02,-5.145426214571315049e-02,-4.732691491477360179e-02,-4.306198944280272001e-02,-3.879706397083183822e-02,-3.453213849886097031e-02,-3.026721302689008852e-02,-2.613986579595051207e-02,-2.187494032397964416e-02,-1.761001485200877625e-02,-1.334508938003789447e-02,-9.217742149098318016e-03,-4.952816677127463985e-03,-6.878912051565821972e-04,-1.088833507590719618e-02,-2.851800396234903390e-02,-4.801480611993018399e-02,-6.751160827751134796e-02,-8.700841043509248418e-02,-1.065052125926736482e-01,-1.253730856483973310e-01,-1.360648803799741069e-01,-1.360648803799741069e-01,-1.360648803799741069e-01,-1.360648803799741069e-01,-1.360648803799741069e-01,-1.360648803799741069e-01,-1.360648803799741069e-01,-1.360648803799741069e-01,-1.360648803799741069e-01
-1.289108118463455355e-01,-1.246458863743746537e-01,-1.203809609024037858e-01,-1.162536136714642232e-01,-1.119886881994933414e-01,-1.077237627275224735e-01,-1.034588372555515917e-01,-9.933149002461202914e-02,-9.506656455264116123e-02,-9.080163908067029332e-02,-8.653671360869941154e-02,-8.240936637775984897e-02,-7.814444090578896718e-02,-7.387951543381809927e-02,-6.961458996184721748e-02,-6.534966448987634957e-02,-6.122231725893677312e-02,-5.695739178696590521e-02,-5.269246631499502342e-02,-4.842754084302415551e-02,-4.430019361208459294e-02,-4.003526814011369728e-02,-3.577034266814282937e-02,-3.150541719617194758e-02,-2.724049172420106579e-02,-2.311314449326153098e-02,-1.884821902129064919e-02,-1.458329354931975352e-02,-1.031836807734887174e-02,-6.191020846409323042e-03,-1.926095374438441254e-03,-6.466177328471961472e-03,-2.348657114748936570e-02,-4.298337330507054355e-02,-6.185124636079422644e-02,-8.134804851837539041e-02,-1.008448506759565405e-01,-1.203416528335376906e-01,-1.360648803799741069e-01,-1.360648803799741069e-01,-1.360648803799741069e-01,-1.360648803799741069e-01,-1.360648803799741069e-01,-1.360648803799741069e-01,-1.360648803799741069e-01,-1.360648803799741069e-01,-1.360648803799741069e-01
-1.301490160156273945e-01,-1.258840905436565405e-01,-1.216191650716856587e-01,-1.173542395997147769e-01,-1.132268923687752282e-01,-1.089619668968043464e-01,-1.046970414248334647e-01,-1.004321159528625829e-01,-9.630476872192303417e-02,-9.203984324995215238e-02,-8.777491777798127059e-02,-8.350999230601038881e-02,-7.938264507507084011e-02,-7.511771960309995833e-02,-7.085279413112907654e-02,-6.658786865915820863e-02,-6.232294318718731296e-02,-5.819559595624776427e-02,-5.393067048427688248e-02,-4.966574501230602845e-02,-3.376081340818662402e-01,-3.334807868509266360e-01,-3.292158613789558097e-01,-3.249509359069849279e-01,-2.847869589348293873e-02,-2.421377042151207082e-02,-2.008642319057252212e-02,-1.582149771860164034e-02,-1.155657224663075855e-02,-7.291646774659876762e-03,-3.164299543720328067e-03,-2.044019581036726763e-03,-1.782620923077227193e-02,-3.732301138835343590e-02,-5.681981354593458600e-02,-7.568768660165828277e-02,-9.518448875923943286e-02,-1.146812909168205830e-01,-1.341780930744017331e-01,-1.360648803799741069e-01,-1.360648803799741069e-01,-1.360648803799741069e-01,-1.360648803799741069e-01,-1.360648803799741069e-01,-1.360648803799741069e-01,-1.360648803799741069e-01,-1.360648803799741069e-01
-1.313872201849092813e-01,-1.271222947129383996e-01,-1.228573692409675178e-01,-1.185924437689966360e-01,-1.143275182970257681e-01,-1.102001710660862055e-01,-1.059352455941153237e-01,-1.016703201221444558e-01,-9.740539465017357401e-02,-9.327804741923401144e-02,-8.901312194726312965e-02,-8.474819647529226174e-02,-8.048327100332139383e-02,-7.635592377238183126e-02,-7.209099830041094947e-02,-6.782607282844008156e-02,-6.356114735646918590e-02,-5.929622188449831799e-02,-5.516887465355875542e-02,-5.090394918158788751e-02,-3.388463382511480715e-01,-3.345814127791772452e-01,-3.304540655482376410e-01,-3.261891400762667592e-01,-2.971690006276481166e-02,-2.545197459079394375e-02,-2.118704911882306197e-02,-1.705970188788349939e-02,-1.279477641591261761e-02,-8.529850943941735819e-03,-4.264925471970881787e-03,-1.375782410313053372e-04,-1.285373851921174648e-02,-3.166264947163631438e-02,-5.115945162921747835e-02,-7.002732468494116125e-02,-8.952412684252231134e-02,-1.090209290001034753e-01,-1.285177311576846393e-01,-1.360648803799741069e-01,-1.360648803799741069e-01,-1.360648803799741069e-01,-1.360648803799741069e-01,-1.360648803799741069e-01,-1.360648803799741069e-01,-1.360648803799741069e-01,-1.360648803799741069e-01
-1.324878461131598351e-01,-1.283604988822202586e-01,-1.240955734102493907e-01,-1.198306479382785089e-01,-1.155657224663076410e-01,-1.113007969943367592e-01,-1.071734497633971966e-01,-1.029085242914263149e-01,-9.864359881945544695e-02,-9.437867334748456516e-02,-9.025132611654501646e-02,-8.598640064457413468e-02,-8.172147517260325289e-02,-7.745654970063237110e-02,-7.332920246969282241e-02,-6.906427699772194062e-02,-6.479935152575105883e-02,-6.053442605378017705e-02,-5.626950058180930914e-02,-5.214215335086976044e-02,-3.400845424204299583e-01,-3.358196169484590765e-01,-3.315546914764881947e-01,-3.274273442455486460e-01,-3.095510423204668460e-02,-2.669017876007580281e-02,-2.242525328810493490e-02,-1.816032781613405311e-02,-1.403298058519447666e-02,-9.768055113223622632e-03,-5.503129641252740845e-03,-1.238204169281859057e-03,-8.431580771776497896e-03,-2.600228755491920674e-02,-4.549908971250035683e-02,-6.499589187008152080e-02,-8.386376492580521758e-02,-1.033605670833863677e-01,-1.228573692409675178e-01,-1.360648803799741069e-01,-1.360648803799741069e-01,-1.360648803799741069e-01,-1.360648803799741069e-01,-1.360648803799741069e-01,-1.360648803799741069e-01,-1.360648803799741069e-01,-1.360648803799741069e-01
-1.337260502824416941e-01,-1.294611248104708123e-01,-1.253337775795312636e-01,-1.210688521075603818e-01,-1.168039266355895001e-01,-1.125390011636186183e-01,-1.082740756916477504e-01,-1.041467284607081878e-01,-9.988180298873730600e-02,-9.561687751676642422e-02,-9.135195204479555631e-02,-8.722460481385599373e-02,-8.295967934188511195e-02,-7.869475386991425792e-02,-7.442982839794336225e-02,-7.030248116700381356e-02,-6.603755569503293177e-02,-6.177263022306203610e-02,-5.750770475109118207e-02,-5.324277927912030028e-02,-3.413227465897118451e-01,-3.370578211177409633e-01,-3.327928956457700815e-01,-3.285279701737991997e-01,-3.219330840132855753e-02,-2.792838292935767575e-02,-2.366345745738679396e-02,-1.939853198541591217e-02,-1.513360651344503038e-02,-1.100625928250548169e-02,-6.741333810534599902e-03,-2.476408338563718115e-03,-4.500773885167425048e-03,-2.034192563820209909e-02,-3.983872779578324919e-02,-5.933552995336441316e-02,-7.883233211094556325e-02,-9.770020516666926003e-02,-1.171970073242504101e-01,-1.360648803799741069e-01,-1.360648803799741069e-01,-1.360648803799741069e-01,-1.360648803799741069e-01,-1.360648803799741069e-01,-1.360648803799741069e-01,-1.360648803799741069e-01,-1.360648803799741069e-01
-1.349642544517235532e-01,-1.306993289797526714e-01,-1.264344035077817896e-01,-1.223070562768422409e-01,-1.180421308048713730e-01,-1.137772053329004912e-01,-1.095122798609296233e-01,-1.052473543889587415e-01,-1.011200071580191789e-01,-9.685508168604831103e-02,-9.259015621407742924e-02,-8.832523074210654745e-02,-8.419788351116698488e-02,-7.993295803919611697e-02,-7.566803256722523519e-02,-7.140310709525435340e-02,-6.727575986431480470e-02,-6.301083439234390904e-02,-5.874590892037302725e-02,-5.448098344840215934e-02,-5.021605797643129143e-02,-4.608871074549172886e-02,-4.182378527352084707e-02,-3.755885980154996528e-02,-3.329393432957909738e-02,-2.916658709863954868e-02,-2.490166162666866689e-02,-2.063673615469778511e-02,-1.637181068272690332e-02,-1.210688521075602153e-02,-7.979537979816486715e-03,-3.714612507845604927e-03,-7.861613773216258316e-05,-1.531049282334244477e-02,-3.417836587906615542e-02,-5.367516803664729164e-02,-7.317197019422844173e-02,-9.266877235180960570e-02,-1.121655745093907558e-01,-1.310334475651144526e-01,-1.360648803799741069e-01,-1.360648803799741069e-01,-1.360648803799741069e-01,-1.360648803799741069e-01,-1.360648803799741069e-01,-1.360648803799741069e-01,-1.360648803799741069e-01
-1.360648803799741069e-01,-1.319375331490345582e-01,-1.276726076770636764e-01,-1.234076822050927946e-01,-1.192803349741532321e-01,-1.150154095021823641e-01,-1.107504840302114824e-01,-1.064855585582406006e-01,-1.022206330862697188e-01,-9.809328585533017009e-02,-9.382836038335928830e-02,-8.956343491138842039e-02,-8.529850943941753860e-02,-8.117116220847797603e-02,-7.690623673650709424e-02,-7.264131126453622633e-02,-6.837638579256535842e-02,-6.424903856162578197e-02,-5.998411308965490019e-02,-5.571918761768403228e-02,-5.145426214571315049e-02,-4.718933667374228258e-02,-4.306198944280272001e-02,-3.879706397083183822e-02,-3.453213849886097031e-02,-3.026721302689008852e-02,-2.613986579595052595e-02,-2.187494032397965804e-02,-1.761001485200877625e-02,-1.334508938003789447e-02,-9.080163908067040435e-03,-4.952816677127491740e-03,-6.878912051566099528e-04,-1.088833507590719618e-02,-2.914693306420648722e-02,-4.801480611993019787e-02,-6.751160827751133409e-02,-8.700841043509249806e-02,-1.065052125926736482e-01,-1.253730856483973310e-01,-1.360648803799741069e-01,-1.360648803799741069e-01,-1.360648803799741069e-01,-1.360648803799741069e-01,-1.360648803799741069e-01,-1.360648803799741069e-01,-1.360648803799741069e-01
-1.360648803799741069e-01,-1.331757373183164173e-01,-1.289108118463455355e-01,-1.246458863743746537e-01,-1.203809609024037858e-01,-1.162536136714642232e-01,-1.119886881994933414e-01,-1.077237627275224735e-01,-1.034588372555515917e-01,-9.919391178358072381e-02,-9.506656455264114736e-02,-9.080163908067029332e-02,-8.653671360869941154e-02,-8.227178813672852975e-02,-7.814444090578898106e-02,-7.387951543381809927e-02,-6.961458996184721748e-02,-6.534966448987634957e-02,-6.122231725893677312e-02,-5.695739178696590521e-02,-5.269246631499502342e-02,-4.842754084302415551e-02,-4.416261537105328761e-02,-4.003526814011371115e-02,-3.577034266814282937e-02,-3.150541719617194758e-02,-2.724049172420106579e-02,-2.311314449326151710e-02,-1.884821902129063531e-02,-1.458329354931976740e-02,-1.031836807734887174e-02,-6.053442605378017705e-03,-1.926095374438469010e-03,-6.466177328471961472e-03,-2.348657114748937957e-02,-4.298337330507054355e-02,-6.185124636079424032e-02,-8.134804851837537654e-02,-1.008448506759565405e-01,-1.203416528335376906e-01,-1.360648803799741069e-01,-1.360648803799741069e-01,-1.360648803799741069e-01,-1.360648803799741069e-01,-1.360648803799741069e-01,-1.360648803799741069e-01,-1.360648803799741069e-01
-1.360648803799741069e-01,-1.342763632465669710e-01,-1.301490160156273945e-01,-1.258840905436565405e-01,-1.216191650716856587e-01,-1.173542395997147769e-01,-1.132268923687752143e-01,-1.089619668968043464e-01,-1.046970414248334647e-01,-1.004321159528625829e-01,-9.616719048089170108e-02,-9.203984324995215238e-02,-8.777491777798127059e-02,-8.350999230601038881e-02,-7.924506683403952090e-02,-7.511771960309995833e-02,-7.085279413112907654e-02,-6.658786865915820863e-02,-6.232294318718731296e-02,-5.819559595624777815e-02,-5.393067048427688248e-02,-4.966574501230602845e-02,-4.540081954033513278e-02,-4.113589406836426488e-02,-3.700854683742470230e-02,-3.274362136545383439e-02,-2.847869589348293873e-02,-2.421377042151207082e-02,-2.008642319057250825e-02,-1.582149771860162646e-02,-1.155657224663074467e-02,-7.291646774659876762e-03,-3.026721302689022730e-03,-2.044019581036699007e-03,-1.782620923077227193e-02,-3.732301138835343590e-02,-5.681981354593458600e-02,-7.568768660165828277e-02,-9.518448875923943286e-02,-1.146812909168205830e-01,-1.341780930744017331e-01,-1.360648803799741069e-01,-1.360648803799741069e-01,-1.360648803799741069e-01,-1.360648803799741069e-01,-1.360648803799741069e-01,-1.360648803799741069e-01
-1.360648803799741069e-01,-1.355145674158488300e-01,-1.312496419438779482e-01,-1.271222947129383996e-01,-1.228573692409675178e-01,-1.185924437689966360e-01,-1.143275182970257681e-01,-1.102001710660862055e-01,-1.059352455941153237e-01,-1.016703201221444558e-01,-9.740539465017357401e-02,-9.327804741923401144e-02,-8.901312194726314353e-02,-8.474819647529226174e-02,-8.048327100332139383e-02,-7.621834553135051205e-02,-7.209099830041094947e-02,-6.782607282844008156e-02,-6.356114735646919978e-02,-5.929622188449831799e-02,-5.516887465355875542e-02,-5.090394918158788751e-02,-4.663902370961700572e-02,-4.237409823764612393e-02,-3.810917276567524214e-02,-3.398182553473569345e-02,-2.971690006276481166e-02,-2.545197459079394375e-02,-2.118704911882306197e-02,-1.705970188788349939e-02,-1.279477641591261761e-02,-8.529850943941763575e-03,-4.264925471970881787e-03,0.000000000000000000e+00,-1.285373851921176036e-02,-3.166264947163631438e-02,-5.115945162921747835e-02,-7.065625378679861457e-02,-8.952412684252232522e-02,-1.090209290001034753e-01,-1.285177311576846393e-01,-1.360648803799741069e-01,-1.360648803799741069e-01,-1.360648803799741069e-01,-1.360648803799741069e-01,-1.360648803799741069e-01,-1.360648803799741069e-01
-1.360648803799741069e-01,-1.360648803799741069e-01,-1.324878461131598351e-01,-1.282229206411889533e-01,-1.240955734102493907e-01,-1.198306479382785089e-01,-1.155657224663076410e-01,-1.113007969943367592e-01,-1.071734497633971966e-01,-1.029085242914263287e-01,-9.864359881945544695e-02,-9.437867334748456516e-02,-9.011374787551368337e-02,-8.598640064457413468e-02,-8.172147517260325289e-02,-7.745654970063237110e-02,-7.319162422866148932e-02,-6.906427699772194062e-02,-6.479935152575105883e-02,-6.053442605378017705e-02,-5.626950058180930914e-02,-5.214215335086974656e-02,-4.787722787889887865e-02,-4.361230240692799687e-02,-3.934737693495711508e-02,-3.508245146298624717e-02,-3.095510423204667072e-02,-2.669017876007578893e-02,-2.242525328810493490e-02,-1.816032781613405311e-02,-1.403298058519449054e-02,-9.768055113223622632e-03,-5.503129641252740845e-03,-1.238204169281859057e-03,-8.922931632602659757e-03,-2.600228755491920674e-02,-4.549908971250035683e-02,-6.499589187008150692e-02,-8.449269402766267090e-02,-1.033605670833863677e-01,-1.228573692409675178e-01,-1.360648803799741069e-01,-1.360648803799741069e-01,-1.360648803799741069e-01,-1.360648803799741069e-01,-1.360648803799741069e-01,-1.360648803799741069e-01
-1.360648803799741069e-01,-1.360648803799741069e-01,-1.337260502824416941e-01,-1.294611248104708123e-01,-1.251961993384999305e-01,-1.210688521075603818e-01,-1.168039266355895001e-01,-1.125390011636186183e-01,-1.082740756916477365e-01,-1.041467284607081878e-01,-9.988180298873730600e-02,-9.561687751676642422e-02,-9.135195204479554243e-02,-8.708702657282467452e-02,-8.295967934188511195e-02,-7.869475386991424404e-02,-7.442982839794336225e-02,-7.016490292597249434e-02,-6.603755569503293177e-02,-6.177263022306204998e-02,-5.750770475109118207e-02,-5.324277927912030028e-02,-4.911543204818075159e-02,-4.485050657620986980e-02,-4.058558110423898801e-02,-3.632065563226810623e-02,-3.205573016029722444e-02,-2.792838292935767575e-02,-2.366345745738679396e-02,-1.939853198541592605e-02,-1.513360651344504426e-02,-1.100625928250548169e-02,-6.741333810534627657e-03,-2.476408338563745870e-03,-4.500773885167397292e-03,-2.097085474005956629e-02,-3.983872779578326306e-02,-5.933552995336439928e-02,-7.883233211094556325e-02,-9.832913426852671335e-02,-1.171970073242504101e-01,-1.360648803799741069e-01,-1.360648803799741069e-01,-1.360648803799741069e-01,-1.360648803799741069e-01,-1.360648803799741069e-01,-1.360648803799741069e-01
-1.360648803799741069e-01,-1.360648803799741069e-01,-1.349642544517235532e-01,-1.306993289797526714e-01,-1.264344035077817896e-01,-1.221694780358109217e-01,-1.180421308048713730e-01,-1.137772053329004912e-01,-1.095122798609296094e-01,-1.052473543889587415e-01,-3.970232935813336472e-01,-3.927583681093627654e-01,-3.884934426373919392e-01,-8.832523074210654745e-02,-8.406030527013566567e-02,-7.993295803919611697e-02,-7.566803256722523519e-02,-7.140310709525435340e-02,-6.713818162328347161e-02,-6.301083439234392292e-02,-5.874590892037304113e-02,-5.448098344840215934e-02,-5.021605797643129143e-02,-4.608871074549174274e-02,-4.182378527352084707e-02,-3.755885980154997916e-02,-3.329393432957909738e-02,-2.902900885760820171e-02,-2.490166162666866689e-02,-2.063673615469778511e-02,-1.637181068272690332e-02,-1.210688521075602153e-02,-7.979537979816458959e-03,-3.714612507845604927e-03,-7.861613773216258316e-05,-1.531049282334244477e-02,-3.480729498092360874e-02,-5.367516803664729164e-02,-7.317197019422845561e-02,-9.266877235180960570e-02,-1.121655745093907558e-01,-1.310334475651144526e-01,-1.360648803799741069e-01,-1.360648803799741069e-01,-1.360648803799741069e-01,-1.360648803799741069e-01,-1.360648803799741069e-01
-1.360648803799741069e-01,-1.360648803799741069e-01,-1.360648803799741069e-01,-1.319375331490345582e-01,-1.276726076770636764e-01,-1.234076822050927946e-01,-1.191427567331219128e-01,-1.150154095021823641e-01,-1.107504840302114824e-01,-1.064855585582406006e-01,-3.981239195095842009e-01,-3.939965722786446523e-01,-3.897316468066737705e-01,-8.956343491138840651e-02,-8.529850943941753860e-02,-8.117116220847797603e-02,-7.690623673650709424e-02,-7.264131126453622633e-02,-6.837638579256534455e-02,-6.411146032059446276e-02,-5.998411308965490019e-02,-5.571918761768404615e-02,-5.145426214571315049e-02,-4.718933667374228258e-02,-4.306198944280272001e-02,-3.879706397083185210e-02,-3.453213849886097031e-02,-3.026721302689008852e-02,-2.600228755491920674e-02,-2.187494032397965804e-02,-1.761001485200876238e-02,-1.334508938003789447e-02,-9.080163908067012679e-03,-4.952816677127463985e-03,-6.878912051565821972e-04,-1.088833507590719618e-02,-2.914693306420650110e-02,-4.864373522178765119e-02,-6.751160827751134796e-02,-8.700841043509248418e-02,-1.065052125926736482e-01,-1.260020147502547982e-01,-1.360648803799741069e-01,-1.360648803799741069e-01,-1.360648803799741069e-01,-1.360648803799741069e-01,-1.360648803799741069e-01
-1.360648803799741069e-01,-1.360648803799741069e-01,-1.360648803799741069e-01,-1.331757373183164173e-01,-1.289108118463455355e-01,-1.246458863743746676e-01,-1.203809609024037858e-01,-1.161160354304329179e-01,-1.119886881994933553e-01,-1.077237627275224735e-01,-3.993621236788660878e-01,-3.950971982068952060e-01,-3.909698509759556573e-01,-9.080163908067027945e-02,-8.653671360869939766e-02,-8.227178813672852975e-02,-7.800686266475764796e-02,-7.387951543381808539e-02,-6.961458996184721748e-02,-6.534966448987634957e-02,-6.108473901790546778e-02,-5.695739178696590521e-02,-5.269246631499502342e-02,-4.842754084302415551e-02,-4.416261537105327373e-02,-4.003526814011371115e-02,-3.577034266814284325e-02,-3.150541719617196146e-02,-2.724049172420107967e-02,-2.297556625223021176e-02,-1.884821902129064919e-02,-1.458329354931975352e-02,-1.031836807734889949e-02,-6.053442605378017705e-03,-1.926095374438441254e-03,-6.466177328471961472e-03,-2.348657114748937957e-02,-4.298337330507054355e-02,-6.248017546265169364e-02,-8.134804851837539041e-02,-1.008448506759565405e-01,-1.203416528335376906e-01,-1.360648803799741069e-01,-1.360648803799741069e-01,-1.360648803799741069e-01,-1.360648803799741069e-01,-1.360648803799741069e-01
-1.360648803799741069e-01,-1.360648803799741069e-01,-1.360648803799741069e-01,-1.342763632465669710e-01,-1.301490160156273945e-01,-1.258840905436565405e-01,-1.216191650716856587e-01,-1.173542395997147769e-01,-1.130893141277438951e-01,-1.089619668968043464e-01,-1.046970414248334647e-01,-1.004321159528625829e-01,-9.616719048089170108e-02,-9.203984324995215238e-02,-8.777491777798127059e-02,-8.350999230601038881e-02,-7.924506683403950702e-02,-7.498014136206863911e-02,-7.085279413112907654e-02,-6.658786865915820863e-02,-6.232294318718731296e-02,-5.805801771521645893e-02,-5.393067048427688248e-02,-4.966574501230601457e-02,-4.540081954033514666e-02,-4.113589406836426488e-02,-3.700854683742470230e-02,-3.274362136545382052e-02,-2.847869589348295261e-02,-2.421377042151205694e-02,-1.994884494954118903e-02,-1.582149771860162646e-02,-1.155657224663075855e-02,-7.291646774659876762e-03,-3.026721302689022730e-03,-2.044019581036699007e-03,-1.782620923077227193e-02,-3.732301138835344978e-02,-5.681981354593458600e-02,-7.631661570351573609e-02,-9.518448875923943286e-02,-1.146812909168205830e-01,-1.341780930744017331e-01,-1.360648803799741069e-01,-1.360648803799741069e-01,-1.360648803799741069e-01,-1.360648803799741069e-01
-1.360648803799741069e-01,-1.360648803799741069e-01,-1.360648803799741069e-01,-1.355145674158488300e-01,-1.312496419438779482e-01,-1.271222947129383996e-01,-1.228573692409675178e-01,-1.185924437689966360e-01,-1.143275182970257681e-01,-1.100625928250548863e-01,-1.059352455941153237e-01,-1.016703201221444558e-01,-9.740539465017357401e-02,-9.314046917820270610e-02,-8.901312194726314353e-02,-8.474819647529226174e-02,-8.048327100332139383e-02,-7.621834553135051205e-02,-7.195342005937963026e-02,-6.782607282844008156e-02,-6.356114735646919978e-02,-5.929622188449831799e-02,-5.503129641252745008e-02,-5.090394918158788751e-02,-4.663902370961701960e-02,-4.237409823764612393e-02,-3.810917276567525602e-02,-3.398182553473570733e-02,-2.971690006276481166e-02,-2.545197459079392988e-02,-2.118704911882306197e-02,-1.692212364685218018e-02,-1.279477641591261761e-02,-8.529850943941763575e-03,-4.264925471970881787e-03,2.775557561562891351e-17,-1.285373851921176036e-02,-3.166264947163632826e-02,-5.115945162921747835e-02,-7.065625378679862845e-02,-9.015305594437977854e-02,-1.090209290001034753e-01,-1.285177311576846393e-01,-1.360648803799741069e-01,-1.360648803799741069e-01,-1.360648803799741069e-01,-1.360648803799741069e-01
-1.360648803799741069e-01,-1.360648803799741069e-01,-1.360648803799741069e-01,-1.360648803799741069e-01,-1.324878461131598351e-01,-1.282229206411889533e-01,-1.240955734102493907e-01,-1.198306479382785089e-01,-1.155657224663076410e-01,-1.113007969943367592e-01,-1.070358715223658774e-01,-1.029085242914263149e-01,-9.864359881945544695e-02,-9.437867334748456516e-02,-9.011374787551368337e-02,-8.598640064457413468e-02,-8.172147517260325289e-02,-7.745654970063237110e-02,-7.319162422866150319e-02,-6.906427699772194062e-02,-6.479935152575105883e-02,-6.053442605378017705e-02,-5.626950058180930914e-02,-5.200457510983842735e-02,-4.787722787889887865e-02,-4.361230240692799687e-02,-3.934737693495711508e-02,-3.508245146298624717e-02,-3.095510423204668460e-02,-2.669017876007580281e-02,-2.242525328810493490e-02,-1.816032781613405311e-02,-1.389540234416317133e-02,-9.768055113223622632e-03,-5.503129641252740845e-03,-1.238204169281859057e-03,-8.922931632602659757e-03,-2.600228755491920674e-02,-4.549908971250037071e-02,-6.499589187008152080e-02,-8.449269402766265702e-02,-1.039894961852438210e-01,-1.228573692409675178e-01,-1.360648803799741069e-01,-1.360648803799741069e-01,-1.360648803799741069e-01,-1.360648803799741069e-01
-1.360648803799741069e-01,-1.360648803799741069e-01,-1.360648803799741069e-01,-1.360648803799741069e-01,-1.337260502824416941e-01,-1.294611248104708123e-01,-1.251961993384999305e-01,-1.210688521075603818e-01,-1.168039266355895001e-01,-1.125390011636186183e-01,-1.082740756916477504e-01,-1.040091502196768686e-01,-9.988180298873730600e-02,-9.561687751676642422e-02,-9.135195204479557018e-02,-8.708702657282467452e-02,-8.295967934188511195e-02,-7.869475386991424404e-02,-7.442982839794336225e-02,-7.016490292597249434e-02,-6.603755569503293177e-02,-6.177263022306204998e-02,-5.750770475109118207e-02,-5.324277927912030028e-02,-4.897785380714941850e-02,-4.485050657620986980e-02,-4.058558110423898801e-02,-3.632065563226810623e-02,-3.205573016029723832e-02,-2.792838292935767575e-02,-2.366345745738679396e-02,-1.939853198541591217e-02,-1.513360651344503038e-02,-1.086868104147414860e-02,-6.741333810534599902e-03,-2.476408338563745870e-03,-4.500773885167397292e-03,-2.097085474005956629e-02,-3.983872779578324919e-02,-5.933552995336439928e-02,-7.883233211094556325e-02,-9.832913426852671335e-02,-1.178259364261078634e-01,-1.360648803799741069e-01,-1.360648803799741069e-01,-1.360648803799741069e-01,-1.360648803799741069e-01
-1.360648803799741069e-01,-1.360648803799741069e-01,-1.360648803799741069e-01,-1.360648803799741069e-01,-1.349642544517235532e-01,-1.306993289797526714e-01,-1.264344035077817896e-01,-1.221694780358109217e-01,-1.180421308048713591e-01,-1.137772053329004912e-01,-1.095122798609296094e-01,-1.052473543889587415e-01,-1.009824289169878597e-01,-9.685508168604831103e-02,-9.259015621407742924e-02,-8.832523074210654745e-02,-8.406030527013566567e-02,-7.993295803919611697e-02,-7.566803256722523519e-02,-7.140310709525436728e-02,-6.713818162328348549e-02,-6.287325615131258982e-02,-5.874590892037304113e-02,-5.448098344840215934e-02,-5.021605797643129143e-02,-4.595113250446040964e-02,-4.182378527352084707e-02,-3.755885980154997916e-02,-3.329393432957911125e-02,-2.902900885760821559e-02,-2.490166162666866689e-02,-2.063673615469778511e-02,-1.637181068272690332e-02,-1.210688521075602153e-02,-7.841959738785153622e-03,-3.714612507845604927e-03,-7.861613773216258316e-05,-1.531049282334244477e-02,-3.480729498092360874e-02,-5.367516803664730551e-02,-7.317197019422844173e-02,-9.266877235180960570e-02,-1.121655745093907558e-01,-1.316623766669719198e-01,-1.360648803799741069e-01,-1.360648803799741069e-01,-1.360648803799741069e-01
-1.360648803799741069e-01,-1.360648803799741069e-01,-1.360648803799741069e-01,-1.360648803799741069e-01,-1.360648803799741069e-01,-1.319375331490345582e-01,-1.276726076770636764e-01,-1.234076822050927946e-01,-1.191427567331219128e-01,-1.150154095021823641e-01,-1.107504840302114824e-01,-1.064855585582406006e-01,-1.022206330862697188e-01,-9.795570761429883699e-02,-9.382836038335928830e-02,-8.956343491138840651e-02,-8.529850943941752472e-02,-8.103358396744667069e-02,-7.690623673650709424e-02,-7.264131126453621246e-02,-6.837638579256534455e-02,-6.411146032059446276e-02,-5.984653484862359485e-02,-5.571918761768404615e-02,-5.145426214571315049e-02,-4.718933667374229646e-02,-4.292441120177140079e-02,-3.879706397083183822e-02,-3.453213849886097031e-02,-3.026721302689010240e-02,-2.600228755491920674e-02,-2.187494032397965804e-02,-1.761001485200877625e-02,-1.334508938003789447e-02,-9.080163908067012679e-03,-4.815238436096158647e-03,-6.878912051565821972e-04,-1.088833507590722394e-02,-2.914693306420648722e-02,-4.864373522178765119e-02,-6.751160827751134796e-02,-8.700841043509249806e-02,-1.065052125926736482e-01,-1.260020147502547982e-01,-1.360648803799741069e-01,-1.360648803799741069e-01,-1.360648803799741069e-01
-1.360648803799741069e-01,-1.360648803799741069e-01,-1.360648803799741069e-01,-1.360648803799741069e-01,-1.360648803799741069e-01,-1.330381590772850842e-01,-1.289108118463455355e-01,-1.246458863743746537e-01,-1.203809609024037858e-01,-1.161160354304329040e-01,-1.119886881994933414e-01,-1.077237627275224735e-01,-1.034588372555515917e-01,-9.919391178358072381e-02,-9.492898631160984202e-02,-9.080163908067027945e-02,-8.653671360869941154e-02,-8.227178813672852975e-02,-7.800686266475764796e-02,-7.387951543381808539e-02,-6.961458996184723136e-02,-6.534966448987633569e-02,-6.108473901790545391e-02,-5.695739178696590521e-02,-5.269246631499503730e-02,-4.842754084302415551e-02,-4.416261537105325985e-02,-3.989768989908240582e-02,-3.577034266814282937e-02,-3.150541719617196146e-02,-2.724049172420106579e-02,-2.297556625223018401e-02,-1.884821902129064919e-02,-1.458329354931975352e-02,-1.031836807734889949e-02,-6.053442605378017705e-03,-1.788517133407135917e-03,-6.466177328471961472e-03,-2.348657114748937957e-02,-4.298337330507052967e-02,-6.248017546265169364e-02,-8.134804851837539041e-02,-1.008448506759565405e-01,-1.203416528335376906e-01,-1.360648803799741069e-01,-1.360648803799741069e-01,-1.360648803799741069e-01
-1.360648803799741069e-01,-1.360648803799741069e-01,-1.360648803799741069e-01,-1.360648803799741069e-01,-1.360648803799741069e-01,-1.342763632465669710e-01,-1.300114377745960892e-01,-1.258840905436565405e-01,-1.216191650716856587e-01,-1.173542395997147769e-01,-1.130893141277438951e-01,-1.089619668968043464e-01,-1.046970414248334647e-01,-1.004321159528625829e-01,-9.616719048089170108e-02,-9.190226500892083317e-02,-8.777491777798127059e-02,-8.350999230601038881e-02,-7.924506683403952090e-02,-7.498014136206863911e-02,-7.085279413112907654e-02,-6.658786865915820863e-02,-6.232294318718732684e-02,-5.805801771521645893e-02,-5.393067048427689636e-02,-4.966574501230602845e-02,-4.540081954033513278e-02,-4.113589406836426488e-02,-3.687096859639338309e-02,-3.274362136545382052e-02,-2.847869589348295261e-02,-2.421377042151207082e-02,-1.994884494954118903e-02,-1.582149771860162646e-02,-1.155657224663074467e-02,-7.291646774659876762e-03,-3.026721302688994975e-03,-2.535370441862860869e-03,-1.782620923077227193e-02,-3.732301138835343590e-02,-5.681981354593457212e-02,-7.631661570351572221e-02,-9.518448875923943286e-02,-1.146812909168205830e-01,-1.341780930744017331e-01,-1.360648803799741069e-01,-1.360648803799741069e-01
-1.360648803799741069e-01,-1.360648803799741069e-01,-1.360648803799741069e-01,-1.360648803799741069e-01,-1.360648803799741069e-01,-1.355145674158488300e-01,-1.312496419438779482e-01,-1.269847164719070665e-01,-1.228573692409675178e-01,-1.185924437689966360e-01,-1.143275182970257681e-01,-1.100625928250548863e-01,-1.059352455941153237e-01,-1.016703201221444558e-01,-9.740539465017357401e-02,-9.314046917820270610e-02,-8.887554370623182431e-02,-8.474819647529226174e-02,-8.048327100332139383e-02,-7.621834553135051205e-02,-7.195342005937963026e-02,-6.782607282844008156e-02,-6.356114735646919978e-02,-5.929622188449831799e-02,-5.503129641252745008e-02,-5.076637094055655441e-02,-4.663902370961700572e-02,-4.237409823764613781e-02,-3.810917276567525602e-02,-3.384424729370437424e-02,-2.971690006276481166e-02,-2.545197459079394375e-02,-2.118704911882306197e-02,-1.692212364685219406e-02,-1.279477641591261761e-02,-8.529850943941735819e-03,-4.264925471970881787e-03,2.775557561562891351e-17,-1.334508938003788059e-02,-3.166264947163632826e-02,-5.115945162921746447e-02,-7.065625378679862845e-02,-9.015305594437977854e-02,-1.090209290001034753e-01,-1.285177311576846393e-01,-1.360648803799741069e-01,-1.360648803799741069e-01
-1.360648803799741069e-01,-1.360648803799741069e-01,-1.360648803799741069e-01,-1.360648803799741069e-01,-1.360648803799741069e-01,-1.360648803799741069e-01,-1.324878461131598351e-01,-1.282229206411889533e-01,-1.239579951692180715e-01,-1.198306479382785089e-01,-1.155657224663076410e-01,-1.113007969943367592e-01,-1.070358715223658774e-01,-1.029085242914263287e-01,-9.864359881945544695e-02,-9.437867334748456516e-02,-9.011374787551368337e-02,-8.584882240354280158e-02,-8.172147517260325289e-02,-7.745654970063237110e-02,-7.319162422866148932e-02,-6.892669875669063528e-02,-6.479935152575105883e-02,-6.053442605378017705e-02,-5.626950058180932301e-02,-5.200457510983844123e-02,-4.773964963786755944e-02,-4.361230240692799687e-02,-3.934737693495711508e-02,-3.508245146298624717e-02,-3.081752599101536538e-02,-2.669017876007578893e-02,-2.242525328810492102e-02,-1.816032781613403924e-02,-1.389540234416317133e-02,-9.768055113223622632e-03,-5.503129641252740845e-03,-1.238204169281859057e-03,-8.922931632602659757e-03,-2.663121665677666006e-02,-4.549908971250035683e-02,-6.499589187008150692e-02,-8.449269402766265702e-02,-1.039894961852438210e-01,-1.228573692409675178e-01,-1.360648803799741069e-01,-1.360648803799741069e-01
-1.360648803799741069e-01,-1.360648803799741069e-01,-1.360648803799741069e-01,-1.360648803799741069e-01,-1.360648803799741069e-01,-1.360648803799741069e-01,-1.337260502824416941e-01,-1.294611248104708123e-01,-1.251961993384999305e-01,-1.209312738665290626e-01,-1.168039266355895001e-01,-1.125390011636186183e-01,-1.082740756916477504e-01,-1.040091502196768686e-01,-9.988180298873730600e-02,-9.561687751676642422e-02,-9.135195204479555631e-02,-8.708702657282467452e-02,-8.282210110085380661e-02,-7.869475386991424404e-02,-7.442982839794336225e-02,-7.016490292597249434e-02,-6.589997745400161255e-02,-6.177263022306204998e-02,-5.750770475109118207e-02,-5.324277927912030028e-02,-4.897785380714941850e-02,-4.485050657620986980e-02,-4.058558110423897414e-02,-3.632065563226810623e-02,-3.205573016029722444e-02,-2.779080468832635653e-02,-2.366345745738679396e-02,-1.939853198541591217e-02,-1.513360651344503038e-02,-1.086868104147414860e-02,-6.741333810534599902e-03,-2.476408338563745870e-03,-4.500773885167397292e-03,-2.097085474005953853e-02,-4.046765689764071638e-02,-5.933552995336441316e-02,-7.883233211094556325e-02,-9.832913426852671335e-02,-1.178259364261078634e-01,-1.360648803799741069e-01,-1.360648803799741069e-01
-1.360648803799741069e-01,-1.360648803799741069e-01,-1.360648803799741069e-01,-1.360648803799741069e-01,-1.360648803799741069e-01,-1.360648803799741069e-01,-1.349642544517235532e-01,-1.306993289797526714e-01,-1.264344035077817896e-01,-1.221694780358109217e-01,-1.179045525638400538e-01,-1.137772053329004912e-01,-1.095122798609296094e-01,-1.052473543889587415e-01,-1.009824289169878597e-01,-9.685508168604831103e-02,-9.259015621407742924e-02,-8.832523074210654745e-02,-8.406030527013566567e-02,-7.979537979816478388e-02,-7.566803256722523519e-02,-7.140310709525435340e-02,-6.713818162328347161e-02,-6.287325615131260370e-02,-5.874590892037304113e-02,-5.448098344840215934e-02,-5.021605797643129143e-02,-4.595113250446042352e-02,-4.182378527352084707e-02,-3.755885980154997916e-02,-3.329393432957909738e-02,-2.902900885760822947e-02,-2.476408338563733380e-02,-2.063673615469779898e-02,-1.637181068272690332e-02,-1.210688521075602153e-02,-7.841959738785153622e-03,-3.714612507845632683e-03,-7.861613773216258316e-05,-1.531049282334244477e-02,-3.480729498092360874e-02,-5.430409713850475883e-02,-7.317197019422845561e-02,-9.266877235180960570e-02,-1.121655745093907558e-01,-1.316623766669719198e-01,-1.360648803799741069e-01
-1.360648803799741069e-01,-1.360648803799741069e-01,-1.360648803799741069e-01,-1.360648803799741069e-01,-1.360648803799741069e-01,-1.360648803799741069e-01,-1.360648803799741069e-01,-1.319375331490345582e-01,-1.276726076770636764e-01,-1.234076822050927946e-01,-1.191427567331219128e-01,-1.148778312611510449e-01,-1.107504840302114824e-01,-1.064855585582406006e-01,-1.022206330862697188e-01,-9.795570761429885087e-02,-9.382836038335928830e-02,-8.956343491138840651e-02,-8.529850943941752472e-02,-8.103358396744665681e-02,-7.676865849547578891e-02,-7.264131126453621246e-02,-6.837638579256534455e-02,-6.411146032059447664e-02,-5.984653484862358097e-02,-5.571918761768404615e-02,-5.145426214571315049e-02,-4.718933667374228258e-02,-4.292441120177138691e-02,-3.879706397083183822e-02,-3.453213849886097031e-02,-3.026721302689008852e-02,-2.600228755491920674e-02,-2.173736208294833883e-02,-1.761001485200877625e-02,-1.334508938003789447e-02,-9.080163908067040435e-03,-4.815238436096158647e-03,-6.878912051565821972e-04,-1.088833507590719618e-02,-2.914693306420650110e-02,-4.864373522178763731e-02,-6.814053737936880129e-02,-8.700841043509249806e-02,-1.065052125926736482e-01,-1.260020147502547982e-01,-1.360648803799741069e-01
-1.360648803799741069e-01,-1.360648803799741069e-01,-1.360648803799741069e-01,-1.360648803799741069e-01,-1.360648803799741069e-01,-1.360648803799741069e-01,-1.360648803799741069e-01,-1.330381590772850842e-01,-1.289108118463455355e-01,-1.246458863743746537e-01,-1.203809609024037858e-01,-1.161160354304329179e-01,-1.118511099584620361e-01,-1.077237627275224735e-01,-1.034588372555515917e-01,-9.919391178358072381e-02,-9.492898631160984202e-02,-9.080163908067027945e-02,-8.653671360869941154e-02,-8.227178813672852975e-02,-7.800686266475764796e-02,-7.374193719278676618e-02,-6.961458996184721748e-02,-6.534966448987632182e-02,-6.108473901790545391e-02,-5.681981354593458600e-02,-5.269246631499502342e-02,-4.842754084302415551e-02,-4.416261537105327373e-02,-3.989768989908237806e-02,-3.563276442711151015e-02,-3.150541719617194758e-02,-2.724049172420107967e-02,-2.297556625223021176e-02,-1.871064078025932997e-02,-1.458329354931976740e-02,-1.031836807734887174e-02,-6.053442605378017705e-03,-1.788517133407135917e-03,-6.466177328471961472e-03,-2.348657114748939345e-02,-4.298337330507054355e-02,-6.248017546265169364e-02,-8.197697762023284374e-02,-1.030461025324576341e-01,-1.257465123026252074e-01,-1.360648803799741069e-01
-1.360648803799741069e-01,-1.360648803799741069e-01,-1.360648803799741069e-01,-1.360648803799741069e-01,-1.360648803799741069e-01,-1.360648803799741069e-01,-1.360648803799741069e-01,-1.342763632465669710e-01,-1.300114377745960892e-01,-1.258840905436565405e-01,-1.216191650716856587e-01,-1.173542395997147769e-01,-1.130893141277438951e-01,-1.088243886557730133e-01,-1.046970414248334647e-01,-1.004321159528625829e-01,-9.616719048089170108e-02,-9.190226500892083317e-02,-8.777491777798127059e-02,-8.350999230601038881e-02,-7.924506683403952090e-02,-7.498014136206863911e-02,-7.071521589009777120e-02,-6.658786865915820863e-02,-6.232294318718732684e-02,-5.805801771521644505e-02,-5.379309224324557714e-02,-4.966574501230601457e-02,-4.540081954033514666e-02,-4.113589406836426488e-02,-3.687096859639338309e-02,-3.274362136545383439e-02,-2.847869589348293873e-02,-2.421377042151207082e-02,-1.994884494954118903e-02,-1.568391947757030724e-02,-1.155657224663074467e-02,-7.291646774659876762e-03,-3.026721302688994975e-03,-2.535370441862860869e-03,-1.782620923077227193e-02,-5.892279523027045551e-02,-9.396593862439060751e-02,-1.211278142108595107e-01,-1.360648803799741069e-01,-1.360648803799741069e-01,-1.360648803799741069e-01
-1.360648803799741069e-01,-1.360648803799741069e-01,-1.360648803799741069e-01,-1.360648803799741069e-01,-1.360648803799741069e-01,-1.360648803799741069e-01,-1.360648803799741069e-01,-1.355145674158488300e-01,-1.312496419438779482e-01,-1.269847164719070665e-01,-1.228573692409675178e-01,-1.185924437689966360e-01,-1.143275182970257681e-01,-1.100625928250548863e-01,-1.057976673530840045e-01,-1.016703201221444558e-01,-9.740539465017357401e-02,-9.314046917820270610e-02,-8.887554370623182431e-02,-8.474819647529226174e-02,-8.048327100332137995e-02,-7.621834553135051205e-02,-7.195342005937963026e-02,-6.768849458740876235e-02,-6.356114735646919978e-02,-5.929622188449831799e-02,-5.503129641252743620e-02,-5.076637094055655441e-02,-4.663902370961700572e-02,-4.237409823764613781e-02,-3.810917276567524214e-02,-3.384424729370438811e-02,-2.971690006276482554e-02,-2.545197459079392988e-02,-2.118704911882306197e-02,-1.692212364685216630e-02,-1.265719817488131227e-02,-1.650079028369376422e-02,-4.957115997159698695e-02,-8.504055023748381681e-02,-1.245598999737300844e-01,-1.360648803799741069e-01,-1.360648803799741069e-01,-1.360648803799741069e-01,-1.360648803799741069e-01,-1.360648803799741069e-01,-1.360648803799741069e-01
-1.360648803799741069e-01,-1.360648803799741069e-01,-1.360648803799741069e-01,-1.360648803799741069e-01,-1.360648803799741069e-01,-1.360648803799741069e-01,-1.360648803799741069e-01,-1.360648803799741069e-01,-1.324878461131598351e-01,-1.282229206411889533e-01,-1.239579951692180715e-01,-1.198306479382785089e-01,-1.155657224663076410e-01,-1.113007969943367592e-01,-1.070358715223658774e-01,-1.027709460503949956e-01,-9.864359881945544695e-02,-9.437867334748456516e-02,-9.011374787551368337e-02,-8.584882240354281546e-02,-8.172147517260325289e-02,-7.745654970063237110e-02,-7.319162422866150319e-02,-6.892669875669063528e-02,-6.466177328471973962e-02,-6.053442605378016317e-02,-5.626950058180929526e-02,-5.200457510983842735e-02,-4.773964963786755944e-02,-4.361230240692798299e-02,-3.934737693495711508e-02,-3.508245146298624717e-02,-3.081752599101536538e-02,-2.669017876007580281e-02,-4.728392171445131020e-02,-7.711260409805408000e-02,-1.055225108710213661e-01,-1.360648803799741069e-01,-1.360648803799741069e-01,-1.360648803799741069e-01,-1.360648803799741069e-01,-1.360648803799741069e-01,-1.360648803799741069e-01,-1.360648803799741069e-01,-1.360648803799741069e-01,-1.360648803799741069e-01,-1.360648803799741069e-01
-1.360648803799741069e-01,-1.360648803799741069e-01,-1.360648803799741069e-01,-1.360648803799741069e-01,-1.360648803799741069e-01,-1.360648803799741069e-01,-1.360648803799741069e-01,-1.360648803799741069e-01,-1.337260502824416941e-01,-1.294611248104708123e-01,-1.251961993384999305e-01,-1.209312738665290626e-01,-1.168039266355895001e-01,-1.125390011636186183e-01,-1.082740756916477365e-01,-1.040091502196768686e-01,-9.974422474770600067e-02,-9.561687751676643809e-02,-9.135195204479557018e-02,-8.708702657282467452e-02,-8.282210110085380661e-02,-7.869475386991423016e-02,-7.442982839794336225e-02,-7.016490292597249434e-02,-6.589997745400161255e-02,-6.163505198203073077e-02,-5.750770475109118207e-02,-5.324277927912030028e-02,-4.897785380714941850e-02,-4.471292833517855059e-02,-4.655303730897242254e-02,-7.060773288929203528e-02,-9.706144904759528291e-02,-1.259141857838821377e-01,-1.360648803799741069e-01,-1.360648803799741069e-01,-1.360648803799741069e-01,-1.360648803799741069e-01,-1.360648803799741069e-01,-1.360648803799741069e-01,-1.360648803799741069e-01,-1.360648803799741069e-01,-1.360648803799741069e-01,-1.360648803799741069e-01,-1.360648803799741069e-01,-1.360648803799741069e-01,-1.360648803799741069e-01
-1.360648803799741069e-01,-1.360648803799741069e-01,-1.360648803799741069e-01,-1.360648803799741069e-01,-1.360648803799741069e-01,-1.360648803799741069e-01,-1.360648803799741069e-01,-1.360648803799741069e-01,-1.348266762106922478e-01,-1.306993289797526714e-01,-1.264344035077817896e-01,-1.221694780358109217e-01,-1.179045525638400538e-01,-1.137772053329004912e-01,-1.095122798609296094e-01,-1.052473543889587415e-01,-1.009824289169878597e-01,-9.671750344501697794e-02,-9.259015621407742924e-02,-8.832523074210654745e-02,-8.406030527013566567e-02,-7.979537979816478388e-02,-7.566803256722523519e-02,-7.140310709525435340e-02,-6.713818162328347161e-02,-6.287325615131260370e-02,-5.860833067934172191e-02,-7.232746090218353241e-02,-9.314046917820270610e-02,-1.135364434110956861e-01,-1.360648803799741069e-01,-1.360648803799741069e-01,-1.360648803799741069e-01,-1.360648803799741069e-01,-1.360648803799741069e-01,-1.360648803799741069e-01,-1.360648803799741069e-01,-1.360648803799741069e-01,-1.360648803799741069e-01,-1.360648803799741069e-01,-1.360648803799741069e-01,-1.360648803799741069e-01,-1.360648803799741069e-01,-1.360648803799741069e-01,-1.360648803799741069e-01,-1.360648803799741069e-01,-1.360648803799741069e-01
