-5.593988422332231425e-02,-5.593988422332231425e-02,-5.593988422332231425e-02,-5.593988422332231425e-02,-5.593988422332231425e-02,-5.593988422332231425e-02,-5.593988422332231425e-02,-5.593988422332231425e-02,-5.593988422332231425e-02,-5.593988422332231425e-02,-5.593988422332231425e-02,-5.593988422332231425e-02,-5.593988422332231425e-02,-5.593988422332231425e-02,-5.593988422332231425e-02,-5.593988422332231425e-02,-5.593988422332231425e-02,-5.593988422332231425e-02,-5.593988422332231425e-02,-5.593988422332231425e-02,-4.195491316749173916e-02,-1.048872829187294520e-02,-1.387778780781445676e-17,-1.387778780781445676e-17,-1.387778780781445676e-17,-1.387778780781445676e-17,-1.387778780781445676e-17,-1.387778780781445676e-17,-1.387778780781445676e-17,-1.387778780781445676e-17,-1.387778780781445676e-17,-1.387778780781445676e-17,-1.387778780781445676e-17,-1.387778780781445676e-17,-1.387778780781445676e-17,-1.387778780781445676e-17,-3.496242763957645161e-02,-5.593988422332231425e-02,-5.593988422332231425e-02,-5.593988422332231425e-02,-5.593988422332231425e-02,-5.593988422332231425e-02,-5.593988422332231425e-02,-5.593988422332231425e-02,-5.593988422332231425e-02,-5.593988422332231425e-02,-5.593988422332231425e-02
-5.593988422332231425e-02,-5.593988422332231425e-02,-5.593988422332231425e-02,-5.593988422332231425e-02,-5.593988422332231425e-02,-5.593988422332231425e-02,-5.593988422332231425e-02,-5.593988422332231425e-02,-5.593988422332231425e-02,-5.593988422332231425e-02,-5.593988422332231425e-02,-5.593988422332231425e-02,-5.593988422332231425e-02,-5.593988422332231425e-02,-5.593988422332231425e-02,-5.593988422332231425e-02,-5.593988422332231425e-02,-5.593988422332231425e-02,-5.593988422332231425e-02,-2.796994211166116406e-02,-1.387778780781445676e-17,-1.387778780781445676e-17,-1.387778780781445676e-17,-1.387778780781445676e-17,-1.387778780781445676e-17,-1.387778780781445676e-17,-1.387778780781445676e-17,-1.387778780781445676e-17,-1.387778780781445676e-17,-1.387778780781445676e-17,-1.387778780781445676e-17,-1.387778780781445676e-17,-1.387778780781445676e-17,-1.387778780781445676e-17,-1.387778780781445676e-17,-1.387778780781445676e-17,-3.496242763957657651e-03,-5.069552007738584859e-02,-5.593988422332231425e-02,-5.593988422332231425e-02,-5.593988422332231425e-02,-5.593988422332231425e-02,-5.593988422332231425e-02,-5.593988422332231425e-02,-5.593988422332231425e-02,-5.593988422332231425e-02,-5.593988422332231425e-02
-5.593988422332231425e-02,-5.593988422332231425e-02,-5.593988422332231425e-02,-5.593988422332231425e-02,-5.593988422332231425e-02,-5.593988422332231425e-02,-5.593988422332231425e-02,-5.593988422332231425e-02,-5.593988422332231425e-02,-5.593988422332231425e-02,-5.593988422332231425e-02,-5.593988422332231425e-02,-5.593988422332231425e-02,-5.593988422332231425e-02,-5.593988422332231425e-02,-5.593988422332231425e-02,-5.593988422332231425e-02,-4.370303454947056104e-02,-1.223684967385176708e-02,-1.387778780781445676e-17,-6.938893903907228378e-18,-1.387778780781445676e-17,-1.387778780781445676e-17,-1.387778780781445676e-17,-1.387778780781445676e-17,-1.387778780781445676e-17,-1.387778780781445676e-17,-1.387778780781445676e-17,-1.387778780781445676e-17,-1.387778780781445676e-17,-1.387778780781445676e-17,-1.387778780781445676e-17,-1.387778780781445676e-17,-1.387778780781445676e-17,-1.387778780781445676e-17,-1.387778780781445676e-17,-1.387778780781445676e-17,-1.922933520176705463e-02,-5.593988422332231425e-02,-5.593988422332231425e-02,-5.593988422332231425e-02,-5.593988422332231425e-02,-3.234628775383976973e-01,-3.234628775383976973e-01,-3.234628775383976973e-01,-3.234628775383976973e-01,-3.234628775383976973e-01
-5.593988422332231425e-02,-5.593988422332231425e-02,-5.593988422332231425e-02,-5.593988422332231425e-02,-5.593988422332231425e-02,-5.593988422332231425e-02,-5.593988422332231425e-02,-5.593988422332231425e-02,-5.593988422332231425e-02,-5.593988422332231425e-02,-5.593988422332231425e-02,-5.593988422332231425e-02,-5.593988422332231425e-02,-5.593988422332231425e-02,-5.593988422332231425e-02,-5.593988422332231425e-02,-2.796994211166116406e-02,-1.387778780781445676e-17,-1.387778780781445676e-17,-1.387778780781445676e-17,-1.387778780781445676e-17,-1.387778780781445676e-17,-1.387778780781445676e-17,-1.387778780781445676e-17,-1.387778780781445676e-17,-1.387778780781445676e-17,-1.387778780781445676e-17,-1.387778780781445676e-17,-1.387778780781445676e-17,-1.387778780781445676e-17,-1.387778780781445676e-17,-1.387778780781445676e-17,-1.387778780781445676e-17,-1.387778780781445676e-17,-1.387778780781445676e-17,-1.387778780781445676e-17,-1.387778780781445676e-17,-1.387778780781445676e-17,-3.321430625759762972e-02,-5.593988422332231425e-02,-5.593988422332231425e-02,-5.593988422332231425e-02,-3.234628775383976973e-01,-3.234628775383976973e-01,-3.234628775383976973e-01,-3.234628775383976973e-01,-3.234628775383976973e-01
-5.593988422332231425e-02,-5.593988422332231425e-02,-5.593988422332231425e-02,-5.593988422332231425e-02,-5.593988422332231425e-02,-5.593988422332231425e-02,-5.593988422332231425e-02,-5.593988422332231425e-02,-5.593988422332231425e-02,-5.593988422332231425e-02,-5.593988422332231425e-02,-5.593988422332231425e-02,-5.593988422332231425e-02,-5.593988422332231425e-02,-4.370303454947056104e-02,-1.223684967385176708e-02,-1.387778780781445676e-17,-1.387778780781445676e-17,-1.387778780781445676e-17,-1.387778780781445676e-17,-1.387778780781445676e-17,-1.387778780781445676e-17,-1.387778780781445676e-17,-1.387778780781445676e-17,-1.387778780781445676e-17,-1.387778780781445676e-17,-1.387778780781445676e-17,-2.081668171172168513e-17,-1.387778780781445676e-17,-1.387778780781445676e-17,-1.387778780781445676e-17,-1.387778780781445676e-17,-1.387778780781445676e-17,-1.387778780781445676e-17,-1.387778780781445676e-17,-1.387778780781445676e-17,-1.387778780781445676e-17,-1.387778780781445676e-17,-3.496242763957657651e-03,-4.894739869540702670e-02,-5.593988422332231425e-02,-5.593988422332231425e-02,-3.234628775383976973e-01,-3.234628775383976973e-01,-3.234628775383976973e-01,-3.234628775383976973e-01,-3.234628775383976973e-01
-5.593988422332231425e-02,-5.593988422332231425e-02,-5.593988422332231425e-02,-5.593988422332231425e-02,-5.593988422332231425e-02,-5.593988422332231425e-02,-5.593988422332231425e-02,-5.593988422332231425e-02,-5.593988422332231425e-02,-5.593988422332231425e-02,-5.593988422332231425e-02,-5.593988422332231425e-02,-5.593988422332231425e-02,-2.971806349363998595e-02,-1.387778780781445676e-17,-1.387778780781445676e-17,-1.387778780781445676e-17,-1.387778780781445676e-17,-1.387778780781445676e-17,-1.387778780781445676e-17,-1.387778780781445676e-17,-1.387778780781445676e-17,-1.387778780781445676e-17,-1.387778780781445676e-17,-1.387778780781445676e-17,-1.387778780781445676e-17,-1.387778780781445676e-17,-1.387778780781445676e-17,0.000000000000000000e+00,-1.387778780781445676e-17,-1.387778780781445676e-17,-1.387778780781445676e-17,-1.387778780781445676e-17,-1.387778780781445676e-17,-1.387778780781445676e-17,-1.387778780781445676e-17,-1.387778780781445676e-17,-1.387778780781445676e-17,-1.387778780781445676e-17,-1.748121381978823274e-02,-5.593988422332231425e-02,-5.593988422332231425e-02,-3.234628775383976973e-01,-3.234628775383976973e-01,-3.234628775383976973e-01,-3.234628775383976973e-01,-3.234628775383976973e-01
-5.593988422332231425e-02,-5.593988422332231425e-02,-5.593988422332231425e-02,-5.593988422332231425e-02,-5.593988422332231425e-02,-5.593988422332231425e-02,-5.593988422332231425e-02,-5.593988422332231425e-02,-5.593988422332231425e-02,-5.593988422332231425e-02,-5.593988422332231425e-02,-4.545115593144938293e-02,-1.398497105583058897e-02,-1.387778780781445676e-17,-1.387778780781445676e-17,-1.387778780781445676e-17,-1.387778780781445676e-17,-1.387778780781445676e-17,-1.387778780781445676e-17,-1.387778780781445676e-17,-1.387778780781445676e-17,-1.387778780781445676e-17,-1.387778780781445676e-17,-1.387778780781445676e-17,-1.387778780781445676e-17,-1.387778780781445676e-17,-1.387778780781445676e-17,-1.387778780781445676e-17,-1.387778780781445676e-17,-1.387778780781445676e-17,-1.387778780781445676e-17,-1.387778780781445676e-17,-1.387778780781445676e-17,-1.387778780781445676e-17,-1.387778780781445676e-17,-1.387778780781445676e-17,-1.387778780781445676e-17,-1.387778780781445676e-17,-1.387778780781445676e-17,-1.387778780781445676e-17,-3.321430625759762972e-02,-5.593988422332231425e-02,-3.234628775383976973e-01,-3.234628775383976973e-01,-3.234628775383976973e-01,-3.234628775383976973e-01,-3.234628775383976973e-01
-5.593988422332231425e-02,-5.593988422332231425e-02,-5.593988422332231425e-02,-5.593988422332231425e-02,-5.593988422332231425e-02,-5.593988422332231425e-02,-5.593988422332231425e-02,-5.593988422332231425e-02,-5.593988422332231425e-02,-5.593988422332231425e-02,-2.971806349363998595e-02,-1.387778780781445676e-17,-1.387778780781445676e-17,-1.387778780781445676e-17,-1.387778780781445676e-17,-1.387778780781445676e-17,-1.387778780781445676e-17,-1.387778780781445676e-17,-1.387778780781445676e-17,-1.387778780781445676e-17,-1.387778780781445676e-17,-1.387778780781445676e-17,-1.387778780781445676e-17,-1.387778780781445676e-17,-1.387778780781445676e-17,-1.387778780781445676e-17,-1.387778780781445676e-17,-1.387778780781445676e-17,-1.387778780781445676e-17,-1.387778780781445676e-17,-1.387778780781445676e-17,-1.387778780781445676e-17,-1.387778780781445676e-17,-1.387778780781445676e-17,-1.387778780781445676e-17,-6.938893903907228378e-18,-1.387778780781445676e-17,-1.387778780781445676e-17,-1.387778780781445676e-17,-1.387778780781445676e-17,-1.748121381978828826e-03,-4.894739869540702670e-02,-5.593988422332231425e-02,-5.593988422332231425e-02,-5.593988422332231425e-02,-5.593988422332231425e-02,-5.593988422332231425e-02
-5.593988422332231425e-02,-5.593988422332231425e-02,-5.593988422332231425e-02,-5.593988422332231425e-02,-5.593988422332231425e-02,-5.593988422332231425e-02,-5.593988422332231425e-02,-5.593988422332231425e-02,-4.545115593144938293e-02,-1.398497105583058897e-02,-1.387778780781445676e-17,-1.387778780781445676e-17,-1.387778780781445676e-17,-1.387778780781445676e-17,-1.387778780781445676e-17,-1.387778780781445676e-17,-1.387778780781445676e-17,-1.387778780781445676e-17,-1.387778780781445676e-17,-1.387778780781445676e-17,-1.387778780781445676e-17,-1.387778780781445676e-17,-1.387778780781445676e-17,-1.387778780781445676e-17,-1.387778780781445676e-17,-1.387778780781445676e-17,-1.387778780781445676e-17,-1.387778780781445676e-17,-1.387778780781445676e-17,-1.387778780781445676e-17,-1.387778780781445676e-17,-1.387778780781445676e-17,-2.081668171172168513e-17,-1.387778780781445676e-17,-1.387778780781445676e-17,-1.387778780781445676e-17,-1.387778780781445676e-17,-1.387778780781445676e-17,-1.387778780781445676e-17,-1.387778780781445676e-17,-1.028306695281810956e-04,-1.882443944049989881e-02,-5.593988422332231425e-02,-5.593988422332231425e-02,-5.593988422332231425e-02,-5.593988422332231425e-02,-5.593988422332231425e-02
-5.593988422332231425e-02,-5.593988422332231425e-02,-5.593988422332231425e-02,-5.593988422332231425e-02,-5.593988422332231425e-02,-5.593988422332231425e-02,-5.593988422332231425e-02,-3.146618487561880784e-02,-1.387778780781445676e-17,-1.387778780781445676e-17,-1.387778780781445676e-17,-1.387778780781445676e-17,-1.387778780781445676e-17,-1.387778780781445676e-17,-1.387778780781445676e-17,-1.387778780781445676e-17,-1.387778780781445676e-17,-1.387778780781445676e-17,-1.387778780781445676e-17,-1.387778780781445676e-17,-1.387778780781445676e-17,-1.387778780781445676e-17,-1.387778780781445676e-17,-1.387778780781445676e-17,-1.387778780781445676e-17,-1.387778780781445676e-17,-1.387778780781445676e-17,-1.387778780781445676e-17,-1.387778780781445676e-17,-1.387778780781445676e-17,-1.387778780781445676e-17,-1.387778780781445676e-17,-1.387778780781445676e-17,-1.387778780781445676e-17,-6.938893903907228378e-18,-1.387778780781445676e-17,-1.387778780781445676e-17,-1.387778780781445676e-17,-1.387778780781445676e-17,-1.028306695281672178e-03,-2.879258746788654344e-03,-4.730210798295650387e-03,-3.588790366532994269e-02,-5.593988422332231425e-02,-5.593988422332231425e-02,-5.593988422332231425e-02,-5.593988422332231425e-02
-5.593988422332231425e-02,-5.593988422332231425e-02,-5.593988422332231425e-02,-5.593988422332231425e-02,-5.593988422332231425e-02,-4.719927731342820482e-02,-1.573309243780941086e-02,-1.387778780781445676e-17,-6.938893903907228378e-18,-1.387778780781445676e-17,-1.387778780781445676e-17,-1.387778780781445676e-17,-1.387778780781445676e-17,-6.938893903907228378e-18,-1.387778780781445676e-17,-1.387778780781445676e-17,-1.387778780781445676e-17,-1.387778780781445676e-17,-1.387778780781445676e-17,-1.387778780781445676e-17,-1.387778780781445676e-17,-1.387778780781445676e-17,-1.387778780781445676e-17,-1.387778780781445676e-17,-1.387778780781445676e-17,-1.387778780781445676e-17,-1.387778780781445676e-17,-1.387778780781445676e-17,-1.387778780781445676e-17,-1.387778780781445676e-17,-1.387778780781445676e-17,-6.938893903907228378e-18,-1.387778780781445676e-17,-1.387778780781445676e-17,-1.387778780781445676e-17,-6.938893903907228378e-18,-1.387778780781445676e-17,-1.028306695281810956e-04,-1.953782721035163261e-03,-3.804734772542159305e-03,-5.552856154520974252e-03,-7.403808206027970296e-03,-1.071367038146581185e-02,-4.893454486171600754e-02,-5.593988422332231425e-02,-5.593988422332231425e-02,-5.593988422332231425e-02
-5.593988422332231425e-02,-5.593988422332231425e-02,-5.593988422332231425e-02,-5.593988422332231425e-02,-3.146618487561880784e-02,-1.387778780781445676e-17,-1.387778780781445676e-17,-1.387778780781445676e-17,-1.387778780781445676e-17,-1.387778780781445676e-17,-6.938893903907228378e-18,-1.387778780781445676e-17,-1.387778780781445676e-17,-1.387778780781445676e-17,-1.387778780781445676e-17,-1.387778780781445676e-17,-1.387778780781445676e-17,-1.387778780781445676e-17,-1.387778780781445676e-17,-1.387778780781445676e-17,-1.387778780781445676e-17,-1.387778780781445676e-17,-1.387778780781445676e-17,-1.387778780781445676e-17,-1.387778780781445676e-17,-1.387778780781445676e-17,-1.387778780781445676e-17,-1.387778780781445676e-17,-2.081668171172168513e-17,-1.387778780781445676e-17,-1.387778780781445676e-17,-1.387778780781445676e-17,-1.387778780781445676e-17,-1.387778780781445676e-17,-1.387778780781445676e-17,-1.387778780781445676e-17,-1.028306695281672178e-03,-2.776428077260494065e-03,-4.627380128767483169e-03,-6.478332180274472274e-03,-8.329284231781461378e-03,-1.018023628328844354e-02,-1.203118833479543265e-02,-2.571088084046426608e-02,-5.593988422332231425e-02,-5.593988422332231425e-02,-5.593988422332231425e-02
-5.593988422332231425e-02,-5.593988422332231425e-02,-4.719927731342820482e-02,-1.573309243780941086e-02,-1.387778780781445676e-17,-1.387778780781445676e-17,-1.387778780781445676e-17,-1.387778780781445676e-17,-1.387778780781445676e-17,-1.387778780781445676e-17,-1.387778780781445676e-17,-1.387778780781445676e-17,-1.387778780781445676e-17,-1.387778780781445676e-17,-1.387778780781445676e-17,-1.387778780781445676e-17,-2.081668171172168513e-17,-1.387778780781445676e-17,-1.387778780781445676e-17,-1.387778780781445676e-17,-1.387778780781445676e-17,-1.387778780781445676e-17,-1.387778780781445676e-17,-1.387778780781445676e-17,-1.387778780781445676e-17,-1.387778780781445676e-17,-1.387778780781445676e-17,-1.387778780781445676e-17,-1.387778780781445676e-17,-1.387778780781445676e-17,-1.387778780781445676e-17,-1.387778780781445676e-17,-1.387778780781445676e-17,-1.387778780781445676e-17,-1.387778780781445676e-17,-1.850952051507002982e-03,-3.701904103013992087e-03,-5.552856154520974252e-03,-7.403808206027970296e-03,-9.254760257534952461e-03,-1.100288163951377435e-02,-1.285383369102075651e-02,-1.470478574252775256e-02,-1.655573779403474166e-02,-3.951911168304331201e-02,-5.593988422332231425e-02,-5.593988422332231425e-02
-5.593988422332231425e-02,-3.146618487561880784e-02,-1.748121381978835764e-03,-1.387778780781445676e-17,-1.387778780781445676e-17,-1.387778780781445676e-17,-1.387778780781445676e-17,-1.387778780781445676e-17,-1.387778780781445676e-17,-1.387778780781445676e-17,-1.387778780781445676e-17,-1.387778780781445676e-17,-1.387778780781445676e-17,-1.387778780781445676e-17,-1.387778780781445676e-17,-1.387778780781445676e-17,-1.387778780781445676e-17,-1.387778780781445676e-17,-1.387778780781445676e-17,-1.387778780781445676e-17,-1.387778780781445676e-17,-1.387778780781445676e-17,-1.387778780781445676e-17,-1.387778780781445676e-17,-1.387778780781445676e-17,-1.387778780781445676e-17,-1.387778780781445676e-17,-1.387778780781445676e-17,-1.387778780781445676e-17,-1.387778780781445676e-17,-1.387778780781445676e-17,-1.387778780781445676e-17,-1.387778780781445676e-17,-9.254760257535049606e-04,-2.776428077260494065e-03,-4.627380128767483169e-03,-6.478332180274472274e-03,-8.226453562253294161e-03,-1.007740561376028327e-02,-1.192835766526726543e-02,-1.377930971677425454e-02,-1.563026176828124364e-02,-1.748121381978823274e-02,-1.933216587129522185e-02,-2.108028725327404374e-02,-5.078228345480023664e-02,-5.593988422332231425e-02
-1.748121381978823274e-02,-1.387778780781445676e-17,-1.387778780781445676e-17,-1.387778780781445676e-17,-1.387778780781445676e-17,-1.387778780781445676e-17,-1.387778780781445676e-17,-1.387778780781445676e-17,-1.387778780781445676e-17,-1.387778780781445676e-17,-1.387778780781445676e-17,-1.387778780781445676e-17,-1.387778780781445676e-17,-1.387778780781445676e-17,-1.387778780781445676e-17,-1.387778780781445676e-17,-1.387778780781445676e-17,-1.387778780781445676e-17,-1.387778780781445676e-17,-1.387778780781445676e-17,-1.387778780781445676e-17,-1.387778780781445676e-17,-1.387778780781445676e-17,-1.387778780781445676e-17,-1.387778780781445676e-17,-1.387778780781445676e-17,-1.387778780781445676e-17,-1.387778780781445676e-17,-1.387778780781445676e-17,-1.387778780781445676e-17,-1.387778780781445676e-17,-1.387778780781445676e-17,-1.850952051507002982e-03,-3.701904103013985148e-03,-5.450025484992813973e-03,-7.300977536499803078e-03,-9.151929588006792182e-03,-1.100288163951377435e-02,-1.285383369102076345e-02,-1.470478574252775256e-02,-1.655573779403474166e-02,-1.830385917601355661e-02,-2.015481122752054571e-02,-2.200576327902753482e-02,-2.385671533053451698e-02,-3.421047836865173664e-02,-5.593988422332231425e-02
-1.387778780781445676e-17,-1.387778780781445676e-17,-1.387778780781445676e-17,-1.387778780781445676e-17,-1.387778780781445676e-17,-1.387778780781445676e-17,-1.387778780781445676e-17,-1.387778780781445676e-17,-1.387778780781445676e-17,-2.081668171172168513e-17,-1.387778780781445676e-17,-1.387778780781445676e-17,-1.387778780781445676e-17,-1.387778780781445676e-17,-1.387778780781445676e-17,-1.387778780781445676e-17,-1.387778780781445676e-17,-1.387778780781445676e-17,-1.387778780781445676e-17,-1.387778780781445676e-17,-1.387778780781445676e-17,-1.387778780781445676e-17,-1.387778780781445676e-17,-1.387778780781445676e-17,-1.387778780781445676e-17,-1.387778780781445676e-17,-1.387778780781445676e-17,-1.387778780781445676e-17,-1.387778780781445676e-17,-1.387778780781445676e-17,-9.254760257535049606e-04,-2.673597407732326847e-03,-4.524549459239315952e-03,-6.375501510746305056e-03,-8.226453562253294161e-03,-1.007740561376027633e-02,-1.192835766526726543e-02,-1.377930971677425454e-02,-1.552743109875307642e-02,-1.737838315026006553e-02,-1.922933520176705463e-02,-2.108028725327404374e-02,-2.293123930478102590e-02,-2.478219135628801501e-02,-2.663314340779500758e-02,-2.838126478977382600e-02,-4.469277974367916184e-02
-1.387778780781445676e-17,-1.387778780781445676e-17,-1.387778780781445676e-17,-1.387778780781445676e-17,-1.387778780781445676e-17,-1.387778780781445676e-17,-1.387778780781445676e-17,-1.387778780781445676e-17,-1.387778780781445676e-17,-1.387778780781445676e-17,-1.387778780781445676e-17,-1.387778780781445676e-17,-1.387778780781445676e-17,-1.387778780781445676e-17,-1.387778780781445676e-17,-1.387778780781445676e-17,-1.387778780781445676e-17,-1.387778780781445676e-17,-1.387778780781445676e-17,-1.387778780781445676e-17,-1.387778780781445676e-17,-1.387778780781445676e-17,-1.387778780781445676e-17,-1.387778780781445676e-17,-1.387778780781445676e-17,-1.387778780781445676e-17,-1.387778780781445676e-17,-1.387778780781445676e-17,-1.387778780781445676e-17,-1.748121381978835764e-03,-3.599073433485824869e-03,-5.450025484992820912e-03,-7.300977536499803078e-03,-9.151929588006785243e-03,-1.100288163951377435e-02,-1.275100302149259623e-02,-1.460195507299959228e-02,-1.645290712450657444e-02,-1.830385917601356355e-02,-2.015481122752054571e-02,-2.200576327902753482e-02,-2.385671533053452392e-02,-2.560483671251334581e-02,-2.745578876402033491e-02,-2.930674081552732402e-02,-3.115769286703430965e-02,-3.300864491854130223e-02
-1.387778780781445676e-17,-1.387778780781445676e-17,-1.387778780781445676e-17,-1.387778780781445676e-17,-1.387778780781445676e-17,-1.387778780781445676e-17,-1.387778780781445676e-17,-1.387778780781445676e-17,-1.387778780781445676e-17,-1.387778780781445676e-17,-1.387778780781445676e-17,-1.387778780781445676e-17,-1.387778780781445676e-17,-1.387778780781445676e-17,-1.387778780781445676e-17,-1.387778780781445676e-17,-1.387778780781445676e-17,-1.387778780781445676e-17,-1.387778780781445676e-17,-1.387778780781445676e-17,-1.387778780781445676e-17,-6.938893903907228378e-18,-1.387778780781445676e-17,-1.387778780781445676e-17,-1.387778780781445676e-17,-1.387778780781445676e-17,-1.387778780781445676e-17,-8.226453562253377427e-04,-2.673597407732326847e-03,-4.524549459239315952e-03,-6.375501510746305056e-03,-8.226453562253294161e-03,-9.974574944232109108e-03,-1.182552699573909821e-02,-1.367647904724608732e-02,-1.552743109875308336e-02,-1.737838315026006553e-02,-1.922933520176706157e-02,-2.108028725327404374e-02,-2.282840863525286562e-02,-2.467936068675985473e-02,-2.653031273826684036e-02,-2.838126478977382600e-02,-3.023221684128081857e-02,-3.208316889278781114e-02,-3.393412094429479331e-02,-3.568224232627361520e-02
-1.387778780781445676e-17,-1.387778780781445676e-17,-1.387778780781445676e-17,-1.387778780781445676e-17,-1.387778780781445676e-17,-6.938893903907228378e-18,-1.387778780781445676e-17,-1.387778780781445676e-17,-1.387778780781445676e-17,-1.387778780781445676e-17,-1.387778780781445676e-17,-1.387778780781445676e-17,-1.387778780781445676e-17,-1.387778780781445676e-17,-1.387778780781445676e-17,-1.387778780781445676e-17,-1.387778780781445676e-17,-1.387778780781445676e-17,-1.387778780781445676e-17,-1.387778780781445676e-17,-1.387778780781445676e-17,-1.387778780781445676e-17,-1.387778780781445676e-17,-1.387778780781445676e-17,-1.387778780781445676e-17,-1.387778780781445676e-17,-1.748121381978828826e-03,-3.599073433485824869e-03,-5.347194815464646755e-03,-7.198146866971635860e-03,-9.049098918478618025e-03,-1.090005096998560713e-02,-1.275100302149258930e-02,-1.460195507299958534e-02,-1.645290712450657444e-02,-1.830385917601355661e-02,-2.005198055799237850e-02,-2.190293260949936760e-02,-2.375388466100635670e-02,-2.560483671251334581e-02,-2.745578876402033491e-02,-2.930674081552732402e-02,-3.115769286703430965e-02,-3.290581424901313501e-02,-3.475676630052011717e-02,-3.660771835202711322e-02,-3.845867040353409538e-02
-2.775557561562891351e-17,-1.387778780781445676e-17,-1.387778780781445676e-17,-1.387778780781445676e-17,-1.387778780781445676e-17,-1.387778780781445676e-17,-1.387778780781445676e-17,-1.387778780781445676e-17,-1.387778780781445676e-17,-1.387778780781445676e-17,-1.387778780781445676e-17,-1.387778780781445676e-17,-1.387778780781445676e-17,-1.387778780781445676e-17,-1.387778780781445676e-17,-1.387778780781445676e-17,-1.387778780781445676e-17,-1.387778780781445676e-17,-1.387778780781445676e-17,-1.387778780781445676e-17,-1.387778780781445676e-17,-1.387778780781445676e-17,-1.387778780781445676e-17,-1.387778780781445676e-17,-8.226453562253377427e-04,-2.570766738204159629e-03,-4.421718789711148734e-03,-6.272670841218144777e-03,-8.123622892725126943e-03,-9.974574944232109108e-03,-1.182552699573909821e-02,-1.367647904724609426e-02,-1.542460042922490920e-02,-1.727555248073189831e-02,-1.912650453223888741e-02,-2.097745658374587652e-02,-2.282840863525285868e-02,-2.467936068675984779e-02,-2.653031273826684383e-02,-2.838126478977382600e-02,-3.012938617175264788e-02,-3.198033822325963699e-02,-3.383129027476662609e-02,-3.568224232627360826e-02,-3.753319437778060430e-02,-3.938414642928758647e-02,-4.123509848079457557e-02
-1.387778780781445676e-17,-1.387778780781445676e-17,-1.387778780781445676e-17,-1.387778780781445676e-17,-1.387778780781445676e-17,-1.387778780781445676e-17,-1.387778780781445676e-17,-1.387778780781445676e-17,-1.387778780781445676e-17,-1.387778780781445676e-17,-1.387778780781445676e-17,-1.387778780781445676e-17,-1.387778780781445676e-17,-1.387778780781445676e-17,-1.387778780781445676e-17,-1.387778780781445676e-17,-2.081668171172168513e-17,-1.387778780781445676e-17,-1.387778780781445676e-17,-1.387778780781445676e-17,0.000000000000000000e+00,-1.387778780781445676e-17,-1.387778780781445676e-17,-1.645290712450668547e-03,-3.496242763957657651e-03,-5.347194815464646755e-03,-7.198146866971635860e-03,-9.049098918478618025e-03,-1.090005096998560713e-02,-1.264817235196443596e-02,-1.449912440347141812e-02,-1.635007645497840723e-02,-1.820102850648539633e-02,-2.005198055799237850e-02,-2.190293260949936760e-02,-2.375388466100635670e-02,-2.550200604298517859e-02,-2.735295809449216770e-02,-2.920391014599915680e-02,-3.105486219750614243e-02,-3.290581424901313501e-02,-3.475676630052011717e-02,-3.660771835202710628e-02,-3.845867040353409538e-02,-4.020679178551291727e-02,-4.205774383701990637e-02,-4.390869588852689548e-02
-1.387778780781445676e-17,-1.387778780781445676e-17,-1.387778780781445676e-17,-1.387778780781445676e-17,-1.387778780781445676e-17,-1.387778780781445676e-17,-1.387778780781445676e-17,-1.387778780781445676e-17,-2.081668171172168513e-17,-1.387778780781445676e-17,-1.387778780781445676e-17,-1.387778780781445676e-17,-1.387778780781445676e-17,-1.387778780781445676e-17,-1.387778780781445676e-17,-1.387778780781445676e-17,-1.387778780781445676e-17,-1.387778780781445676e-17,-1.387778780781445676e-17,-1.387778780781445676e-17,-1.387778780781445676e-17,-7.198146866971774638e-04,-2.570766738204159629e-03,-4.421718789711148734e-03,-6.272670841218144777e-03,-8.123622892725126943e-03,-9.871744274703948829e-03,-1.172269632621093099e-02,-1.357364837771792010e-02,-1.542460042922491614e-02,-1.727555248073190525e-02,-1.912650453223888741e-02,-2.097745658374587652e-02,-2.272557796572469840e-02,-2.457653001723168751e-02,-2.642748206873867314e-02,-2.827843412024566572e-02,-3.012938617175264788e-02,-3.198033822325963005e-02,-3.383129027476662609e-02,-3.557941165674544104e-02,-3.743036370825243708e-02,-3.928131575975941925e-02,-4.113226781126640835e-02,-4.298321986277339746e-02,-4.483417191428038656e-02,-4.668512396578737567e-02
-1.387778780781445676e-17,-6.938893903907228378e-18,-1.387778780781445676e-17,-1.387778780781445676e-17,-1.387778780781445676e-17,-1.387778780781445676e-17,-1.387778780781445676e-17,-1.387778780781445676e-17,-1.387778780781445676e-17,-1.387778780781445676e-17,-6.938893903907228378e-18,-1.387778780781445676e-17,-1.387778780781445676e-17,-1.387778780781445676e-17,-1.387778780781445676e-17,-1.387778780781445676e-17,-1.387778780781445676e-17,-1.387778780781445676e-17,-1.387778780781445676e-17,-1.387778780781445676e-17,-1.645290712450668547e-03,-3.496242763957650712e-03,-5.347194815464639817e-03,-7.095316197443468642e-03,-8.946268248950457747e-03,-1.079722030045743991e-02,-1.264817235196442902e-02,-1.449912440347141812e-02,-1.635007645497840723e-02,-1.820102850648539633e-02,-1.994914988846421822e-02,-2.180010193997120038e-02,-2.365105399147818949e-02,-2.550200604298517859e-02,-2.735295809449216770e-02,-2.920391014599915333e-02,-3.105486219750614243e-02,-3.280298357948496779e-02,-3.465393563099194996e-02,-3.650488768249894600e-02,-3.835583973400592817e-02,-4.020679178551291727e-02,-4.205774383701990637e-02,-4.390869588852689548e-02,-4.565681727050571737e-02,-4.750776932201269953e-02,-4.935872137351968864e-02
-1.387778780781445676e-17,-1.387778780781445676e-17,-1.387778780781445676e-17,-1.387778780781445676e-17,-1.387778780781445676e-17,-1.387778780781445676e-17,-1.387778780781445676e-17,-1.387778780781445676e-17,-1.387778780781445676e-17,-1.387778780781445676e-17,-1.387778780781445676e-17,-1.387778780781445676e-17,-1.387778780781445676e-17,-1.387778780781445676e-17,-1.387778780781445676e-17,-1.387778780781445676e-17,-1.387778780781445676e-17,-1.387778780781445676e-17,-7.198146866971774638e-04,-2.570766738204159629e-03,-4.318888120182988455e-03,-6.169840171689970620e-03,-8.020792223196959725e-03,-9.871744274703948829e-03,-1.172269632621093793e-02,-1.357364837771792010e-02,-1.542460042922490920e-02,-1.717272181120373109e-02,-1.902367386271072019e-02,-2.087462591421770930e-02,-2.272557796572469840e-02,-2.457653001723168751e-02,-2.642748206873867661e-02,-2.827843412024565878e-02,-3.002655550222448413e-02,-3.187750755373146977e-02,-3.372845960523845887e-02,-3.557941165674544798e-02,-3.743036370825243708e-02,-3.928131575975941925e-02,-4.113226781126640835e-02,-4.288038919324523024e-02,-4.473134124475221934e-02,-4.658229329625920845e-02,-4.843324534776619755e-02,-5.028419739927318666e-02,-5.213514945078016882e-02
-1.387778780781445676e-17,-1.387778780781445676e-17,-1.387778780781445676e-17,-1.387778780781445676e-17,-6.938893903907228378e-18,-1.387778780781445676e-17,-1.387778780781445676e-17,-1.387778780781445676e-17,-1.387778780781445676e-17,-1.387778780781445676e-17,-1.387778780781445676e-17,-1.387778780781445676e-17,-1.387778780781445676e-17,-1.387778780781445676e-17,-1.387778780781445676e-17,-1.387778780781445676e-17,-1.387778780781445676e-17,-1.542460042922501329e-03,-3.393412094429490433e-03,-5.244364145936479538e-03,-7.095316197443461703e-03,-8.946268248950450808e-03,-1.079722030045744685e-02,-1.264817235196442902e-02,-1.439629373394325090e-02,-1.624724578545024001e-02,-1.809819783695722911e-02,-1.994914988846421822e-02,-2.180010193997120038e-02,-2.365105399147819643e-02,-2.550200604298517859e-02,-2.725012742496400395e-02,-2.910107947647098958e-02,-3.095203152797797522e-02,-3.280298357948496779e-02,-3.465393563099194996e-02,-3.650488768249894600e-02,-3.835583973400592817e-02,-4.010396111598475005e-02,-4.195491316749173916e-02,-4.380586521899872826e-02,-4.565681727050571737e-02,-4.750776932201269953e-02,-4.935872137351968864e-02,-5.120967342502667774e-02,-5.295779480700549963e-02,-5.480874685851248873e-02
-1.387778780781445676e-17,-1.387778780781445676e-17,-1.387778780781445676e-17,-1.387778780781445676e-17,-1.387778780781445676e-17,-1.387778780781445676e-17,-1.387778780781445676e-17,-1.387778780781445676e-17,-1.387778780781445676e-17,-1.387778780781445676e-17,-1.387778780781445676e-17,-1.387778780781445676e-17,-1.387778780781445676e-17,-1.387778780781445676e-17,-1.387778780781445676e-17,-6.169840171690171848e-04,-2.467936068675999350e-03,-4.318888120182981516e-03,-6.169840171689970620e-03,-8.020792223196966664e-03,-9.871744274703948829e-03,-1.161986565668277072e-02,-1.347081770818975982e-02,-1.532176975969674199e-02,-1.717272181120373803e-02,-1.902367386271072019e-02,-2.087462591421770930e-02,-2.272557796572469840e-02,-2.447369934770352029e-02,-2.632465139921050939e-02,-2.817560345071749850e-02,-3.002655550222448413e-02,-3.187750755373146977e-02,-3.372845960523845887e-02,-3.557941165674544798e-02,-3.732753303872426986e-02,-3.917848509023125203e-02,-4.102943714173824807e-02,-4.288038919324523024e-02,-4.473134124475221934e-02,-4.658229329625920845e-02,-4.843324534776619755e-02,-5.018136672974501944e-02,-5.203231878125200854e-02,-5.388327083275899765e-02,-5.573422288426597981e-02,-5.593988422332231425e-02
-1.387778780781445676e-17,-1.387778780781445676e-17,-6.938893903907228378e-18,-2.081668171172168513e-17,-1.387778780781445676e-17,-1.387778780781445676e-17,-1.387778780781445676e-17,-1.387778780781445676e-17,-1.387778780781445676e-17,-1.387778780781445676e-17,-1.387778780781445676e-17,-1.387778780781445676e-17,-1.387778780781445676e-17,-1.387778780781445676e-17,-1.542460042922501329e-03,-3.393412094429490433e-03,-5.244364145936479538e-03,-6.992485527915301424e-03,-8.843437579422290529e-03,-1.069438963092927269e-02,-1.254534168243626180e-02,-1.439629373394325090e-02,-1.624724578545024001e-02,-1.809819783695722911e-02,-1.994914988846421822e-02,-2.169727127044303316e-02,-2.354822332195002227e-02,-2.539917537345701137e-02,-2.725012742496400048e-02,-2.910107947647098958e-02,-3.095203152797797869e-02,-3.280298357948496779e-02,-3.455110496146378968e-02,-3.640205701297077878e-02,-3.825300906447776095e-02,-4.010396111598475005e-02,-4.195491316749173916e-02,-4.380586521899872826e-02,-4.565681727050571737e-02,-4.740493865248453925e-02,-4.925589070399152142e-02,-5.110684275549851052e-02,-5.295779480700549963e-02,-5.480874685851248873e-02,-5.593988422332231425e-02,-5.593988422332231425e-02,-5.593988422332231425e-02
-1.387778780781445676e-17,-1.387778780781445676e-17,-1.387778780781445676e-17,-1.387778780781445676e-17,-1.387778780781445676e-17,-1.387778780781445676e-17,-1.387778780781445676e-17,-1.387778780781445676e-17,-1.387778780781445676e-17,-1.387778780781445676e-17,-1.387778780781445676e-17,-1.387778780781445676e-17,-6.169840171690102459e-04,-2.467936068675999350e-03,-4.216057450654814298e-03,-6.067009502161810341e-03,-7.917961553668799446e-03,-9.768913605175781611e-03,-1.161986565668277072e-02,-1.347081770818975288e-02,-1.532176975969674892e-02,-1.706989114167557081e-02,-1.892084319318255298e-02,-2.077179524468954208e-02,-2.262274729619652425e-02,-2.447369934770352029e-02,-2.632465139921050939e-02,-2.817560345071749850e-02,-2.992372483269631692e-02,-3.177467688420330949e-02,-3.362562893571029166e-02,-3.547658098721728076e-02,-3.732753303872426986e-02,-3.917848509023125897e-02,-4.102943714173824807e-02,-4.288038919324523024e-02,-4.462851057522405213e-02,-4.647946262673104123e-02,-4.833041467823803033e-02,-5.018136672974501944e-02,-5.203231878125200854e-02,-5.388327083275899765e-02,-5.573422288426597981e-02,-5.593988422332231425e-02,-5.593988422332231425e-02,-5.593988422332231425e-02,-5.593988422332231425e-02
-1.387778780781445676e-17,-1.387778780781445676e-17,-1.387778780781445676e-17,-1.387778780781445676e-17,-1.387778780781445676e-17,-1.387778780781445676e-17,-1.387778780781445676e-17,-1.387778780781445676e-17,-1.387778780781445676e-17,-1.387778780781445676e-17,-1.387778780781445676e-17,-1.439629373394341050e-03,-3.290581424901323215e-03,-5.141533476408319259e-03,-6.992485527915301424e-03,-8.843437579422283590e-03,-1.069438963092927269e-02,-1.254534168243625486e-02,-1.429346306441509062e-02,-1.614441511592207973e-02,-1.799536716742906189e-02,-1.984631921893605100e-02,-2.169727127044303316e-02,-2.354822332195002227e-02,-2.539917537345701484e-02,-2.714729675543584020e-02,-2.899824880694282236e-02,-3.084920085844981147e-02,-3.270015290995680057e-02,-3.455110496146378968e-02,-3.640205701297077878e-02,-3.825300906447776095e-02,-4.000113044645658283e-02,-4.185208249796357194e-02,-4.370303454947056104e-02,-4.555398660097755015e-02,-4.740493865248453925e-02,-4.925589070399152142e-02,-5.110684275549851052e-02,-5.285496413747733241e-02,-5.470591618898432151e-02,-5.593988422332231425e-02,-5.593988422332231425e-02,-5.593988422332231425e-02,-5.593988422332231425e-02,-5.593988422332231425e-02,-5.593988422332231425e-02
-1.387778780781445676e-17,-1.387778780781445676e-17,-1.387778780781445676e-17,-1.387778780781445676e-17,-1.387778780781445676e-17,-1.387778780781445676e-17,-1.387778780781445676e-17,-1.387778780781445676e-17,-1.387778780781445676e-17,-5.141533476408430281e-04,-2.365105399147832133e-03,-4.216057450654814298e-03,-6.067009502161810341e-03,-7.917961553668799446e-03,-9.768913605175774673e-03,-1.151703498715460350e-02,-1.336798703866158566e-02,-1.521893909016857477e-02,-1.706989114167556387e-02,-1.892084319318255992e-02,-2.077179524468954208e-02,-2.262274729619653119e-02,-2.437086867817535307e-02,-2.622182072968234218e-02,-2.807277278118933128e-02,-2.992372483269631692e-02,-3.177467688420330949e-02,-3.362562893571029166e-02,-3.547658098721728076e-02,-3.722470236919610265e-02,-3.907565442070309175e-02,-4.092660647221008086e-02,-4.277755852371706302e-02,-4.462851057522405906e-02,-4.647946262673104123e-02,-4.833041467823803033e-02,-5.007853606021685222e-02,-5.192948811172384133e-02,-5.378044016323083043e-02,-5.563139221473781953e-02,-5.593988422332231425e-02,-5.593988422332231425e-02,-5.593988422332231425e-02,-5.593988422332231425e-02,-5.593988422332231425e-02,-5.593988422332231425e-02,-5.593988422332231425e-02
-1.387778780781445676e-17,-1.387778780781445676e-17,-1.387778780781445676e-17,-1.387778780781445676e-17,-1.387778780781445676e-17,-1.387778780781445676e-17,-1.387778780781445676e-17,-1.387778780781445676e-17,-1.439629373394334111e-03,-3.290581424901323215e-03,-5.141533476408312320e-03,-6.992485527915301424e-03,-8.740606909894123311e-03,-1.059155896140111242e-02,-1.244251101290809458e-02,-1.429346306441508369e-02,-1.614441511592207973e-02,-1.799536716742906189e-02,-1.984631921893605100e-02,-2.159444060091487289e-02,-2.344539265242186199e-02,-2.529634470392884762e-02,-2.714729675543583326e-02,-2.899824880694282236e-02,-3.084920085844981147e-02,-3.270015290995680057e-02,-3.444827429193562246e-02,-3.629922634344261156e-02,-3.815017839494959373e-02,-4.000113044645658283e-02,-4.185208249796357194e-02,-4.370303454947056104e-02,-4.555398660097755015e-02,-4.730210798295637203e-02,-4.915306003446336114e-02,-5.100401208597034330e-02,-5.285496413747733241e-02,-5.470591618898432151e-02,-5.593988422332231425e-02,-5.593988422332231425e-02,-5.593988422332231425e-02,-5.593988422332231425e-02,-5.593988422332231425e-02,-5.593988422332231425e-02,-5.593988422332231425e-02,-5.593988422332231425e-02,-5.593988422332231425e-02
-3.146618487561880784e-02,-1.387778780781445676e-17,-1.387778780781445676e-17,-2.081668171172168513e-17,-1.387778780781445676e-17,-1.387778780781445676e-17,-5.141533476408430281e-04,-2.365105399147832133e-03,-4.216057450654821237e-03,-5.964178832633643124e-03,-7.815130884140632228e-03,-9.666082935647614394e-03,-1.151703498715460350e-02,-1.336798703866159260e-02,-1.521893909016858171e-02,-1.706989114167557081e-02,-1.881801252365439270e-02,-2.066896457516137486e-02,-2.251991662666836397e-02,-2.437086867817535307e-02,-2.622182072968234565e-02,-2.807277278118933128e-02,-2.992372483269631692e-02,-3.167184621467514227e-02,-3.352279826618212444e-02,-3.537375031768912048e-02,-3.722470236919610265e-02,-3.907565442070308481e-02,-4.092660647221008086e-02,-4.277755852371706302e-02,-4.452567990569589185e-02,-4.637663195720287401e-02,-4.822758400870986312e-02,-5.007853606021685222e-02,-5.192948811172384133e-02,-5.378044016323083043e-02,-5.563139221473781953e-02,-5.593988422332231425e-02,-5.593988422332231425e-02,-5.593988422332231425e-02,-5.593988422332231425e-02,-5.593988422332231425e-02,-5.593988422332231425e-02,-5.593988422332231425e-02,-5.593988422332231425e-02,-5.593988422332231425e-02,-5.593988422332231425e-02
-5.593988422332231425e-02,-1.573309243780941086e-02,-1.387778780781445676e-17,-1.387778780781445676e-17,-1.387778780781445676e-17,-1.336798703866173832e-03,-3.187750755373155997e-03,-5.038702806880145102e-03,-6.889654858387134206e-03,-8.740606909894123311e-03,-1.059155896140111242e-02,-1.244251101290809458e-02,-1.429346306441509062e-02,-1.604158444639391251e-02,-1.789253649790089468e-02,-1.974348854940788378e-02,-2.159444060091486595e-02,-2.344539265242185505e-02,-2.529634470392884762e-02,-2.714729675543583673e-02,-2.889541813741465515e-02,-3.074637018892164425e-02,-3.259732224042863336e-02,-3.444827429193562246e-02,-3.629922634344261156e-02,-3.815017839494959373e-02,-4.000113044645658283e-02,-4.174925182843540472e-02,-4.360020387994239383e-02,-4.545115593144938293e-02,-4.730210798295637203e-02,-4.915306003446336114e-02,-5.100401208597034330e-02,-5.285496413747733241e-02,-5.460308551945615430e-02,-5.593988422332231425e-02,-5.593988422332231425e-02,-5.593988422332231425e-02,-5.593988422332231425e-02,-5.593988422332231425e-02,-5.593988422332231425e-02,-5.593988422332231425e-02,-5.593988422332231425e-02,-5.593988422332231425e-02,-5.593988422332231425e-02,-5.593988422332231425e-02,-5.593988422332231425e-02
-5.593988422332231425e-02,-4.719927731342820482e-02,-1.387778780781445676e-17,-4.113226781126758103e-04,-2.262274729619664915e-03,-4.113226781126654019e-03,-5.964178832633643124e-03,-7.815130884140625289e-03,-9.666082935647614394e-03,-1.141420431762644322e-02,-1.326515636913342538e-02,-1.511610842064041449e-02,-1.696706047214740359e-02,-1.881801252365439270e-02,-2.066896457516138180e-02,-2.251991662666836397e-02,-2.437086867817535307e-02,-2.611899006015417843e-02,-2.796994211166116406e-02,-2.982089416316814970e-02,-3.167184621467514227e-02,-3.352279826618212444e-02,-3.537375031768912048e-02,-3.722470236919610265e-02,-3.897282375117492453e-02,-4.082377580268191364e-02,-4.267472785418890274e-02,-4.452567990569589185e-02,-4.637663195720287401e-02,-4.822758400870986312e-02,-5.007853606021685222e-02,-5.182665744219567411e-02,-5.367760949370266321e-02,-5.552856154520965232e-02,-5.593988422332231425e-02,-5.593988422332231425e-02,-5.593988422332231425e-02,-5.593988422332231425e-02,-5.593988422332231425e-02,-5.593988422332231425e-02,-5.593988422332231425e-02,-5.593988422332231425e-02,-5.593988422332231425e-02,-5.593988422332231425e-02,-5.593988422332231425e-02,-5.593988422332231425e-02,-5.593988422332231425e-02
-5.593988422332231425e-02,-5.593988422332231425e-02,-3.205103430856025282e-02,-3.187750755373155997e-03,-5.038702806880145102e-03,-6.889654858387141145e-03,-8.637776240365963032e-03,-1.048872829187294520e-02,-1.233968034337993430e-02,-1.419063239488692341e-02,-1.604158444639391251e-02,-1.789253649790089468e-02,-1.974348854940788378e-02,-2.149160993138670567e-02,-2.334256198289369477e-02,-2.519351403440068388e-02,-2.704446608590767298e-02,-2.889541813741465862e-02,-3.074637018892164425e-02,-3.259732224042863336e-02,-3.444827429193562246e-02,-3.619639567391444435e-02,-3.804734772542143345e-02,-3.989829977692842256e-02,-4.174925182843540472e-02,-4.360020387994239383e-02,-4.545115593144938293e-02,-4.730210798295637203e-02,-4.905022936493519392e-02,-5.090118141644217609e-02,-5.275213346794916519e-02,-5.460308551945615430e-02,-5.593988422332231425e-02,-5.593988422332231425e-02,-5.593988422332231425e-02,-5.593988422332231425e-02,-5.593988422332231425e-02,-5.593988422332231425e-02,-5.593988422332231425e-02,-5.593988422332231425e-02,-5.593988422332231425e-02,-5.593988422332231425e-02,-5.593988422332231425e-02,-5.593988422332231425e-02,-5.593988422332231425e-02,-5.593988422332231425e-02,-5.593988422332231425e-02
-5.593988422332231425e-02,-5.593988422332231425e-02,-5.593988422332231425e-02,-1.994593643004146516e-02,-7.712300214612458071e-03,-9.563252266119454115e-03,-1.141420431762643628e-02,-1.326515636913341845e-02,-1.511610842064041449e-02,-1.696706047214741053e-02,-1.871518185412622548e-02,-2.056613390563320765e-02,-2.241708595714019675e-02,-2.426803800864718585e-02,-2.611899006015417496e-02,-2.796994211166116406e-02,-2.982089416316814970e-02,-3.156901554514697505e-02,-3.341996759665396416e-02,-3.527091964816095326e-02,-3.712187169966793543e-02,-3.897282375117491759e-02,-4.082377580268191364e-02,-4.267472785418890274e-02,-4.442284923616772463e-02,-4.627380128767470679e-02,-4.812475333918170284e-02,-4.997570539068868500e-02,-5.182665744219567411e-02,-5.367760949370266321e-02,-5.552856154520965232e-02,-5.593988422332231425e-02,-5.593988422332231425e-02,-5.593988422332231425e-02,-5.593988422332231425e-02,-5.593988422332231425e-02,-5.593988422332231425e-02,-5.593988422332231425e-02,-5.593988422332231425e-02,-5.593988422332231425e-02,-5.593988422332231425e-02,-5.593988422332231425e-02,-5.593988422332231425e-02,-5.593988422332231425e-02,-5.593988422332231425e-02,-5.593988422332231425e-02,-5.593988422332231425e-02
-5.593988422332231425e-02,-5.593988422332231425e-02,-5.593988422332231425e-02,-4.854892985098538394e-02,-1.190907691473074015e-02,-1.233968034337993430e-02,-1.419063239488691647e-02,-1.593875377686574529e-02,-1.778970582837273440e-02,-1.964065787987971656e-02,-2.149160993138669873e-02,-2.334256198289369477e-02,-2.519351403440068388e-02,-2.704446608590767298e-02,-2.879258746788649140e-02,-3.064353951939347703e-02,-3.249449157090046614e-02,-3.434544362240745524e-02,-3.619639567391444435e-02,-3.804734772542142651e-02,-3.989829977692842256e-02,-4.164642115890723750e-02,-4.349737321041423355e-02,-4.534832526192121571e-02,-4.719927731342820482e-02,-4.905022936493519392e-02,-5.090118141644218303e-02,-5.275213346794916519e-02,-5.450025484992798708e-02,-5.593988422332231425e-02,-5.593988422332231425e-02,-5.593988422332231425e-02,-5.593988422332231425e-02,-5.593988422332231425e-02,-5.593988422332231425e-02,-5.593988422332231425e-02,-5.593988422332231425e-02,-5.593988422332231425e-02,-5.593988422332231425e-02,-5.593988422332231425e-02,-5.593988422332231425e-02,-5.593988422332231425e-02,-5.593988422332231425e-02,-5.593988422332231425e-02,-5.593988422332231425e-02,-5.593988422332231425e-02,-5.593988422332231425e-02
-5.593988422332231425e-02,-5.593988422332231425e-02,-5.593988422332231425e-02,-5.593988422332231425e-02,-3.856150107306226260e-02,-1.501327775111224727e-02,-1.686422980261923638e-02,-1.871518185412622548e-02,-2.056613390563321458e-02,-2.241708595714019675e-02,-2.426803800864718585e-02,-2.601615939062600774e-02,-2.786711144213299685e-02,-2.971806349363998248e-02,-3.156901554514697505e-02,-3.341996759665395722e-02,-3.527091964816095326e-02,-3.712187169966793543e-02,-3.886999308164675732e-02,-4.072094513315374642e-02,-4.257189718466073552e-02,-4.442284923616772463e-02,-4.627380128767471373e-02,-4.812475333918170284e-02,-4.997570539068868500e-02,-5.172382677266750689e-02,-5.357477882417449599e-02,-5.542573087568148510e-02,-5.593988422332231425e-02,-5.593988422332231425e-02,-5.593988422332231425e-02,-5.593988422332231425e-02,-5.593988422332231425e-02,-5.593988422332231425e-02,-5.593988422332231425e-02,-5.593988422332231425e-02,-5.593988422332231425e-02,-5.593988422332231425e-02,-5.593988422332231425e-02,-5.593988422332231425e-02,-5.593988422332231425e-02,-5.593988422332231425e-02,-5.593988422332231425e-02,-5.593988422332231425e-02,-5.593988422332231425e-02,-5.593988422332231425e-02,-5.593988422332231425e-02
-5.593988422332231425e-02,-5.593988422332231425e-02,-5.593988422332231425e-02,-5.593988422332231425e-02,-5.593988422332231425e-02,-2.971163657679447984e-02,-1.964065787987971656e-02,-2.149160993138670567e-02,-2.323973131336552755e-02,-2.509068336487251666e-02,-2.694163541637950576e-02,-2.879258746788649487e-02,-3.064353951939348050e-02,-3.249449157090046614e-02,-3.434544362240745524e-02,-3.609356500438627713e-02,-3.794451705589326623e-02,-3.979546910740024840e-02,-4.164642115890723750e-02,-4.349737321041423355e-02,-4.534832526192121571e-02,-4.719927731342820482e-02,-4.894739869540702670e-02,-5.079835074691401581e-02,-5.264930279842100491e-02,-5.450025484992798708e-02,-5.593988422332231425e-02,-5.593988422332231425e-02,-5.593988422332231425e-02,-5.593988422332231425e-02,-5.593988422332231425e-02,-5.593988422332231425e-02,-5.593988422332231425e-02,-5.593988422332231425e-02,-5.593988422332231425e-02,-5.593988422332231425e-02,-5.593988422332231425e-02,-5.593988422332231425e-02,-5.593988422332231425e-02,-5.593988422332231425e-02,-5.593988422332231425e-02,-5.593988422332231425e-02,-5.593988422332231425e-02,-5.593988422332231425e-02,-5.593988422332231425e-02,-5.593988422332231425e-02,-5.593988422332231425e-02
-5.593988422332231425e-02,-5.593988422332231425e-02,-5.593988422332231425e-02,-5.593988422332231425e-02,-5.593988422332231425e-02,-5.150531159992015329e-02,-2.336505619185298005e-02,-2.416520733911901864e-02,-2.601615939062601121e-02,-2.786711144213299685e-02,-2.971806349363998595e-02,-3.156901554514697505e-02,-3.331713692712579000e-02,-3.516808897863278605e-02,-3.701904103013976821e-02,-3.886999308164675732e-02,-4.072094513315374642e-02,-4.257189718466073552e-02,-4.442284923616772463e-02,-4.617097061814654652e-02,-4.802192266965353562e-02,-4.987287472116051779e-02,-5.172382677266750689e-02,-5.357477882417449599e-02,-5.542573087568148510e-02,-5.593988422332231425e-02,-5.593988422332231425e-02,-5.593988422332231425e-02,-5.593988422332231425e-02,-5.593988422332231425e-02,-5.593988422332231425e-02,-5.593988422332231425e-02,-5.593988422332231425e-02,-5.593988422332231425e-02,-5.593988422332231425e-02,-5.593988422332231425e-02,-5.593988422332231425e-02,-5.593988422332231425e-02,-5.593988422332231425e-02,-5.593988422332231425e-02,-5.593988422332231425e-02,-5.593988422332231425e-02,-5.593988422332231425e-02,-5.593988422332231425e-02,-5.593988422332231425e-02,-5.593988422332231425e-02,-5.593988422332231425e-02
-5.593988422332231425e-02,-5.593988422332231425e-02,-5.593988422332231425e-02,-5.593988422332231425e-02,-5.593988422332231425e-02,-5.593988422332231425e-02,-4.340739637457708550e-02,-2.694163541637950576e-02,-2.879258746788649140e-02,-3.054070884986531328e-02,-3.239166090137229892e-02,-3.424261295287929496e-02,-3.609356500438627713e-02,-3.794451705589326623e-02,-3.979546910740025534e-02,-4.164642115890723750e-02,-4.339454254088606633e-02,-4.524549459239304849e-02,-4.709644664390003760e-02,-4.894739869540702670e-02,-5.079835074691401581e-02,-5.264930279842100491e-02,-5.450025484992798708e-02,-5.593988422332231425e-02,-5.593988422332231425e-02,-5.593988422332231425e-02,-5.593988422332231425e-02,-5.593988422332231425e-02,-5.593988422332231425e-02,-5.593988422332231425e-02,-5.593988422332231425e-02,-5.593988422332231425e-02,-5.593988422332231425e-02,-5.593988422332231425e-02,-5.593988422332231425e-02,-5.593988422332231425e-02,-5.593988422332231425e-02,-5.593988422332231425e-02,-5.593988422332231425e-02,-5.593988422332231425e-02,-5.593988422332231425e-02,-5.593988422332231425e-02,-5.593988422332231425e-02,-5.593988422332231425e-02,-5.593988422332231425e-02,-5.593988422332231425e-02,-5.593988422332231425e-02
-5.593988422332231425e-02,-5.593988422332231425e-02,-5.593988422332231425e-02,-5.593988422332231425e-02,-5.593988422332231425e-02,-5.593988422332231425e-02,-5.593988422332231425e-02,-3.784168638636509902e-02,-3.146618487561880784e-02,-3.331713692712579694e-02,-3.516808897863278605e-02,-3.701904103013976821e-02,-3.886999308164675732e-02,-4.061811446362557920e-02,-4.246906651513256831e-02,-4.432001856663955741e-02,-4.617097061814654652e-02,-4.802192266965353562e-02,-4.987287472116051779e-02,-5.172382677266750689e-02,-5.347194815464632878e-02,-5.532290020615331788e-02,-5.593988422332231425e-02,-5.593988422332231425e-02,-5.593988422332231425e-02,-5.593988422332231425e-02,-5.593988422332231425e-02,-5.593988422332231425e-02,-5.593988422332231425e-02,-5.593988422332231425e-02,-5.593988422332231425e-02,-5.593988422332231425e-02,-5.593988422332231425e-02,-5.593988422332231425e-02,-5.593988422332231425e-02,-5.593988422332231425e-02,-5.593988422332231425e-02,-5.593988422332231425e-02,-5.593988422332231425e-02,-5.593988422332231425e-02,-5.593988422332231425e-02,-5.593988422332231425e-02,-5.593988422332231425e-02,-5.593988422332231425e-02,-5.593988422332231425e-02,-5.593988422332231425e-02,-5.593988422332231425e-02
-5.593988422332231425e-02,-5.593988422332231425e-02,-5.593988422332231425e-02,-5.593988422332231425e-02,-5.593988422332231425e-02,-5.593988422332231425e-02,-5.593988422332231425e-02,-5.299635630807856407e-02,-3.559869240728198020e-02,-3.599073433485810991e-02,-3.784168638636509902e-02,-3.969263843787208812e-02,-4.154359048937907029e-02,-4.339454254088606633e-02,-4.524549459239304849e-02,-4.709644664390003760e-02,-4.884456802587885949e-02,-5.069552007738584859e-02,-5.254647212889283769e-02,-5.439742418039982680e-02,-5.593988422332231425e-02,-5.593988422332231425e-02,-5.593988422332231425e-02,-5.593988422332231425e-02,-5.593988422332231425e-02,-5.593988422332231425e-02,-5.593988422332231425e-02,-5.593988422332231425e-02,-5.593988422332231425e-02,-5.593988422332231425e-02,-5.593988422332231425e-02,-5.593988422332231425e-02,-5.593988422332231425e-02,-5.593988422332231425e-02,-5.593988422332231425e-02,-5.593988422332231425e-02,-5.593988422332231425e-02,-5.593988422332231425e-02,-5.593988422332231425e-02,-5.593988422332231425e-02,-5.593988422332231425e-02,-5.593988422332231425e-02,-5.593988422332231425e-02,-5.593988422332231425e-02,-5.593988422332231425e-02,-5.593988422332231425e-02,-5.593988422332231425e-02
-5.593988422332231425e-02,-5.593988422332231425e-02,-5.593988422332231425e-02,-5.593988422332231425e-02,-5.593988422332231425e-02,-5.593988422332231425e-02,-5.593988422332231425e-02,-5.593988422332231425e-02,-4.821151671659609089e-02,-3.876716241211859704e-02,-4.061811446362557920e-02,-4.246906651513256831e-02,-4.432001856663955741e-02,-4.606813994861837930e-02,-4.791909200012536840e-02,-4.977004405163235057e-02,-5.162099610313933967e-02,-5.347194815464632878e-02,-5.532290020615331788e-02,-5.593988422332231425e-02,-5.593988422332231425e-02,-5.593988422332231425e-02,-5.593988422332231425e-02,-5.593988422332231425e-02,-5.593988422332231425e-02,-5.593988422332231425e-02,-5.593988422332231425e-02,-5.593988422332231425e-02,-5.593988422332231425e-02,-5.593988422332231425e-02,-5.593988422332231425e-02,-5.593988422332231425e-02,-5.593988422332231425e-02,-5.593988422332231425e-02,-5.593988422332231425e-02,-5.593988422332231425e-02,-5.593988422332231425e-02,-5.593988422332231425e-02,-5.593988422332231425e-02,-5.593988422332231425e-02,-5.593988422332231425e-02,-5.593988422332231425e-02,-5.593988422332231425e-02,-5.593988422332231425e-02,-5.593988422332231425e-02,-5.593988422332231425e-02,-5.593988422332231425e-02
-5.593988422332231425e-02,-5.593988422332231425e-02,-5.593988422332231425e-02,-5.593988422332231425e-02,-5.593988422332231425e-02,-5.593988422332231425e-02,-5.593988422332231425e-02,-5.593988422332231425e-02,-5.593988422332231425e-02,-4.649231646042206734e-02,-4.329171187135789911e-02,-4.514266392286488128e-02,-4.699361597437187732e-02,-4.884456802587885949e-02,-5.069552007738584859e-02,-5.254647212889283769e-02,-5.439742418039982680e-02,-5.593988422332231425e-02,-5.593988422332231425e-02,-5.593988422332231425e-02,-5.593988422332231425e-02,-5.593988422332231425e-02,-5.593988422332231425e-02,-5.593988422332231425e-02,-5.593988422332231425e-02,-5.593988422332231425e-02,-5.593988422332231425e-02,-5.593988422332231425e-02,-5.593988422332231425e-02,-5.593988422332231425e-02,-5.593988422332231425e-02,-5.593988422332231425e-02,-5.593988422332231425e-02,-5.593988422332231425e-02,-5.593988422332231425e-02,-5.593988422332231425e-02,-5.593988422332231425e-02,-5.593988422332231425e-02,-5.593988422332231425e-02,-5.593988422332231425e-02,-5.593988422332231425e-02,-5.593988422332231425e-02,-5.593988422332231425e-02,-5.593988422332231425e-02,-5.593988422332231425e-02,-5.593988422332231425e-02,-5.593988422332231425e-02
-5.593988422332231425e-02,-5.593988422332231425e-02,-5.593988422332231425e-02,-5.593988422332231425e-02,-5.593988422332231425e-02,-5.593988422332231425e-02,-5.593988422332231425e-02,-5.593988422332231425e-02,-5.593988422332231425e-02,-5.484088144274004012e-02,-4.668512396578737567e-02,-4.791909200012536840e-02,-4.977004405163235057e-02,-5.162099610313933967e-02,-5.336911748511816156e-02,-5.522006953662515066e-02,-5.593988422332231425e-02,-5.593988422332231425e-02,-5.593988422332231425e-02,-5.593988422332231425e-02,-5.593988422332231425e-02,-5.593988422332231425e-02,-5.593988422332231425e-02,-5.593988422332231425e-02,-5.593988422332231425e-02,-5.593988422332231425e-02,-5.593988422332231425e-02,-5.593988422332231425e-02,-5.593988422332231425e-02,-5.593988422332231425e-02,-5.593988422332231425e-02,-5.593988422332231425e-02,-5.593988422332231425e-02,-5.593988422332231425e-02,-5.593988422332231425e-02,-5.593988422332231425e-02,-5.593988422332231425e-02,-5.593988422332231425e-02,-5.593988422332231425e-02,-5.593988422332231425e-02,-5.593988422332231425e-02,-5.593988422332231425e-02,-5.593988422332231425e-02,-5.593988422332231425e-02,-5.593988422332231425e-02,-5.593988422332231425e-02,-5.593988422332231425e-02
-5.593988422332231425e-02,-5.593988422332231425e-02,-5.593988422332231425e-02,-5.593988422332231425e-02,-5.593988422332231425e-02,-5.593988422332231425e-02,-5.593988422332231425e-02,-5.593988422332231425e-02,-5.593988422332231425e-02,-5.593988422332231425e-02,-5.327914064928102045e-02,-5.059268940785768137e-02,-5.244364145936467048e-02,-5.429459351087165958e-02,-5.593988422332231425e-02,-5.593988422332231425e-02,-5.593988422332231425e-02,-5.593988422332231425e-02,-5.593988422332231425e-02,-5.593988422332231425e-02,-5.593988422332231425e-02,-5.593988422332231425e-02,-5.593988422332231425e-02,-5.593988422332231425e-02,-5.593988422332231425e-02,-5.593988422332231425e-02,-5.593988422332231425e-02,-5.593988422332231425e-02,-5.593988422332231425e-02,-5.593988422332231425e-02,-5.593988422332231425e-02,-5.593988422332231425e-02,-5.593988422332231425e-02,-5.593988422332231425e-02,-5.593988422332231425e-02,-5.593988422332231425e-02,-5.593988422332231425e-02,-5.593988422332231425e-02,-5.593988422332231425e-02,-5.593988422332231425e-02,-5.593988422332231425e-02,-5.593988422332231425e-02,-5.593988422332231425e-02,-5.593988422332231425e-02,-5.593988422332231425e-02,-5.593988422332231425e-02,-5.593988422332231425e-02
