-1.012929304836779343e-01,-1.012929304836779343e-01,-1.012929304836779343e-01,-1.012929304836779343e-01,-1.012929304836779343e-01,-1.012929304836779343e-01,-1.012929304836779343e-01,-1.012929304836779343e-01,-1.012929304836779343e-01,-1.012929304836779343e-01,-1.012929304836779343e-01,-1.012929304836779343e-01,-1.012929304836779343e-01,-1.012929304836779343e-01,-1.012929304836779343e-01,-1.012929304836779343e-01,-1.012929304836779343e-01,-1.012929304836779343e-01,-1.012929304836779343e-01,-1.012929304836779343e-01,-1.012929304836779343e-01,-1.012929304836779343e-01,-1.012929304836779343e-01,-1.012929304836779343e-01,-1.012929304836779343e-01,-1.012929304836779343e-01,-1.012929304836779343e-01,-1.012929304836779343e-01,-1.012929304836779343e-01,-1.012929304836779343e-01,-1.012929304836779343e-01,-1.012929304836779343e-01,-1.012929304836779343e-01,-1.012929304836779343e-01,-1.012929304836779343e-01,-1.012929304836779343e-01,-1.012929304836779343e-01,-1.012929304836779343e-01,-1.012929304836779343e-01,-1.012929304836779343e-01,-1.012929304836779343e-01,-1.012929304836779343e-01,-1.012929304836779343e-01,-1.012929304836779343e-01,-1.012929304836779343e-01,-1.012929304836779343e-01,-1.012929304836779343e-01
-1.012929304836779343e-01,-1.012929304836779343e-01,-1.012929304836779343e-01,-1.012929304836779343e-01,-1.012929304836779343e-01,-1.012929304836779343e-01,-1.012929304836779343e-01,-1.012929304836779343e-01,-1.012929304836779343e-01,-1.012929304836779343e-01,-1.012929304836779343e-01,-1.012929304836779343e-01,-1.012929304836779343e-01,-1.012929304836779343e-01,-1.012929304836779343e-01,-1.012929304836779343e-01,-1.012929304836779343e-01,-1.012929304836779343e-01,-1.012929304836779343e-01,-1.012929304836779343e-01,-1.012929304836779343e-01,-1.012929304836779343e-01,-1.012929304836779343e-01,-1.012929304836779343e-01,-1.012929304836779343e-01,-1.012929304836779343e-01,-1.012929304836779343e-01,-1.012929304836779343e-01,-1.012929304836779343e-01,-1.012929304836779343e-01,-1.012929304836779343e-01,-1.012929304836779343e-01,-1.012929304836779343e-01,-1.012929304836779343e-01,-1.012929304836779343e-01,-1.012929304836779343e-01,-1.012929304836779343e-01,-1.012929304836779343e-01,-1.012929304836779343e-01,-1.012929304836779343e-01,-1.012929304836779343e-01,-1.012929304836779343e-01,-1.012929304836779343e-01,-1.012929304836779343e-01,-1.012929304836779343e-01,-1.012929304836779343e-01,-1.012929304836779343e-01
-1.012929304836779343e-01,-1.012929304836779343e-01,-1.012929304836779343e-01,-1.012929304836779343e-01,-1.012929304836779343e-01,-1.012929304836779343e-01,-1.012929304836779343e-01,-1.012929304836779343e-01,-1.012929304836779343e-01,-1.012929304836779343e-01,-1.012929304836779343e-01,-1.012929304836779343e-01,-1.012929304836779343e-01,-1.012929304836779343e-01,-1.012929304836779343e-01,-1.012929304836779343e-01,-1.012929304836779343e-01,-1.012929304836779343e-01,-1.012929304836779343e-01,-1.012929304836779343e-01,-1.012929304836779343e-01,-1.012929304836779343e-01,-1.012929304836779343e-01,-1.012929304836779343e-01,-1.012929304836779343e-01,-1.012929304836779343e-01,-1.012929304836779343e-01,-1.012929304836779343e-01,-1.012929304836779343e-01,-1.012929304836779343e-01,-1.012929304836779343e-01,-1.012929304836779343e-01,-1.012929304836779343e-01,-1.012929304836779343e-01,-1.012929304836779343e-01,-1.012929304836779343e-01,-1.012929304836779343e-01,-1.012929304836779343e-01,-1.012929304836779343e-01,-1.012929304836779343e-01,-1.012929304836779343e-01,-1.012929304836779343e-01,-1.012929304836779343e-01,-1.012929304836779343e-01,-1.012929304836779343e-01,-1.012929304836779343e-01,-1.012929304836779343e-01
-1.012929304836779343e-01,-1.012929304836779343e-01,-1.012929304836779343e-01,-1.012929304836779343e-01,-1.012929304836779343e-01,-1.012929304836779343e-01,-1.012929304836779343e-01,-1.012929304836779343e-01,-1.012929304836779343e-01,-1.012929304836779343e-01,-1.012929304836779343e-01,-1.012929304836779343e-01,-1.012929304836779343e-01,-1.012929304836779343e-01,-1.012929304836779343e-01,-1.012929304836779343e-01,-1.012929304836779343e-01,-1.012929304836779343e-01,-1.012929304836779343e-01,-1.012929304836779343e-01,-1.012929304836779343e-01,-1.012929304836779343e-01,-1.012929304836779343e-01,-1.012929304836779343e-01,-1.012929304836779343e-01,-1.012929304836779343e-01,-1.012929304836779343e-01,-1.012929304836779343e-01,-1.012929304836779343e-01,-1.012929304836779343e-01,-1.012929304836779343e-01,-1.012929304836779343e-01,-1.012929304836779343e-01,-1.012929304836779343e-01,-1.012929304836779343e-01,-1.012929304836779343e-01,-1.012929304836779343e-01,-1.012929304836779343e-01,-1.012929304836779343e-01,-1.012929304836779343e-01,-1.012929304836779343e-01,-1.012929304836779343e-01,-1.012929304836779343e-01,-1.012929304836779343e-01,-1.012929304836779343e-01,-1.012929304836779343e-01,-1.012929304836779343e-01
-1.012929304836779343e-01,-1.012929304836779343e-01,-1.012929304836779343e-01,-1.012929304836779343e-01,-1.012929304836779343e-01,-1.012929304836779343e-01,-1.012929304836779343e-01,-1.012929304836779343e-01,-1.012929304836779343e-01,-1.012929304836779343e-01,-1.012929304836779343e-01,-1.012929304836779343e-01,-1.012929304836779343e-01,-1.012929304836779343e-01,-1.012929304836779343e-01,-1.012929304836779343e-01,-1.012929304836779343e-01,-1.012929304836779343e-01,-1.012929304836779343e-01,-1.012929304836779343e-01,-1.012929304836779343e-01,-1.012929304836779343e-01,-1.012929304836779343e-01,-1.012929304836779343e-01,-1.012929304836779343e-01,-1.010291468105433549e-01,-1.010291468105433549e-01,-1.010291468105433549e-01,-1.010291468105433549e-01,-1.007653631374087755e-01,-1.007653631374087755e-01,-1.007653631374087755e-01,-1.007653631374087755e-01,-1.005015794642741961e-01,-1.005015794642741961e-01,-1.005015794642741961e-01,-1.005015794642741961e-01,-1.002377957911396167e-01,-1.002377957911396167e-01,-1.002377957911396167e-01,-1.002377957911396167e-01,-9.997401211800505116e-02,-9.997401211800505116e-02,-9.997401211800505116e-02,-9.997401211800505116e-02,-9.971022844487047176e-02,-9.995752563843413041e-02
-9.443455498217891153e-02,-9.417077130904433213e-02,-9.417077130904433213e-02,-9.417077130904433213e-02,-9.417077130904433213e-02,-9.390698763590975273e-02,-9.390698763590975273e-02,-9.390698763590975273e-02,-9.390698763590975273e-02,-9.364320396277517333e-02,-9.364320396277517333e-02,-9.364320396277517333e-02,-9.364320396277517333e-02,-9.337942028964059393e-02,-9.337942028964059393e-02,-9.337942028964059393e-02,-9.337942028964059393e-02,-9.311563661650601453e-02,-9.311563661650601453e-02,-9.311563661650601453e-02,-9.311563661650601453e-02,-9.285185294337143513e-02,-9.285185294337143513e-02,-9.285185294337143513e-02,-9.285185294337143513e-02,-9.258806927023685573e-02,-9.258806927023685573e-02,-9.258806927023685573e-02,-9.258806927023685573e-02,-9.232428559710229021e-02,-9.232428559710229021e-02,-9.232428559710229021e-02,-9.232428559710229021e-02,-9.206050192396771081e-02,-9.206050192396771081e-02,-9.206050192396771081e-02,-9.206050192396771081e-02,-9.179671825083313141e-02,-9.179671825083313141e-02,-9.179671825083313141e-02,-9.179671825083313141e-02,-9.153293457769855201e-02,-9.153293457769855201e-02,-9.153293457769855201e-02,-9.153293457769855201e-02,-9.126915090456397261e-02,-9.283536646380052826e-02
-8.599347744187241238e-02,-8.572969376873783298e-02,-8.572969376873783298e-02,-8.572969376873783298e-02,-8.572969376873783298e-02,-8.546591009560325358e-02,-8.546591009560325358e-02,-8.546591009560325358e-02,-8.546591009560325358e-02,-8.520212642246868806e-02,-8.520212642246868806e-02,-8.520212642246868806e-02,-8.520212642246868806e-02,-8.493834274933409478e-02,-8.493834274933409478e-02,-8.493834274933409478e-02,-8.493834274933409478e-02,-8.467455907619952926e-02,-8.467455907619952926e-02,-8.467455907619952926e-02,-8.467455907619952926e-02,-8.441077540306494986e-02,-8.441077540306494986e-02,-8.441077540306494986e-02,-8.441077540306494986e-02,-8.414699172993037046e-02,-8.414699172993037046e-02,-8.414699172993037046e-02,-8.414699172993037046e-02,-8.388320805679579106e-02,-8.388320805679579106e-02,-8.388320805679579106e-02,-8.388320805679579106e-02,-8.361942438366121166e-02,-8.361942438366121166e-02,-8.361942438366121166e-02,-8.361942438366121166e-02,-8.335564071052663226e-02,-8.335564071052663226e-02,-8.335564071052663226e-02,-8.335564071052663226e-02,-8.309185703739205286e-02,-8.309185703739205286e-02,-8.309185703739205286e-02,-8.309185703739205286e-02,-8.282807336425748734e-02,-8.513618050418503280e-02
-7.755239990156591323e-02,-7.728861622843133383e-02,-7.728861622843133383e-02,-7.728861622843133383e-02,-7.728861622843133383e-02,-7.702483255529676831e-02,-7.702483255529676831e-02,-7.702483255529676831e-02,-7.702483255529676831e-02,-7.676104888216218891e-02,-7.676104888216218891e-02,-7.676104888216218891e-02,-7.676104888216218891e-02,-7.649726520902760951e-02,-7.649726520902760951e-02,-7.649726520902760951e-02,-7.649726520902760951e-02,-7.623348153589303011e-02,-7.623348153589303011e-02,-7.623348153589303011e-02,-7.623348153589303011e-02,-7.596969786275845071e-02,-7.596969786275845071e-02,-7.596969786275845071e-02,-7.596969786275845071e-02,-7.570591418962387131e-02,-7.570591418962387131e-02,-7.570591418962387131e-02,-7.570591418962387131e-02,-7.544213051648929191e-02,-7.544213051648929191e-02,-7.544213051648929191e-02,-7.544213051648929191e-02,-7.517834684335471251e-02,-7.517834684335471251e-02,-7.517834684335471251e-02,-7.517834684335471251e-02,-7.491456317022013311e-02,-7.491456317022013311e-02,-7.491456317022013311e-02,-7.491456317022013311e-02,-7.465077949708556759e-02,-7.465077949708556759e-02,-7.465077949708556759e-02,-7.465077949708556759e-02,-7.438699582395097432e-02,-7.775023765641685125e-02
-6.911132236125942796e-02,-6.911132236125942796e-02,-6.884753868812484856e-02,-6.884753868812484856e-02,-6.884753868812484856e-02,-6.884753868812484856e-02,-6.858375501499026916e-02,-6.858375501499026916e-02,-6.858375501499026916e-02,-6.858375501499026916e-02,-6.831997134185568976e-02,-6.831997134185568976e-02,-6.831997134185568976e-02,-6.805618766872111036e-02,-6.805618766872111036e-02,-6.805618766872111036e-02,-6.805618766872111036e-02,-6.779240399558653096e-02,-6.779240399558653096e-02,-6.779240399558653096e-02,-6.779240399558653096e-02,-6.752862032245196544e-02,-6.752862032245196544e-02,-6.752862032245196544e-02,-6.752862032245196544e-02,-6.726483664931737216e-02,-6.726483664931737216e-02,-6.726483664931737216e-02,-6.726483664931737216e-02,-6.700105297618280664e-02,-6.700105297618280664e-02,-6.700105297618280664e-02,-6.700105297618280664e-02,-6.673726930304822724e-02,-6.673726930304822724e-02,-6.673726930304822724e-02,-6.673726930304822724e-02,-6.647348562991364784e-02,-6.647348562991364784e-02,-6.647348562991364784e-02,-6.647348562991364784e-02,-6.620970195677906844e-02,-6.620970195677906844e-02,-6.620970195677906844e-02,-6.620970195677906844e-02,-6.594591828364448904e-02,-7.036429480864866970e-02
-6.067024482095292881e-02,-6.067024482095292881e-02,-6.040646114781834941e-02,-6.040646114781834941e-02,-6.040646114781834941e-02,-6.040646114781834941e-02,-6.014267747468377001e-02,-6.014267747468377001e-02,-6.014267747468377001e-02,-6.014267747468377001e-02,-5.987889380154919061e-02,-5.987889380154919061e-02,-5.987889380154919061e-02,-5.961511012841461815e-02,-5.961511012841461815e-02,-5.961511012841461815e-02,-5.961511012841461815e-02,-5.935132645528003875e-02,-5.935132645528003875e-02,-5.935132645528003875e-02,-5.935132645528003875e-02,-5.908754278214545935e-02,-5.908754278214545935e-02,-5.908754278214545935e-02,-3.248798379422693228e-01,-3.246160542691347572e-01,-3.246160542691347572e-01,-3.246160542691347572e-01,-3.246160542691347572e-01,-5.855997543587630055e-02,-5.855997543587630055e-02,-5.855997543587630055e-02,-5.855997543587630055e-02,-5.829619176274172809e-02,-5.829619176274172809e-02,-5.829619176274172809e-02,-5.829619176274172809e-02,-5.803240808960714869e-02,-5.803240808960714869e-02,-5.803240808960714869e-02,-5.803240808960714869e-02,-5.776862441647256929e-02,-5.776862441647256929e-02,-5.776862441647256929e-02,-5.776862441647256929e-02,-5.750484074333798989e-02,-6.297835196088048815e-02
-5.222916728064643660e-02,-5.222916728064643660e-02,-5.196538360751185026e-02,-5.196538360751185026e-02,-5.196538360751185026e-02,-5.196538360751185026e-02,-5.170159993437727780e-02,-5.170159993437727780e-02,-5.170159993437727780e-02,-5.170159993437727780e-02,-5.143781626124269840e-02,-5.143781626124269840e-02,-5.143781626124269840e-02,-5.117403258810812594e-02,-5.117403258810812594e-02,-5.117403258810812594e-02,-5.117403258810812594e-02,-5.091024891497353960e-02,-5.091024891497353960e-02,-5.091024891497353960e-02,-5.091024891497353960e-02,-5.064646524183896714e-02,-5.064646524183896714e-02,-5.064646524183896714e-02,-3.164387604019628375e-01,-3.161749767288282720e-01,-3.161749767288282720e-01,-3.161749767288282720e-01,-3.161749767288282720e-01,-5.011889789556981528e-02,-5.011889789556981528e-02,-5.011889789556981528e-02,-5.011889789556981528e-02,-4.985511422243523588e-02,-4.985511422243523588e-02,-4.985511422243523588e-02,-4.985511422243523588e-02,-4.959133054930065648e-02,-4.959133054930065648e-02,-4.959133054930065648e-02,-4.959133054930065648e-02,-4.932754687616607708e-02,-4.932754687616607708e-02,-4.932754687616607708e-02,-4.932754687616607708e-02,-4.906376320303149768e-02,-5.396024763559210263e-02
-4.378808974033993745e-02,-4.378808974033993745e-02,-4.352430606720536499e-02,-4.352430606720536499e-02,-4.352430606720536499e-02,-4.352430606720536499e-02,-4.326052239407078559e-02,-4.326052239407078559e-02,-4.326052239407078559e-02,-2.666237643558527770e-01,-2.663599806827181560e-01,-2.663599806827181560e-01,-2.663599806827181560e-01,-2.660961970095836460e-01,-4.273295504780163373e-02,-4.273295504780163373e-02,-4.273295504780163373e-02,-4.246917137466705433e-02,-4.246917137466705433e-02,-4.246917137466705433e-02,-4.246917137466705433e-02,-4.220538770153247493e-02,-4.220538770153247493e-02,-4.220538770153247493e-02,-3.079976828616563522e-01,-3.077338991885217867e-01,-3.077338991885217867e-01,-3.077338991885217867e-01,-3.077338991885217867e-01,-4.167782035526331613e-02,-4.167782035526331613e-02,-4.167782035526331613e-02,-4.167782035526331613e-02,-4.141403668212874367e-02,-4.141403668212874367e-02,-4.141403668212874367e-02,-4.141403668212874367e-02,-4.115025300899416427e-02,-4.115025300899416427e-02,-4.115025300899416427e-02,-4.115025300899416427e-02,-4.088646933585958487e-02,-4.088646933585958487e-02,-4.088646933585958487e-02,-4.088646933585958487e-02,-4.062268566272500547e-02,-4.631052111468934168e-02
-3.534701220003345912e-02,-3.534701220003345912e-02,-3.508322852689887972e-02,-3.508322852689887972e-02,-3.508322852689887972e-02,-3.508322852689887972e-02,-3.481944485376430032e-02,-3.481944485376430032e-02,-3.481944485376430032e-02,-2.581826868155462917e-01,-2.579189031424117262e-01,-2.579189031424117262e-01,-2.579189031424117262e-01,-2.576551194692771052e-01,-3.429187750749514152e-02,-3.429187750749514152e-02,-3.429187750749514152e-02,-3.402809383436056212e-02,-3.402809383436056212e-02,-3.402809383436056212e-02,-3.402809383436056212e-02,-3.376431016122598272e-02,-3.376431016122598272e-02,-3.376431016122598272e-02,-2.995566053213498670e-01,-2.992928216482152459e-01,-2.992928216482152459e-01,-2.992928216482152459e-01,-2.992928216482152459e-01,-3.323674281495682392e-02,-3.323674281495682392e-02,-3.323674281495682392e-02,-3.323674281495682392e-02,-3.297295914182224452e-02,-3.297295914182224452e-02,-3.297295914182224452e-02,-3.297295914182224452e-02,-3.270917546868766512e-02,-3.270917546868766512e-02,-3.270917546868766512e-02,-3.270917546868766512e-02,-3.244539179555309960e-02,-3.244539179555309960e-02,-3.244539179555309960e-02,-3.244539179555309960e-02,-3.218160812241850632e-02,-3.866079459378658767e-02
-2.690593465972695997e-02,-2.690593465972695997e-02,-2.664215098659238057e-02,-2.664215098659238057e-02,-2.664215098659238057e-02,-2.664215098659238057e-02,-2.637836731345778729e-02,-2.637836731345778729e-02,-2.637836731345778729e-02,-2.497416092752397510e-01,-2.494778256021051854e-01,-2.494778256021051854e-01,-2.494778256021051854e-01,-2.492140419289706199e-01,-2.585079996718864237e-02,-2.585079996718864237e-02,-2.585079996718864237e-02,-2.558701629405406297e-02,-2.558701629405406297e-02,-2.558701629405406297e-02,-2.558701629405406297e-02,-2.532323262091948357e-02,-2.532323262091948357e-02,-2.532323262091948357e-02,-2.911155277810433262e-01,-2.908517441079087607e-01,-2.908517441079087607e-01,-2.908517441079087607e-01,-2.908517441079087607e-01,-2.479566527465032477e-02,-2.479566527465032477e-02,-2.479566527465032477e-02,-2.479566527465032477e-02,-2.453188160151574537e-02,-2.453188160151574537e-02,-2.453188160151574537e-02,-2.453188160151574537e-02,-2.426809792838116597e-02,-2.426809792838116597e-02,-2.426809792838116597e-02,-2.426809792838116597e-02,-2.400431425524658657e-02,-2.400431425524658657e-02,-2.400431425524658657e-02,-2.400431425524658657e-02,-2.374053058211200717e-02,-3.101106807288382672e-02
-1.846485711942044694e-02,-1.846485711942044694e-02,-1.820107344628586754e-02,-1.820107344628586754e-02,-1.820107344628586754e-02,-1.820107344628586754e-02,-1.793728977315130202e-02,-1.793728977315130202e-02,-1.793728977315130202e-02,-2.413005317349332657e-01,-2.410367480617987002e-01,-2.410367480617987002e-01,-2.410367480617987002e-01,-2.407729643886641346e-01,-1.740972242688214322e-02,-1.740972242688214322e-02,-1.740972242688214322e-02,-1.714593875374756382e-02,-1.714593875374756382e-02,-1.714593875374756382e-02,-1.714593875374756382e-02,-1.688215508061298442e-02,-1.688215508061298442e-02,-1.688215508061298442e-02,-1.688215508061298442e-02,-1.661837140747841890e-02,-1.661837140747841890e-02,-1.661837140747841890e-02,-1.661837140747841890e-02,-1.635458773434382562e-02,-1.635458773434382562e-02,-1.635458773434382562e-02,-1.635458773434382562e-02,-1.609080406120926010e-02,-1.609080406120926010e-02,-1.609080406120926010e-02,-1.609080406120926010e-02,-1.582702038807468070e-02,-1.582702038807468070e-02,-1.582702038807468070e-02,-1.582702038807468070e-02,-1.556323671494008742e-02,-1.556323671494008742e-02,-1.556323671494008742e-02,-1.556323671494008742e-02,-1.529945304180550802e-02,-2.067404538192253727e-02
-1.002377957911396167e-02,-1.002377957911396167e-02,-9.759995905979382269e-03,-9.759995905979382269e-03,-9.759995905979382269e-03,-9.759995905979382269e-03,-9.496212232844816747e-03,-9.496212232844816747e-03,-9.496212232844816747e-03,-2.328594541946267804e-01,-2.325956705214922149e-01,-2.325956705214922149e-01,-2.325956705214922149e-01,-2.323318868483576494e-01,-8.968644886575657948e-03,-8.968644886575657948e-03,-8.968644886575657948e-03,-8.704861213441078549e-03,-8.704861213441078549e-03,-8.704861213441078549e-03,-8.704861213441078549e-03,-8.441077540306499150e-03,-8.441077540306499150e-03,-8.441077540306499150e-03,-8.441077540306499150e-03,-8.177293867171919750e-03,-8.177293867171919750e-03,-8.177293867171919750e-03,-8.177293867171919750e-03,-7.913510194037354228e-03,-7.913510194037354228e-03,-7.913510194037354228e-03,-7.913510194037354228e-03,-7.649726520902760951e-03,-7.649726520902760951e-03,-7.649726520902760951e-03,-7.649726520902760951e-03,-7.385942847768195429e-03,-7.385942847768195429e-03,-7.385942847768195429e-03,-7.385942847768195429e-03,-7.122159174633616030e-03,-7.122159174633616030e-03,-7.122159174633616030e-03,-7.122159174633616030e-03,-6.858375501499036631e-03,-1.276053518788522467e-02
-1.582702038807476397e-03,-1.582702038807476397e-03,-1.318918365672896997e-03,-1.318918365672896997e-03,-1.318918365672896997e-03,-1.318918365672896997e-03,-1.055134692538317598e-03,-1.055134692538317598e-03,-1.055134692538317598e-03,-1.055134692538317598e-03,-7.913510194037520762e-04,-7.913510194037520762e-04,-7.913510194037520762e-04,-5.275673462691587989e-04,-5.275673462691587989e-04,-5.275673462691587989e-04,-5.275673462691587989e-04,-2.637836731345793995e-04,-2.637836731345793995e-04,-2.637836731345793995e-04,-2.637836731345793995e-04,0.000000000000000000e+00,0.000000000000000000e+00,0.000000000000000000e+00,0.000000000000000000e+00,0.000000000000000000e+00,0.000000000000000000e+00,0.000000000000000000e+00,0.000000000000000000e+00,-1.387778780781445676e-17,-1.387778780781445676e-17,-1.387778780781445676e-17,-1.387778780781445676e-17,0.000000000000000000e+00,0.000000000000000000e+00,0.000000000000000000e+00,0.000000000000000000e+00,0.000000000000000000e+00,0.000000000000000000e+00,0.000000000000000000e+00,0.000000000000000000e+00,-1.387778780781445676e-17,-1.387778780781445676e-17,-1.387778780781445676e-17,-1.387778780781445676e-17,0.000000000000000000e+00,-6.330808155229877832e-03
0.000000000000000000e+00,0.000000000000000000e+00,0.000000000000000000e+00,0.000000000000000000e+00,0.000000000000000000e+00,0.000000000000000000e+00,0.000000000000000000e+00,0.000000000000000000e+00,0.000000000000000000e+00,0.000000000000000000e+00,0.000000000000000000e+00,0.000000000000000000e+00,0.000000000000000000e+00,0.000000000000000000e+00,0.000000000000000000e+00,0.000000000000000000e+00,0.000000000000000000e+00,0.000000000000000000e+00,0.000000000000000000e+00,0.000000000000000000e+00,0.000000000000000000e+00,0.000000000000000000e+00,0.000000000000000000e+00,0.000000000000000000e+00,0.000000000000000000e+00,0.000000000000000000e+00,0.000000000000000000e+00,0.000000000000000000e+00,0.000000000000000000e+00,-1.387778780781445676e-17,-1.387778780781445676e-17,-1.387778780781445676e-17,-1.387778780781445676e-17,0.000000000000000000e+00,0.000000000000000000e+00,0.000000000000000000e+00,0.000000000000000000e+00,-2.056747019680914834e-01,-2.056747019680914834e-01,-2.056747019680914834e-01,-2.056747019680914834e-01,-2.056747019680915112e-01,-1.387778780781445676e-17,-1.387778780781445676e-17,-1.387778780781445676e-17,0.000000000000000000e+00,-6.330808155229877832e-03
0.000000000000000000e+00,0.000000000000000000e+00,1.387778780781445676e-17,1.387778780781445676e-17,1.387778780781445676e-17,1.387778780781445676e-17,0.000000000000000000e+00,0.000000000000000000e+00,0.000000000000000000e+00,0.000000000000000000e+00,0.000000000000000000e+00,0.000000000000000000e+00,0.000000000000000000e+00,-1.387778780781445676e-17,-1.387778780781445676e-17,-1.387778780781445676e-17,-1.387778780781445676e-17,0.000000000000000000e+00,0.000000000000000000e+00,0.000000000000000000e+00,0.000000000000000000e+00,0.000000000000000000e+00,0.000000000000000000e+00,0.000000000000000000e+00,0.000000000000000000e+00,-3.165404077614952794e-04,-3.165404077614952794e-04,-3.165404077614952794e-04,-3.165404077614952794e-04,-6.330808155230044365e-04,-6.330808155230044365e-04,-6.330808155230044365e-04,-6.330808155230044365e-04,-9.496212232844719603e-04,-9.496212232844719603e-04,-9.496212232844719603e-04,-9.496212232844719603e-04,-2.069408635991374368e-01,-2.069408635991374368e-01,-2.069408635991374368e-01,-2.069408635991374368e-01,-2.072574040068989598e-01,-1.582702038807462519e-03,-1.582702038807462519e-03,-1.582702038807462519e-03,-1.899242446568957798e-03,-5.005295197728618084e-03
-8.230050601798835630e-03,-8.230050601798835630e-03,-8.546591009560317032e-03,-8.546591009560317032e-03,-8.546591009560317032e-03,-8.546591009560317032e-03,-8.863131417321826189e-03,-8.863131417321826189e-03,-8.863131417321826189e-03,-8.863131417321826189e-03,-9.179671825083321468e-03,-9.179671825083321468e-03,-9.179671825083321468e-03,-9.496212232844802870e-03,-9.496212232844802870e-03,-9.496212232844802870e-03,-9.496212232844802870e-03,-9.812752640606298149e-03,-9.812752640606298149e-03,-9.812752640606298149e-03,-9.812752640606298149e-03,-1.012929304836779343e-02,-1.012929304836779343e-02,-1.012929304836779343e-02,-1.012929304836779343e-02,-1.044583345612928871e-02,-1.044583345612928871e-02,-1.044583345612928871e-02,-1.044583345612928871e-02,-1.076237386389077011e-02,-1.076237386389077011e-02,-1.076237386389077011e-02,-1.076237386389077011e-02,-1.107891427165227927e-02,-1.107891427165227927e-02,-1.107891427165227927e-02,-1.107891427165227927e-02,-2.170701566475052580e-01,-2.170701566475052580e-01,-2.170701566475052580e-01,-2.170701566475052580e-01,-2.173866970552667532e-01,-1.171199508717525595e-02,-1.171199508717525595e-02,-1.171199508717525595e-02,-1.202853549493675123e-02,-1.481804783833491623e-02
-1.835934365016662906e-02,-1.835934365016662906e-02,-1.867588405792812434e-02,-1.867588405792812434e-02,-1.867588405792812434e-02,-1.867588405792812434e-02,-1.899242446568961962e-02,-1.899242446568961962e-02,-1.899242446568961962e-02,-1.899242446568961962e-02,-1.930896487345110102e-02,-1.930896487345110102e-02,-1.930896487345110102e-02,-1.962550528121259630e-02,-1.962550528121259630e-02,-1.962550528121259630e-02,-1.962550528121259630e-02,-1.994204568897409158e-02,-1.994204568897409158e-02,-1.994204568897409158e-02,-1.994204568897409158e-02,-2.025858609673558686e-02,-2.025858609673558686e-02,-2.025858609673558686e-02,-2.025858609673558686e-02,-2.057512650449708214e-02,-2.057512650449708214e-02,-2.057512650449708214e-02,-2.057512650449708214e-02,-2.089166691225856354e-02,-2.089166691225856354e-02,-2.089166691225856354e-02,-2.089166691225856354e-02,-2.120820732002005882e-02,-2.120820732002005882e-02,-2.120820732002005882e-02,-2.120820732002005882e-02,-2.271994496958730514e-01,-2.271994496958730514e-01,-2.271994496958730514e-01,-2.271994496958730514e-01,-2.275159901036345467e-01,-2.184128813554306325e-02,-2.184128813554306325e-02,-2.184128813554306325e-02,-2.215782854330454466e-02,-2.463080047894121438e-02
-2.848863669853442249e-02,-2.848863669853442249e-02,-2.880517710629590389e-02,-2.880517710629590389e-02,-2.880517710629590389e-02,-2.880517710629590389e-02,-2.912171751405739917e-02,-2.912171751405739917e-02,-2.912171751405739917e-02,-2.912171751405739917e-02,-2.943825792181889445e-02,-2.943825792181889445e-02,-2.943825792181889445e-02,-2.975479832958038973e-02,-2.975479832958038973e-02,-2.975479832958038973e-02,-2.975479832958038973e-02,-3.007133873734188501e-02,-3.007133873734188501e-02,-3.007133873734188501e-02,-3.007133873734188501e-02,-3.038787914510338029e-02,-3.038787914510338029e-02,-3.038787914510338029e-02,-3.038787914510338029e-02,-3.070441955286487556e-02,-3.070441955286487556e-02,-3.070441955286487556e-02,-3.070441955286487556e-02,-3.102095996062637084e-02,-3.102095996062637084e-02,-3.102095996062637084e-02,-3.102095996062637084e-02,-3.133750036838786612e-02,-3.133750036838786612e-02,-3.133750036838786612e-02,-3.133750036838786612e-02,-2.373287427442408448e-01,-2.373287427442408448e-01,-2.373287427442408448e-01,-2.373287427442408448e-01,-2.376452831520023401e-01,-3.197058118391084280e-02,-3.197058118391084280e-02,-3.197058118391084280e-02,-3.228712159167233808e-02,-3.444355311954751253e-02
-3.861792974690221592e-02,-3.861792974690221592e-02,-3.893447015466370426e-02,-3.893447015466370426e-02,-3.893447015466370426e-02,-3.893447015466370426e-02,-3.925101056242519953e-02,-3.925101056242519953e-02,-3.925101056242519953e-02,-3.925101056242519953e-02,-3.956755097018669481e-02,-3.956755097018669481e-02,-3.956755097018669481e-02,-3.988409137794818315e-02,-3.988409137794818315e-02,-3.988409137794818315e-02,-3.988409137794818315e-02,-4.020063178570967843e-02,-4.020063178570967843e-02,-4.020063178570967843e-02,-4.020063178570967843e-02,-4.051717219347117371e-02,-4.051717219347117371e-02,-4.051717219347117371e-02,-4.051717219347117371e-02,-4.083371260123266205e-02,-4.083371260123266205e-02,-4.083371260123266205e-02,-4.083371260123266205e-02,-4.115025300899416427e-02,-4.115025300899416427e-02,-4.115025300899416427e-02,-4.115025300899416427e-02,-4.146679341675565955e-02,-4.146679341675565955e-02,-4.146679341675565955e-02,-4.146679341675565955e-02,-4.178333382451714789e-02,-4.178333382451714789e-02,-4.178333382451714789e-02,-4.178333382451714789e-02,-4.209987423227863623e-02,-4.209987423227863623e-02,-4.209987423227863623e-02,-4.209987423227863623e-02,-4.241641464004013151e-02,-4.241641464004013151e-02
-4.874722279527000240e-02,-4.874722279527000240e-02,-4.906376320303150462e-02,-4.906376320303150462e-02,-4.906376320303150462e-02,-4.906376320303150462e-02,-4.938030361079299296e-02,-4.938030361079299296e-02,-4.938030361079299296e-02,-4.938030361079299296e-02,-4.969684401855448130e-02,-4.969684401855448130e-02,-4.969684401855448130e-02,-5.001338442631598352e-02,-5.001338442631598352e-02,-5.001338442631598352e-02,-5.001338442631598352e-02,-5.032992483407747186e-02,-5.032992483407747186e-02,-5.032992483407747186e-02,-5.032992483407747186e-02,-5.064646524183896714e-02,-5.064646524183896714e-02,-5.064646524183896714e-02,-5.064646524183896714e-02,-5.096300564960046242e-02,-5.096300564960046242e-02,-5.096300564960046242e-02,-5.096300564960046242e-02,-5.127954605736195770e-02,-5.127954605736195770e-02,-5.127954605736195770e-02,-5.127954605736195770e-02,-5.159608646512344604e-02,-5.159608646512344604e-02,-5.159608646512344604e-02,-5.159608646512344604e-02,-5.191262687288494132e-02,-5.191262687288494132e-02,-5.191262687288494132e-02,-5.191262687288494132e-02,-5.222916728064643660e-02,-5.222916728064643660e-02,-5.222916728064643660e-02,-5.222916728064643660e-02,-5.254570768840792494e-02,-5.254570768840792494e-02
-5.887651584363780277e-02,-5.887651584363780277e-02,-5.919305625139929111e-02,-5.919305625139929111e-02,-5.919305625139929111e-02,-5.919305625139929111e-02,-5.950959665916078639e-02,-5.950959665916078639e-02,-5.950959665916078639e-02,-5.950959665916078639e-02,-5.982613706692228167e-02,-5.982613706692228167e-02,-5.982613706692228167e-02,-6.014267747468377001e-02,-6.014267747468377001e-02,-6.014267747468377001e-02,-6.014267747468377001e-02,-6.045921788244526529e-02,-6.045921788244526529e-02,-6.045921788244526529e-02,-6.045921788244526529e-02,-6.077575829020676057e-02,-6.077575829020676057e-02,-6.077575829020676057e-02,-6.077575829020676057e-02,-6.109229869796825585e-02,-6.109229869796825585e-02,-6.109229869796825585e-02,-6.109229869796825585e-02,-6.140883910572975113e-02,-6.140883910572975113e-02,-6.140883910572975113e-02,-6.140883910572975113e-02,-6.172537951349123947e-02,-6.172537951349123947e-02,-6.172537951349123947e-02,-6.172537951349123947e-02,-6.204191992125273475e-02,-6.204191992125273475e-02,-6.204191992125273475e-02,-6.204191992125273475e-02,-6.235846032901423003e-02,-6.235846032901423003e-02,-6.235846032901423003e-02,-6.235846032901423003e-02,-6.267500073677571837e-02,-6.267500073677571837e-02
-6.900580889200559620e-02,-6.900580889200559620e-02,-6.932234929976707760e-02,-6.932234929976707760e-02,-6.932234929976707760e-02,-6.932234929976707760e-02,-6.963888970752857288e-02,-6.963888970752857288e-02,-6.963888970752857288e-02,-6.963888970752857288e-02,-6.995543011529006816e-02,-6.995543011529006816e-02,-6.995543011529006816e-02,-7.027197052305156344e-02,-7.027197052305156344e-02,-7.027197052305156344e-02,-7.027197052305156344e-02,-7.058851093081305872e-02,-7.058851093081305872e-02,-7.058851093081305872e-02,-7.058851093081305872e-02,-7.090505133857455400e-02,-7.090505133857455400e-02,-7.090505133857455400e-02,-7.090505133857455400e-02,-7.122159174633604928e-02,-7.122159174633604928e-02,-7.122159174633604928e-02,-7.122159174633604928e-02,-7.153813215409754456e-02,-7.153813215409754456e-02,-7.153813215409754456e-02,-7.153813215409754456e-02,-7.185467256185903984e-02,-7.185467256185903984e-02,-7.185467256185903984e-02,-7.185467256185903984e-02,-7.217121296962053512e-02,-7.217121296962053512e-02,-7.217121296962053512e-02,-7.217121296962053512e-02,-7.248775337738201652e-02,-7.248775337738201652e-02,-7.248775337738201652e-02,-7.248775337738201652e-02,-7.280429378514351180e-02,-7.280429378514351180e-02
-7.982753408235165882e-02,-7.913510194037338963e-02,-7.945164234813488491e-02,-7.945164234813488491e-02,-7.945164234813488491e-02,-7.945164234813488491e-02,-7.976818275589636631e-02,-7.976818275589636631e-02,-7.976818275589636631e-02,-7.976818275589636631e-02,-8.008472316365786159e-02,-8.008472316365786159e-02,-8.008472316365786159e-02,-8.040126357141935687e-02,-8.040126357141935687e-02,-8.040126357141935687e-02,-8.040126357141935687e-02,-8.071780397918085215e-02,-8.071780397918085215e-02,-8.071780397918085215e-02,-8.071780397918085215e-02,-8.103434438694234743e-02,-8.103434438694234743e-02,-8.103434438694234743e-02,-8.103434438694234743e-02,-8.135088479470384271e-02,-8.135088479470384271e-02,-8.135088479470384271e-02,-8.135088479470384271e-02,-8.166742520246533799e-02,-8.166742520246533799e-02,-8.166742520246533799e-02,-8.166742520246533799e-02,-8.198396561022683326e-02,-8.198396561022683326e-02,-8.198396561022683326e-02,-8.198396561022683326e-02,-8.230050601798832854e-02,-8.230050601798832854e-02,-8.230050601798832854e-02,-8.230050601798832854e-02,-8.261704642574980995e-02,-8.261704642574980995e-02,-8.261704642574980995e-02,-8.261704642574980995e-02,-8.293358683351130523e-02,-8.293358683351130523e-02
-8.964028672295795697e-02,-8.926439498874118306e-02,-8.958093539650267834e-02,-8.958093539650267834e-02,-8.958093539650267834e-02,-8.958093539650267834e-02,-8.989747580426415974e-02,-8.989747580426415974e-02,-8.989747580426415974e-02,-8.989747580426415974e-02,-9.021401621202565502e-02,-9.021401621202565502e-02,-9.021401621202565502e-02,-9.053055661978715030e-02,-9.053055661978715030e-02,-9.053055661978715030e-02,-9.053055661978715030e-02,-9.084709702754864558e-02,-9.084709702754864558e-02,-9.084709702754864558e-02,-9.084709702754864558e-02,-9.116363743531014086e-02,-9.116363743531014086e-02,-9.116363743531014086e-02,-9.116363743531014086e-02,-9.148017784307163613e-02,-9.148017784307163613e-02,-9.148017784307163613e-02,-9.148017784307163613e-02,-9.179671825083313141e-02,-9.179671825083313141e-02,-9.179671825083313141e-02,-9.179671825083313141e-02,-9.211325865859462669e-02,-9.211325865859462669e-02,-9.211325865859462669e-02,-9.211325865859462669e-02,-9.242979906635612197e-02,-9.242979906635612197e-02,-9.242979906635612197e-02,-9.242979906635612197e-02,-9.274633947411760337e-02,-9.274633947411760337e-02,-9.274633947411760337e-02,-9.274633947411760337e-02,-9.306287988187909865e-02,-9.306287988187909865e-02
-9.945303936356425512e-02,-9.939368803710897649e-02,-9.971022844487047176e-02,-9.971022844487047176e-02,-9.971022844487047176e-02,-9.971022844487047176e-02,-1.000267688526319532e-01,-1.000267688526319532e-01,-1.000267688526319532e-01,-1.000267688526319532e-01,-1.003433092603934484e-01,-1.003433092603934484e-01,-1.003433092603934484e-01,-1.006598496681549437e-01,-1.006598496681549437e-01,-1.006598496681549437e-01,-1.006598496681549437e-01,-1.009763900759164390e-01,-1.009763900759164390e-01,-1.009763900759164390e-01,-1.009763900759164390e-01,-1.012929304836779343e-01,-1.012929304836779343e-01,-1.012929304836779343e-01,-1.012929304836779343e-01,-1.012929304836779343e-01,-1.012929304836779343e-01,-1.012929304836779343e-01,-1.012929304836779343e-01,-1.012929304836779343e-01,-1.012929304836779343e-01,-1.012929304836779343e-01,-1.012929304836779343e-01,-1.012929304836779343e-01,-1.012929304836779343e-01,-1.012929304836779343e-01,-1.012929304836779343e-01,-1.012929304836779343e-01,-1.012929304836779343e-01,-1.012929304836779343e-01,-1.012929304836779343e-01,-1.012929304836779343e-01,-1.012929304836779343e-01,-1.012929304836779343e-01,-1.012929304836779343e-01,-1.012929304836779343e-01,-1.012929304836779343e-01
-1.012929304836779343e-01,-1.012929304836779343e-01,-1.012929304836779343e-01,-1.012929304836779343e-01,-1.012929304836779343e-01,-1.012929304836779343e-01,-1.012929304836779343e-01,-1.012929304836779343e-01,-1.012929304836779343e-01,-1.012929304836779343e-01,-1.012929304836779343e-01,-1.012929304836779343e-01,-1.012929304836779343e-01,-1.012929304836779343e-01,-1.012929304836779343e-01,-1.012929304836779343e-01,-1.012929304836779343e-01,-1.012929304836779343e-01,-1.012929304836779343e-01,-1.012929304836779343e-01,-1.012929304836779343e-01,-1.012929304836779343e-01,-1.012929304836779343e-01,-1.012929304836779343e-01,-1.012929304836779343e-01,-1.012929304836779343e-01,-1.012929304836779343e-01,-1.012929304836779343e-01,-1.012929304836779343e-01,-1.012929304836779343e-01,-1.012929304836779343e-01,-1.012929304836779343e-01,-1.012929304836779343e-01,-1.012929304836779343e-01,-1.012929304836779343e-01,-1.012929304836779343e-01,-1.012929304836779343e-01,-1.012929304836779343e-01,-1.012929304836779343e-01,-1.012929304836779343e-01,-1.012929304836779343e-01,-1.012929304836779343e-01,-1.012929304836779343e-01,-1.012929304836779343e-01,-1.012929304836779343e-01,-1.012929304836779343e-01,-1.012929304836779343e-01
-1.012929304836779343e-01,-1.012929304836779343e-01,-1.012929304836779343e-01,-1.012929304836779343e-01,-1.012929304836779343e-01,-1.012929304836779343e-01,-1.012929304836779343e-01,-1.012929304836779343e-01,-1.012929304836779343e-01,-1.012929304836779343e-01,-1.012929304836779343e-01,-1.012929304836779343e-01,-1.012929304836779343e-01,-1.012929304836779343e-01,-1.012929304836779343e-01,-1.012929304836779343e-01,-1.012929304836779343e-01,-1.012929304836779343e-01,-1.012929304836779343e-01,-1.012929304836779343e-01,-1.012929304836779343e-01,-1.012929304836779343e-01,-1.012929304836779343e-01,-1.012929304836779343e-01,-1.012929304836779343e-01,-1.012929304836779343e-01,-1.012929304836779343e-01,-1.012929304836779343e-01,-1.012929304836779343e-01,-1.012929304836779343e-01,-1.012929304836779343e-01,-1.012929304836779343e-01,-1.012929304836779343e-01,-1.012929304836779343e-01,-1.012929304836779343e-01,-1.012929304836779343e-01,-1.012929304836779343e-01,-1.012929304836779343e-01,-1.012929304836779343e-01,-1.012929304836779343e-01,-1.012929304836779343e-01,-1.012929304836779343e-01,-1.012929304836779343e-01,-1.012929304836779343e-01,-1.012929304836779343e-01,-1.012929304836779343e-01,-1.012929304836779343e-01
-1.012929304836779343e-01,-1.012929304836779343e-01,-1.012929304836779343e-01,-1.012929304836779343e-01,-1.012929304836779343e-01,-1.012929304836779343e-01,-1.012929304836779343e-01,-1.012929304836779343e-01,-1.012929304836779343e-01,-1.012929304836779343e-01,-1.012929304836779343e-01,-1.012929304836779343e-01,-1.012929304836779343e-01,-1.012929304836779343e-01,-1.012929304836779343e-01,-1.012929304836779343e-01,-1.012929304836779343e-01,-1.012929304836779343e-01,-1.012929304836779343e-01,-1.012929304836779343e-01,-1.012929304836779343e-01,-1.012929304836779343e-01,-1.012929304836779343e-01,-1.012929304836779343e-01,-1.012929304836779343e-01,-1.012929304836779343e-01,-1.012929304836779343e-01,-1.012929304836779343e-01,-1.012929304836779343e-01,-1.012929304836779343e-01,-1.012929304836779343e-01,-1.012929304836779343e-01,-1.012929304836779343e-01,-1.012929304836779343e-01,-1.012929304836779343e-01,-1.012929304836779343e-01,-1.012929304836779343e-01,-1.012929304836779343e-01,-1.012929304836779343e-01,-1.012929304836779343e-01,-1.012929304836779343e-01,-1.012929304836779343e-01,-1.012929304836779343e-01,-1.012929304836779343e-01,-1.012929304836779343e-01,-1.012929304836779343e-01,-1.012929304836779343e-01
-1.012929304836779343e-01,-1.012929304836779343e-01,-1.012929304836779343e-01,-1.012929304836779343e-01,-1.012929304836779343e-01,-1.012929304836779343e-01,-1.012929304836779343e-01,-1.012929304836779343e-01,-1.012929304836779343e-01,-1.012929304836779343e-01,-1.012929304836779343e-01,-1.012929304836779343e-01,-1.012929304836779343e-01,-1.012929304836779343e-01,-1.012929304836779343e-01,-1.012929304836779343e-01,-1.012929304836779343e-01,-1.012929304836779343e-01,-1.012929304836779343e-01,-1.012929304836779343e-01,-1.012929304836779343e-01,-1.012929304836779343e-01,-1.012929304836779343e-01,-1.012929304836779343e-01,-1.012929304836779343e-01,-1.012929304836779343e-01,-1.012929304836779343e-01,-1.012929304836779343e-01,-1.012929304836779343e-01,-1.012929304836779343e-01,-1.012929304836779343e-01,-1.012929304836779343e-01,-1.012929304836779343e-01,-1.012929304836779343e-01,-1.012929304836779343e-01,-1.012929304836779343e-01,-1.012929304836779343e-01,-1.012929304836779343e-01,-1.012929304836779343e-01,-1.012929304836779343e-01,-1.012929304836779343e-01,-1.012929304836779343e-01,-1.012929304836779343e-01,-1.012929304836779343e-01,-1.012929304836779343e-01,-1.012929304836779343e-01,-1.012929304836779343e-01
-1.012929304836779343e-01,-1.012929304836779343e-01,-1.012929304836779343e-01,-1.012929304836779343e-01,-1.012929304836779343e-01,-1.012929304836779343e-01,-1.012929304836779343e-01,-1.012929304836779343e-01,-1.012929304836779343e-01,-1.012929304836779343e-01,-1.012929304836779343e-01,-1.012929304836779343e-01,-1.012929304836779343e-01,-1.012929304836779343e-01,-1.012929304836779343e-01,-1.012929304836779343e-01,-1.012929304836779343e-01,-1.012929304836779343e-01,-1.012929304836779343e-01,-1.012929304836779343e-01,-1.012929304836779343e-01,-1.012929304836779343e-01,-1.012929304836779343e-01,-1.012929304836779343e-01,-1.012929304836779343e-01,-1.012929304836779343e-01,-1.012929304836779343e-01,-1.012929304836779343e-01,-1.012929304836779343e-01,-1.012929304836779343e-01,-1.012929304836779343e-01,-1.012929304836779343e-01,-1.012929304836779343e-01,-1.012929304836779343e-01,-1.012929304836779343e-01,-1.012929304836779343e-01,-1.012929304836779343e-01,-1.012929304836779343e-01,-1.012929304836779343e-01,-1.012929304836779343e-01,-1.012929304836779343e-01,-1.012929304836779343e-01,-1.012929304836779343e-01,-1.012929304836779343e-01,-1.012929304836779343e-01,-1.012929304836779343e-01,-1.012929304836779343e-01
-1.012929304836779343e-01,-1.012929304836779343e-01,-1.012929304836779343e-01,-1.012929304836779343e-01,-1.012929304836779343e-01,-1.012929304836779343e-01,-1.012929304836779343e-01,-1.012929304836779343e-01,-1.012929304836779343e-01,-1.012929304836779343e-01,-1.012929304836779343e-01,-1.012929304836779343e-01,-1.012929304836779343e-01,-1.012929304836779343e-01,-1.012929304836779343e-01,-1.012929304836779343e-01,-1.012929304836779343e-01,-1.012929304836779343e-01,-1.012929304836779343e-01,-1.012929304836779343e-01,-1.012929304836779343e-01,-1.012929304836779343e-01,-1.012929304836779343e-01,-1.012929304836779343e-01,-1.012929304836779343e-01,-1.012929304836779343e-01,-1.012929304836779343e-01,-1.012929304836779343e-01,-1.012929304836779343e-01,-1.012929304836779343e-01,-1.012929304836779343e-01,-1.012929304836779343e-01,-1.012929304836779343e-01,-1.012929304836779343e-01,-1.012929304836779343e-01,-1.012929304836779343e-01,-1.012929304836779343e-01,-1.012929304836779343e-01,-1.012929304836779343e-01,-1.012929304836779343e-01,-1.012929304836779343e-01,-1.012929304836779343e-01,-1.012929304836779343e-01,-1.012929304836779343e-01,-1.012929304836779343e-01,-1.012929304836779343e-01,-1.012929304836779343e-01
-1.012929304836779343e-01,-1.012929304836779343e-01,-1.012929304836779343e-01,-1.012929304836779343e-01,-1.012929304836779343e-01,-1.012929304836779343e-01,-1.012929304836779343e-01,-1.012929304836779343e-01,-1.012929304836779343e-01,-1.012929304836779343e-01,-1.012929304836779343e-01,-1.012929304836779343e-01,-1.012929304836779343e-01,-1.012929304836779343e-01,-1.012929304836779343e-01,-1.012929304836779343e-01,-1.012929304836779343e-01,-1.012929304836779343e-01,-1.012929304836779343e-01,-1.012929304836779343e-01,-1.012929304836779343e-01,-1.012929304836779343e-01,-1.012929304836779343e-01,-1.012929304836779343e-01,-1.012929304836779343e-01,-1.012929304836779343e-01,-1.012929304836779343e-01,-1.012929304836779343e-01,-1.012929304836779343e-01,-1.012929304836779343e-01,-1.012929304836779343e-01,-1.012929304836779343e-01,-1.012929304836779343e-01,-1.012929304836779343e-01,-1.012929304836779343e-01,-1.012929304836779343e-01,-1.012929304836779343e-01,-1.012929304836779343e-01,-1.012929304836779343e-01,-1.012929304836779343e-01,-1.012929304836779343e-01,-1.012929304836779343e-01,-1.209245127246377505e-01,-1.209245127246377505e-01,-1.209245127246377505e-01,-1.209245127246377505e-01,-1.209245127246377505e-01
-1.012929304836779343e-01,-1.012929304836779343e-01,-1.012929304836779343e-01,-1.012929304836779343e-01,-1.012929304836779343e-01,-1.012929304836779343e-01,-1.012929304836779343e-01,-1.012929304836779343e-01,-1.012929304836779343e-01,-1.012929304836779343e-01,-1.012929304836779343e-01,-1.012929304836779343e-01,-1.012929304836779343e-01,-1.012929304836779343e-01,-1.012929304836779343e-01,-1.012929304836779343e-01,-1.012929304836779343e-01,-1.012929304836779343e-01,-1.012929304836779343e-01,-1.012929304836779343e-01,-1.012929304836779343e-01,-1.012929304836779343e-01,-1.012929304836779343e-01,-1.012929304836779343e-01,-1.012929304836779343e-01,-1.012929304836779343e-01,-1.012929304836779343e-01,-1.012929304836779343e-01,-1.012929304836779343e-01,-1.012929304836779343e-01,-1.012929304836779343e-01,-1.012929304836779343e-01,-1.012929304836779343e-01,-1.012929304836779343e-01,-1.012929304836779343e-01,-1.012929304836779343e-01,-1.012929304836779343e-01,-1.012929304836779343e-01,-1.012929304836779343e-01,-1.012929304836779343e-01,-1.012929304836779343e-01,-1.012929304836779343e-01,-1.209245127246377505e-01,-1.209245127246377505e-01,-1.209245127246377505e-01,-1.209245127246377505e-01,-1.209245127246377505e-01
-1.012929304836779343e-01,-1.012929304836779343e-01,-1.012929304836779343e-01,-1.012929304836779343e-01,-1.012929304836779343e-01,-1.012929304836779343e-01,-1.012929304836779343e-01,-1.012929304836779343e-01,-1.012929304836779343e-01,-1.012929304836779343e-01,-1.012929304836779343e-01,-1.012929304836779343e-01,-1.012929304836779343e-01,-1.012929304836779343e-01,-1.012929304836779343e-01,-1.012929304836779343e-01,-1.012929304836779343e-01,-1.012929304836779343e-01,-1.012929304836779343e-01,-1.012929304836779343e-01,-1.012929304836779343e-01,-1.012929304836779343e-01,-1.012929304836779343e-01,-1.012929304836779343e-01,-1.012929304836779343e-01,-1.012929304836779343e-01,-1.012929304836779343e-01,-1.012929304836779343e-01,-1.012929304836779343e-01,-1.012929304836779343e-01,-1.012929304836779343e-01,-1.012929304836779343e-01,-1.012929304836779343e-01,-1.012929304836779343e-01,-1.012929304836779343e-01,-1.012929304836779343e-01,-1.012929304836779343e-01,-1.012929304836779343e-01,-1.012929304836779343e-01,-1.012929304836779343e-01,-1.012929304836779343e-01,-1.012929304836779343e-01,-1.209245127246377505e-01,-1.209245127246377505e-01,-1.209245127246377505e-01,-1.209245127246377505e-01,-1.209245127246377505e-01
-1.012929304836779343e-01,-2.238248142126693652e-01,-2.238248142126693652e-01,-2.238248142126693652e-01,-2.238248142126693652e-01,-1.012929304836779343e-01,-1.012929304836779343e-01,-1.012929304836779343e-01,-1.012929304836779343e-01,-1.012929304836779343e-01,-1.012929304836779343e-01,-1.012929304836779343e-01,-1.012929304836779343e-01,-1.012929304836779343e-01,-1.012929304836779343e-01,-1.012929304836779343e-01,-1.012929304836779343e-01,-1.012929304836779343e-01,-1.012929304836779343e-01,-1.012929304836779343e-01,-1.012929304836779343e-01,-1.012929304836779343e-01,-1.012929304836779343e-01,-1.012929304836779343e-01,-1.012929304836779343e-01,-1.012929304836779343e-01,-1.012929304836779343e-01,-2.281740573238582315e-01,-2.281740573238582315e-01,-2.281740573238582315e-01,-2.281740573238582315e-01,-2.281740573238582315e-01,-1.012929304836779343e-01,-1.012929304836779343e-01,-1.012929304836779343e-01,-1.012929304836779343e-01,-1.012929304836779343e-01,-1.012929304836779343e-01,-1.012929304836779343e-01,-1.012929304836779343e-01,-1.012929304836779343e-01,-1.012929304836779343e-01,-1.209245127246377505e-01,-1.209245127246377505e-01,-1.209245127246377505e-01,-1.209245127246377505e-01,-1.209245127246377505e-01
-1.012929304836779343e-01,-2.238248142126693652e-01,-2.238248142126693652e-01,-2.238248142126693652e-01,-2.238248142126693652e-01,-1.012929304836779343e-01,-1.012929304836779343e-01,-1.012929304836779343e-01,-1.012929304836779343e-01,-1.012929304836779343e-01,-1.012929304836779343e-01,-1.012929304836779343e-01,-1.012929304836779343e-01,-1.012929304836779343e-01,-1.012929304836779343e-01,-1.012929304836779343e-01,-1.012929304836779343e-01,-1.012929304836779343e-01,-1.012929304836779343e-01,-1.012929304836779343e-01,-1.012929304836779343e-01,-1.012929304836779343e-01,-1.012929304836779343e-01,-1.012929304836779343e-01,-1.012929304836779343e-01,-1.012929304836779343e-01,-1.012929304836779343e-01,-2.281740573238582315e-01,-2.281740573238582315e-01,-2.281740573238582315e-01,-2.281740573238582315e-01,-2.281740573238582315e-01,-1.012929304836779343e-01,-1.012929304836779343e-01,-1.012929304836779343e-01,-1.012929304836779343e-01,-1.012929304836779343e-01,-1.012929304836779343e-01,-1.012929304836779343e-01,-1.012929304836779343e-01,-1.012929304836779343e-01,-1.012929304836779343e-01,-1.209245127246377505e-01,-1.209245127246377505e-01,-1.209245127246377505e-01,-1.209245127246377505e-01,-1.209245127246377505e-01
-1.012929304836779343e-01,-2.238248142126693652e-01,-2.238248142126693652e-01,-2.238248142126693652e-01,-2.238248142126693652e-01,-1.012929304836779343e-01,-1.012929304836779343e-01,-1.012929304836779343e-01,-1.012929304836779343e-01,-1.012929304836779343e-01,-1.012929304836779343e-01,-1.012929304836779343e-01,-1.012929304836779343e-01,-1.012929304836779343e-01,-1.012929304836779343e-01,-1.012929304836779343e-01,-1.012929304836779343e-01,-1.012929304836779343e-01,-1.012929304836779343e-01,-1.012929304836779343e-01,-1.012929304836779343e-01,-1.012929304836779343e-01,-1.012929304836779343e-01,-1.012929304836779343e-01,-1.012929304836779343e-01,-1.012929304836779343e-01,-1.012929304836779343e-01,-2.281740573238582315e-01,-2.281740573238582315e-01,-2.281740573238582315e-01,-2.281740573238582315e-01,-2.281740573238582315e-01,-1.012929304836779343e-01,-1.012929304836779343e-01,-1.012929304836779343e-01,-1.012929304836779343e-01,-1.012929304836779343e-01,-1.012929304836779343e-01,-1.012929304836779343e-01,-1.012929304836779343e-01,-1.012929304836779343e-01,-1.012929304836779343e-01,-1.012929304836779343e-01,-1.012929304836779343e-01,-1.012929304836779343e-01,-1.012929304836779343e-01,-1.012929304836779343e-01
-1.012929304836779343e-01,-2.238248142126693652e-01,-2.238248142126693652e-01,-2.238248142126693652e-01,-2.238248142126693652e-01,-1.012929304836779343e-01,-1.012929304836779343e-01,-1.012929304836779343e-01,-1.012929304836779343e-01,-1.012929304836779343e-01,-1.012929304836779343e-01,-1.012929304836779343e-01,-1.012929304836779343e-01,-1.012929304836779343e-01,-1.012929304836779343e-01,-1.012929304836779343e-01,-1.012929304836779343e-01,-1.012929304836779343e-01,-1.012929304836779343e-01,-1.012929304836779343e-01,-1.012929304836779343e-01,-1.012929304836779343e-01,-1.012929304836779343e-01,-1.012929304836779343e-01,-1.012929304836779343e-01,-1.012929304836779343e-01,-1.012929304836779343e-01,-2.281740573238582315e-01,-2.281740573238582315e-01,-2.281740573238582315e-01,-2.281740573238582315e-01,-2.281740573238582315e-01,-1.012929304836779343e-01,-1.012929304836779343e-01,-1.012929304836779343e-01,-1.012929304836779343e-01,-1.012929304836779343e-01,-1.012929304836779343e-01,-1.012929304836779343e-01,-1.012929304836779343e-01,-1.012929304836779343e-01,-1.012929304836779343e-01,-1.012929304836779343e-01,-1.012929304836779343e-01,-1.012929304836779343e-01,-1.012929304836779343e-01,-1.012929304836779343e-01
-1.012929304836779343e-01,-1.012929304836779343e-01,-1.012929304836779343e-01,-1.012929304836779343e-01,-1.012929304836779343e-01,-1.012929304836779343e-01,-1.012929304836779343e-01,-1.012929304836779343e-01,-1.012929304836779343e-01,-1.012929304836779343e-01,-1.012929304836779343e-01,-1.012929304836779343e-01,-1.012929304836779343e-01,-1.012929304836779343e-01,-1.012929304836779343e-01,-1.012929304836779343e-01,-1.012929304836779343e-01,-1.012929304836779343e-01,-1.012929304836779343e-01,-1.012929304836779343e-01,-1.012929304836779343e-01,-1.012929304836779343e-01,-1.012929304836779343e-01,-1.012929304836779343e-01,-1.012929304836779343e-01,-1.012929304836779343e-01,-1.012929304836779343e-01,-2.281740573238582315e-01,-2.281740573238582315e-01,-2.281740573238582315e-01,-2.281740573238582315e-01,-2.281740573238582315e-01,-1.012929304836779343e-01,-1.012929304836779343e-01,-1.012929304836779343e-01,-1.012929304836779343e-01,-1.012929304836779343e-01,-1.012929304836779343e-01,-1.012929304836779343e-01,-1.012929304836779343e-01,-1.012929304836779343e-01,-1.012929304836779343e-01,-1.012929304836779343e-01,-1.012929304836779343e-01,-1.012929304836779343e-01,-1.012929304836779343e-01,-1.012929304836779343e-01
-1.012929304836779343e-01,-1.012929304836779343e-01,-1.012929304836779343e-01,-1.012929304836779343e-01,-1.012929304836779343e-01,-1.012929304836779343e-01,-1.012929304836779343e-01,-1.012929304836779343e-01,-1.012929304836779343e-01,-1.012929304836779343e-01,-1.012929304836779343e-01,-1.012929304836779343e-01,-1.012929304836779343e-01,-1.012929304836779343e-01,-1.012929304836779343e-01,-1.012929304836779343e-01,-1.012929304836779343e-01,-1.012929304836779343e-01,-1.012929304836779343e-01,-1.012929304836779343e-01,-1.012929304836779343e-01,-1.012929304836779343e-01,-1.012929304836779343e-01,-1.012929304836779343e-01,-1.012929304836779343e-01,-1.012929304836779343e-01,-1.012929304836779343e-01,-1.012929304836779343e-01,-1.012929304836779343e-01,-1.012929304836779343e-01,-1.012929304836779343e-01,-1.012929304836779343e-01,-1.012929304836779343e-01,-1.012929304836779343e-01,-1.012929304836779343e-01,-1.012929304836779343e-01,-1.012929304836779343e-01,-1.012929304836779343e-01,-1.012929304836779343e-01,-1.012929304836779343e-01,-1.012929304836779343e-01,-1.012929304836779343e-01,-1.012929304836779343e-01,-1.012929304836779343e-01,-1.012929304836779343e-01,-1.012929304836779343e-01,-1.012929304836779343e-01
-1.012929304836779343e-01,-1.012929304836779343e-01,-1.012929304836779343e-01,-1.012929304836779343e-01,-1.012929304836779343e-01,-1.012929304836779343e-01,-1.012929304836779343e-01,-1.012929304836779343e-01,-1.012929304836779343e-01,-1.012929304836779343e-01,-1.012929304836779343e-01,-1.012929304836779343e-01,-1.012929304836779343e-01,-1.012929304836779343e-01,-1.012929304836779343e-01,-1.012929304836779343e-01,-1.012929304836779343e-01,-1.012929304836779343e-01,-1.012929304836779343e-01,-1.012929304836779343e-01,-1.012929304836779343e-01,-1.012929304836779343e-01,-1.012929304836779343e-01,-1.012929304836779343e-01,-1.012929304836779343e-01,-1.012929304836779343e-01,-1.012929304836779343e-01,-1.012929304836779343e-01,-1.012929304836779343e-01,-1.012929304836779343e-01,-1.012929304836779343e-01,-1.012929304836779343e-01,-1.012929304836779343e-01,-1.012929304836779343e-01,-1.012929304836779343e-01,-1.012929304836779343e-01,-1.012929304836779343e-01,-1.012929304836779343e-01,-1.012929304836779343e-01,-1.012929304836779343e-01,-1.012929304836779343e-01,-1.012929304836779343e-01,-1.012929304836779343e-01,-1.012929304836779343e-01,-1.012929304836779343e-01,-1.012929304836779343e-01,-1.012929304836779343e-01
-1.012929304836779343e-01,-1.012929304836779343e-01,-1.012929304836779343e-01,-1.012929304836779343e-01,-1.012929304836779343e-01,-1.012929304836779343e-01,-1.012929304836779343e-01,-1.012929304836779343e-01,-1.012929304836779343e-01,-1.012929304836779343e-01,-1.012929304836779343e-01,-1.012929304836779343e-01,-1.012929304836779343e-01,-1.012929304836779343e-01,-1.012929304836779343e-01,-1.012929304836779343e-01,-1.012929304836779343e-01,-1.012929304836779343e-01,-1.012929304836779343e-01,-1.012929304836779343e-01,-1.012929304836779343e-01,-1.012929304836779343e-01,-1.012929304836779343e-01,-1.012929304836779343e-01,-1.012929304836779343e-01,-1.012929304836779343e-01,-1.012929304836779343e-01,-1.012929304836779343e-01,-1.012929304836779343e-01,-1.012929304836779343e-01,-1.012929304836779343e-01,-1.012929304836779343e-01,-1.012929304836779343e-01,-1.012929304836779343e-01,-1.012929304836779343e-01,-1.012929304836779343e-01,-1.012929304836779343e-01,-1.012929304836779343e-01,-1.012929304836779343e-01,-1.012929304836779343e-01,-1.012929304836779343e-01,-1.012929304836779343e-01,-1.012929304836779343e-01,-1.012929304836779343e-01,-1.012929304836779343e-01,-1.012929304836779343e-01,-1.012929304836779343e-01
-1.012929304836779343e-01,-1.012929304836779343e-01,-1.012929304836779343e-01,-1.012929304836779343e-01,-1.012929304836779343e-01,-1.012929304836779343e-01,-1.012929304836779343e-01,-1.012929304836779343e-01,-1.012929304836779343e-01,-1.012929304836779343e-01,-1.012929304836779343e-01,-1.012929304836779343e-01,-1.012929304836779343e-01,-1.012929304836779343e-01,-1.012929304836779343e-01,-1.012929304836779343e-01,-1.012929304836779343e-01,-1.012929304836779343e-01,-1.012929304836779343e-01,-1.012929304836779343e-01,-1.012929304836779343e-01,-1.012929304836779343e-01,-1.012929304836779343e-01,-1.012929304836779343e-01,-1.012929304836779343e-01,-1.012929304836779343e-01,-1.012929304836779343e-01,-1.012929304836779343e-01,-1.012929304836779343e-01,-1.012929304836779343e-01,-1.012929304836779343e-01,-1.012929304836779343e-01,-1.012929304836779343e-01,-1.012929304836779343e-01,-1.012929304836779343e-01,-1.012929304836779343e-01,-1.012929304836779343e-01,-1.012929304836779343e-01,-1.012929304836779343e-01,-1.012929304836779343e-01,-1.012929304836779343e-01,-1.012929304836779343e-01,-1.012929304836779343e-01,-1.012929304836779343e-01,-1.012929304836779343e-01,-1.012929304836779343e-01,-1.012929304836779343e-01
