-2.518763851739611037e-01,-2.518763851739611037e-01,-2.518763851739611037e-01,-2.518763851739611037e-01,-2.518763851739611037e-01,-2.518763851739611037e-01,-2.518763851739611037e-01,-2.518763851739611037e-01,-2.518763851739611037e-01,-2.518763851739611037e-01,-2.518763851739611037e-01,-2.518763851739611037e-01,-2.518763851739611037e-01,-2.518763851739611037e-01,-2.518763851739611037e-01,-2.518763851739611037e-01,-2.518763851739611037e-01,-2.518763851739611037e-01,-2.518763851739611037e-01,-2.518763851739611037e-01,-2.518763851739611037e-01,-2.518763851739611037e-01,-2.518763851739611037e-01,-2.518763851739611037e-01,-2.518763851739611037e-01,-2.518763851739611037e-01,-2.518763851739611037e-01,-2.518763851739611037e-01,-2.518763851739611037e-01,-2.518763851739611037e-01,-2.518763851739611037e-01,-2.518763851739611037e-01,-2.518763851739611037e-01,-2.518763851739611037e-01,-2.518763851739611037e-01,-2.518763851739611037e-01,-2.518763851739611037e-01,-2.518763851739611037e-01,-2.518763851739611037e-01,-2.518763851739611037e-01,-2.518763851739611037e-01,-2.518763851739611037e-01,-2.518763851739611037e-01,-2.518763851739611037e-01,-2.518763851739611037e-01,-2.518763851739611037e-01,-2.518763851739611037e-01
-2.518763851739611037e-01,-2.518763851739611037e-01,-2.518763851739611037e-01,-2.518763851739611037e-01,-2.518763851739611037e-01,-2.518763851739611037e-01,-2.518763851739611037e-01,-2.518763851739611037e-01,-2.518763851739611037e-01,-2.518763851739611037e-01,-2.518763851739611037e-01,-2.518763851739611037e-01,-2.518763851739611037e-01,-2.518763851739611037e-01,-2.518763851739611037e-01,-2.518763851739611037e-01,-2.518763851739611037e-01,-2.518763851739611037e-01,-2.518763851739611037e-01,-2.518763851739611037e-01,-2.518763851739611037e-01,-2.518763851739611037e-01,-2.518763851739611037e-01,-2.518763851739611037e-01,-2.518763851739611037e-01,-2.518763851739611037e-01,-2.518763851739611037e-01,-2.518763851739611037e-01,-2.518763851739611037e-01,-2.518763851739611037e-01,-2.518763851739611037e-01,-2.518763851739611037e-01,-2.518763851739611037e-01,-2.518763851739611037e-01,-2.518763851739611037e-01,-2.518763851739611037e-01,-2.518763851739611037e-01,-2.518763851739611037e-01,-2.518763851739611037e-01,-2.518763851739611037e-01,-2.518763851739611037e-01,-2.518763851739611037e-01,-2.518763851739611037e-01,-2.518763851739611037e-01,-2.518763851739611037e-01,-2.518763851739611037e-01,-2.518763851739611037e-01
-2.518763851739611037e-01,-2.518763851739611037e-01,-2.518763851739611037e-01,-2.518763851739611037e-01,-2.518763851739611037e-01,-2.518763851739611037e-01,-2.518763851739611037e-01,-2.518763851739611037e-01,-2.518763851739611037e-01,-2.518763851739611037e-01,-2.518763851739611037e-01,-2.518763851739611037e-01,-2.518763851739611037e-01,-2.518763851739611037e-01,-2.518763851739611037e-01,-2.518763851739611037e-01,-2.518763851739611037e-01,-2.518763851739611037e-01,-2.518763851739611037e-01,-2.518763851739611037e-01,-2.518763851739611037e-01,-2.518763851739611037e-01,-2.518763851739611037e-01,-2.518763851739611037e-01,-2.518763851739611037e-01,-2.518763851739611037e-01,-2.518763851739611037e-01,-2.518763851739611037e-01,-2.518763851739611037e-01,-2.518763851739611037e-01,-2.518763851739611037e-01,-2.518763851739611037e-01,-2.518763851739611037e-01,-2.518763851739611037e-01,-2.518763851739611037e-01,-2.518763851739611037e-01,-2.518763851739611037e-01,-2.518763851739611037e-01,-2.518763851739611037e-01,-2.518763851739611037e-01,-2.518763851739611037e-01,-2.518763851739611037e-01,-2.518763851739611037e-01,-2.518763851739611037e-01,-2.518763851739611037e-01,-2.518763851739611037e-01,-2.518763851739611037e-01
-2.518763851739611037e-01,-2.518763851739611037e-01,-2.518763851739611037e-01,-2.518763851739611037e-01,-2.518763851739611037e-01,-2.518763851739611037e-01,-2.518763851739611037e-01,-2.518763851739611037e-01,-2.518763851739611037e-01,-2.518763851739611037e-01,-2.518763851739611037e-01,-2.518763851739611037e-01,-2.518763851739611037e-01,-2.518763851739611037e-01,-2.518763851739611037e-01,-2.518763851739611037e-01,-2.518763851739611037e-01,-2.518763851739611037e-01,-2.518763851739611037e-01,-2.518763851739611037e-01,-2.518763851739611037e-01,-2.518763851739611037e-01,-2.518763851739611037e-01,-2.518763851739611037e-01,-2.518763851739611037e-01,-2.518763851739611037e-01,-2.518763851739611037e-01,-2.518763851739611037e-01,-2.518763851739611037e-01,-2.518763851739611037e-01,-2.518763851739611037e-01,-2.518763851739611037e-01,-2.518763851739611037e-01,-2.518763851739611037e-01,-2.518763851739611037e-01,-2.518763851739611037e-01,-2.518763851739611037e-01,-2.518763851739611037e-01,-2.518763851739611037e-01,-2.518763851739611037e-01,-2.518763851739611037e-01,-2.518763851739611037e-01,-2.518763851739611037e-01,-2.518763851739611037e-01,-2.518763851739611037e-01,-2.518763851739611037e-01,-2.518763851739611037e-01
-2.518763851739611037e-01,-2.518763851739611037e-01,-2.518763851739611037e-01,-2.518763851739611037e-01,-2.518763851739611037e-01,-2.518763851739611037e-01,-2.518763851739611037e-01,-2.518763851739611037e-01,-2.518763851739611037e-01,-2.518763851739611037e-01,-2.518763851739611037e-01,-2.518763851739611037e-01,-2.518763851739611037e-01,-2.518763851739611037e-01,-2.518763851739611037e-01,-2.518763851739611037e-01,-2.518763851739611037e-01,-2.518763851739611037e-01,-2.518763851739611037e-01,-2.518763851739611037e-01,-2.518763851739611037e-01,-2.518763851739611037e-01,-2.518763851739611037e-01,-2.518763851739611037e-01,-2.518763851739611037e-01,-2.518763851739611037e-01,-2.518763851739611037e-01,-2.518763851739611037e-01,-2.518763851739611037e-01,-2.518763851739611037e-01,-2.518763851739611037e-01,-2.518763851739611037e-01,-2.518763851739611037e-01,-2.518763851739611037e-01,-2.518763851739611037e-01,-2.518763851739611037e-01,-2.518763851739611037e-01,-2.518763851739611037e-01,-2.518763851739611037e-01,-2.518763851739611037e-01,-2.518763851739611037e-01,-2.518763851739611037e-01,-2.518763851739611037e-01,-2.518763851739611037e-01,-2.518763851739611037e-01,-2.518763851739611037e-01,-2.518763851739611037e-01
-2.518763851739611037e-01,-2.518763851739611037e-01,-2.518763851739611037e-01,-2.518763851739611037e-01,-2.518763851739611037e-01,-2.518763851739611037e-01,-2.518763851739611037e-01,-2.518763851739611037e-01,-2.518763851739611037e-01,-2.518763851739611037e-01,-2.518763851739611037e-01,-2.518763851739611037e-01,-2.518763851739611037e-01,-2.518763851739611037e-01,-2.518763851739611037e-01,-2.518763851739611037e-01,-2.518763851739611037e-01,-2.518763851739611037e-01,-2.518763851739611037e-01,-2.518763851739611037e-01,-2.518763851739611037e-01,-2.518763851739611037e-01,-2.518763851739611037e-01,-2.518763851739611037e-01,-2.518763851739611037e-01,-2.518763851739611037e-01,-2.518763851739611037e-01,-2.518763851739611037e-01,-2.518763851739611037e-01,-2.518763851739611037e-01,-2.518763851739611037e-01,-2.518763851739611037e-01,-2.518763851739611037e-01,-2.518763851739611037e-01,-2.518763851739611037e-01,-2.518763851739611037e-01,-2.518763851739611037e-01,-2.518763851739611037e-01,-2.518763851739611037e-01,-2.518763851739611037e-01,-2.518763851739611037e-01,-2.518763851739611037e-01,-2.518763851739611037e-01,-2.518763851739611037e-01,-2.518763851739611037e-01,-2.518763851739611037e-01,-2.518763851739611037e-01
-2.518763851739611037e-01,-2.518763851739611037e-01,-2.518763851739611037e-01,-2.518763851739611037e-01,-2.518763851739611037e-01,-2.518763851739611037e-01,-2.518763851739611037e-01,-2.518763851739611037e-01,-2.518763851739611037e-01,-2.518763851739611037e-01,-2.518763851739611037e-01,-2.518763851739611037e-01,-2.518763851739611037e-01,-2.518763851739611037e-01,-2.518763851739611037e-01,-2.518763851739611037e-01,-2.518763851739611037e-01,-2.518763851739611037e-01,-2.518763851739611037e-01,-2.518763851739611037e-01,-2.518763851739611037e-01,-2.518763851739611037e-01,-2.518763851739611037e-01,-2.518763851739611037e-01,-2.518763851739611037e-01,-2.518763851739611037e-01,-2.518763851739611037e-01,-2.518763851739611037e-01,-2.518763851739611037e-01,-2.518763851739611037e-01,-2.518763851739611037e-01,-2.518763851739611037e-01,-2.518763851739611037e-01,-2.518763851739611037e-01,-2.518763851739611037e-01,-2.518763851739611037e-01,-2.518763851739611037e-01,-2.518763851739611037e-01,-2.518763851739611037e-01,-2.518763851739611037e-01,-2.518763851739611037e-01,-2.518763851739611037e-01,-2.518763851739611037e-01,-2.518763851739611037e-01,-2.518763851739611037e-01,-2.518763851739611037e-01,-2.518763851739611037e-01
-2.518763851739611037e-01,-2.518763851739611037e-01,-2.518763851739611037e-01,-2.518763851739611037e-01,-2.518763851739611037e-01,-2.518763851739611037e-01,-2.518763851739611037e-01,-2.518763851739611037e-01,-2.518763851739611037e-01,-2.518763851739611037e-01,-2.518763851739611037e-01,-2.518763851739611037e-01,-2.518763851739611037e-01,-2.518763851739611037e-01,-2.518763851739611037e-01,-2.518763851739611037e-01,-2.518763851739611037e-01,-2.518763851739611037e-01,-2.518763851739611037e-01,-2.518763851739611037e-01,-2.518763851739611037e-01,-2.518763851739611037e-01,-2.518763851739611037e-01,-2.518763851739611037e-01,-2.518763851739611037e-01,-2.518763851739611037e-01,-2.518763851739611037e-01,-2.518763851739611037e-01,-2.518763851739611037e-01,-2.518763851739611037e-01,-2.518763851739611037e-01,-2.518763851739611037e-01,-2.518763851739611037e-01,-2.518763851739611037e-01,-2.518763851739611037e-01,-2.518763851739611037e-01,-2.518763851739611037e-01,-2.518763851739611037e-01,-2.518763851739611037e-01,-2.518763851739611037e-01,-2.518763851739611037e-01,-2.518763851739611037e-01,-2.518763851739611037e-01,-2.518763851739611037e-01,-2.518763851739611037e-01,-2.518763851739611037e-01,-2.518763851739611037e-01
-2.518763851739611037e-01,-2.518763851739611037e-01,-2.518763851739611037e-01,-2.518763851739611037e-01,-2.518763851739611037e-01,-2.518763851739611037e-01,-2.518763851739611037e-01,-2.518763851739611037e-01,-2.518763851739611037e-01,-2.518763851739611037e-01,-2.518763851739611037e-01,-2.518763851739611037e-01,-2.518763851739611037e-01,-2.518763851739611037e-01,-2.518763851739611037e-01,-2.518763851739611037e-01,-2.518763851739611037e-01,-2.518763851739611037e-01,-2.518763851739611037e-01,-2.518763851739611037e-01,-2.518763851739611037e-01,-2.518763851739611037e-01,-2.518763851739611037e-01,-2.518763851739611037e-01,-2.518763851739611037e-01,-2.518763851739611037e-01,-2.518763851739611037e-01,-2.518763851739611037e-01,-2.518763851739611037e-01,-2.518763851739611037e-01,-2.518763851739611037e-01,-2.518763851739611037e-01,-2.518763851739611037e-01,-2.518763851739611037e-01,-2.518763851739611037e-01,-2.518763851739611037e-01,-2.518763851739611037e-01,-2.518763851739611037e-01,-2.518763851739611037e-01,-2.518763851739611037e-01,-2.518763851739611037e-01,-2.518763851739611037e-01,-2.518763851739611037e-01,-2.518763851739611037e-01,-2.518763851739611037e-01,-2.518763851739611037e-01,-2.518763851739611037e-01
-2.518763851739611037e-01,-2.518763851739611037e-01,-2.518763851739611037e-01,-2.518763851739611037e-01,-2.518763851739611037e-01,-2.518763851739611037e-01,-2.518763851739611037e-01,-2.518763851739611037e-01,-2.518763851739611037e-01,-2.518763851739611037e-01,-2.518763851739611037e-01,-2.518763851739611037e-01,-2.518763851739611037e-01,-2.518763851739611037e-01,-2.518763851739611037e-01,-2.518763851739611037e-01,-2.518763851739611037e-01,-2.518763851739611037e-01,-2.518763851739611037e-01,-2.518763851739611037e-01,-2.518763851739611037e-01,-2.518763851739611037e-01,-2.518763851739611037e-01,-2.518763851739611037e-01,-2.518763851739611037e-01,-2.518763851739611037e-01,-2.518763851739611037e-01,-2.518763851739611037e-01,-2.518763851739611037e-01,-2.518763851739611037e-01,-2.518763851739611037e-01,-2.518763851739611037e-01,-2.518763851739611037e-01,-2.518763851739611037e-01,-2.518763851739611037e-01,-2.518763851739611037e-01,-2.518763851739611037e-01,-2.518763851739611037e-01,-2.518763851739611037e-01,-2.518763851739611037e-01,-2.518763851739611037e-01,-2.518763851739611037e-01,-2.518763851739611037e-01,-2.518763851739611037e-01,-2.518763851739611037e-01,-2.518763851739611037e-01,-2.518763851739611037e-01
-2.518763851739611037e-01,-2.518763851739611037e-01,-2.518763851739611037e-01,-2.518763851739611037e-01,-2.518763851739611037e-01,-2.518763851739611037e-01,-2.518763851739611037e-01,-2.518763851739611037e-01,-2.518763851739611037e-01,-2.518763851739611037e-01,-2.518763851739611037e-01,-2.518763851739611037e-01,-2.518763851739611037e-01,-2.518763851739611037e-01,-2.518763851739611037e-01,-2.518763851739611037e-01,-2.518763851739611037e-01,-2.518763851739611037e-01,-2.518763851739611037e-01,-2.518763851739611037e-01,-2.518763851739611037e-01,-2.518763851739611037e-01,-2.518763851739611037e-01,-2.518763851739611037e-01,-2.518763851739611037e-01,-2.518763851739611037e-01,-2.518763851739611037e-01,-2.518763851739611037e-01,-2.518763851739611037e-01,-2.518763851739611037e-01,-2.518763851739611037e-01,-2.518763851739611037e-01,-2.518763851739611037e-01,-2.518763851739611037e-01,-2.518763851739611037e-01,-2.518763851739611037e-01,-2.518763851739611037e-01,-2.518763851739611037e-01,-2.518763851739611037e-01,-2.518763851739611037e-01,-2.518763851739611037e-01,-2.518763851739611037e-01,-2.518763851739611037e-01,-2.518763851739611037e-01,-2.518763851739611037e-01,-2.518763851739611037e-01,-2.518763851739611037e-01
-2.518763851739611037e-01,-2.518763851739611037e-01,-2.518763851739611037e-01,-2.518763851739611037e-01,-2.518763851739611037e-01,-2.518763851739611037e-01,-2.518763851739611037e-01,-2.518763851739611037e-01,-2.518763851739611037e-01,-2.518763851739611037e-01,-2.518763851739611037e-01,-2.518763851739611037e-01,-2.518763851739611037e-01,-2.518763851739611037e-01,-2.518763851739611037e-01,-2.518763851739611037e-01,-2.518763851739611037e-01,-2.518763851739611037e-01,-2.518763851739611037e-01,-2.518763851739611037e-01,-2.518763851739611037e-01,-2.518763851739611037e-01,-2.518763851739611037e-01,-2.518763851739611037e-01,-2.518763851739611037e-01,-2.518763851739611037e-01,-2.518763851739611037e-01,-2.518763851739611037e-01,-2.518763851739611037e-01,-2.518763851739611037e-01,-2.518763851739611037e-01,-2.518763851739611037e-01,-2.518763851739611037e-01,-2.518763851739611037e-01,-2.518763851739611037e-01,-2.518763851739611037e-01,-2.518763851739611037e-01,-2.518763851739611037e-01,-2.518763851739611037e-01,-2.518763851739611037e-01,-2.518763851739611037e-01,-2.518763851739611037e-01,-2.518763851739611037e-01,-2.518763851739611037e-01,-2.518763851739611037e-01,-2.518763851739611037e-01,-2.518763851739611037e-01
-2.508596966400558070e-01,-2.508269002357362831e-01,-2.508269002357362831e-01,-2.513516427048486657e-01,-2.513516427048486657e-01,-2.513516427048486657e-01,-2.513516427048486657e-01,-2.513516427048486657e-01,-2.513516427048486657e-01,-2.513516427048486657e-01,-2.513516427048486657e-01,-2.513516427048486657e-01,-2.513516427048486657e-01,-2.513516427048486657e-01,-2.513516427048486657e-01,-2.513516427048486657e-01,-2.513516427048486657e-01,-2.518763851739611037e-01,-2.518763851739611037e-01,-2.518763851739611037e-01,-2.518763851739611037e-01,-2.518763851739611037e-01,-2.518763851739611037e-01,-2.518763851739611037e-01,-2.518763851739611037e-01,-2.518763851739611037e-01,-2.518763851739611037e-01,-2.518763851739611037e-01,-2.518763851739611037e-01,-2.518763851739611037e-01,-2.518763851739611037e-01,-2.518763851739611037e-01,-2.518763851739611037e-01,-2.518763851739611037e-01,-2.518763851739611037e-01,-2.518763851739611037e-01,-2.518763851739611037e-01,-2.518763851739611037e-01,-2.518763851739611037e-01,-2.518763851739611037e-01,-2.518763851739611037e-01,-2.518763851739611037e-01,-2.518763851739611037e-01,-2.518763851739611037e-01,-2.518763851739611037e-01,-2.518763851739611037e-01,-2.518763851739611037e-01
-2.345926800975708104e-01,-2.340351412241388485e-01,-2.340351412241388485e-01,-2.345598836932512865e-01,-2.345598836932512865e-01,-2.345598836932512865e-01,-2.345598836932512865e-01,-2.345598836932512865e-01,-2.345598836932512865e-01,-2.345598836932512865e-01,-2.345598836932512865e-01,-2.345598836932512865e-01,-2.345598836932512865e-01,-2.345598836932512865e-01,-2.345598836932512865e-01,-2.345598836932512865e-01,-2.345598836932512865e-01,-2.350846261623636968e-01,-2.350846261623636968e-01,-2.350846261623636968e-01,-2.350846261623636968e-01,-2.350846261623636968e-01,-2.350846261623636968e-01,-2.350846261623636968e-01,-2.350846261623636968e-01,-2.350846261623636968e-01,-2.350846261623636968e-01,-2.350846261623636968e-01,-2.350846261623636968e-01,-2.350846261623636968e-01,-2.350846261623636968e-01,-2.356093686314761071e-01,-2.356093686314761071e-01,-2.356093686314761071e-01,-2.356093686314761071e-01,-2.356093686314761071e-01,-2.356093686314761071e-01,-2.356093686314761071e-01,-2.356093686314761071e-01,-2.356093686314761071e-01,-2.356093686314761071e-01,-2.356093686314761071e-01,-2.356093686314761071e-01,-2.356093686314761071e-01,-2.361341111005885451e-01,-2.361341111005885451e-01,-2.361341111005885451e-01
-2.183256635550858138e-01,-2.172433822125414693e-01,-2.172433822125414693e-01,-2.177681246816538796e-01,-2.177681246816538796e-01,-2.177681246816538796e-01,-2.177681246816538796e-01,-2.177681246816538796e-01,-2.177681246816538796e-01,-2.177681246816538796e-01,-2.177681246816538796e-01,-2.177681246816538796e-01,-2.177681246816538796e-01,-2.177681246816538796e-01,-2.177681246816538796e-01,-2.177681246816538796e-01,-2.177681246816538796e-01,-2.182928671507662899e-01,-2.182928671507662899e-01,-2.182928671507662899e-01,-2.182928671507662899e-01,-2.182928671507662899e-01,-2.182928671507662899e-01,-2.182928671507662899e-01,-2.182928671507662899e-01,-2.182928671507662899e-01,-2.182928671507662899e-01,-2.182928671507662899e-01,-2.182928671507662899e-01,-2.182928671507662899e-01,-2.182928671507662899e-01,-2.188176096198787279e-01,-2.188176096198787279e-01,-2.188176096198787279e-01,-2.188176096198787279e-01,-2.188176096198787279e-01,-2.188176096198787279e-01,-2.188176096198787279e-01,-2.188176096198787279e-01,-2.188176096198787279e-01,-2.188176096198787279e-01,-2.188176096198787279e-01,-2.188176096198787279e-01,-2.188176096198787279e-01,-2.193423520889911382e-01,-2.193423520889911382e-01,-2.193423520889911382e-01
-2.020586470126008449e-01,-2.004516232009440624e-01,-2.004516232009440624e-01,-2.009763656700564727e-01,-2.009763656700564727e-01,-2.009763656700564727e-01,-2.009763656700564727e-01,-2.009763656700564727e-01,-2.009763656700564727e-01,-2.009763656700564727e-01,-2.009763656700564727e-01,-2.009763656700564727e-01,-2.009763656700564727e-01,-2.009763656700564727e-01,-2.009763656700564727e-01,-2.009763656700564727e-01,-2.009763656700564727e-01,-2.015011081391688830e-01,-2.015011081391688830e-01,-2.015011081391688830e-01,-2.015011081391688830e-01,-2.015011081391688830e-01,-2.015011081391688830e-01,-2.015011081391688830e-01,-2.015011081391688830e-01,-2.015011081391688830e-01,-2.015011081391688830e-01,-2.015011081391688830e-01,-2.015011081391688830e-01,-2.015011081391688830e-01,-2.015011081391688830e-01,-2.020258506082813210e-01,-2.020258506082813210e-01,-2.020258506082813210e-01,-2.020258506082813210e-01,-2.020258506082813210e-01,-2.020258506082813210e-01,-2.020258506082813210e-01,-2.020258506082813210e-01,-2.020258506082813210e-01,-2.020258506082813210e-01,-2.020258506082813210e-01,-2.020258506082813210e-01,-2.020258506082813210e-01,-2.025505930773937313e-01,-2.025505930773937313e-01,-2.025505930773937313e-01
-1.836598641893466555e-01,-1.836598641893466555e-01,-1.836598641893466555e-01,-1.841846066584590380e-01,-1.841846066584590380e-01,-1.841846066584590380e-01,-1.841846066584590380e-01,-1.841846066584590380e-01,-1.841846066584590380e-01,-1.841846066584590380e-01,-1.841846066584590380e-01,-1.841846066584590380e-01,-1.841846066584590380e-01,-1.841846066584590380e-01,-1.841846066584590380e-01,-1.841846066584590380e-01,-1.841846066584590380e-01,-1.847093491275714761e-01,-1.847093491275714761e-01,-1.847093491275714761e-01,-1.847093491275714761e-01,-1.847093491275714761e-01,-1.847093491275714761e-01,-1.847093491275714761e-01,-1.847093491275714761e-01,-1.847093491275714761e-01,-1.847093491275714761e-01,-1.847093491275714761e-01,-1.847093491275714761e-01,-1.847093491275714761e-01,-1.847093491275714761e-01,-1.852340915966838863e-01,-1.852340915966838863e-01,-1.852340915966838863e-01,-1.852340915966838863e-01,-1.852340915966838863e-01,-1.852340915966838863e-01,-1.852340915966838863e-01,-1.852340915966838863e-01,-1.852340915966838863e-01,-1.852340915966838863e-01,-1.852340915966838863e-01,-1.852340915966838863e-01,-1.852340915966838863e-01,-1.857588340657962966e-01,-1.857588340657962966e-01,-1.857588340657962966e-01
-1.668681051777492486e-01,-1.668681051777492486e-01,-1.668681051777492486e-01,-1.673928476468616311e-01,-1.673928476468616311e-01,-1.673928476468616311e-01,-1.673928476468616311e-01,-1.673928476468616311e-01,-1.673928476468616311e-01,-1.673928476468616311e-01,-1.673928476468616311e-01,-1.673928476468616311e-01,-1.673928476468616311e-01,-1.673928476468616311e-01,-1.673928476468616311e-01,-1.673928476468616311e-01,-1.673928476468616311e-01,-1.679175901159740691e-01,-1.679175901159740691e-01,-1.679175901159740691e-01,-1.679175901159740691e-01,-1.679175901159740691e-01,-1.679175901159740691e-01,-1.679175901159740691e-01,-1.679175901159740691e-01,-1.679175901159740691e-01,-1.679175901159740691e-01,-1.679175901159740691e-01,-1.679175901159740691e-01,-1.679175901159740691e-01,-1.679175901159740691e-01,-1.684423325850864794e-01,-1.684423325850864794e-01,-1.684423325850864794e-01,-1.684423325850864794e-01,-1.684423325850864794e-01,-1.684423325850864794e-01,-1.684423325850864794e-01,-1.684423325850864794e-01,-1.684423325850864794e-01,-1.684423325850864794e-01,-1.684423325850864794e-01,-1.684423325850864794e-01,-1.684423325850864794e-01,-1.689670750541988897e-01,-1.689670750541988897e-01,-1.689670750541988897e-01
-1.500763461661518416e-01,-4.198384004183213225e-01,-4.198384004183213225e-01,-4.203631428874337606e-01,-1.506010886352642797e-01,-1.506010886352642797e-01,-1.506010886352642797e-01,-1.506010886352642797e-01,-1.506010886352642797e-01,-1.506010886352642797e-01,-1.506010886352642797e-01,-1.506010886352642797e-01,-1.506010886352642797e-01,-1.506010886352642797e-01,-1.506010886352642797e-01,-1.506010886352642797e-01,-1.506010886352642797e-01,-1.511258311043766622e-01,-1.511258311043766622e-01,-1.511258311043766622e-01,-1.511258311043766622e-01,-1.511258311043766622e-01,-1.511258311043766622e-01,-1.511258311043766622e-01,-1.511258311043766622e-01,-1.511258311043766622e-01,-1.511258311043766622e-01,-1.511258311043766622e-01,-1.511258311043766622e-01,-1.511258311043766622e-01,-1.511258311043766622e-01,-1.516505735734891003e-01,-1.516505735734891003e-01,-1.516505735734891003e-01,-1.516505735734891003e-01,-1.516505735734891003e-01,-1.516505735734891003e-01,-1.516505735734891003e-01,-1.516505735734891003e-01,-1.516505735734891003e-01,-1.516505735734891003e-01,-1.516505735734891003e-01,-1.516505735734891003e-01,-1.516505735734891003e-01,-1.521753160426015106e-01,-1.521753160426015106e-01,-1.521753160426015106e-01
-1.332845871545544347e-01,-4.030466414067239156e-01,-4.030466414067239156e-01,-4.035713838758362981e-01,-1.338093296236668173e-01,-1.338093296236668173e-01,-1.338093296236668173e-01,-1.338093296236668173e-01,-1.338093296236668173e-01,-1.338093296236668173e-01,-1.338093296236668173e-01,-1.338093296236668173e-01,-1.338093296236668173e-01,-1.338093296236668173e-01,-1.338093296236668173e-01,-1.338093296236668173e-01,-1.338093296236668173e-01,-1.343340720927792553e-01,-1.343340720927792553e-01,-1.343340720927792553e-01,-1.343340720927792553e-01,-1.343340720927792553e-01,-1.343340720927792553e-01,-1.343340720927792553e-01,-1.343340720927792553e-01,-1.343340720927792553e-01,-1.343340720927792553e-01,-1.343340720927792553e-01,-1.343340720927792553e-01,-1.343340720927792553e-01,-1.343340720927792553e-01,-1.348588145618916656e-01,-1.348588145618916656e-01,-1.348588145618916656e-01,-1.348588145618916656e-01,-1.348588145618916656e-01,-1.348588145618916656e-01,-1.348588145618916656e-01,-1.348588145618916656e-01,-1.348588145618916656e-01,-1.348588145618916656e-01,-1.348588145618916656e-01,-1.348588145618916656e-01,-1.348588145618916656e-01,-1.353835570310041037e-01,-1.353835570310041037e-01,-1.353835570310041037e-01
-1.164928281429570001e-01,-3.862548823951265087e-01,-3.862548823951265087e-01,-3.867796248642388912e-01,-1.170175706120694104e-01,-1.170175706120694104e-01,-1.170175706120694104e-01,-1.170175706120694104e-01,-1.170175706120694104e-01,-1.170175706120694104e-01,-1.170175706120694104e-01,-1.170175706120694104e-01,-1.170175706120694104e-01,-1.170175706120694104e-01,-1.170175706120694104e-01,-1.170175706120694104e-01,-1.170175706120694104e-01,-1.175423130811818484e-01,-1.175423130811818484e-01,-1.175423130811818484e-01,-1.175423130811818484e-01,-1.175423130811818484e-01,-1.175423130811818484e-01,-1.175423130811818484e-01,-1.175423130811818484e-01,-1.175423130811818484e-01,-1.175423130811818484e-01,-1.175423130811818484e-01,-1.175423130811818484e-01,-1.175423130811818484e-01,-1.175423130811818484e-01,-1.180670555502942587e-01,-1.180670555502942587e-01,-1.180670555502942587e-01,-1.180670555502942587e-01,-1.180670555502942587e-01,-1.180670555502942587e-01,-1.180670555502942587e-01,-1.180670555502942587e-01,-1.180670555502942587e-01,-1.180670555502942587e-01,-1.180670555502942587e-01,-1.180670555502942587e-01,-1.180670555502942587e-01,-1.185917980194066967e-01,-1.185917980194066967e-01,-1.185917980194066967e-01
-9.970106913135962090e-02,-9.970106913135962090e-02,-9.970106913135962090e-02,-1.002258116004720312e-01,-1.002258116004720312e-01,-1.002258116004720312e-01,-1.002258116004720312e-01,-1.002258116004720312e-01,-1.002258116004720312e-01,-1.002258116004720312e-01,-1.002258116004720312e-01,-1.002258116004720312e-01,-1.002258116004720312e-01,-1.002258116004720312e-01,-1.002258116004720312e-01,-1.002258116004720312e-01,-1.002258116004720312e-01,-1.007505540695844415e-01,-1.007505540695844415e-01,-1.007505540695844415e-01,-1.007505540695844415e-01,-1.007505540695844415e-01,-1.007505540695844415e-01,-1.007505540695844415e-01,-1.007505540695844415e-01,-1.007505540695844415e-01,-1.007505540695844415e-01,-1.007505540695844415e-01,-1.007505540695844415e-01,-1.007505540695844415e-01,-1.007505540695844415e-01,-1.012752965386968795e-01,-1.012752965386968795e-01,-1.012752965386968795e-01,-1.012752965386968795e-01,-1.012752965386968795e-01,-1.012752965386968795e-01,-1.012752965386968795e-01,-1.012752965386968795e-01,-1.012752965386968795e-01,-1.012752965386968795e-01,-1.012752965386968795e-01,-1.012752965386968795e-01,-1.012752965386968795e-01,-1.018000390078092898e-01,-1.018000390078092898e-01,-1.018000390078092898e-01
-8.290931011976218623e-02,-8.290931011976218623e-02,-8.290931011976218623e-02,-8.343405258887462428e-02,-8.343405258887462428e-02,-8.343405258887462428e-02,-8.343405258887462428e-02,-8.343405258887462428e-02,-8.343405258887462428e-02,-8.343405258887462428e-02,-8.343405258887462428e-02,-8.343405258887462428e-02,-8.343405258887462428e-02,-8.343405258887462428e-02,-8.343405258887462428e-02,-8.343405258887462428e-02,-8.343405258887462428e-02,-8.395879505798703457e-02,-8.395879505798703457e-02,-8.395879505798703457e-02,-8.395879505798703457e-02,-8.395879505798703457e-02,-8.395879505798703457e-02,-8.395879505798703457e-02,-8.395879505798703457e-02,-8.395879505798703457e-02,-8.395879505798703457e-02,-8.395879505798703457e-02,-8.395879505798703457e-02,-8.395879505798703457e-02,-8.395879505798703457e-02,-8.448353752709944486e-02,-8.448353752709944486e-02,-8.448353752709944486e-02,-8.448353752709944486e-02,-8.448353752709944486e-02,-8.448353752709944486e-02,-8.448353752709944486e-02,-8.448353752709944486e-02,-8.448353752709944486e-02,-8.448353752709944486e-02,-8.448353752709944486e-02,-8.448353752709944486e-02,-8.448353752709944486e-02,-8.500827999621185516e-02,-8.500827999621185516e-02,-8.500827999621185516e-02
-6.611755110816480707e-02,-6.611755110816480707e-02,-6.611755110816480707e-02,-6.664229357727718961e-02,-6.664229357727718961e-02,-6.664229357727718961e-02,-6.664229357727718961e-02,-6.664229357727718961e-02,-6.664229357727718961e-02,-6.664229357727718961e-02,-6.664229357727718961e-02,-6.664229357727718961e-02,-6.664229357727718961e-02,-6.664229357727718961e-02,-6.664229357727718961e-02,-6.664229357727718961e-02,-6.664229357727718961e-02,-6.716703604638962766e-02,-6.716703604638962766e-02,-6.716703604638962766e-02,-6.716703604638962766e-02,-6.716703604638962766e-02,-6.716703604638962766e-02,-6.716703604638962766e-02,-6.716703604638962766e-02,-6.716703604638962766e-02,-6.716703604638962766e-02,-6.716703604638962766e-02,-6.716703604638962766e-02,-6.716703604638962766e-02,-6.716703604638962766e-02,-6.769177851550203795e-02,-6.769177851550203795e-02,-6.769177851550203795e-02,-6.769177851550203795e-02,-6.769177851550203795e-02,-6.769177851550203795e-02,-6.769177851550203795e-02,-6.769177851550203795e-02,-6.769177851550203795e-02,-6.769177851550203795e-02,-6.769177851550203795e-02,-6.769177851550203795e-02,-6.769177851550203795e-02,-6.821652098461447600e-02,-6.821652098461447600e-02,-6.821652098461447600e-02
-4.932579209656740016e-02,-4.932579209656740016e-02,-4.932579209656740016e-02,-4.985053456567983821e-02,-4.985053456567983821e-02,-4.985053456567983821e-02,-4.985053456567983821e-02,-4.985053456567983821e-02,-4.985053456567983821e-02,-4.985053456567983821e-02,-4.985053456567983821e-02,-4.985053456567983821e-02,-4.985053456567983821e-02,-4.985053456567983821e-02,-4.985053456567983821e-02,-4.985053456567983821e-02,-4.985053456567983821e-02,-5.037527703479224850e-02,-5.037527703479224850e-02,-5.037527703479224850e-02,-5.037527703479224850e-02,-5.037527703479224850e-02,-5.037527703479224850e-02,-5.037527703479224850e-02,-5.037527703479224850e-02,-5.037527703479224850e-02,-5.037527703479224850e-02,-5.037527703479224850e-02,-5.037527703479224850e-02,-5.037527703479224850e-02,-5.037527703479224850e-02,-5.090001950390468655e-02,-5.090001950390468655e-02,-5.090001950390468655e-02,-5.090001950390468655e-02,-5.090001950390468655e-02,-5.090001950390468655e-02,-5.090001950390468655e-02,-5.090001950390468655e-02,-5.090001950390468655e-02,-5.090001950390468655e-02,-5.090001950390468655e-02,-5.090001950390468655e-02,-5.090001950390468655e-02,-5.142476197301706908e-02,-5.142476197301706908e-02,-5.142476197301706908e-02
-3.253403308496996549e-02,-3.253403308496996549e-02,-3.253403308496996549e-02,-3.305877555408240354e-02,-3.305877555408240354e-02,-3.305877555408240354e-02,-3.305877555408240354e-02,-3.305877555408240354e-02,-3.305877555408240354e-02,-3.305877555408240354e-02,-3.305877555408240354e-02,-3.305877555408240354e-02,-3.305877555408240354e-02,-3.305877555408240354e-02,-3.305877555408240354e-02,-3.305877555408240354e-02,-3.305877555408240354e-02,-3.358351802319481383e-02,-3.358351802319481383e-02,-3.358351802319481383e-02,-3.358351802319481383e-02,-3.358351802319481383e-02,-3.358351802319481383e-02,-3.358351802319481383e-02,-3.358351802319481383e-02,-3.358351802319481383e-02,-3.358351802319481383e-02,-3.358351802319481383e-02,-3.358351802319481383e-02,-3.358351802319481383e-02,-3.358351802319481383e-02,-3.410826049230722412e-02,-3.410826049230722412e-02,-3.410826049230722412e-02,-3.410826049230722412e-02,-3.410826049230722412e-02,-3.410826049230722412e-02,-3.410826049230722412e-02,-3.410826049230722412e-02,-3.410826049230722412e-02,-3.410826049230722412e-02,-3.410826049230722412e-02,-3.410826049230722412e-02,-3.410826049230722412e-02,-3.463300296141966217e-02,-3.463300296141966217e-02,-3.463300296141966217e-02
-1.574227407337258633e-02,-1.574227407337258633e-02,-1.574227407337258633e-02,-1.626701654248496887e-02,-1.626701654248496887e-02,-1.626701654248496887e-02,-1.626701654248496887e-02,-1.626701654248496887e-02,-1.626701654248496887e-02,-1.626701654248496887e-02,-1.626701654248496887e-02,-1.626701654248496887e-02,-1.626701654248496887e-02,-1.626701654248496887e-02,-1.626701654248496887e-02,-1.626701654248496887e-02,-1.626701654248496887e-02,-1.679175901159740691e-02,-1.679175901159740691e-02,-1.679175901159740691e-02,-1.679175901159740691e-02,-1.679175901159740691e-02,-1.679175901159740691e-02,-1.679175901159740691e-02,-1.679175901159740691e-02,-1.679175901159740691e-02,-1.679175901159740691e-02,-1.679175901159740691e-02,-1.679175901159740691e-02,-1.679175901159740691e-02,-1.679175901159740691e-02,-1.731650148070981721e-02,-1.731650148070981721e-02,-1.731650148070981721e-02,-1.731650148070981721e-02,-1.731650148070981721e-02,-1.731650148070981721e-02,-1.731650148070981721e-02,-1.731650148070981721e-02,-1.731650148070981721e-02,-1.731650148070981721e-02,-1.731650148070981721e-02,-1.731650148070981721e-02,-1.731650148070981721e-02,-1.784124394982225525e-02,-1.784124394982225525e-02,-1.784124394982225525e-02
-7.871137036686293165e-04,-7.871137036686293165e-04,-7.871137036686293165e-04,-3.935568518343424138e-04,-3.935568518343424138e-04,-3.935568518343424138e-04,-3.935568518343424138e-04,-3.935568518343424138e-04,-3.935568518343424138e-04,-3.935568518343424138e-04,-3.935568518343424138e-04,-3.935568518343424138e-04,-3.935568518343424138e-04,-3.935568518343424138e-04,-3.935568518343424138e-04,-3.935568518343424138e-04,-3.935568518343424138e-04,0.000000000000000000e+00,0.000000000000000000e+00,0.000000000000000000e+00,0.000000000000000000e+00,0.000000000000000000e+00,0.000000000000000000e+00,0.000000000000000000e+00,0.000000000000000000e+00,0.000000000000000000e+00,0.000000000000000000e+00,0.000000000000000000e+00,0.000000000000000000e+00,0.000000000000000000e+00,0.000000000000000000e+00,-5.247424691124380480e-04,-5.247424691124380480e-04,-5.247424691124380480e-04,-5.247424691124380480e-04,-5.247424691124380480e-04,-5.247424691124380480e-04,-5.247424691124380480e-04,-5.247424691124380480e-04,-5.247424691124380480e-04,-5.247424691124380480e-04,-5.247424691124380480e-04,-5.247424691124380480e-04,-5.247424691124380480e-04,-1.049484938224820585e-03,-1.049484938224820585e-03,-1.049484938224820585e-03
-1.338093296236669838e-02,-1.338093296236669838e-02,-1.338093296236669838e-02,-1.298737611053238372e-02,-1.298737611053238372e-02,-1.298737611053238372e-02,-1.298737611053238372e-02,-1.298737611053238372e-02,-1.298737611053238372e-02,-1.298737611053238372e-02,-1.298737611053238372e-02,-1.298737611053238372e-02,-1.298737611053238372e-02,-1.298737611053238372e-02,-1.298737611053238372e-02,-1.298737611053238372e-02,-1.298737611053238372e-02,-1.259381925869806906e-02,-1.259381925869806906e-02,-1.259381925869806906e-02,-1.259381925869806906e-02,-1.259381925869806906e-02,-1.259381925869806906e-02,-1.259381925869806906e-02,-1.259381925869806906e-02,-1.259381925869806906e-02,-1.259381925869806906e-02,-1.259381925869806906e-02,-1.259381925869806906e-02,-1.259381925869806906e-02,-1.259381925869806906e-02,-1.220026240686375441e-02,-1.220026240686375441e-02,-1.220026240686375441e-02,-1.220026240686375441e-02,-1.220026240686375441e-02,-1.220026240686375441e-02,-1.220026240686375441e-02,-1.220026240686375441e-02,-1.220026240686375441e-02,-1.220026240686375441e-02,-1.220026240686375441e-02,-1.220026240686375441e-02,-1.220026240686375441e-02,-1.180670555502943975e-02,-1.180670555502943975e-02,-1.180670555502943975e-02
-2.597475222106476744e-02,-2.597475222106476744e-02,-2.597475222106476744e-02,-2.558119536923045279e-02,-2.558119536923045279e-02,-2.558119536923045279e-02,-2.558119536923045279e-02,-2.558119536923045279e-02,-2.558119536923045279e-02,-2.558119536923045279e-02,-2.558119536923045279e-02,-2.558119536923045279e-02,-2.558119536923045279e-02,-2.558119536923045279e-02,-2.558119536923045279e-02,-2.558119536923045279e-02,-2.558119536923045279e-02,-2.518763851739613813e-02,-2.518763851739613813e-02,-2.518763851739613813e-02,-2.518763851739613813e-02,-2.518763851739613813e-02,-2.518763851739613813e-02,-2.518763851739613813e-02,-2.518763851739613813e-02,-2.518763851739613813e-02,-2.518763851739613813e-02,-2.518763851739613813e-02,-2.518763851739613813e-02,-2.518763851739613813e-02,-2.518763851739613813e-02,-2.479408166556182347e-02,-2.479408166556182347e-02,-2.479408166556182347e-02,-2.479408166556182347e-02,-2.479408166556182347e-02,-2.479408166556182347e-02,-2.479408166556182347e-02,-2.479408166556182347e-02,-2.479408166556182347e-02,-2.479408166556182347e-02,-2.479408166556182347e-02,-2.479408166556182347e-02,-2.479408166556182347e-02,-2.440052481372750881e-02,-2.440052481372750881e-02,-2.440052481372750881e-02
-3.856857147976275324e-02,-3.856857147976275324e-02,-3.856857147976275324e-02,-3.817501462792846634e-02,-3.817501462792846634e-02,-3.817501462792846634e-02,-3.817501462792846634e-02,-3.817501462792846634e-02,-3.817501462792846634e-02,-3.817501462792846634e-02,-3.817501462792846634e-02,-3.817501462792846634e-02,-3.817501462792846634e-02,-3.817501462792846634e-02,-3.817501462792846634e-02,-3.817501462792846634e-02,-3.817501462792846634e-02,-3.778145777609415168e-02,-3.778145777609415168e-02,-3.778145777609415168e-02,-3.778145777609415168e-02,-3.778145777609415168e-02,-3.778145777609415168e-02,-3.778145777609415168e-02,-3.778145777609415168e-02,-3.778145777609415168e-02,-3.778145777609415168e-02,-3.778145777609415168e-02,-3.778145777609415168e-02,-3.778145777609415168e-02,-3.778145777609415168e-02,-3.738790092425980927e-02,-3.738790092425980927e-02,-3.738790092425980927e-02,-3.738790092425980927e-02,-3.738790092425980927e-02,-3.738790092425980927e-02,-3.738790092425980927e-02,-3.738790092425980927e-02,-3.738790092425980927e-02,-3.738790092425980927e-02,-3.738790092425980927e-02,-3.738790092425980927e-02,-3.738790092425980927e-02,-3.699434407242552236e-02,-3.699434407242552236e-02,-4.370940785684851448e-02
-5.116239073846082230e-02,-5.116239073846082230e-02,-5.116239073846082230e-02,-5.076883388662653540e-02,-5.076883388662653540e-02,-5.076883388662653540e-02,-5.076883388662653540e-02,-5.076883388662653540e-02,-5.076883388662653540e-02,-5.076883388662653540e-02,-5.076883388662653540e-02,-5.076883388662653540e-02,-5.076883388662653540e-02,-5.076883388662653540e-02,-5.076883388662653540e-02,-5.076883388662653540e-02,-5.076883388662653540e-02,-5.037527703479222074e-02,-5.037527703479222074e-02,-5.037527703479222074e-02,-5.037527703479222074e-02,-5.037527703479222074e-02,-5.037527703479222074e-02,-5.037527703479222074e-02,-5.037527703479222074e-02,-5.037527703479222074e-02,-5.037527703479222074e-02,-2.553861326094741813e-01,-2.553861326094741813e-01,-2.553861326094741813e-01,-2.553861326094741813e-01,-4.998172018295790608e-02,-4.998172018295790608e-02,-4.998172018295790608e-02,-4.998172018295790608e-02,-4.998172018295790608e-02,-4.998172018295790608e-02,-4.998172018295790608e-02,-4.998172018295790608e-02,-4.998172018295790608e-02,-4.998172018295790608e-02,-4.998172018295790608e-02,-4.998172018295790608e-02,-4.998172018295790608e-02,-4.958816333112356367e-02,-4.958816333112356367e-02,-5.590967026371226889e-02
-6.375620999715886361e-02,-6.375620999715886361e-02,-6.375620999715886361e-02,-6.336265314532460446e-02,-6.336265314532460446e-02,-6.336265314532460446e-02,-6.336265314532460446e-02,-6.336265314532460446e-02,-6.336265314532460446e-02,-6.336265314532460446e-02,-6.336265314532460446e-02,-6.336265314532460446e-02,-6.336265314532460446e-02,-6.336265314532460446e-02,-6.336265314532460446e-02,-6.336265314532460446e-02,-6.336265314532460446e-02,-6.296909629349026205e-02,-6.296909629349026205e-02,-6.296909629349026205e-02,-6.296909629349026205e-02,-6.296909629349026205e-02,-6.296909629349026205e-02,-6.296909629349026205e-02,-6.296909629349026205e-02,-6.296909629349026205e-02,-6.296909629349026205e-02,-2.679799518681722503e-01,-2.679799518681722503e-01,-2.679799518681722503e-01,-2.679799518681722503e-01,-6.257553944165594739e-02,-6.257553944165594739e-02,-6.257553944165594739e-02,-6.257553944165594739e-02,-6.257553944165594739e-02,-6.257553944165594739e-02,-6.257553944165594739e-02,-6.257553944165594739e-02,-6.257553944165594739e-02,-6.257553944165594739e-02,-6.257553944165594739e-02,-6.257553944165594739e-02,-6.257553944165594739e-02,-6.218198258982163273e-02,-6.218198258982163273e-02,-6.810993267057596778e-02
-7.635002925585693268e-02,-7.635002925585693268e-02,-7.635002925585693268e-02,-7.595647240402264577e-02,-7.595647240402264577e-02,-7.595647240402264577e-02,-7.595647240402264577e-02,-7.595647240402264577e-02,-7.595647240402264577e-02,-7.595647240402264577e-02,-7.595647240402264577e-02,-7.595647240402264577e-02,-7.595647240402264577e-02,-7.595647240402264577e-02,-7.595647240402264577e-02,-7.595647240402264577e-02,-7.595647240402264577e-02,-7.556291555218833111e-02,-7.556291555218833111e-02,-7.556291555218833111e-02,-7.556291555218833111e-02,-7.556291555218833111e-02,-7.556291555218833111e-02,-7.556291555218833111e-02,-7.556291555218833111e-02,-7.556291555218833111e-02,-7.556291555218833111e-02,-2.805737711268703194e-01,-2.805737711268703194e-01,-2.805737711268703194e-01,-2.805737711268703194e-01,-7.516935870035401646e-02,-7.516935870035401646e-02,-7.516935870035401646e-02,-7.516935870035401646e-02,-7.516935870035401646e-02,-7.516935870035401646e-02,-7.516935870035401646e-02,-7.516935870035401646e-02,-7.516935870035401646e-02,-7.516935870035401646e-02,-7.516935870035401646e-02,-7.516935870035401646e-02,-7.516935870035401646e-02,-7.477580184851967404e-02,-7.477580184851967404e-02,-8.031019507743972219e-02
-8.894384851455500174e-02,-8.894384851455500174e-02,-8.894384851455500174e-02,-8.855029166272071484e-02,-8.855029166272071484e-02,-8.855029166272071484e-02,-8.855029166272071484e-02,-8.855029166272071484e-02,-8.855029166272071484e-02,-8.855029166272071484e-02,-8.855029166272071484e-02,-8.855029166272071484e-02,-8.855029166272071484e-02,-8.855029166272071484e-02,-8.855029166272071484e-02,-8.855029166272071484e-02,-8.855029166272071484e-02,-8.815673481088637242e-02,-8.815673481088637242e-02,-8.815673481088637242e-02,-8.815673481088637242e-02,-8.815673481088637242e-02,-8.815673481088637242e-02,-8.815673481088637242e-02,-8.815673481088637242e-02,-8.815673481088637242e-02,-8.815673481088637242e-02,-2.931675903855683329e-01,-2.931675903855683329e-01,-2.931675903855683329e-01,-2.931675903855683329e-01,-8.776317795905205776e-02,-8.776317795905205776e-02,-8.776317795905205776e-02,-8.776317795905205776e-02,-8.776317795905205776e-02,-8.776317795905205776e-02,-8.776317795905205776e-02,-8.776317795905205776e-02,-8.776317795905205776e-02,-8.776317795905205776e-02,-8.776317795905205776e-02,-8.776317795905205776e-02,-8.776317795905205776e-02,-8.736962110721774311e-02,-8.736962110721774311e-02,-9.251045748430347659e-02
-1.015376677732530708e-01,-1.015376677732530708e-01,-1.015376677732530708e-01,-1.011441109214187561e-01,-1.011441109214187561e-01,-1.011441109214187561e-01,-1.011441109214187561e-01,-1.011441109214187561e-01,-1.011441109214187561e-01,-1.011441109214187561e-01,-1.011441109214187561e-01,-1.011441109214187561e-01,-1.011441109214187561e-01,-1.011441109214187561e-01,-1.011441109214187561e-01,-1.011441109214187561e-01,-1.011441109214187561e-01,-1.007505540695844415e-01,-1.007505540695844415e-01,-1.007505540695844415e-01,-1.007505540695844415e-01,-1.007505540695844415e-01,-1.007505540695844415e-01,-1.007505540695844415e-01,-1.007505540695844415e-01,-1.007505540695844415e-01,-1.007505540695844415e-01,-1.007505540695844415e-01,-1.007505540695844415e-01,-1.007505540695844415e-01,-1.007505540695844415e-01,-1.003569972177501268e-01,-1.003569972177501268e-01,-1.003569972177501268e-01,-1.003569972177501268e-01,-1.003569972177501268e-01,-1.003569972177501268e-01,-1.003569972177501268e-01,-1.003569972177501268e-01,-1.003569972177501268e-01,-1.003569972177501268e-01,-1.003569972177501268e-01,-1.003569972177501268e-01,-1.003569972177501268e-01,-9.996344036591581217e-02,-9.996344036591581217e-02,-1.047107198911672310e-01
-1.141314870319511399e-01,-1.141314870319511399e-01,-1.141314870319511399e-01,-1.137379301801168252e-01,-1.137379301801168252e-01,-1.137379301801168252e-01,-1.137379301801168252e-01,-1.137379301801168252e-01,-1.137379301801168252e-01,-1.137379301801168252e-01,-1.137379301801168252e-01,-1.137379301801168252e-01,-1.137379301801168252e-01,-1.137379301801168252e-01,-1.137379301801168252e-01,-1.137379301801168252e-01,-1.137379301801168252e-01,-1.133443733282825105e-01,-1.133443733282825105e-01,-1.133443733282825105e-01,-1.133443733282825105e-01,-1.133443733282825105e-01,-1.133443733282825105e-01,-1.133443733282825105e-01,-1.133443733282825105e-01,-1.133443733282825105e-01,-1.133443733282825105e-01,-1.133443733282825105e-01,-1.133443733282825105e-01,-1.133443733282825105e-01,-1.133443733282825105e-01,-1.129508164764481959e-01,-1.129508164764481959e-01,-1.129508164764481959e-01,-1.129508164764481959e-01,-1.129508164764481959e-01,-1.129508164764481959e-01,-1.129508164764481959e-01,-1.129508164764481959e-01,-1.129508164764481959e-01,-1.129508164764481959e-01,-1.129508164764481959e-01,-1.129508164764481959e-01,-1.129508164764481959e-01,-1.125572596246138812e-01,-1.125572596246138812e-01,-1.169109822980309854e-01
-1.267253062906491812e-01,-1.267253062906491812e-01,-1.267253062906491812e-01,-1.263317494388148665e-01,-1.263317494388148665e-01,-1.263317494388148665e-01,-1.263317494388148665e-01,-1.263317494388148665e-01,-1.263317494388148665e-01,-1.263317494388148665e-01,-1.263317494388148665e-01,-1.263317494388148665e-01,-1.263317494388148665e-01,-1.263317494388148665e-01,-1.263317494388148665e-01,-1.263317494388148665e-01,-1.263317494388148665e-01,-1.259381925869805519e-01,-1.259381925869805519e-01,-1.259381925869805519e-01,-1.259381925869805519e-01,-1.259381925869805519e-01,-1.259381925869805519e-01,-1.259381925869805519e-01,-1.259381925869805519e-01,-1.259381925869805519e-01,-1.259381925869805519e-01,-1.259381925869805519e-01,-1.259381925869805519e-01,-1.259381925869805519e-01,-1.259381925869805519e-01,-1.255446357351462372e-01,-1.255446357351462372e-01,-1.255446357351462372e-01,-1.255446357351462372e-01,-1.255446357351462372e-01,-1.255446357351462372e-01,-1.255446357351462372e-01,-1.255446357351462372e-01,-1.255446357351462372e-01,-1.255446357351462372e-01,-1.255446357351462372e-01,-1.255446357351462372e-01,-1.255446357351462372e-01,-1.251510788833119225e-01,-1.251510788833119225e-01,-1.291112447048947121e-01
-1.393191255493472225e-01,-1.393191255493472225e-01,-1.393191255493472225e-01,-1.389255686975129356e-01,-1.389255686975129356e-01,-1.389255686975129356e-01,-1.389255686975129356e-01,-1.389255686975129356e-01,-1.389255686975129356e-01,-1.389255686975129356e-01,-1.389255686975129356e-01,-1.389255686975129356e-01,-1.389255686975129356e-01,-1.389255686975129356e-01,-1.389255686975129356e-01,-1.389255686975129356e-01,-1.389255686975129356e-01,-1.385320118456786209e-01,-1.385320118456786209e-01,-1.385320118456786209e-01,-1.385320118456786209e-01,-1.385320118456786209e-01,-1.385320118456786209e-01,-1.385320118456786209e-01,-1.385320118456786209e-01,-1.385320118456786209e-01,-1.385320118456786209e-01,-1.385320118456786209e-01,-1.385320118456786209e-01,-1.385320118456786209e-01,-1.385320118456786209e-01,-1.381384549938443063e-01,-1.381384549938443063e-01,-1.381384549938443063e-01,-1.381384549938443063e-01,-1.381384549938443063e-01,-1.381384549938443063e-01,-1.381384549938443063e-01,-1.381384549938443063e-01,-1.381384549938443063e-01,-1.381384549938443063e-01,-1.381384549938443063e-01,-1.381384549938443063e-01,-1.381384549938443063e-01,-1.377448981420099916e-01,-1.377448981420099916e-01,-1.413115071117584665e-01
-1.519129448080452915e-01,-1.519129448080452915e-01,-1.519129448080452915e-01,-1.515193879562110046e-01,-1.515193879562110046e-01,-1.515193879562110046e-01,-1.515193879562110046e-01,-1.515193879562110046e-01,-1.515193879562110046e-01,-1.515193879562110046e-01,-1.515193879562110046e-01,-1.515193879562110046e-01,-1.515193879562110046e-01,-1.515193879562110046e-01,-1.515193879562110046e-01,-1.515193879562110046e-01,-1.515193879562110046e-01,-1.511258311043766622e-01,-1.511258311043766622e-01,-1.511258311043766622e-01,-1.511258311043766622e-01,-1.511258311043766622e-01,-1.511258311043766622e-01,-1.511258311043766622e-01,-1.511258311043766622e-01,-1.511258311043766622e-01,-1.511258311043766622e-01,-1.511258311043766622e-01,-1.511258311043766622e-01,-1.511258311043766622e-01,-1.511258311043766622e-01,-1.507322742525423476e-01,-1.507322742525423476e-01,-1.507322742525423476e-01,-1.507322742525423476e-01,-1.507322742525423476e-01,-1.507322742525423476e-01,-1.507322742525423476e-01,-1.507322742525423476e-01,-1.507322742525423476e-01,-1.507322742525423476e-01,-1.507322742525423476e-01,-1.507322742525423476e-01,-1.507322742525423476e-01,-1.503387174007080329e-01,-1.503387174007080329e-01,-1.535117695186221931e-01
-1.645067640667433329e-01,-1.645067640667433329e-01,-1.645067640667433329e-01,-1.641132072149090460e-01,-1.641132072149090460e-01,-1.641132072149090460e-01,-1.641132072149090460e-01,-1.641132072149090460e-01,-1.641132072149090460e-01,-1.641132072149090460e-01,-1.641132072149090460e-01,-1.641132072149090460e-01,-1.641132072149090460e-01,-1.641132072149090460e-01,-1.641132072149090460e-01,-1.641132072149090460e-01,-1.641132072149090460e-01,-1.637196503630747313e-01,-1.637196503630747313e-01,-1.637196503630747313e-01,-1.637196503630747313e-01,-1.637196503630747313e-01,-1.637196503630747313e-01,-1.637196503630747313e-01,-1.637196503630747313e-01,-1.637196503630747313e-01,-1.637196503630747313e-01,-1.637196503630747313e-01,-1.637196503630747313e-01,-1.637196503630747313e-01,-1.637196503630747313e-01,-1.633260935112403889e-01,-1.633260935112403889e-01,-1.633260935112403889e-01,-1.633260935112403889e-01,-1.633260935112403889e-01,-1.633260935112403889e-01,-1.633260935112403889e-01,-1.633260935112403889e-01,-1.633260935112403889e-01,-1.633260935112403889e-01,-1.633260935112403889e-01,-1.633260935112403889e-01,-1.633260935112403889e-01,-1.629325366594061020e-01,-1.629325366594061020e-01,-1.657120319254859198e-01
-1.771005833254414019e-01,-1.771005833254414019e-01,-1.771005833254414019e-01,-1.767070264736070873e-01,-1.767070264736070873e-01,-1.767070264736070873e-01,-1.767070264736070873e-01,-1.767070264736070873e-01,-1.767070264736070873e-01,-1.767070264736070873e-01,-1.767070264736070873e-01,-1.767070264736070873e-01,-1.767070264736070873e-01,-1.767070264736070873e-01,-1.767070264736070873e-01,-1.767070264736070873e-01,-1.767070264736070873e-01,-1.763134696217727726e-01,-1.763134696217727726e-01,-1.763134696217727726e-01,-1.763134696217727726e-01,-1.763134696217727726e-01,-1.763134696217727726e-01,-1.763134696217727726e-01,-1.763134696217727726e-01,-1.763134696217727726e-01,-1.763134696217727726e-01,-1.763134696217727726e-01,-1.763134696217727726e-01,-1.763134696217727726e-01,-1.763134696217727726e-01,-1.759199127699384579e-01,-1.759199127699384579e-01,-1.759199127699384579e-01,-1.759199127699384579e-01,-1.759199127699384579e-01,-1.759199127699384579e-01,-1.759199127699384579e-01,-1.759199127699384579e-01,-1.759199127699384579e-01,-1.759199127699384579e-01,-1.759199127699384579e-01,-1.759199127699384579e-01,-1.759199127699384579e-01,-1.755263559181041433e-01,-1.755263559181041433e-01,-1.779122943323496742e-01
-1.896944025841394710e-01,-1.896944025841394710e-01,-1.896944025841394710e-01,-1.893008457323051563e-01,-1.893008457323051563e-01,-1.893008457323051563e-01,-1.893008457323051563e-01,-1.893008457323051563e-01,-1.893008457323051563e-01,-1.893008457323051563e-01,-1.893008457323051563e-01,-1.893008457323051563e-01,-1.893008457323051563e-01,-1.893008457323051563e-01,-1.893008457323051563e-01,-1.893008457323051563e-01,-1.893008457323051563e-01,-1.889072888804708139e-01,-1.889072888804708139e-01,-1.889072888804708139e-01,-1.889072888804708139e-01,-1.889072888804708139e-01,-1.889072888804708139e-01,-1.889072888804708139e-01,-1.889072888804708139e-01,-1.889072888804708139e-01,-1.889072888804708139e-01,-1.889072888804708139e-01,-1.889072888804708139e-01,-1.889072888804708139e-01,-1.889072888804708139e-01,-1.885137320286365270e-01,-1.885137320286365270e-01,-1.885137320286365270e-01,-1.885137320286365270e-01,-1.885137320286365270e-01,-1.885137320286365270e-01,-1.885137320286365270e-01,-1.885137320286365270e-01,-1.885137320286365270e-01,-1.885137320286365270e-01,-1.885137320286365270e-01,-1.885137320286365270e-01,-1.885137320286365270e-01,-1.881201751768021846e-01,-1.881201751768021846e-01,-1.901125567392134008e-01
-2.022882218428375123e-01,-2.022882218428375123e-01,-2.022882218428375123e-01,-2.018946649910031976e-01,-2.018946649910031976e-01,-2.018946649910031976e-01,-2.018946649910031976e-01,-2.018946649910031976e-01,-2.018946649910031976e-01,-2.018946649910031976e-01,-2.018946649910031976e-01,-2.018946649910031976e-01,-2.018946649910031976e-01,-2.018946649910031976e-01,-2.018946649910031976e-01,-2.018946649910031976e-01,-2.018946649910031976e-01,-2.015011081391688830e-01,-2.015011081391688830e-01,-2.015011081391688830e-01,-2.015011081391688830e-01,-2.015011081391688830e-01,-2.015011081391688830e-01,-2.015011081391688830e-01,-2.015011081391688830e-01,-2.015011081391688830e-01,-2.015011081391688830e-01,-2.015011081391688830e-01,-2.015011081391688830e-01,-2.015011081391688830e-01,-2.015011081391688830e-01,-2.011075512873345683e-01,-2.011075512873345683e-01,-2.011075512873345683e-01,-2.011075512873345683e-01,-2.011075512873345683e-01,-2.011075512873345683e-01,-2.011075512873345683e-01,-2.011075512873345683e-01,-2.011075512873345683e-01,-2.011075512873345683e-01,-2.011075512873345683e-01,-2.011075512873345683e-01,-2.011075512873345683e-01,-2.007139944355002537e-01,-2.007139944355002537e-01,-2.023128191460771552e-01
-2.148820411015355814e-01,-2.148820411015355814e-01,-2.148820411015355814e-01,-2.144884842497012667e-01,-2.144884842497012667e-01,-2.144884842497012667e-01,-2.144884842497012667e-01,-2.144884842497012667e-01,-2.144884842497012667e-01,-2.144884842497012667e-01,-2.144884842497012667e-01,-2.144884842497012667e-01,-2.144884842497012667e-01,-2.144884842497012667e-01,-2.144884842497012667e-01,-2.144884842497012667e-01,-2.144884842497012667e-01,-2.140949273978669520e-01,-2.140949273978669520e-01,-2.140949273978669520e-01,-2.140949273978669520e-01,-2.140949273978669520e-01,-2.140949273978669520e-01,-2.140949273978669520e-01,-2.140949273978669520e-01,-2.140949273978669520e-01,-2.140949273978669520e-01,-2.140949273978669520e-01,-2.140949273978669520e-01,-2.140949273978669520e-01,-2.140949273978669520e-01,-2.137013705460326096e-01,-2.137013705460326096e-01,-2.137013705460326096e-01,-2.137013705460326096e-01,-2.137013705460326096e-01,-2.137013705460326096e-01,-2.137013705460326096e-01,-2.137013705460326096e-01,-2.137013705460326096e-01,-2.137013705460326096e-01,-2.137013705460326096e-01,-2.137013705460326096e-01,-2.137013705460326096e-01,-2.133078136941983227e-01,-2.133078136941983227e-01,-2.157183494116834965e-01
-2.274758603602336227e-01,-2.274758603602336227e-01,-2.274758603602336227e-01,-2.270823035083993080e-01,-2.270823035083993080e-01,-2.270823035083993080e-01,-2.270823035083993080e-01,-2.270823035083993080e-01,-2.270823035083993080e-01,-2.270823035083993080e-01,-2.270823035083993080e-01,-2.270823035083993080e-01,-2.270823035083993080e-01,-2.270823035083993080e-01,-2.270823035083993080e-01,-2.270823035083993080e-01,-2.270823035083993080e-01,-2.266887466565649933e-01,-2.266887466565649933e-01,-2.266887466565649933e-01,-2.266887466565649933e-01,-2.266887466565649933e-01,-2.266887466565649933e-01,-2.266887466565649933e-01,-2.266887466565649933e-01,-2.266887466565649933e-01,-2.266887466565649933e-01,-2.266887466565649933e-01,-2.266887466565649933e-01,-2.266887466565649933e-01,-2.266887466565649933e-01,-2.262951898047306787e-01,-2.262951898047306787e-01,-2.262951898047306787e-01,-2.262951898047306787e-01,-2.262951898047306787e-01,-2.262951898047306787e-01,-2.262951898047306787e-01,-2.262951898047306787e-01,-2.262951898047306787e-01,-2.262951898047306787e-01,-2.262951898047306787e-01,-2.262951898047306787e-01,-2.262951898047306787e-01,-2.259016329528963640e-01,-2.259016329528963640e-01,-2.275250549667129085e-01
-2.400696796189316640e-01,-2.400696796189316640e-01,-2.400696796189316640e-01,-2.396761227670973771e-01,-2.396761227670973771e-01,-2.396761227670973771e-01,-2.396761227670973771e-01,-2.396761227670973771e-01,-2.396761227670973771e-01,-2.396761227670973771e-01,-2.396761227670973771e-01,-2.396761227670973771e-01,-2.396761227670973771e-01,-2.396761227670973771e-01,-2.396761227670973771e-01,-2.396761227670973771e-01,-2.396761227670973771e-01,-2.392825659152630347e-01,-2.392825659152630347e-01,-2.392825659152630347e-01,-2.392825659152630347e-01,-2.392825659152630347e-01,-2.392825659152630347e-01,-2.392825659152630347e-01,-2.392825659152630347e-01,-2.392825659152630347e-01,-2.392825659152630347e-01,-2.392825659152630347e-01,-2.392825659152630347e-01,-2.392825659152630347e-01,-2.392825659152630347e-01,-2.388890090634287477e-01,-2.388890090634287477e-01,-2.388890090634287477e-01,-2.388890090634287477e-01,-2.388890090634287477e-01,-2.388890090634287477e-01,-2.388890090634287477e-01,-2.388890090634287477e-01,-2.388890090634287477e-01,-2.388890090634287477e-01,-2.388890090634287477e-01,-2.388890090634287477e-01,-2.388890090634287477e-01,-2.384954522115944053e-01,-2.384954522115944053e-01,-2.393317605217423483e-01
