-2.034265425228259927e-01,-2.034265425228259927e-01,-2.034265425228259927e-01,-2.034265425228259927e-01,-2.034265425228259927e-01,-2.034265425228259927e-01,-2.034265425228259927e-01,-2.034265425228259927e-01,-2.034265425228259927e-01,-2.034265425228259927e-01,-2.034265425228259927e-01,-2.034265425228259927e-01,-2.034265425228259927e-01,-2.034265425228259927e-01,-2.034265425228259927e-01,-2.034265425228259927e-01,-2.034265425228259927e-01,-2.034265425228259927e-01,-2.034265425228259927e-01,-2.034265425228259927e-01,-2.034265425228259927e-01,-2.034265425228259927e-01,-2.034265425228259927e-01,-2.034265425228259927e-01,-2.034265425228259927e-01,-2.034265425228259927e-01,-2.034265425228259927e-01,-2.034265425228259927e-01,-2.034265425228259927e-01,-2.034265425228259927e-01,-2.034265425228259927e-01,-2.034265425228259927e-01,-2.034265425228259927e-01,-2.034265425228259927e-01,-2.034265425228259927e-01,-2.034265425228259927e-01,-2.034265425228259927e-01,-2.034265425228259927e-01,-2.034265425228259927e-01,-2.034265425228259927e-01,-2.034265425228259927e-01,-2.034265425228259927e-01,-2.034265425228259927e-01,-2.034265425228259927e-01,-2.034265425228259927e-01,-2.034265425228259927e-01,-2.034265425228259927e-01
-2.034265425228259927e-01,-2.034265425228259927e-01,-2.034265425228259927e-01,-2.034265425228259927e-01,-2.034265425228259927e-01,-2.034265425228259927e-01,-2.034265425228259927e-01,-2.034265425228259927e-01,-2.034265425228259927e-01,-2.034265425228259927e-01,-2.034265425228259927e-01,-2.034265425228259927e-01,-2.034265425228259927e-01,-2.034265425228259927e-01,-2.034265425228259927e-01,-2.034265425228259927e-01,-2.034265425228259927e-01,-2.034265425228259927e-01,-2.034265425228259927e-01,-2.034265425228259927e-01,-2.034265425228259927e-01,-2.034265425228259927e-01,-2.034265425228259927e-01,-2.034265425228259927e-01,-2.034265425228259927e-01,-2.034265425228259927e-01,-2.034265425228259927e-01,-2.034265425228259927e-01,-2.034265425228259927e-01,-2.034265425228259927e-01,-2.034265425228259927e-01,-2.034265425228259927e-01,-2.034265425228259927e-01,-2.034265425228259927e-01,-2.034265425228259927e-01,-2.034265425228259927e-01,-2.034265425228259927e-01,-2.034265425228259927e-01,-2.034265425228259927e-01,-2.034265425228259927e-01,-2.034265425228259927e-01,-2.034265425228259927e-01,-2.034265425228259927e-01,-2.034265425228259927e-01,-2.034265425228259927e-01,-2.034265425228259927e-01,-2.034265425228259927e-01
-2.034265425228259927e-01,-2.034265425228259927e-01,-2.034265425228259927e-01,-2.034265425228259927e-01,-2.034265425228259927e-01,-2.034265425228259927e-01,-2.034265425228259927e-01,-2.034265425228259927e-01,-2.034265425228259927e-01,-2.034265425228259927e-01,-2.034265425228259927e-01,-2.034265425228259927e-01,-2.034265425228259927e-01,-2.034265425228259927e-01,-2.034265425228259927e-01,-2.034265425228259927e-01,-2.034265425228259927e-01,-2.034265425228259927e-01,-2.034265425228259927e-01,-2.034265425228259927e-01,-2.034265425228259927e-01,-2.034265425228259927e-01,-2.034265425228259927e-01,-2.034265425228259927e-01,-2.034265425228259927e-01,-2.034265425228259927e-01,-2.034265425228259927e-01,-2.034265425228259927e-01,-2.034265425228259927e-01,-2.034265425228259927e-01,-2.034265425228259927e-01,-2.034265425228259927e-01,-2.034265425228259927e-01,-2.034265425228259927e-01,-2.034265425228259927e-01,-2.034265425228259927e-01,-2.034265425228259927e-01,-2.034265425228259927e-01,-2.034265425228259927e-01,-2.034265425228259927e-01,-2.034265425228259927e-01,-2.034265425228259927e-01,-2.034265425228259927e-01,-2.034265425228259927e-01,-2.034265425228259927e-01,-2.034265425228259927e-01,-2.034265425228259927e-01
-2.034265425228259927e-01,-2.034265425228259927e-01,-2.034265425228259927e-01,-2.034265425228259927e-01,-2.034265425228259927e-01,-2.034265425228259927e-01,-2.034265425228259927e-01,-2.034265425228259927e-01,-2.034265425228259927e-01,-2.034265425228259927e-01,-2.034265425228259927e-01,-2.034265425228259927e-01,-2.034265425228259927e-01,-3.885589115688210526e-01,-3.885589115688210526e-01,-3.885589115688210526e-01,-3.885589115688210526e-01,-3.885589115688210526e-01,-2.034265425228259927e-01,-2.034265425228259927e-01,-2.034265425228259927e-01,-2.034265425228259927e-01,-2.034265425228259927e-01,-2.034265425228259927e-01,-2.034265425228259927e-01,-2.034265425228259927e-01,-2.034265425228259927e-01,-2.034265425228259927e-01,-2.034265425228259927e-01,-2.034265425228259927e-01,-2.034265425228259927e-01,-2.034265425228259927e-01,-2.034265425228259927e-01,-2.034265425228259927e-01,-2.034265425228259927e-01,-2.034265425228259927e-01,-2.034265425228259927e-01,-2.034265425228259927e-01,-2.034265425228259927e-01,-2.034265425228259927e-01,-2.034265425228259927e-01,-2.034265425228259927e-01,-2.034265425228259927e-01,-2.034265425228259927e-01,-2.034265425228259927e-01,-2.034265425228259927e-01,-2.034265425228259927e-01
-2.034265425228259927e-01,-2.034265425228259927e-01,-2.034265425228259927e-01,-2.034265425228259927e-01,-2.034265425228259927e-01,-2.034265425228259927e-01,-2.034265425228259927e-01,-2.034265425228259927e-01,-2.034265425228259927e-01,-2.034265425228259927e-01,-2.034265425228259927e-01,-2.034265425228259927e-01,-2.034265425228259927e-01,-3.885589115688210526e-01,-3.885589115688210526e-01,-3.885589115688210526e-01,-3.885589115688210526e-01,-3.885589115688210526e-01,-2.034265425228259927e-01,-2.034265425228259927e-01,-2.034265425228259927e-01,-2.034265425228259927e-01,-2.034265425228259927e-01,-2.034265425228259927e-01,-2.034265425228259927e-01,-2.034265425228259927e-01,-2.034265425228259927e-01,-2.034265425228259927e-01,-2.034265425228259927e-01,-2.034265425228259927e-01,-2.034265425228259927e-01,-2.034265425228259927e-01,-2.034265425228259927e-01,-2.034265425228259927e-01,-2.034265425228259927e-01,-2.034265425228259927e-01,-2.034265425228259927e-01,-2.034265425228259927e-01,-2.034265425228259927e-01,-2.034265425228259927e-01,-2.034265425228259927e-01,-2.034265425228259927e-01,-2.034265425228259927e-01,-2.034265425228259927e-01,-2.034265425228259927e-01,-2.034265425228259927e-01,-2.034265425228259927e-01
-2.034265425228259927e-01,-2.034265425228259927e-01,-2.034265425228259927e-01,-2.034265425228259927e-01,-2.034265425228259927e-01,-2.034265425228259927e-01,-2.034265425228259927e-01,-2.034265425228259927e-01,-2.034265425228259927e-01,-2.034265425228259927e-01,-2.034265425228259927e-01,-2.034265425228259927e-01,-2.034265425228259927e-01,-3.885589115688210526e-01,-3.885589115688210526e-01,-3.885589115688210526e-01,-3.885589115688210526e-01,-3.885589115688210526e-01,-2.034265425228259927e-01,-2.034265425228259927e-01,-2.034265425228259927e-01,-2.034265425228259927e-01,-2.034265425228259927e-01,-2.034265425228259927e-01,-2.034265425228259927e-01,-2.034265425228259927e-01,-2.034265425228259927e-01,-2.034265425228259927e-01,-2.034265425228259927e-01,-2.034265425228259927e-01,-2.034265425228259927e-01,-2.034265425228259927e-01,-2.034265425228259927e-01,-2.034265425228259927e-01,-2.034265425228259927e-01,-2.034265425228259927e-01,-2.034265425228259927e-01,-2.034265425228259927e-01,-2.034265425228259927e-01,-2.034265425228259927e-01,-2.034265425228259927e-01,-2.034265425228259927e-01,-2.034265425228259927e-01,-2.034265425228259927e-01,-2.034265425228259927e-01,-2.034265425228259927e-01,-2.034265425228259927e-01
-2.034265425228259927e-01,-2.034265425228259927e-01,-2.034265425228259927e-01,-2.034265425228259927e-01,-2.034265425228259927e-01,-2.034265425228259927e-01,-2.034265425228259927e-01,-2.034265425228259927e-01,-2.034265425228259927e-01,-2.034265425228259927e-01,-2.034265425228259927e-01,-2.034265425228259927e-01,-2.034265425228259927e-01,-3.885589115688210526e-01,-3.885589115688210526e-01,-3.885589115688210526e-01,-3.885589115688210526e-01,-3.885589115688210526e-01,-2.034265425228259927e-01,-2.034265425228259927e-01,-2.034265425228259927e-01,-2.034265425228259927e-01,-2.034265425228259927e-01,-2.034265425228259927e-01,-2.034265425228259927e-01,-2.034265425228259927e-01,-2.034265425228259927e-01,-2.034265425228259927e-01,-2.034265425228259927e-01,-2.034265425228259927e-01,-2.034265425228259927e-01,-2.034265425228259927e-01,-2.034265425228259927e-01,-2.034265425228259927e-01,-2.034265425228259927e-01,-2.034265425228259927e-01,-2.034265425228259927e-01,-2.034265425228259927e-01,-2.034265425228259927e-01,-2.034265425228259927e-01,-2.034265425228259927e-01,-2.034265425228259927e-01,-2.034265425228259927e-01,-2.034265425228259927e-01,-2.034265425228259927e-01,-2.034265425228259927e-01,-2.034265425228259927e-01
-2.034265425228259927e-01,-2.034265425228259927e-01,-2.034265425228259927e-01,-2.034265425228259927e-01,-2.034265425228259927e-01,-2.034265425228259927e-01,-2.034265425228259927e-01,-2.034265425228259927e-01,-2.034265425228259927e-01,-2.034265425228259927e-01,-2.034265425228259927e-01,-2.034265425228259927e-01,-2.034265425228259927e-01,-3.885589115688210526e-01,-3.885589115688210526e-01,-3.885589115688210526e-01,-3.885589115688210526e-01,-3.885589115688210526e-01,-2.034265425228259927e-01,-2.034265425228259927e-01,-2.034265425228259927e-01,-2.034265425228259927e-01,-2.034265425228259927e-01,-2.034265425228259927e-01,-2.034265425228259927e-01,-2.034265425228259927e-01,-2.034265425228259927e-01,-2.034265425228259927e-01,-2.034265425228259927e-01,-2.034265425228259927e-01,-2.034265425228259927e-01,-2.034265425228259927e-01,-2.034265425228259927e-01,-2.034265425228259927e-01,-2.034265425228259927e-01,-2.034265425228259927e-01,-2.034265425228259927e-01,-2.034265425228259927e-01,-2.034265425228259927e-01,-2.034265425228259927e-01,-2.034265425228259927e-01,-2.034265425228259927e-01,-2.034265425228259927e-01,-2.034265425228259927e-01,-2.034265425228259927e-01,-2.034265425228259927e-01,-2.034265425228259927e-01
-2.034265425228259927e-01,-2.034265425228259927e-01,-2.034265425228259927e-01,-2.034265425228259927e-01,-2.034265425228259927e-01,-2.034265425228259927e-01,-2.034265425228259927e-01,-2.034265425228259927e-01,-2.034265425228259927e-01,-2.034265425228259927e-01,-2.034265425228259927e-01,-2.034265425228259927e-01,-2.034265425228259927e-01,-2.034265425228259927e-01,-2.034265425228259927e-01,-2.034265425228259927e-01,-2.034265425228259927e-01,-2.034265425228259927e-01,-2.034265425228259927e-01,-2.034265425228259927e-01,-2.034265425228259927e-01,-2.034265425228259927e-01,-2.034265425228259927e-01,-2.034265425228259927e-01,-2.034265425228259927e-01,-2.034265425228259927e-01,-2.034265425228259927e-01,-2.034265425228259927e-01,-2.034265425228259927e-01,-2.034265425228259927e-01,-2.034265425228259927e-01,-2.034265425228259927e-01,-2.034265425228259927e-01,-2.034265425228259927e-01,-2.034265425228259927e-01,-2.034265425228259927e-01,-2.034265425228259927e-01,-2.034265425228259927e-01,-2.034265425228259927e-01,-2.034265425228259927e-01,-2.034265425228259927e-01,-2.034265425228259927e-01,-2.034265425228259927e-01,-2.034265425228259927e-01,-2.034265425228259927e-01,-2.034265425228259927e-01,-2.034265425228259927e-01
-2.034265425228259927e-01,-2.034265425228259927e-01,-2.034265425228259927e-01,-2.034265425228259927e-01,-2.034265425228259927e-01,-2.034265425228259927e-01,-2.034265425228259927e-01,-2.034265425228259927e-01,-2.034265425228259927e-01,-2.034265425228259927e-01,-2.034265425228259927e-01,-2.034265425228259927e-01,-2.034265425228259927e-01,-2.034265425228259927e-01,-2.034265425228259927e-01,-2.034265425228259927e-01,-2.034265425228259927e-01,-2.034265425228259927e-01,-2.034265425228259927e-01,-2.034265425228259927e-01,-2.034265425228259927e-01,-2.034265425228259927e-01,-2.034265425228259927e-01,-2.034265425228259927e-01,-2.034265425228259927e-01,-2.034265425228259927e-01,-2.034265425228259927e-01,-2.034265425228259927e-01,-2.034265425228259927e-01,-2.034265425228259927e-01,-2.034265425228259927e-01,-2.034265425228259927e-01,-2.034265425228259927e-01,-2.034265425228259927e-01,-2.034265425228259927e-01,-2.034265425228259927e-01,-2.034265425228259927e-01,-2.034265425228259927e-01,-2.034265425228259927e-01,-2.034265425228259927e-01,-2.034265425228259927e-01,-2.034265425228259927e-01,-2.034265425228259927e-01,-2.034265425228259927e-01,-2.034265425228259927e-01,-2.034265425228259927e-01,-2.034265425228259927e-01
-2.034265425228259927e-01,-2.034265425228259927e-01,-2.034265425228259927e-01,-2.034265425228259927e-01,-2.034265425228259927e-01,-2.034265425228259927e-01,-2.034265425228259927e-01,-2.034265425228259927e-01,-2.034265425228259927e-01,-2.034265425228259927e-01,-2.034265425228259927e-01,-2.034265425228259927e-01,-2.034265425228259927e-01,-2.034265425228259927e-01,-2.034265425228259927e-01,-2.034265425228259927e-01,-2.034265425228259927e-01,-2.034265425228259927e-01,-2.034265425228259927e-01,-2.034265425228259927e-01,-2.034265425228259927e-01,-2.034265425228259927e-01,-2.034265425228259927e-01,-2.034265425228259927e-01,-2.034265425228259927e-01,-2.034265425228259927e-01,-2.034265425228259927e-01,-2.034265425228259927e-01,-2.034265425228259927e-01,-2.034265425228259927e-01,-2.034265425228259927e-01,-2.034265425228259927e-01,-2.034265425228259927e-01,-2.034265425228259927e-01,-2.034265425228259927e-01,-2.034265425228259927e-01,-2.034265425228259927e-01,-2.034265425228259927e-01,-2.034265425228259927e-01,-2.034265425228259927e-01,-2.034265425228259927e-01,-2.034265425228259927e-01,-2.034265425228259927e-01,-2.034265425228259927e-01,-2.034265425228259927e-01,-2.034265425228259927e-01,-2.034265425228259927e-01
-2.034265425228259927e-01,-2.034265425228259927e-01,-2.034265425228259927e-01,-2.034265425228259927e-01,-2.034265425228259927e-01,-2.034265425228259927e-01,-2.034265425228259927e-01,-2.034265425228259927e-01,-2.034265425228259927e-01,-2.034265425228259927e-01,-2.034265425228259927e-01,-2.034265425228259927e-01,-2.034265425228259927e-01,-2.034265425228259927e-01,-2.034265425228259927e-01,-2.034265425228259927e-01,-2.034265425228259927e-01,-2.034265425228259927e-01,-2.034265425228259927e-01,-2.034265425228259927e-01,-2.034265425228259927e-01,-2.034265425228259927e-01,-2.034265425228259927e-01,-2.034265425228259927e-01,-2.034265425228259927e-01,-2.034265425228259927e-01,-2.034265425228259927e-01,-2.034265425228259927e-01,-2.034265425228259927e-01,-2.034265425228259927e-01,-2.034265425228259927e-01,-2.034265425228259927e-01,-2.034265425228259927e-01,-2.034265425228259927e-01,-2.034265425228259927e-01,-2.034265425228259927e-01,-2.034265425228259927e-01,-2.034265425228259927e-01,-2.034265425228259927e-01,-2.034265425228259927e-01,-2.034265425228259927e-01,-2.034265425228259927e-01,-1.999191883413979631e-01,-1.967284703013488512e-01,-2.034265425228259927e-01,-2.034265425228259927e-01,-2.034265425228259927e-01
-2.034265425228259927e-01,-2.034265425228259927e-01,-2.034265425228259927e-01,-2.034265425228259927e-01,-2.034265425228259927e-01,-2.034265425228259927e-01,-2.034265425228259927e-01,-2.838225856821900983e-01,-2.838225856821900983e-01,-2.838225856821900983e-01,-2.838225856821900983e-01,-2.034265425228259927e-01,-2.034265425228259927e-01,-2.034265425228259927e-01,-2.034265425228259927e-01,-2.034265425228259927e-01,-2.034265425228259927e-01,-2.034265425228259927e-01,-2.034265425228259927e-01,-2.034265425228259927e-01,-2.034265425228259927e-01,-2.034265425228259927e-01,-2.034265425228259927e-01,-2.034265425228259927e-01,-2.034265425228259927e-01,-2.034265425228259927e-01,-2.034265425228259927e-01,-2.034265425228259927e-01,-2.034265425228259927e-01,-2.034265425228259927e-01,-2.034265425228259927e-01,-2.034265425228259927e-01,-2.034265425228259927e-01,-2.034265425228259927e-01,-2.034265425228259927e-01,-2.034265425228259927e-01,-2.034265425228259927e-01,-2.034265425228259927e-01,-2.034265425228259927e-01,-2.034265425228259927e-01,-1.995294823212392932e-01,-1.940735980390179138e-01,-1.886177137567965068e-01,-1.835515354947337974e-01,-1.955106389883529971e-01,-2.034265425228259927e-01,-2.034265425228259927e-01
-2.034265425228259927e-01,-2.034265425228259927e-01,-2.034265425228259927e-01,-2.034265425228259927e-01,-2.034265425228259927e-01,-2.034265425228259927e-01,-2.034265425228259927e-01,-2.838225856821900983e-01,-2.838225856821900983e-01,-2.838225856821900983e-01,-2.838225856821900983e-01,-2.034265425228259927e-01,-2.034265425228259927e-01,-2.034265425228259927e-01,-2.034265425228259927e-01,-2.034265425228259927e-01,-2.034265425228259927e-01,-2.034265425228259927e-01,-2.034265425228259927e-01,-2.034265425228259927e-01,-2.034265425228259927e-01,-2.034265425228259927e-01,-2.034265425228259927e-01,-2.034265425228259927e-01,-2.034265425228259927e-01,-2.034265425228259927e-01,-2.034265425228259927e-01,-2.034265425228259927e-01,-2.034265425228259927e-01,-2.034265425228259927e-01,-2.034265425228259927e-01,-2.034265425228259927e-01,-2.034265425228259927e-01,-2.034265425228259927e-01,-2.034265425228259927e-01,-2.034265425228259927e-01,-2.034265425228259927e-01,-2.034265425228259927e-01,-1.987500702809219533e-01,-1.936838920188592439e-01,-1.882280077366378368e-01,-1.827721234544164575e-01,-1.773162391721950781e-01,-1.722500609101323410e-01,-1.759522681016397194e-01,-2.034265425228259927e-01,-2.034265425228259927e-01
-2.034265425228259927e-01,-2.034265425228259927e-01,-2.034265425228259927e-01,-2.034265425228259927e-01,-2.034265425228259927e-01,-2.034265425228259927e-01,-2.034265425228259927e-01,-2.838225856821900983e-01,-2.838225856821900983e-01,-2.838225856821900983e-01,-2.838225856821900983e-01,-2.034265425228259927e-01,-2.034265425228259927e-01,-2.034265425228259927e-01,-2.034265425228259927e-01,-2.034265425228259927e-01,-2.034265425228259927e-01,-2.034265425228259927e-01,-2.034265425228259927e-01,-2.034265425228259927e-01,-2.034265425228259927e-01,-2.034265425228259927e-01,-2.034265425228259927e-01,-2.034265425228259927e-01,-2.034265425228259927e-01,-2.034265425228259927e-01,-2.034265425228259927e-01,-2.034265425228259927e-01,-2.034265425228259927e-01,-2.034265425228259927e-01,-2.034265425228259927e-01,-2.034265425228259927e-01,-2.034265425228259927e-01,-2.034265425228259927e-01,-2.034265425228259927e-01,-2.034265425228259927e-01,-1.983603642607632833e-01,-1.929044799785418762e-01,-1.874485956963204969e-01,-1.823824174342577875e-01,-1.769265331520364082e-01,-1.714706488698150011e-01,-1.664044706077523195e-01,-1.609485863255309124e-01,-1.554927020433095330e-01,-1.901765378374311866e-01,-2.034265425228259927e-01
-2.034265425228259927e-01,-2.034265425228259927e-01,-2.034265425228259927e-01,-2.034265425228259927e-01,-2.034265425228259927e-01,-2.034265425228259927e-01,-2.034265425228259927e-01,-2.838225856821900983e-01,-2.838225856821900983e-01,-2.838225856821900983e-01,-2.838225856821900983e-01,-2.034265425228259927e-01,-2.034265425228259927e-01,-2.034265425228259927e-01,-2.034265425228259927e-01,-2.034265425228259927e-01,-2.034265425228259927e-01,-2.034265425228259927e-01,-2.034265425228259927e-01,-2.034265425228259927e-01,-2.034265425228259927e-01,-2.034265425228259927e-01,-2.034265425228259927e-01,-2.034265425228259927e-01,-2.034265425228259927e-01,-2.034265425228259927e-01,-2.034265425228259927e-01,-2.034265425228259927e-01,-2.034265425228259927e-01,-2.034265425228259927e-01,-2.034265425228259927e-01,-2.034265425228259927e-01,-2.034265425228259927e-01,-2.030368365026673227e-01,-1.975809522204459434e-01,-1.921250679382245363e-01,-1.870588896761618269e-01,-1.816030053939404476e-01,-1.761471211117190683e-01,-1.710809428496563589e-01,-1.656250585674349518e-01,-1.601691742852135725e-01,-1.551029960231508631e-01,-1.496471117409294838e-01,-1.441912274587081044e-01,-1.592192658610768197e-01,-2.034265425228259927e-01
-2.034265425228259927e-01,-2.034265425228259927e-01,-2.034265425228259927e-01,-2.034265425228259927e-01,-2.034265425228259927e-01,-2.034265425228259927e-01,-2.034265425228259927e-01,-2.034265425228259927e-01,-2.034265425228259927e-01,-2.034265425228259927e-01,-2.034265425228259927e-01,-2.034265425228259927e-01,-2.034265425228259927e-01,-2.034265425228259927e-01,-2.034265425228259927e-01,-2.034265425228259927e-01,-2.034265425228259927e-01,-2.034265425228259927e-01,-2.034265425228259927e-01,-2.034265425228259927e-01,-2.034265425228259927e-01,-2.034265425228259927e-01,-2.034265425228259927e-01,-2.034265425228259927e-01,-2.034265425228259927e-01,-2.034265425228259927e-01,-2.034265425228259927e-01,-2.034265425228259927e-01,-2.034265425228259927e-01,-2.034265425228259927e-01,-2.034265425228259927e-01,-2.022574244623499828e-01,-1.968015401801286035e-01,-1.917353619180658941e-01,-1.862794776358444870e-01,-1.808235933536231077e-01,-1.757574150915603983e-01,-1.703015308093390190e-01,-1.648456465271176397e-01,-1.597794682650549025e-01,-1.543235839828335232e-01,-1.488676997006121439e-01,-1.438015214385494067e-01,-1.383456371563280274e-01,-1.328897528741066481e-01,-1.278235746120439109e-01,-1.856949186056064960e-01
-2.034265425228259927e-01,-2.034265425228259927e-01,-2.034265425228259927e-01,-2.034265425228259927e-01,-2.034265425228259927e-01,-2.034265425228259927e-01,-2.034265425228259927e-01,-2.034265425228259927e-01,-2.034265425228259927e-01,-2.034265425228259927e-01,-2.034265425228259927e-01,-2.034265425228259927e-01,-2.034265425228259927e-01,-2.034265425228259927e-01,-2.034265425228259927e-01,-2.034265425228259927e-01,-2.034265425228259927e-01,-2.034265425228259927e-01,-2.034265425228259927e-01,-2.034265425228259927e-01,-2.034265425228259927e-01,-2.034265425228259927e-01,-2.034265425228259927e-01,-2.034265425228259927e-01,-2.034265425228259927e-01,-2.034265425228259927e-01,-2.034265425228259927e-01,-2.034265425228259927e-01,-2.034265425228259927e-01,-2.018677184421913129e-01,-1.964118341599699336e-01,-2.708190499289664377e-01,-2.657528716669037561e-01,-2.602969873846823767e-01,-2.548411031024609974e-01,-2.493852188202395903e-01,-1.644559405069589419e-01,-1.590000562247375626e-01,-1.535441719425161833e-01,-1.484779936804534739e-01,-1.430221093982320668e-01,-1.375662251160106875e-01,-1.325000468539479781e-01,-1.270441625717265710e-01,-1.215882782895052056e-01,-1.165221000274424823e-01,-1.428150780750227777e-01
-2.034265425228259927e-01,-2.034265425228259927e-01,-2.034265425228259927e-01,-2.034265425228259927e-01,-2.034265425228259927e-01,-2.034265425228259927e-01,-2.034265425228259927e-01,-2.034265425228259927e-01,-2.034265425228259927e-01,-2.034265425228259927e-01,-2.034265425228259927e-01,-2.034265425228259927e-01,-2.034265425228259927e-01,-2.034265425228259927e-01,-2.034265425228259927e-01,-2.034265425228259927e-01,-2.034265425228259927e-01,-2.034265425228259927e-01,-2.034265425228259927e-01,-2.034265425228259927e-01,-2.034265425228259927e-01,-2.034265425228259927e-01,-2.034265425228259927e-01,-2.034265425228259927e-01,-2.034265425228259927e-01,-2.034265425228259927e-01,-2.034265425228259927e-01,-2.010883064018739730e-01,-1.956324221196525937e-01,-1.905662438575898565e-01,-1.851103595753684772e-01,-2.595175753443650368e-01,-2.544513970823022997e-01,-2.489955128000809204e-01,-2.435396285178595410e-01,-2.384734502557968039e-01,-1.531544659223574856e-01,-1.476985816401361062e-01,-1.426324033780733969e-01,-1.371765190958520175e-01,-1.317206348136306382e-01,-1.262647505314092311e-01,-1.211985722693465356e-01,-1.157426879871251285e-01,-1.102868037049037631e-01,-1.052206254428410398e-01,-9.976474116061966046e-02
-2.034265425228259927e-01,-2.034265425228259927e-01,-2.034265425228259927e-01,-2.034265425228259927e-01,-2.034265425228259927e-01,-2.034265425228259927e-01,-2.034265425228259927e-01,-2.034265425228259927e-01,-2.034265425228259927e-01,-2.034265425228259927e-01,-2.034265425228259927e-01,-2.034265425228259927e-01,-2.034265425228259927e-01,-2.034265425228259927e-01,-2.034265425228259927e-01,-2.034265425228259927e-01,-2.034265425228259927e-01,-2.034265425228259927e-01,-2.034265425228259927e-01,-2.034265425228259927e-01,-2.034265425228259927e-01,-2.034265425228259927e-01,-2.034265425228259927e-01,-2.034265425228259927e-01,-2.034265425228259927e-01,-2.003088943615566331e-01,-1.952427160994939237e-01,-1.897868318172725166e-01,-1.843309475350511373e-01,-1.792647692729884279e-01,-1.738088849907670486e-01,-2.482161007597635805e-01,-2.431499224977008711e-01,-2.376940382154794640e-01,-2.322381539332580846e-01,-2.271719756711953753e-01,-1.418529913377560570e-01,-1.363971070555346776e-01,-1.313309287934719682e-01,-1.258750445112505889e-01,-1.204191602290291957e-01,-1.153529819669664586e-01,-1.098970976847450931e-01,-1.044412134025236999e-01,-9.937503514046099051e-02,-9.391915085823959730e-02,-8.846326657601820409e-02
-2.034265425228259927e-01,-2.034265425228259927e-01,-2.034265425228259927e-01,-2.034265425228259927e-01,-2.034265425228259927e-01,-2.034265425228259927e-01,-2.034265425228259927e-01,-2.034265425228259927e-01,-2.034265425228259927e-01,-2.034265425228259927e-01,-2.034265425228259927e-01,-2.034265425228259927e-01,-2.034265425228259927e-01,-2.034265425228259927e-01,-2.034265425228259927e-01,-2.034265425228259927e-01,-2.034265425228259927e-01,-2.034265425228259927e-01,-2.034265425228259927e-01,-2.034265425228259927e-01,-2.034265425228259927e-01,-2.034265425228259927e-01,-2.034265425228259927e-01,-1.999191883413979631e-01,-1.944633040591765838e-01,-1.890074197769551767e-01,-1.839412415148924673e-01,-1.784853572326710880e-01,-1.730294729504497087e-01,-1.679632946883869993e-01,-1.625074104061655922e-01,-2.369146261751621241e-01,-2.318484479130994147e-01,-2.263925636308780354e-01,-2.209366793486566283e-01,-2.158705010865939466e-01,-1.305515167531546283e-01,-1.250956324709332490e-01,-1.200294542088705119e-01,-1.145735699266491325e-01,-1.091176856444277532e-01,-1.040515073823650299e-01,-9.859562310014363673e-02,-9.313973881792225740e-02,-8.807356055585953414e-02,-8.261767627363814093e-02,-7.716179199141676159e-02
-2.034265425228259927e-01,-2.034265425228259927e-01,-2.034265425228259927e-01,-2.034265425228259927e-01,-2.034265425228259927e-01,-2.034265425228259927e-01,-2.034265425228259927e-01,-2.034265425228259927e-01,-2.034265425228259927e-01,-2.034265425228259927e-01,-2.034265425228259927e-01,-2.034265425228259927e-01,-2.034265425228259927e-01,-2.034265425228259927e-01,-2.034265425228259927e-01,-2.034265425228259927e-01,-2.034265425228259927e-01,-2.034265425228259927e-01,-2.034265425228259927e-01,-2.034265425228259927e-01,-2.034265425228259927e-01,-1.991397763010806232e-01,-1.940735980390179138e-01,-1.886177137567965068e-01,-1.831618294745751274e-01,-1.777059451923537481e-01,-1.726397669302910387e-01,-1.671838826480696594e-01,-1.617279983658482523e-01,-1.566618201037855429e-01,-1.512059358215641636e-01,-2.256131515905606955e-01,-2.205469733284979861e-01,-2.150910890462766067e-01,-2.096352047640551997e-01,-2.045690265019924903e-01,-1.192500421685531720e-01,-1.137941578863317926e-01,-1.087279796242690832e-01,-1.032720953420476900e-01,-9.781621105982629683e-02,-9.275003279776358744e-02,-8.729414851554220811e-02,-8.183826423332081490e-02,-7.677208597125811940e-02,-7.131620168903671231e-02,-6.586031740681533297e-02
-2.034265425228259927e-01,-2.034265425228259927e-01,-2.034265425228259927e-01,-2.034265425228259927e-01,-2.034265425228259927e-01,-2.034265425228259927e-01,-2.034265425228259927e-01,-2.034265425228259927e-01,-2.034265425228259927e-01,-2.034265425228259927e-01,-2.034265425228259927e-01,-2.034265425228259927e-01,-2.034265425228259927e-01,-2.034265425228259927e-01,-2.034265425228259927e-01,-2.034265425228259927e-01,-2.034265425228259927e-01,-2.034265425228259927e-01,-2.034265425228259927e-01,-1.987500702809219533e-01,-1.932941859987005739e-01,-1.878383017164791668e-01,-1.827721234544164575e-01,-1.773162391721950781e-01,-1.718603548899736988e-01,-1.667941766279109617e-01,-1.613382923456895823e-01,-1.558824080634682030e-01,-1.508162298014054659e-01,-1.453603455191840865e-01,-1.399044612369627072e-01,-1.348382829748999978e-01,-1.293823986926786185e-01,-1.239265144104572253e-01,-1.188603361483945020e-01,-1.134044518661731227e-01,-1.079485675839517433e-01,-1.024926833017303501e-01,-9.742650503966762687e-02,-9.197062075744623366e-02,-8.651473647522484045e-02,-8.144855821316213107e-02,-7.599267393094077949e-02,-7.053678964871937240e-02,-6.547061138665663527e-02,-6.001472710443525593e-02,-5.455884282221387660e-02
-2.034265425228259927e-01,-2.034265425228259927e-01,-2.034265425228259927e-01,-2.034265425228259927e-01,-2.034265425228259927e-01,-2.034265425228259927e-01,-2.034265425228259927e-01,-2.034265425228259927e-01,-2.034265425228259927e-01,-2.034265425228259927e-01,-2.034265425228259927e-01,-2.034265425228259927e-01,-2.034265425228259927e-01,-2.034265425228259927e-01,-2.034265425228259927e-01,-2.034265425228259927e-01,-2.034265425228259927e-01,-1.979706582406046134e-01,-1.925147739583832340e-01,-1.874485956963204969e-01,-1.819927114140991176e-01,-1.765368271318777382e-01,-1.714706488698150011e-01,-1.660147645875936218e-01,-1.605588803053722424e-01,-1.554927020433095330e-01,-1.500368177610881537e-01,-1.445809334788667466e-01,-1.395147552168040372e-01,-1.340588709345826579e-01,-1.286029866523612508e-01,-1.235368083902985553e-01,-1.180809241080771621e-01,-1.126250398258557689e-01,-1.075588615637930595e-01,-1.021029772815716802e-01,-9.664709299935028697e-02,-9.158091473728756371e-02,-8.612503045506618438e-02,-8.066914617284480504e-02,-7.560296791078208178e-02,-7.014708362856070245e-02,-6.469119934633932312e-02,-5.923531506411791603e-02,-5.416913680205520665e-02,-4.871325251983382731e-02,-4.325736823761244798e-02
-2.034265425228259927e-01,-2.034265425228259927e-01,-2.034265425228259927e-01,-2.034265425228259927e-01,-2.034265425228259927e-01,-2.034265425228259927e-01,-2.034265425228259927e-01,-2.034265425228259927e-01,-2.034265425228259927e-01,-2.034265425228259927e-01,-2.034265425228259927e-01,-2.034265425228259927e-01,-2.034265425228259927e-01,-2.034265425228259927e-01,-2.026471304825086528e-01,-1.971912462002872735e-01,-1.921250679382245363e-01,-1.866691836560031570e-01,-1.812132993737817777e-01,-1.761471211117190683e-01,-1.706912368294976612e-01,-1.652353525472762819e-01,-1.601691742852135725e-01,-1.547132900029921931e-01,-1.492574057207707861e-01,-1.441912274587081044e-01,-1.387353431764866973e-01,-1.332794588942653180e-01,-1.282132806322025809e-01,-1.227573963499812015e-01,-1.173015120677598222e-01,-1.122353338056971128e-01,-1.067794495234757196e-01,-1.013235652412543403e-01,-9.625738697919160314e-02,-9.080150269697022380e-02,-8.534561841474884447e-02,-8.027944015268614897e-02,-7.482355587046474188e-02,-6.936767158824339030e-02,-6.430149332618065317e-02,-5.884560904395924608e-02,-5.338972476173786674e-02,-4.832354649967515736e-02,-4.286766221745377803e-02,-3.741177793523239870e-02,-3.234559967316966156e-02
-2.034265425228259927e-01,-2.034265425228259927e-01,-2.034265425228259927e-01,-2.034265425228259927e-01,-2.034265425228259927e-01,-2.034265425228259927e-01,-2.034265425228259927e-01,-2.034265425228259927e-01,-2.034265425228259927e-01,-2.034265425228259927e-01,-2.034265425228259927e-01,-2.034265425228259927e-01,-2.022574244623499828e-01,-1.968015401801286035e-01,-1.913456558979071964e-01,-1.862794776358444870e-01,-1.808235933536231077e-01,-1.753677090714017284e-01,-1.699118247891803213e-01,-1.648456465271176119e-01,-1.593897622448962326e-01,-1.539338779626748532e-01,-1.488676997006121439e-01,-1.434118154183907368e-01,-1.379559311361693574e-01,-1.328897528741066481e-01,-1.274338685918852687e-01,-1.219779843096638616e-01,-1.169118060476011522e-01,-1.114559217653797729e-01,-1.060000374831583797e-01,-1.009338592210956703e-01,-9.547797493887427711e-02,-9.002209065665288390e-02,-8.495591239459018840e-02,-7.950002811236879519e-02,-7.404414383014740197e-02,-6.897796556808469259e-02,-6.352208128586331326e-02,-5.806619700364193393e-02,-5.300001874157922455e-02,-4.754413445935781746e-02,-4.208825017713643812e-02,-3.702207191507372874e-02,-3.156618763285234941e-02,-2.611030335063094232e-02,-2.104412508856823294e-02
-2.034265425228259927e-01,-2.034265425228259927e-01,-2.034265425228259927e-01,-2.034265425228259927e-01,-2.034265425228259927e-01,-2.034265425228259927e-01,-2.034265425228259927e-01,-2.034265425228259927e-01,-2.034265425228259927e-01,-2.034265425228259927e-01,-2.014780124220326429e-01,-1.960221281398112636e-01,-1.909559498777485265e-01,-1.855000655955271471e-01,-1.800441813133057678e-01,-1.749780030512430584e-01,-1.695221187690216791e-01,-1.640662344868002720e-01,-1.590000562247375626e-01,-1.535441719425161833e-01,-1.480882876602948039e-01,-1.430221093982320668e-01,-1.375662251160106875e-01,-1.321103408337893081e-01,-1.270441625717265710e-01,-1.215882782895051917e-01,-1.161323940072838123e-01,-1.106765097250624330e-01,-1.056103314629997098e-01,-1.001544471807783304e-01,-9.469856289855693721e-02,-8.963238463649421395e-02,-8.417650035427283461e-02,-7.872061607205145528e-02,-7.365443780998875978e-02,-6.819855352776735269e-02,-6.274266924554597336e-02,-5.767649098348323622e-02,-5.222060670126185689e-02,-4.676472241904047755e-02,-4.169854415697776817e-02,-3.624265987475638884e-02,-3.078677559253498175e-02,-2.572059733047227237e-02,-2.026471304825089303e-02,-1.480882876602951370e-02,-9.742650503966776565e-03
-2.034265425228259927e-01,-2.034265425228259927e-01,-2.034265425228259927e-01,-2.034265425228259927e-01,-2.034265425228259927e-01,-2.034265425228259927e-01,-2.034265425228259927e-01,-2.034265425228259927e-01,-2.006986003817153030e-01,-1.956324221196525937e-01,-1.901765378374311866e-01,-1.847206535552098072e-01,-1.796544752931470978e-01,-1.741985910109257185e-01,-1.687427067287043392e-01,-1.636765284666416020e-01,-1.582206441844202227e-01,-1.527647599021988434e-01,-1.476985816401361062e-01,-1.422426973579147269e-01,-1.367868130756933476e-01,-1.317206348136306382e-01,-1.262647505314092311e-01,-1.208088662491878518e-01,-1.157426879871251563e-01,-1.102868037049037492e-01,-1.048309194226823698e-01,-9.976474116061964659e-02,-9.430885687839825338e-02,-8.885297259617687404e-02,-8.378679433411415078e-02,-7.833091005189277145e-02,-7.287502576967139212e-02,-6.780884750760868274e-02,-6.235296322538727565e-02,-5.689707894316589631e-02,-5.144119466094451698e-02,-4.637501639888180760e-02,-4.091913211666045602e-02,-3.546324783443904893e-02,-3.039706957237631180e-02,-2.494118529015493246e-02,-1.948530100793355313e-02,-1.441912274587081599e-02,-8.963238463649464416e-03,-3.507354181428057327e-03,1.558824080634652054e-03
-2.034265425228259927e-01,-2.034265425228259927e-01,-2.034265425228259927e-01,-2.034265425228259927e-01,-2.034265425228259927e-01,-2.034265425228259927e-01,-2.003088943615566331e-01,-1.948530100793352537e-01,-1.893971257971138467e-01,-1.843309475350511373e-01,-1.788750632528297579e-01,-1.734191789706083786e-01,-1.683530007085456415e-01,-1.628971164263242621e-01,-1.574412321441028828e-01,-1.523750538820401734e-01,-1.469191695998187663e-01,-1.414632853175973870e-01,-1.363971070555346776e-01,-1.309412227733132705e-01,-1.254853384910918912e-01,-1.204191602290291818e-01,-1.149632759468077886e-01,-1.095073916645864232e-01,-1.044412134025236999e-01,-9.898532912030230668e-02,-9.352944483808092735e-02,-8.846326657601821797e-02,-8.300738229379683863e-02,-7.755149801157543155e-02,-7.248531974951272217e-02,-6.702943546729134283e-02,-6.157355118506996350e-02,-5.650737292300722636e-02,-5.105148864078587478e-02,-4.559560435856446770e-02,-4.052942609650173056e-02,-3.507354181428035123e-02,-2.961765753205897189e-02,-2.455147926999626251e-02,-1.909559498777488318e-02,-1.363971070555350384e-02,-8.573532443490794464e-03,-3.117648161269387375e-03,2.338236120952019714e-03,7.794120403173399048e-03,1.286029866523610843e-02
-2.034265425228259927e-01,-2.034265425228259927e-01,-2.034265425228259927e-01,-2.034265425228259927e-01,-1.995294823212392932e-01,-1.944633040591765838e-01,-1.890074197769551767e-01,-1.835515354947337974e-01,-1.784853572326710880e-01,-1.730294729504496809e-01,-1.675735886682283016e-01,-1.621177043860069222e-01,-1.570515261239442129e-01,-1.515956418417228058e-01,-1.461397575595014264e-01,-1.410735792974387171e-01,-1.356176950152173377e-01,-1.301618107329959306e-01,-1.250956324709332212e-01,-1.196397481887118419e-01,-1.141838639064904626e-01,-1.091176856444277532e-01,-1.036618013622063600e-01,-9.820591707998498066e-02,-9.313973881792225740e-02,-8.768385453570086419e-02,-8.222797025347948485e-02,-7.716179199141676159e-02,-7.170590770919538226e-02,-6.625002342697400293e-02,-6.118384516491129355e-02,-5.572796088268988646e-02,-5.027207660046850712e-02,-4.520589833840582550e-02,-3.975001405618441841e-02,-3.429412977396301132e-02,-2.922795151190032970e-02,-2.377206722967895036e-02,-1.831618294745754327e-02,-1.325000468539483389e-02,-7.794120403173454559e-03,-2.338236120952047470e-03,2.727942141110661911e-03,8.183826423332069000e-03,1.363971070555347609e-02,1.870588896761615771e-02,2.104412508856817743e-02
-2.034265425228259927e-01,-2.034265425228259927e-01,-1.991397763010806232e-01,-1.936838920188592439e-01,-1.882280077366378368e-01,-1.831618294745751274e-01,-1.777059451923537481e-01,-1.722500609101323410e-01,-1.671838826480696316e-01,-1.617279983658482523e-01,-1.562721140836268729e-01,-1.512059358215641636e-01,-1.457500515393427842e-01,-1.402941672571213771e-01,-1.352279889950586678e-01,-1.297721047128372884e-01,-1.243162204306158952e-01,-1.192500421685531720e-01,-1.137941578863317926e-01,-1.083382736041104133e-01,-1.028823893218890201e-01,-9.781621105982629683e-02,-9.236032677760490361e-02,-8.690444249538352428e-02,-8.183826423332082878e-02,-7.638237995109942169e-02,-7.092649566887804236e-02,-6.586031740681530522e-02,-6.040443312459395364e-02,-5.494854884237254655e-02,-4.988237058030983717e-02,-4.442648629808845784e-02,-3.897060201586705075e-02,-3.390442375380434137e-02,-2.844853947158296203e-02,-2.299265518936158270e-02,-1.792647692729887332e-02,-1.247059264507746623e-02,-7.014708362856086898e-03,-1.948530100793377517e-03,3.507354181428001816e-03,8.963238463649381149e-03,1.402941672571211829e-02,1.948530100793349762e-02,2.104412508856817743e-02,2.104412508856814967e-02,2.104412508856817743e-02
-2.034265425228259927e-01,-1.961926245236306765e-01,-1.878383017164791668e-01,-1.823824174342577875e-01,-1.769265331520364082e-01,-1.718603548899736988e-01,-1.664044706077522917e-01,-1.609485863255309124e-01,-1.558824080634682030e-01,-1.504265237812468237e-01,-1.449706394990254443e-01,-1.399044612369627072e-01,-1.344485769547413279e-01,-1.289926926725199485e-01,-1.239265144104572114e-01,-1.184706301282358321e-01,-1.130147458460144388e-01,-1.079485675839517433e-01,-1.024926833017303501e-01,-9.703679901950895692e-02,-9.197062075744623366e-02,-8.651473647522486821e-02,-8.105885219300346112e-02,-7.599267393094077949e-02,-7.053678964871937240e-02,-6.508090536649796531e-02,-5.962502108427658598e-02,-5.455884282221387660e-02,-4.910295853999249727e-02,-4.364707425777111793e-02,-3.858089599570840855e-02,-3.312501171348702922e-02,-2.766912743126559437e-02,-2.260294916920291275e-02,-1.714706488698153342e-02,-1.169118060476015408e-02,-6.625002342697416946e-03,-1.169118060476037613e-03,4.286766221745341721e-03,9.352944483808051102e-03,1.480882876602945819e-02,2.026471304825083752e-02,2.104412508856817743e-02,2.104412508856817743e-02,2.104412508856820518e-02,2.104412508856817743e-02,2.104412508856817743e-02
-2.034265425228259927e-01,-1.979706582406046134e-01,-1.765368271318777382e-01,-1.710809428496563589e-01,-1.656250585674349518e-01,-1.605588803053722424e-01,-1.551029960231508631e-01,-1.496471117409294838e-01,-1.445809334788667466e-01,-1.391250491966453673e-01,-1.336691649144239880e-01,-1.286029866523612508e-01,-1.231471023701398854e-01,-1.176912180879184922e-01,-1.126250398258557689e-01,-1.071691555436344034e-01,-1.017132712614129963e-01,-9.664709299935028697e-02,-9.119120871712889376e-02,-8.573532443490752830e-02,-8.066914617284479116e-02,-7.521326189062341183e-02,-6.975737760840203250e-02,-6.469119934633929536e-02,-5.923531506411794378e-02,-5.377943078189653670e-02,-4.871325251983382731e-02,-4.325736823761244798e-02,-3.780148395539104089e-02,-3.273530569332833151e-02,-2.727942141110695218e-02,-2.182353712888557284e-02,-1.675735886682289122e-02,-1.130147458460145637e-02,-5.845590302380104797e-03,-7.794120403173399048e-04,4.676472241904039429e-03,1.013235652412541876e-02,1.558824080634679810e-02,2.065441906840953523e-02,2.104412508856817743e-02,2.104412508856817743e-02,2.104412508856817743e-02,2.104412508856817743e-02,2.104412508856817743e-02,2.104412508856820518e-02,2.104412508856817743e-02
-2.034265425228259927e-01,-2.034265425228259927e-01,-1.747831500411637096e-01,-1.597794682650549025e-01,-1.547132900029921931e-01,-1.492574057207707861e-01,-1.438015214385494067e-01,-1.383456371563280274e-01,-1.332794588942653180e-01,-1.278235746120439109e-01,-1.223676903298225316e-01,-1.173015120677598222e-01,-1.118456277855384429e-01,-1.063897435033170497e-01,-1.013235652412543264e-01,-9.586768095903294706e-02,-9.041179667681155385e-02,-8.534561841474884447e-02,-7.988973413252747902e-02,-7.443384985030607193e-02,-6.936767158824336255e-02,-6.391178730602198321e-02,-5.845590302380060388e-02,-5.338972476173789450e-02,-4.793384047951648741e-02,-4.247795619729510808e-02,-3.741177793523239870e-02,-3.195589365301099161e-02,-2.650000937078961227e-02,-2.143383110872690289e-02,-1.597794682650552356e-02,-1.052206254428411647e-02,-5.455884282221407089e-03,0.000000000000000000e+00,5.455884282221379333e-03,1.052206254428411647e-02,1.597794682650546805e-02,2.104412508856817743e-02,2.104412508856820518e-02,2.104412508856817743e-02,2.104412508856820518e-02,2.104412508856817743e-02,2.104412508856817743e-02,2.104412508856817743e-02,2.104412508856817743e-02,2.104412508856817743e-02,2.104412508856817743e-02
-2.034265425228259927e-01,-2.034265425228259927e-01,-1.879600848477787634e-01,-1.484779936804534739e-01,-1.434118154183907368e-01,-1.379559311361693574e-01,-1.325000468539479781e-01,-1.274338685918852687e-01,-1.219779843096638616e-01,-1.165221000274424823e-01,-1.114559217653797729e-01,-1.060000374831583936e-01,-1.005441532009369865e-01,-9.508826891871560716e-02,-9.002209065665288390e-02,-8.456620637443150457e-02,-7.911032209221012523e-02,-7.404414383014740197e-02,-6.858825954792602264e-02,-6.313237526570464331e-02,-5.806619700364190617e-02,-5.261031272142052684e-02,-4.715442843919914750e-02,-4.208825017713643812e-02,-3.663236589491505879e-02,-3.117648161269367946e-02,-2.611030335063094232e-02,-2.065441906840956299e-02,-1.519853478618818365e-02,-1.013235652412547427e-02,-4.676472241904067184e-03,7.794120403173399048e-04,5.845590302380021530e-03,1.130147458460142862e-02,1.675735886682280795e-02,2.104412508856814967e-02,2.104412508856817743e-02,2.104412508856817743e-02,2.104412508856817743e-02,2.104412508856817743e-02,2.104412508856817743e-02,2.104412508856817743e-02,2.104412508856820518e-02,2.104412508856817743e-02,2.104412508856817743e-02,2.104412508856817743e-02,2.104412508856817743e-02
-2.034265425228259927e-01,-2.034265425228259927e-01,-2.034265425228259927e-01,-1.516687117205025581e-01,-1.321103408337893081e-01,-1.266544565515679011e-01,-1.211985722693465217e-01,-1.161323940072838123e-01,-1.106765097250624330e-01,-1.052206254428410398e-01,-1.001544471807783165e-01,-9.469856289855693721e-02,-8.924267861633555787e-02,-8.417650035427283461e-02,-7.872061607205145528e-02,-7.326473178983006207e-02,-6.819855352776735269e-02,-6.274266924554597336e-02,-5.728678496332456627e-02,-5.222060670126185689e-02,-4.676472241904050531e-02,-4.130883813681909822e-02,-3.585295385459769113e-02,-3.078677559253498175e-02,-2.533089131031357466e-02,-1.987500702809222308e-02,-1.480882876602951370e-02,-9.352944483808134368e-03,-3.897060201586727279e-03,1.169118060475982102e-03,6.625002342697389190e-03,1.208088662491876852e-02,1.714706488698147790e-02,2.104412508856817743e-02,2.104412508856817743e-02,2.104412508856817743e-02,2.104412508856817743e-02,2.104412508856817743e-02,2.104412508856817743e-02,2.104412508856817743e-02,2.104412508856817743e-02,2.104412508856817743e-02,2.104412508856817743e-02,2.104412508856817743e-02,2.104412508856817743e-02,2.104412508856820518e-02,2.104412508856817743e-02
-2.034265425228259927e-01,-2.034265425228259927e-01,-2.034265425228259927e-01,-1.743447307684852232e-01,-1.208088662491878518e-01,-1.153529819669664863e-01,-1.098970976847450931e-01,-1.048309194226823837e-01,-9.937503514046097663e-02,-9.391915085823958342e-02,-8.885297259617687404e-02,-8.339708831395548083e-02,-7.794120403173412925e-02,-7.287502576967139212e-02,-6.741914148745001278e-02,-6.196325720522863345e-02,-5.689707894316589631e-02,-5.144119466094451698e-02,-4.598531037872313765e-02,-4.091913211666045602e-02,-3.546324783443902118e-02,-3.000736355221764184e-02,-2.494118529015493246e-02,-1.948530100793355313e-02,-1.402941672571217380e-02,-8.963238463649464416e-03,-3.507354181428057327e-03,1.948530100793349762e-03,7.014708362856059143e-03,1.247059264507743848e-02,1.792647692729881781e-02,2.104412508856817743e-02,2.104412508856817743e-02,2.104412508856817743e-02,2.104412508856817743e-02,2.104412508856817743e-02,2.104412508856814967e-02,2.104412508856814967e-02,2.104412508856817743e-02,2.104412508856817743e-02,2.104412508856817743e-02,2.104412508856820518e-02,2.104412508856817743e-02,2.104412508856817743e-02,2.104412508856820518e-02,3.507354181428001816e-03,-4.559560435856446770e-02
-2.034265425228259927e-01,-2.034265425228259927e-01,-2.034265425228259927e-01,-2.034265425228259927e-01,-1.241822589861863446e-01,-1.040515073823650161e-01,-9.859562310014363673e-02,-9.352944483808092735e-02,-8.807356055585954802e-02,-8.261767627363815480e-02,-7.755149801157545930e-02,-7.209561372935405221e-02,-6.663972944713267288e-02,-6.157355118506996350e-02,-5.611766690284855641e-02,-5.066178262062720483e-02,-4.559560435856446770e-02,-4.013972007634308836e-02,-3.468383579412170903e-02,-2.961765753205897189e-02,-2.416177324983759256e-02,-1.870588896761621323e-02,-1.363971070555350384e-02,-8.183826423332096756e-03,-2.727942141110717422e-03,2.338236120952019714e-03,7.794120403173399048e-03,1.325000468539475063e-02,1.831618294745746001e-02,2.104412508856820518e-02,2.104412508856817743e-02,2.104412508856814967e-02,2.104412508856817743e-02,2.104412508856817743e-02,2.104412508856817743e-02,2.104412508856817743e-02,2.104412508856817743e-02,2.104412508856817743e-02,2.104412508856814967e-02,2.104412508856817743e-02,2.104412508856817743e-02,2.104412508856814967e-02,2.104412508856814967e-02,-3.507354181428057327e-03,-4.910295853999249727e-02,-9.820591707998498066e-02,-1.473088756199774640e-01
-2.034265425228259927e-01,-2.034265425228259927e-01,-2.034265425228259927e-01,-2.034265425228259927e-01,-1.606806634366718112e-01,-9.275003279776358744e-02,-8.729414851554218036e-02,-8.222797025347949873e-02,-7.677208597125809164e-02,-7.131620168903671231e-02,-6.625002342697400293e-02,-6.079413914475262359e-02,-5.533825486253121650e-02,-5.027207660046850712e-02,-4.481619231824712779e-02,-3.936030803602574846e-02,-3.429412977396301132e-02,-2.883824549174163199e-02,-2.338236120952025265e-02,-1.831618294745754327e-02,-1.286029866523616394e-02,-7.404414383014756851e-03,-2.338236120952019714e-03,3.117648161269359619e-03,8.573532443490738952e-03,1.363971070555344833e-02,1.909559498777479991e-02,2.104412508856820518e-02,2.104412508856817743e-02,2.104412508856817743e-02,2.104412508856817743e-02,2.104412508856817743e-02,2.104412508856817743e-02,2.104412508856817743e-02,2.104412508856820518e-02,2.104412508856817743e-02,2.104412508856814967e-02,2.104412508856817743e-02,2.104412508856817743e-02,2.104412508856814967e-02,2.104412508856817743e-02,-7.014708362856086898e-03,-5.611766690284858417e-02,-1.017132712614129963e-01,-1.508162298014054659e-01,-1.999191883413979631e-01,-2.034265425228259927e-01
-2.034265425228259927e-01,-2.034265425228259927e-01,-2.034265425228259927e-01,-2.034265425228259927e-01,-2.034265425228259927e-01,-9.669580625187013112e-02,-7.638237995109942169e-02,-7.092649566887804236e-02,-6.547061138665666302e-02,-6.040443312459392589e-02,-5.494854884237254655e-02,-4.949266456015116722e-02,-4.442648629808845784e-02,-3.897060201586705075e-02,-3.351471773364567142e-02,-2.805883345142429208e-02,-2.299265518936158270e-02,-1.753677090714020337e-02,-1.208088662491879628e-02,-7.014708362856114654e-03,-1.558824080634707565e-03,3.897060201586699524e-03,8.963238463649436660e-03,1.441912274587078824e-02,1.987500702809216757e-02,2.104412508856817743e-02,2.104412508856817743e-02,2.104412508856817743e-02,2.104412508856817743e-02,2.104412508856820518e-02,2.104412508856817743e-02,2.104412508856817743e-02,2.104412508856817743e-02,2.104412508856817743e-02,2.104412508856817743e-02,2.104412508856817743e-02,2.104412508856817743e-02,2.104412508856817743e-02,2.104412508856817743e-02,-1.402941672571217380e-02,-5.962502108427661374e-02,-1.087279796242690832e-01,-1.578309381642615528e-01,-2.034265425228259927e-01,-2.034265425228259927e-01,-2.034265425228259927e-01,-2.034265425228259927e-01
-2.034265425228259927e-01,-2.034265425228259927e-01,-2.034265425228259927e-01,-2.034265425228259927e-01,-2.034265425228259927e-01,-1.409517961661391483e-01,-6.508090536649796531e-02,-5.962502108427658598e-02,-5.416913680205520665e-02,-4.910295853999249727e-02,-4.364707425777111793e-02,-3.819118997554973860e-02,-3.312501171348702922e-02,-2.766912743126562213e-02,-2.221324314904424280e-02,-1.714706488698153342e-02,-1.169118060476015408e-02,-6.235296322538774749e-03,-1.169118060476037613e-03,4.286766221745341721e-03,9.742650503966748810e-03,1.519853478618812814e-02,2.026471304825083752e-02,2.104412508856817743e-02,2.104412508856817743e-02,2.104412508856817743e-02,2.104412508856817743e-02,2.104412508856820518e-02,2.104412508856817743e-02,2.104412508856817743e-02,2.104412508856817743e-02,2.104412508856817743e-02,2.104412508856817743e-02,2.104412508856817743e-02,2.104412508856817743e-02,2.104412508856817743e-02,2.104412508856817743e-02,-1.753677090714023112e-02,-6.663972944713267288e-02,-1.157426879871251563e-01,-1.613382923456895823e-01,-2.034265425228259927e-01,-2.034265425228259927e-01,-2.034265425228259927e-01,-2.034265425228259927e-01,-2.034265425228259927e-01,-2.034265425228259927e-01
-2.034265425228259927e-01,-2.034265425228259927e-01,-2.034265425228259927e-01,-2.034265425228259927e-01,-2.034265425228259927e-01,-1.989083883516113982e-01,-6.313237526570461555e-02,-4.832354649967515736e-02,-4.286766221745377803e-02,-3.780148395539106865e-02,-3.234559967316966156e-02,-2.688971539094830998e-02,-2.182353712888557284e-02,-1.636765284666419351e-02,-1.091176856444278642e-02,-5.845590302380077041e-03,-3.897060201586977080e-04,5.066178262062709381e-03,1.013235652412539101e-02,1.558824080634679810e-02,2.104412508856817743e-02,2.104412508856817743e-02,2.104412508856817743e-02,2.104412508856817743e-02,2.104412508856817743e-02,2.104412508856817743e-02,2.104412508856820518e-02,2.104412508856817743e-02,2.104412508856817743e-02,2.104412508856817743e-02,2.104412508856817743e-02,2.104412508856817743e-02,2.104412508856817743e-02,2.104412508856817743e-02,2.104412508856817743e-02,-2.455147926999626251e-02,-7.365443780998873202e-02,-1.192500421685531720e-01,-1.683530007085456415e-01,-2.034265425228259927e-01,-2.034265425228259927e-01,-2.034265425228259927e-01,-2.034265425228259927e-01,-2.034265425228259927e-01,-2.034265425228259927e-01,-2.034265425228259927e-01,-2.034265425228259927e-01
-2.034265425228259927e-01,-2.034265425228259927e-01,-2.034265425228259927e-01,-2.034265425228259927e-01,-2.034265425228259927e-01,-2.034265425228259927e-01,-1.229522493600605504e-01,-3.702207191507372874e-02,-3.156618763285232165e-02,-2.650000937078961227e-02,-2.104412508856823294e-02,-1.558824080634682585e-02,-1.052206254428411647e-02,-5.066178262062737137e-03,3.897060201586699524e-04,5.455884282221379333e-03,1.091176856444275867e-02,1.636765284666413800e-02,2.104412508856817743e-02,2.104412508856820518e-02,2.104412508856817743e-02,2.104412508856817743e-02,2.104412508856817743e-02,2.104412508856817743e-02,2.104412508856817743e-02,2.104412508856817743e-02,2.104412508856814967e-02,2.104412508856817743e-02,2.104412508856814967e-02,2.104412508856814967e-02,2.104412508856817743e-02,2.104412508856817743e-02,1.753677090714014786e-02,-2.805883345142431984e-02,-7.716179199141676159e-02,-1.262647505314092311e-01,-1.718603548899736988e-01,-2.034265425228259927e-01,-2.034265425228259927e-01,-2.034265425228259927e-01,-2.034265425228259927e-01,-2.034265425228259927e-01,-2.034265425228259927e-01,-2.034265425228259927e-01,-2.034265425228259927e-01,-2.034265425228259927e-01,-2.034265425228259927e-01
-2.034265425228259927e-01,-2.034265425228259927e-01,-2.034265425228259927e-01,-2.034265425228259927e-01,-2.034265425228259927e-01,-2.034265425228259927e-01,-1.872780993125010840e-01,-2.572059733047227237e-02,-2.026471304825089303e-02,-1.519853478618818365e-02,-9.742650503966776565e-03,-4.286766221745397232e-03,7.794120403173399048e-04,6.235296322538719238e-03,1.169118060476009857e-02,1.675735886682280795e-02,2.104412508856817743e-02,2.104412508856820518e-02,2.104412508856817743e-02,2.104412508856817743e-02,2.104412508856817743e-02,2.104412508856817743e-02,2.104412508856817743e-02,2.104412508856817743e-02,2.104412508856820518e-02,2.104412508856817743e-02,2.104412508856814967e-02,2.104412508856817743e-02,2.104412508856817743e-02,2.104412508856817743e-02,1.402941672571214604e-02,-3.507354181428035123e-02,-8.417650035427284849e-02,-1.297721047128372884e-01,-1.788750632528297579e-01,-2.034265425228259927e-01,-2.034265425228259927e-01,-2.034265425228259927e-01,-2.034265425228259927e-01,-2.034265425228259927e-01,-2.034265425228259927e-01,-2.034265425228259927e-01,-2.034265425228259927e-01,-2.034265425228259927e-01,-2.034265425228259927e-01,-2.034265425228259927e-01,-2.034265425228259927e-01
-2.034265425228259927e-01,-2.034265425228259927e-01,-2.034265425228259927e-01,-2.034265425228259927e-01,-2.034265425228259927e-01,-2.034265425228259927e-01,-2.034265425228259927e-01,-9.710986889828870927e-02,-9.352944483808134368e-03,-3.897060201586727279e-03,1.558824080634652054e-03,6.625002342697389190e-03,1.208088662491876852e-02,1.753677090714014786e-02,2.104412508856817743e-02,2.104412508856817743e-02,2.104412508856817743e-02,2.104412508856820518e-02,2.104412508856814967e-02,2.104412508856820518e-02,2.104412508856817743e-02,2.104412508856817743e-02,2.104412508856817743e-02,2.104412508856817743e-02,2.104412508856817743e-02,2.104412508856817743e-02,2.104412508856817743e-02,2.104412508856817743e-02,7.014708362856059143e-03,-4.208825017713641037e-02,-8.768385453570087806e-02,-1.367868130756933476e-01,-1.858897716156858171e-01,-2.034265425228259927e-01,-2.034265425228259927e-01,-2.034265425228259927e-01,-2.034265425228259927e-01,-2.034265425228259927e-01,-2.034265425228259927e-01,-2.034265425228259927e-01,-2.034265425228259927e-01,-2.034265425228259927e-01,-2.034265425228259927e-01,-2.034265425228259927e-01,-2.034265425228259927e-01,-2.034265425228259927e-01,-2.034265425228259927e-01
-2.034265425228259927e-01,-2.034265425228259927e-01,-2.034265425228259927e-01,-2.034265425228259927e-01,-2.034265425228259927e-01,-2.034265425228259927e-01,-2.034265425228259927e-01,-1.783879307276314274e-01,1.948530100793294251e-03,7.404414383014701340e-03,1.286029866523608067e-02,1.792647692729881781e-02,2.104412508856817743e-02,2.104412508856817743e-02,2.104412508856817743e-02,2.104412508856817743e-02,2.104412508856817743e-02,2.104412508856814967e-02,2.104412508856814967e-02,2.104412508856817743e-02,2.104412508856817743e-02,2.104412508856820518e-02,2.104412508856817743e-02,2.104412508856817743e-02,2.104412508856817743e-02,2.104412508856817743e-02,-2.775557561562891351e-17,-4.559560435856446770e-02,-9.469856289855693721e-02,-1.438015214385494067e-01,-1.893971257971138467e-01,-2.034265425228259927e-01,-2.034265425228259927e-01,-2.034265425228259927e-01,-2.034265425228259927e-01,-2.034265425228259927e-01,-2.034265425228259927e-01,-2.034265425228259927e-01,-2.034265425228259927e-01,-2.034265425228259927e-01,-2.034265425228259927e-01,-2.034265425228259927e-01,-2.034265425228259927e-01,-2.034265425228259927e-01,-2.034265425228259927e-01,-2.034265425228259927e-01,-2.034265425228259927e-01
-2.034265425228259927e-01,-2.034265425228259927e-01,-2.034265425228259927e-01,-2.034265425228259927e-01,-2.034265425228259927e-01,-2.034265425228259927e-01,-2.034265425228259927e-01,-2.034265425228259927e-01,-6.800370051768800383e-02,1.870588896761615771e-02,2.104412508856817743e-02,2.104412508856820518e-02,2.104412508856817743e-02,2.104412508856817743e-02,2.104412508856820518e-02,2.104412508856817743e-02,2.104412508856817743e-02,2.104412508856817743e-02,2.104412508856817743e-02,2.104412508856817743e-02,2.104412508856817743e-02,2.104412508856817743e-02,2.104412508856817743e-02,2.104412508856817743e-02,-3.507354181428057327e-03,-5.261031272142052684e-02,-9.820591707998496678e-02,-1.473088756199774640e-01,-1.964118341599699336e-01,-2.034265425228259927e-01,-2.034265425228259927e-01,-2.034265425228259927e-01,-2.034265425228259927e-01,-2.034265425228259927e-01,-2.034265425228259927e-01,-2.034265425228259927e-01,-2.034265425228259927e-01,-2.034265425228259927e-01,-2.034265425228259927e-01,-2.034265425228259927e-01,-2.034265425228259927e-01,-2.034265425228259927e-01,-2.034265425228259927e-01,-2.034265425228259927e-01,-2.034265425228259927e-01,-2.034265425228259927e-01,-2.034265425228259927e-01
