0.000000000000000000e+00,0.000000000000000000e+00,0.000000000000000000e+00,0.000000000000000000e+00,0.000000000000000000e+00,0.000000000000000000e+00,0.000000000000000000e+00,0.000000000000000000e+00,0.000000000000000000e+00,0.000000000000000000e+00,0.000000000000000000e+00,0.000000000000000000e+00,0.000000000000000000e+00,0.000000000000000000e+00,0.000000000000000000e+00,0.000000000000000000e+00,0.000000000000000000e+00,0.000000000000000000e+00,0.000000000000000000e+00,0.000000000000000000e+00,0.000000000000000000e+00,0.000000000000000000e+00,0.000000000000000000e+00,0.000000000000000000e+00,0.000000000000000000e+00,0.000000000000000000e+00,0.000000000000000000e+00,-2.381870060250746397e-05,-6.431049162677014968e-04,-1.238572431330388140e-03,-1.834039946393074784e-03,-2.277663245114776216e-03,-9.527480241002985861e-04,0.000000000000000000e+00,0.000000000000000000e+00,0.000000000000000000e+00,0.000000000000000000e+00,0.000000000000000000e+00,0.000000000000000000e+00,0.000000000000000000e+00,0.000000000000000000e+00,0.000000000000000000e+00,0.000000000000000000e+00,0.000000000000000000e+00,0.000000000000000000e+00,0.000000000000000000e+00,0.000000000000000000e+00
0.000000000000000000e+00,0.000000000000000000e+00,0.000000000000000000e+00,0.000000000000000000e+00,0.000000000000000000e+00,0.000000000000000000e+00,0.000000000000000000e+00,0.000000000000000000e+00,0.000000000000000000e+00,0.000000000000000000e+00,0.000000000000000000e+00,0.000000000000000000e+00,0.000000000000000000e+00,0.000000000000000000e+00,0.000000000000000000e+00,0.000000000000000000e+00,0.000000000000000000e+00,0.000000000000000000e+00,0.000000000000000000e+00,0.000000000000000000e+00,0.000000000000000000e+00,0.000000000000000000e+00,0.000000000000000000e+00,0.000000000000000000e+00,0.000000000000000000e+00,0.000000000000000000e+00,0.000000000000000000e+00,-5.001927126526567197e-04,-1.095660227715343363e-03,-1.714946443380537325e-03,-2.310413958443223968e-03,-2.905881473505910612e-03,-3.501348988568596821e-03,-2.060317602116895283e-03,0.000000000000000000e+00,0.000000000000000000e+00,0.000000000000000000e+00,0.000000000000000000e+00,0.000000000000000000e+00,0.000000000000000000e+00,0.000000000000000000e+00,0.000000000000000000e+00,0.000000000000000000e+00,0.000000000000000000e+00,0.000000000000000000e+00,0.000000000000000000e+00,0.000000000000000000e+00
0.000000000000000000e+00,0.000000000000000000e+00,0.000000000000000000e+00,0.000000000000000000e+00,0.000000000000000000e+00,0.000000000000000000e+00,0.000000000000000000e+00,0.000000000000000000e+00,0.000000000000000000e+00,0.000000000000000000e+00,0.000000000000000000e+00,0.000000000000000000e+00,0.000000000000000000e+00,0.000000000000000000e+00,0.000000000000000000e+00,0.000000000000000000e+00,0.000000000000000000e+00,0.000000000000000000e+00,0.000000000000000000e+00,0.000000000000000000e+00,0.000000000000000000e+00,0.000000000000000000e+00,0.000000000000000000e+00,0.000000000000000000e+00,0.000000000000000000e+00,0.000000000000000000e+00,-3.572805090376119427e-04,-9.765667247028059043e-04,-1.572034239765492548e-03,-2.167501754828179191e-03,-2.762969269890865835e-03,-3.382255485556059579e-03,-3.977723000618746223e-03,-4.573190515681432866e-03,-3.407562854946223890e-03,-3.617465154005821055e-04,0.000000000000000000e+00,0.000000000000000000e+00,0.000000000000000000e+00,0.000000000000000000e+00,0.000000000000000000e+00,0.000000000000000000e+00,0.000000000000000000e+00,0.000000000000000000e+00,0.000000000000000000e+00,0.000000000000000000e+00,0.000000000000000000e+00
0.000000000000000000e+00,0.000000000000000000e+00,0.000000000000000000e+00,0.000000000000000000e+00,0.000000000000000000e+00,0.000000000000000000e+00,0.000000000000000000e+00,0.000000000000000000e+00,0.000000000000000000e+00,0.000000000000000000e+00,0.000000000000000000e+00,0.000000000000000000e+00,0.000000000000000000e+00,0.000000000000000000e+00,0.000000000000000000e+00,0.000000000000000000e+00,0.000000000000000000e+00,0.000000000000000000e+00,0.000000000000000000e+00,0.000000000000000000e+00,0.000000000000000000e+00,0.000000000000000000e+00,0.000000000000000000e+00,0.000000000000000000e+00,0.000000000000000000e+00,-2.381870060250746465e-04,-8.336545210877612357e-04,-1.429122036150447988e-03,-2.048408251815641515e-03,-2.643875766878328593e-03,-3.239343281941015236e-03,-3.834810797003701446e-03,-4.454097012668896058e-03,-5.049564527731581834e-03,-5.645032042794268477e-03,-5.265421501941805991e-03,-1.500578137957970159e-03,0.000000000000000000e+00,0.000000000000000000e+00,0.000000000000000000e+00,0.000000000000000000e+00,0.000000000000000000e+00,0.000000000000000000e+00,0.000000000000000000e+00,0.000000000000000000e+00,0.000000000000000000e+00,0.000000000000000000e+00
0.000000000000000000e+00,0.000000000000000000e+00,0.000000000000000000e+00,0.000000000000000000e+00,0.000000000000000000e+00,0.000000000000000000e+00,0.000000000000000000e+00,0.000000000000000000e+00,0.000000000000000000e+00,0.000000000000000000e+00,0.000000000000000000e+00,0.000000000000000000e+00,0.000000000000000000e+00,0.000000000000000000e+00,0.000000000000000000e+00,0.000000000000000000e+00,0.000000000000000000e+00,0.000000000000000000e+00,0.000000000000000000e+00,0.000000000000000000e+00,0.000000000000000000e+00,0.000000000000000000e+00,0.000000000000000000e+00,0.000000000000000000e+00,-9.527480241002985590e-05,-6.907423174727164586e-04,-1.310028533137910529e-03,-1.905496048200597172e-03,-2.500963563263283816e-03,-3.096431078325970025e-03,-3.715717293991163770e-03,-4.311184809053850847e-03,-4.906652324116537491e-03,-5.525938539781730802e-03,-6.121406054844418312e-03,-6.716873569907104088e-03,-7.312341084969790732e-03,-3.222223590882962539e-03,0.000000000000000000e+00,0.000000000000000000e+00,0.000000000000000000e+00,0.000000000000000000e+00,0.000000000000000000e+00,0.000000000000000000e+00,0.000000000000000000e+00,0.000000000000000000e+00,0.000000000000000000e+00
0.000000000000000000e+00,0.000000000000000000e+00,0.000000000000000000e+00,0.000000000000000000e+00,0.000000000000000000e+00,0.000000000000000000e+00,0.000000000000000000e+00,0.000000000000000000e+00,0.000000000000000000e+00,0.000000000000000000e+00,0.000000000000000000e+00,0.000000000000000000e+00,0.000000000000000000e+00,0.000000000000000000e+00,0.000000000000000000e+00,0.000000000000000000e+00,0.000000000000000000e+00,0.000000000000000000e+00,0.000000000000000000e+00,0.000000000000000000e+00,0.000000000000000000e+00,0.000000000000000000e+00,0.000000000000000000e+00,0.000000000000000000e+00,-5.716488144601791083e-04,-1.167116329522865752e-03,-1.762583844585552178e-03,-2.381870060250746574e-03,-2.977337575313433217e-03,-3.572805090376119860e-03,-4.168272605438805636e-03,-4.787558821103999815e-03,-5.383026336166686458e-03,-5.978493851229373102e-03,-6.573961366292059745e-03,-7.193247581957253056e-03,-7.788715097019940567e-03,-8.384182612082626343e-03,-5.331667262992529667e-03,0.000000000000000000e+00,0.000000000000000000e+00,0.000000000000000000e+00,0.000000000000000000e+00,0.000000000000000000e+00,0.000000000000000000e+00,0.000000000000000000e+00,0.000000000000000000e+00
0.000000000000000000e+00,0.000000000000000000e+00,0.000000000000000000e+00,0.000000000000000000e+00,0.000000000000000000e+00,0.000000000000000000e+00,0.000000000000000000e+00,0.000000000000000000e+00,0.000000000000000000e+00,0.000000000000000000e+00,0.000000000000000000e+00,0.000000000000000000e+00,0.000000000000000000e+00,0.000000000000000000e+00,0.000000000000000000e+00,0.000000000000000000e+00,0.000000000000000000e+00,0.000000000000000000e+00,0.000000000000000000e+00,0.000000000000000000e+00,0.000000000000000000e+00,0.000000000000000000e+00,0.000000000000000000e+00,-4.287366108451343312e-04,-1.024204125907820975e-03,-1.643490341573015153e-03,-2.238957856635701363e-03,-2.834425371698388440e-03,-3.429892886761074650e-03,-4.049179102426268828e-03,-4.644646617488954604e-03,-5.240114132551642115e-03,-5.859400348216835426e-03,-6.454867863279522069e-03,-7.050335378342209580e-03,-7.645802893404895356e-03,-8.265089109070089535e-03,-8.860556624132775311e-03,-9.456024139195462822e-03,-7.538618740693612749e-03,-1.667309042175522255e-03,0.000000000000000000e+00,0.000000000000000000e+00,0.000000000000000000e+00,0.000000000000000000e+00,0.000000000000000000e+00,0.000000000000000000e+00
0.000000000000000000e+00,0.000000000000000000e+00,0.000000000000000000e+00,0.000000000000000000e+00,0.000000000000000000e+00,0.000000000000000000e+00,0.000000000000000000e+00,0.000000000000000000e+00,0.000000000000000000e+00,0.000000000000000000e+00,0.000000000000000000e+00,0.000000000000000000e+00,0.000000000000000000e+00,0.000000000000000000e+00,0.000000000000000000e+00,0.000000000000000000e+00,0.000000000000000000e+00,0.000000000000000000e+00,0.000000000000000000e+00,0.000000000000000000e+00,0.000000000000000000e+00,0.000000000000000000e+00,-3.096431078325970350e-04,-9.051106228952837326e-04,-1.500578137957970376e-03,-2.096045653020657019e-03,-2.715331868685850764e-03,-3.310799383748537841e-03,-3.906266898811223617e-03,-4.501734413873910261e-03,-5.121020629539104439e-03,-5.716488144601791083e-03,-6.311955659664477726e-03,-6.907423174727164369e-03,-7.526709390392357681e-03,-8.122176905455044324e-03,-8.717644420517731835e-03,-9.336930636182926013e-03,-9.932398151245611789e-03,-1.052786566630829757e-02,-1.042812485753529840e-02,-3.669568561573806342e-03,0.000000000000000000e+00,0.000000000000000000e+00,0.000000000000000000e+00,0.000000000000000000e+00,0.000000000000000000e+00
0.000000000000000000e+00,0.000000000000000000e+00,0.000000000000000000e+00,0.000000000000000000e+00,0.000000000000000000e+00,0.000000000000000000e+00,0.000000000000000000e+00,0.000000000000000000e+00,0.000000000000000000e+00,0.000000000000000000e+00,0.000000000000000000e+00,0.000000000000000000e+00,0.000000000000000000e+00,0.000000000000000000e+00,0.000000000000000000e+00,0.000000000000000000e+00,0.000000000000000000e+00,0.000000000000000000e+00,0.000000000000000000e+00,0.000000000000000000e+00,0.000000000000000000e+00,-1.667309042175522580e-04,-7.621984192802389556e-04,-1.357665934342925165e-03,-1.976952150008119344e-03,-2.572419665070805987e-03,-3.167887180133492631e-03,-3.763354695196178840e-03,-4.382640910861373452e-03,-4.978108425924060096e-03,-5.573575940986745872e-03,-6.192862156651940050e-03,-6.788329671714627561e-03,-7.383797186777313337e-03,-7.979264701839999113e-03,-8.598550917505193292e-03,-9.194018432567880802e-03,-9.789485947630568313e-03,-1.038495346269325409e-02,-1.100423967835844827e-02,-1.159970719342113404e-02,-1.219517470848382155e-02,-6.395321111773254533e-03,0.000000000000000000e+00,0.000000000000000000e+00,0.000000000000000000e+00,0.000000000000000000e+00
0.000000000000000000e+00,0.000000000000000000e+00,0.000000000000000000e+00,0.000000000000000000e+00,0.000000000000000000e+00,0.000000000000000000e+00,0.000000000000000000e+00,0.000000000000000000e+00,0.000000000000000000e+00,0.000000000000000000e+00,0.000000000000000000e+00,0.000000000000000000e+00,0.000000000000000000e+00,0.000000000000000000e+00,0.000000000000000000e+00,0.000000000000000000e+00,0.000000000000000000e+00,0.000000000000000000e+00,0.000000000000000000e+00,0.000000000000000000e+00,-2.381870060250746736e-05,-6.431049162677014968e-04,-1.238572431330388140e-03,-1.834039946393074784e-03,-2.429507461455761210e-03,-3.048793677120955389e-03,-3.644261192183641598e-03,-4.239728707246328242e-03,-4.835196222309014885e-03,-5.454482437974209064e-03,-6.049949953036895707e-03,-6.645417468099582350e-03,-7.240884983162268994e-03,-7.860171198827462305e-03,-8.455638713890148081e-03,-9.051106228952835592e-03,-9.670392444618029770e-03,-1.026585995968071555e-02,-1.086132747474340306e-02,-1.145679498980608883e-02,-1.207608120547128475e-02,-1.267154872053397052e-02,-1.326701623559665630e-02,-9.530457578578298977e-03,-9.051106228952836242e-04,0.000000000000000000e+00,0.000000000000000000e+00
0.000000000000000000e+00,0.000000000000000000e+00,0.000000000000000000e+00,0.000000000000000000e+00,0.000000000000000000e+00,0.000000000000000000e+00,0.000000000000000000e+00,0.000000000000000000e+00,0.000000000000000000e+00,0.000000000000000000e+00,0.000000000000000000e+00,0.000000000000000000e+00,0.000000000000000000e+00,0.000000000000000000e+00,0.000000000000000000e+00,0.000000000000000000e+00,0.000000000000000000e+00,0.000000000000000000e+00,0.000000000000000000e+00,0.000000000000000000e+00,-5.001927126526567197e-04,-1.095660227715343146e-03,-1.691127742778029790e-03,-2.310413958443223968e-03,-2.112919097674487157e-01,-2.118873772825114188e-01,-2.124828447975740942e-01,-2.131021310132392987e-01,-5.311570234359163853e-03,-5.907037749421850496e-03,-6.526323965087045542e-03,-7.121791480149731318e-03,-7.717258995212417094e-03,-8.312726510275104605e-03,-8.932012725940298783e-03,-9.527480241002984560e-03,-1.012294775606567207e-02,-1.071841527112835785e-02,-1.133770148679355202e-02,-1.193316900185623954e-02,-1.252863651691892531e-02,-1.312410403198161282e-02,-1.374339024764680700e-02,-1.433885776270949104e-02,-1.260083695312027609e-02,-3.888402873359343183e-03,0.000000000000000000e+00
0.000000000000000000e+00,0.000000000000000000e+00,0.000000000000000000e+00,0.000000000000000000e+00,0.000000000000000000e+00,0.000000000000000000e+00,0.000000000000000000e+00,0.000000000000000000e+00,0.000000000000000000e+00,0.000000000000000000e+00,0.000000000000000000e+00,0.000000000000000000e+00,0.000000000000000000e+00,0.000000000000000000e+00,0.000000000000000000e+00,0.000000000000000000e+00,0.000000000000000000e+00,0.000000000000000000e+00,0.000000000000000000e+00,-3.572805090376119427e-04,-9.765667247028061212e-04,-1.572034239765492548e-03,-2.167501754828179191e-03,-2.762969269890865401e-03,-2.117682837794988837e-01,-2.123637512945615591e-01,-2.129592188096242622e-01,-2.135546863246869376e-01,-5.787944246409313688e-03,-6.383411761472000331e-03,-6.978879276534686975e-03,-7.574346791597373618e-03,-8.193633007262567797e-03,-8.789100522325253573e-03,-9.384568037387939349e-03,-1.000385425305313526e-02,-1.059932176811582104e-02,-1.119478928317850681e-02,-1.179025679824119606e-02,-1.240954301390638850e-02,-1.300501052896907428e-02,-1.360047804403176179e-02,-1.419594555909444583e-02,-1.481523177475964174e-02,-1.541069928982232926e-02,-1.600616680488501503e-02,-6.744413942478753345e-03
0.000000000000000000e+00,0.000000000000000000e+00,0.000000000000000000e+00,0.000000000000000000e+00,0.000000000000000000e+00,0.000000000000000000e+00,0.000000000000000000e+00,0.000000000000000000e+00,0.000000000000000000e+00,0.000000000000000000e+00,0.000000000000000000e+00,0.000000000000000000e+00,0.000000000000000000e+00,0.000000000000000000e+00,0.000000000000000000e+00,0.000000000000000000e+00,0.000000000000000000e+00,0.000000000000000000e+00,-2.381870060250746465e-04,-8.336545210877612357e-04,-1.429122036150447554e-03,-2.024589551213134414e-03,-2.643875766878328593e-03,-3.239343281941014802e-03,-2.122208390909465225e-01,-2.128401253066116994e-01,-2.134355928216744025e-01,-2.140310603367370779e-01,-6.240499557856955121e-03,-6.859785773522149299e-03,-7.455253288584835943e-03,-8.050720803647522586e-03,-8.646188318710210097e-03,-9.265474534375402541e-03,-9.860942049438090051e-03,-1.045640956450077583e-02,-1.105187707956346160e-02,-1.167116329522865752e-02,-1.226663081029134329e-02,-1.286209832535403080e-02,-1.345756584041671658e-02,-1.407685205608191249e-02,-1.467231957114459653e-02,-1.526778708620728404e-02,-1.588707330187247996e-02,-1.648254081693516226e-02,-1.707800833199785151e-02
0.000000000000000000e+00,0.000000000000000000e+00,0.000000000000000000e+00,0.000000000000000000e+00,0.000000000000000000e+00,0.000000000000000000e+00,0.000000000000000000e+00,0.000000000000000000e+00,0.000000000000000000e+00,0.000000000000000000e+00,0.000000000000000000e+00,0.000000000000000000e+00,0.000000000000000000e+00,0.000000000000000000e+00,0.000000000000000000e+00,0.000000000000000000e+00,0.000000000000000000e+00,-9.527480241002986945e-05,-6.907423174727164586e-04,-1.310028533137910529e-03,-1.905496048200596955e-03,-2.500963563263283382e-03,-3.096431078325970025e-03,-3.715717293991164204e-03,-2.126972131029966628e-01,-2.132926806180593382e-01,-2.138881481331220413e-01,-2.145074343487872459e-01,-6.716873569907104956e-03,-7.312341084969790732e-03,-7.907808600032477375e-03,-8.527094815697671554e-03,-9.122562330760359064e-03,-9.718029845823044841e-03,-1.033731606148823902e-02,-1.093278357655092480e-02,-1.152825109161361231e-02,-1.212371860667629982e-02,-1.274300482234149226e-02,-1.333847233740417804e-02,-1.393393985246686728e-02,-1.452940736752955132e-02,-1.514869358319474550e-02,-1.574416109825743301e-02,-1.633962861332011879e-02,-1.693509612838280456e-02,-1.755438234404799874e-02
0.000000000000000000e+00,0.000000000000000000e+00,0.000000000000000000e+00,0.000000000000000000e+00,0.000000000000000000e+00,0.000000000000000000e+00,0.000000000000000000e+00,0.000000000000000000e+00,0.000000000000000000e+00,0.000000000000000000e+00,0.000000000000000000e+00,0.000000000000000000e+00,0.000000000000000000e+00,0.000000000000000000e+00,0.000000000000000000e+00,0.000000000000000000e+00,0.000000000000000000e+00,-5.716488144601791083e-04,-1.167116329522865752e-03,-1.762583844585552395e-03,-2.358051359648239038e-03,-2.977337575313433217e-03,-3.572805090376119427e-03,-4.168272605438805636e-03,-4.787558821103999815e-03,-5.383026336166686458e-03,-5.978493851229373102e-03,-6.573961366292058878e-03,-7.193247581957253056e-03,-7.788715097019940567e-03,-8.384182612082626343e-03,-8.979650127145313854e-03,-9.598936342810508032e-03,-1.019440385787319381e-02,-1.078987137293587958e-02,-1.138533888799856536e-02,-1.200462510366376127e-02,-1.260009261872644705e-02,-1.319556013378913456e-02,-1.381484634945432874e-02,-1.441031386451701625e-02,-1.500578137957970376e-02,-1.560124889464238780e-02,-1.622053511030758371e-02,-1.681600262537026949e-02,-1.741147014043295527e-02,-1.800693765549564451e-02
0.000000000000000000e+00,0.000000000000000000e+00,0.000000000000000000e+00,0.000000000000000000e+00,0.000000000000000000e+00,0.000000000000000000e+00,0.000000000000000000e+00,0.000000000000000000e+00,0.000000000000000000e+00,0.000000000000000000e+00,0.000000000000000000e+00,0.000000000000000000e+00,0.000000000000000000e+00,0.000000000000000000e+00,0.000000000000000000e+00,0.000000000000000000e+00,-4.287366108451343312e-04,-1.024204125907820975e-03,-1.643490341573014936e-03,-2.238957856635701363e-03,-2.834425371698387573e-03,-3.429892886761074650e-03,-4.049179102426268828e-03,-4.644646617488955471e-03,-5.240114132551642115e-03,-5.835581647614328758e-03,-6.454867863279522937e-03,-7.050335378342208713e-03,-7.645802893404895356e-03,-8.241270408467581132e-03,-8.860556624132775311e-03,-9.456024139195462822e-03,-1.005149165425815033e-02,-1.067077786992334278e-02,-1.126624538498603029e-02,-1.186171290004871606e-02,-1.245718041511140184e-02,-1.307646663077659602e-02,-1.367193414583928353e-02,-1.426740166090197104e-02,-1.486286917596465681e-02,-1.548215539162985099e-02,-1.607762290669253677e-02,-1.667309042175522255e-02,-1.726855793681791179e-02,-1.788784415248310250e-02,-1.829276206272573146e-02
0.000000000000000000e+00,0.000000000000000000e+00,0.000000000000000000e+00,0.000000000000000000e+00,0.000000000000000000e+00,0.000000000000000000e+00,0.000000000000000000e+00,0.000000000000000000e+00,0.000000000000000000e+00,0.000000000000000000e+00,0.000000000000000000e+00,0.000000000000000000e+00,0.000000000000000000e+00,0.000000000000000000e+00,0.000000000000000000e+00,-2.858244072300895541e-04,-9.051106228952836242e-04,-1.500578137957970159e-03,-2.096045653020657019e-03,-2.691513168083343663e-03,-3.310799383748537408e-03,-3.906266898811223617e-03,-4.501734413873910261e-03,-5.121020629539104439e-03,-5.716488144601791083e-03,-6.311955659664477726e-03,-6.907423174727164369e-03,-7.526709390392357681e-03,-8.122176905455046059e-03,-8.717644420517731835e-03,-9.313111935580417611e-03,-9.932398151245611789e-03,-1.052786566630829930e-02,-1.112333318137098508e-02,-1.171880069643367259e-02,-1.233808691209886677e-02,-1.293355442716155254e-02,-1.352902194222423832e-02,-1.414830815788943423e-02,-1.474377567295212001e-02,-1.533924318801480405e-02,-1.593471070307749329e-02,-1.655399691874268747e-02,-1.714946443380537325e-02,-1.774493194886805902e-02,-1.829276206272573146e-02,-1.829276206272573146e-02
0.000000000000000000e+00,0.000000000000000000e+00,0.000000000000000000e+00,0.000000000000000000e+00,0.000000000000000000e+00,0.000000000000000000e+00,0.000000000000000000e+00,0.000000000000000000e+00,0.000000000000000000e+00,0.000000000000000000e+00,0.000000000000000000e+00,0.000000000000000000e+00,0.000000000000000000e+00,0.000000000000000000e+00,-1.667309042175522580e-04,-7.621984192802388472e-04,-1.357665934342925599e-03,-1.976952150008119344e-03,-2.572419665070805987e-03,-3.167887180133492631e-03,-3.763354695196178407e-03,-4.382640910861372585e-03,-4.978108425924060096e-03,-5.573575940986745872e-03,-6.169043456049433383e-03,-6.788329671714626694e-03,-7.383797186777314205e-03,-7.979264701839999113e-03,-8.574732216902686624e-03,-9.194018432567879068e-03,-9.789485947630566579e-03,-1.038495346269325409e-02,-1.100423967835844827e-02,-1.159970719342113404e-02,-1.219517470848382155e-02,-1.279064222354650560e-02,-1.340992843921170151e-02,-1.400539595427438729e-02,-1.460086346933707653e-02,-1.519633098439976057e-02,-1.581561720006495475e-02,-1.641108471512764053e-02,-1.700655223019032977e-02,-1.760201974525301555e-02,-1.822130596091820973e-02,-1.829276206272573146e-02,-1.829276206272573146e-02
0.000000000000000000e+00,0.000000000000000000e+00,0.000000000000000000e+00,0.000000000000000000e+00,0.000000000000000000e+00,0.000000000000000000e+00,0.000000000000000000e+00,0.000000000000000000e+00,0.000000000000000000e+00,0.000000000000000000e+00,0.000000000000000000e+00,0.000000000000000000e+00,0.000000000000000000e+00,-2.381870060250746397e-05,-6.192862156651940701e-04,-1.238572431330388140e-03,-1.834039946393074567e-03,-2.429507461455761210e-03,-3.024974976518447854e-03,-3.644261192183642032e-03,-4.239728707246328242e-03,-4.835196222309014885e-03,-5.454482437974209064e-03,-6.049949953036896574e-03,-6.645417468099582350e-03,-7.240884983162268126e-03,-7.860171198827462305e-03,-8.455638713890149816e-03,-9.051106228952835592e-03,-9.646573744015521368e-03,-1.026585995968071555e-02,-1.086132747474340132e-02,-1.145679498980609057e-02,-1.205226250486877634e-02,-1.267154872053397052e-02,-1.326701623559665630e-02,-1.386248375065934381e-02,-1.448176996632453799e-02,-1.507723748138722376e-02,-1.567270499644991127e-02,-1.626817251151259705e-02,-1.688745872717779123e-02,-1.748292624224047700e-02,-1.807839375730316278e-02,-1.829276206272573146e-02,-1.829276206272573146e-02,-1.829276206272573146e-02
0.000000000000000000e+00,0.000000000000000000e+00,0.000000000000000000e+00,0.000000000000000000e+00,0.000000000000000000e+00,0.000000000000000000e+00,0.000000000000000000e+00,0.000000000000000000e+00,0.000000000000000000e+00,0.000000000000000000e+00,0.000000000000000000e+00,0.000000000000000000e+00,0.000000000000000000e+00,-5.001927126526567197e-04,-1.095660227715343363e-03,-1.691127742778029790e-03,-2.310413958443223968e-03,-2.905881473505910612e-03,-3.501348988568596821e-03,-4.096816503631283898e-03,-4.716102719296478077e-03,-5.311570234359164720e-03,-5.907037749421851364e-03,-6.502505264484537140e-03,-7.121791480149732186e-03,-7.717258995212417094e-03,-8.312726510275104605e-03,-8.932012725940297049e-03,-9.527480241002986294e-03,-1.012294775606567207e-02,-1.071841527112835785e-02,-1.133770148679355202e-02,-1.193316900185623780e-02,-1.252863651691892531e-02,-1.312410403198161109e-02,-1.374339024764680527e-02,-1.433885776270949451e-02,-1.493432527777218029e-02,-1.552979279283486433e-02,-1.614907900850005851e-02,-1.674454652356274775e-02,-1.734001403862543353e-02,-1.793548155368811584e-02,-1.829276206272573146e-02,-1.829276206272573146e-02,-1.829276206272573493e-02,-1.829276206272573146e-02
0.000000000000000000e+00,0.000000000000000000e+00,0.000000000000000000e+00,0.000000000000000000e+00,0.000000000000000000e+00,0.000000000000000000e+00,0.000000000000000000e+00,0.000000000000000000e+00,0.000000000000000000e+00,0.000000000000000000e+00,0.000000000000000000e+00,0.000000000000000000e+00,-3.572805090376119427e-04,-9.527480241002985861e-04,-1.572034239765492548e-03,-2.167501754828179625e-03,-2.762969269890865835e-03,-3.358436784953552044e-03,-3.977723000618746223e-03,-4.573190515681432866e-03,-5.168658030744118642e-03,-5.787944246409312821e-03,-6.383411761472000331e-03,-6.978879276534686107e-03,-7.574346791597373618e-03,-8.193633007262566062e-03,-8.789100522325253573e-03,-9.384568037387941083e-03,-9.980035552450628594e-03,-1.059932176811581930e-02,-1.119478928317850681e-02,-1.179025679824119432e-02,-1.238572431330388010e-02,-1.300501052896907428e-02,-1.360047804403176179e-02,-1.419594555909444757e-02,-1.481523177475964348e-02,-1.541069928982232926e-02,-1.600616680488501503e-02,-1.660163431994770081e-02,-1.722092053561289846e-02,-1.781638805067558423e-02,-1.829276206272573146e-02,-1.829276206272573146e-02,-1.829276206272573146e-02,-1.829276206272573146e-02,-1.829276206272573146e-02
0.000000000000000000e+00,0.000000000000000000e+00,0.000000000000000000e+00,0.000000000000000000e+00,0.000000000000000000e+00,0.000000000000000000e+00,0.000000000000000000e+00,0.000000000000000000e+00,0.000000000000000000e+00,0.000000000000000000e+00,0.000000000000000000e+00,-2.381870060250746194e-04,-8.336545210877612357e-04,-1.429122036150447771e-03,-2.024589551213134414e-03,-2.643875766878328593e-03,-3.239343281941015236e-03,-3.834810797003701446e-03,-4.430278312066388523e-03,-5.049564527731581834e-03,-5.645032042794269345e-03,-6.240499557856955121e-03,-6.835967072919641764e-03,-7.455253288584835943e-03,-8.050720803647520851e-03,-8.646188318710208362e-03,-9.265474534375404275e-03,-9.860942049438090051e-03,-1.045640956450077583e-02,-1.105187707956346160e-02,-1.167116329522865752e-02,-1.226663081029134503e-02,-1.286209832535403080e-02,-1.345756584041671484e-02,-1.407685205608191076e-02,-1.467231957114459827e-02,-1.526778708620728404e-02,-1.586325460126997156e-02,-1.648254081693516226e-02,-1.707800833199785151e-02,-1.767347584706054076e-02,-1.829276206272573146e-02,-1.829276206272573146e-02,-1.829276206272573146e-02,-1.829276206272573146e-02,-1.829276206272573146e-02,-1.829276206272573146e-02
0.000000000000000000e+00,0.000000000000000000e+00,0.000000000000000000e+00,0.000000000000000000e+00,0.000000000000000000e+00,0.000000000000000000e+00,0.000000000000000000e+00,0.000000000000000000e+00,0.000000000000000000e+00,0.000000000000000000e+00,-9.527480241002985590e-05,-6.907423174727164586e-04,-1.286209832535403210e-03,-1.905496048200597172e-03,-2.500963563263283382e-03,-3.096431078325970025e-03,-3.691898593388656235e-03,-4.311184809053850847e-03,-4.906652324116536623e-03,-5.502119839179224134e-03,-6.121406054844417445e-03,-6.716873569907104088e-03,-7.312341084969791599e-03,-7.907808600032477375e-03,-8.527094815697671554e-03,-9.122562330760357330e-03,-9.718029845823043106e-03,-1.031349736088573235e-02,-1.093278357655092480e-02,-1.152825109161361231e-02,-1.212371860667630155e-02,-1.271918612173898559e-02,-1.333847233740417804e-02,-1.393393985246686728e-02,-1.452940736752955306e-02,-1.514869358319474550e-02,-1.574416109825743301e-02,-1.633962861332011879e-02,-1.693509612838280803e-02,-1.755438234404800221e-02,-1.814984985911068799e-02,-1.829276206272573146e-02,-1.829276206272573146e-02,-1.829276206272573146e-02,-1.829276206272573146e-02,-1.829276206272573146e-02,-1.667309042175522255e-02
0.000000000000000000e+00,0.000000000000000000e+00,0.000000000000000000e+00,0.000000000000000000e+00,0.000000000000000000e+00,0.000000000000000000e+00,0.000000000000000000e+00,0.000000000000000000e+00,0.000000000000000000e+00,0.000000000000000000e+00,-5.716488144601791083e-04,-1.167116329522865752e-03,-1.762583844585552178e-03,-2.358051359648239038e-03,-2.977337575313432783e-03,-3.572805090376119860e-03,-4.168272605438805636e-03,-4.763740120501493147e-03,-5.383026336166686458e-03,-5.978493851229373102e-03,-6.573961366292059745e-03,-7.169428881354746388e-03,-7.788715097019940567e-03,-8.384182612082626343e-03,-8.979650127145313854e-03,-9.598936342810508032e-03,-1.019440385787319381e-02,-1.078987137293587958e-02,-1.138533888799856710e-02,-1.200462510366376127e-02,-1.260009261872644531e-02,-1.319556013378913456e-02,-1.379102764885182034e-02,-1.441031386451701451e-02,-1.500578137957970029e-02,-1.560124889464238780e-02,-1.619671640970507531e-02,-1.681600262537026602e-02,-1.741147014043295527e-02,-1.800693765549564451e-02,-1.829276206272573146e-02,-1.829276206272573146e-02,-1.829276206272573146e-02,-1.829276206272572800e-02,-1.829276206272572800e-02,-1.714946443380537325e-02,-1.476759437355462667e-02
0.000000000000000000e+00,0.000000000000000000e+00,0.000000000000000000e+00,0.000000000000000000e+00,0.000000000000000000e+00,0.000000000000000000e+00,0.000000000000000000e+00,0.000000000000000000e+00,0.000000000000000000e+00,-4.287366108451343312e-04,-1.024204125907820975e-03,-1.619671640970507401e-03,-2.238957856635701363e-03,-2.834425371698388006e-03,-3.429892886761074650e-03,-4.049179102426268828e-03,-4.644646617488955471e-03,-5.240114132551642115e-03,-5.835581647614327891e-03,-6.454867863279522937e-03,-7.050335378342209580e-03,-7.645802893404895356e-03,-8.241270408467581132e-03,-8.860556624132775311e-03,-9.456024139195462822e-03,-1.005149165425815033e-02,-1.064695916932083611e-02,-1.126624538498603029e-02,-1.186171290004871606e-02,-1.245718041511140357e-02,-1.305264793017408935e-02,-1.367193414583928526e-02,-1.426740166090197277e-02,-1.486286917596465681e-02,-1.548215539162985099e-02,-1.607762290669253677e-02,-1.667309042175522255e-02,-1.726855793681790832e-02,-1.788784415248310597e-02,-1.829276206272573146e-02,-1.829276206272573146e-02,-1.829276206272573146e-02,-1.829276206272573146e-02,-1.829276206272573146e-02,-1.772111324826555062e-02,-1.533924318801480578e-02,-1.286209832535402907e-02
0.000000000000000000e+00,0.000000000000000000e+00,0.000000000000000000e+00,0.000000000000000000e+00,0.000000000000000000e+00,0.000000000000000000e+00,0.000000000000000000e+00,0.000000000000000000e+00,-2.858244072300895541e-04,-9.051106228952836242e-04,-1.500578137957970376e-03,-2.096045653020657019e-03,-2.691513168083343663e-03,-3.310799383748537841e-03,-3.906266898811223617e-03,-4.501734413873911128e-03,-5.097201928936596904e-03,-5.716488144601791083e-03,-6.311955659664478593e-03,-6.907423174727163502e-03,-7.502890689789850145e-03,-8.122176905455046059e-03,-8.717644420517730100e-03,-9.313111935580417611e-03,-9.932398151245611789e-03,-1.052786566630829930e-02,-1.112333318137098508e-02,-1.171880069643367259e-02,-1.233808691209886677e-02,-1.293355442716155081e-02,-1.352902194222423832e-02,-1.412448945728692583e-02,-1.474377567295212001e-02,-1.533924318801480578e-02,-1.593471070307748982e-02,-1.653017821814017907e-02,-1.714946443380537325e-02,-1.774493194886805902e-02,-1.829276206272573146e-02,-1.829276206272573146e-02,-1.829276206272573146e-02,-1.829276206272573146e-02,-1.829276206272573146e-02,-1.819748726031570132e-02,-1.581561720006495475e-02,-1.343374713981420818e-02,-1.105187707956346334e-02
0.000000000000000000e+00,0.000000000000000000e+00,0.000000000000000000e+00,0.000000000000000000e+00,0.000000000000000000e+00,0.000000000000000000e+00,0.000000000000000000e+00,-1.667309042175522580e-04,-7.621984192802388472e-04,-1.357665934342925382e-03,-1.953133449405611809e-03,-2.572419665070805987e-03,-3.167887180133492631e-03,-3.763354695196178840e-03,-4.382640910861373452e-03,-4.978108425924059229e-03,-5.573575940986745872e-03,-6.169043456049433383e-03,-6.788329671714627561e-03,-7.383797186777313337e-03,-7.979264701840000848e-03,-8.574732216902686624e-03,-9.194018432567880802e-03,-9.789485947630568313e-03,-1.038495346269325409e-02,-1.098042097775594160e-02,-1.159970719342113404e-02,-1.219517470848382155e-02,-1.279064222354650733e-02,-1.340992843921169977e-02,-1.400539595427438902e-02,-1.460086346933707480e-02,-1.519633098439976231e-02,-1.581561720006495475e-02,-1.641108471512764400e-02,-1.700655223019032630e-02,-1.760201974525301555e-02,-1.822130596091820626e-02,-1.829276206272573146e-02,-1.829276206272573146e-02,-1.829276206272573146e-02,-1.829276206272573146e-02,-1.829276206272573146e-02,-1.638726601452513559e-02,-1.400539595427438902e-02,-1.152825109161361231e-02,-9.146381031362865732e-03
0.000000000000000000e+00,0.000000000000000000e+00,0.000000000000000000e+00,0.000000000000000000e+00,0.000000000000000000e+00,0.000000000000000000e+00,-2.381870060250746397e-05,-6.192862156651940701e-04,-1.238572431330387923e-03,-1.834039946393074567e-03,-2.429507461455761210e-03,-3.024974976518447854e-03,-3.644261192183641598e-03,-4.239728707246328242e-03,-4.835196222309014885e-03,-5.430663737371701529e-03,-6.049949953036894840e-03,-6.645417468099582350e-03,-7.240884983162268126e-03,-7.836352498224955637e-03,-8.455638713890149816e-03,-9.051106228952835592e-03,-9.646573744015523103e-03,-1.026585995968071728e-02,-1.086132747474340132e-02,-1.145679498980609057e-02,-1.205226250486877634e-02,-1.267154872053397052e-02,-1.326701623559665630e-02,-1.386248375065934207e-02,-1.445795126572203132e-02,-1.507723748138722376e-02,-1.567270499644991127e-02,-1.626817251151259705e-02,-1.686364002657528283e-02,-1.748292624224048047e-02,-1.807839375730316625e-02,-1.829276206272573146e-02,-1.829276206272573146e-02,-1.829276206272573146e-02,-1.829276206272573146e-02,-1.829276206272573146e-02,-1.686364002657528283e-02,-1.448176996632453625e-02,-1.209989990607378968e-02,-9.718029845823044841e-03,-7.240884983162268994e-03
0.000000000000000000e+00,0.000000000000000000e+00,0.000000000000000000e+00,0.000000000000000000e+00,0.000000000000000000e+00,0.000000000000000000e+00,-5.001927126526567197e-04,-1.095660227715343363e-03,-1.691127742778029790e-03,-2.286595257840716433e-03,-2.905881473505910612e-03,-3.501348988568597255e-03,-4.096816503631283898e-03,-4.716102719296477210e-03,-5.311570234359162986e-03,-5.907037749421850496e-03,-6.502505264484537140e-03,-7.121791480149731318e-03,-7.717258995212417094e-03,-8.312726510275104605e-03,-8.908194025337790381e-03,-9.527480241002986294e-03,-1.012294775606567207e-02,-1.071841527112835785e-02,-1.131388278619104362e-02,-1.193316900185623954e-02,-1.252863651691892531e-02,-1.312410403198161282e-02,-1.371957154704429860e-02,-1.433885776270949104e-02,-1.493432527777217855e-02,-1.552979279283486606e-02,-1.614907900850005851e-02,-1.674454652356274428e-02,-1.734001403862543353e-02,-1.793548155368811930e-02,-1.829276206272573146e-02,-1.829276206272573146e-02,-1.829276206272573146e-02,-1.829276206272573146e-02,-1.829276206272573146e-02,-1.743528884103546367e-02,-1.505341878078471710e-02,-1.267154872053397052e-02,-1.019440385787319381e-02,-7.812533797622448969e-03,-5.430663737371701529e-03
0.000000000000000000e+00,0.000000000000000000e+00,0.000000000000000000e+00,0.000000000000000000e+00,0.000000000000000000e+00,-3.572805090376119427e-04,-9.527480241002985861e-04,-1.572034239765492548e-03,-2.167501754828179191e-03,-2.762969269890865835e-03,-3.358436784953552478e-03,-3.977723000618746223e-03,-4.573190515681432866e-03,-5.168658030744118642e-03,-5.764125545806805286e-03,-6.383411761472000331e-03,-6.978879276534686975e-03,-7.574346791597373618e-03,-8.169814306660059394e-03,-8.789100522325253573e-03,-9.384568037387939349e-03,-9.980035552450628594e-03,-1.059932176811582104e-02,-1.119478928317850681e-02,-1.179025679824119432e-02,-1.238572431330388010e-02,-1.300501052896907428e-02,-1.360047804403176179e-02,-1.419594555909444757e-02,-1.479141307415713508e-02,-1.541069928982232926e-02,-1.600616680488501503e-02,-1.660163431994770081e-02,-1.719710183501038658e-02,-1.781638805067558423e-02,-1.829276206272573146e-02,-1.829276206272573146e-02,-1.829276206272573146e-02,-1.829276206272573146e-02,-1.829276206272573146e-02,-1.800693765549564104e-02,-1.552979279283486606e-02,-1.314792273258411949e-02,-1.076605267233337292e-02,-8.384182612082628078e-03,-5.907037749421850496e-03,-3.525167689171104790e-03
0.000000000000000000e+00,0.000000000000000000e+00,0.000000000000000000e+00,0.000000000000000000e+00,-2.143683054225671656e-04,-8.336545210877612357e-04,-1.429122036150447554e-03,-2.024589551213134414e-03,-2.620057066275821057e-03,-3.239343281941014802e-03,-3.834810797003701446e-03,-4.430278312066387655e-03,-5.049564527731581834e-03,-5.645032042794269345e-03,-6.240499557856955121e-03,-6.835967072919641764e-03,-7.455253288584835943e-03,-8.050720803647522586e-03,-8.646188318710208362e-03,-9.241655833772895873e-03,-9.860942049438090051e-03,-1.045640956450077583e-02,-1.105187707956346334e-02,-1.164734459462615085e-02,-1.226663081029134503e-02,-1.286209832535402907e-02,-1.345756584041671658e-02,-1.407685205608191076e-02,-1.467231957114460000e-02,-1.526778708620728231e-02,-1.586325460126996809e-02,-1.648254081693516573e-02,-1.707800833199785151e-02,-1.767347584706053729e-02,-1.826894336212321959e-02,-1.829276206272573146e-02,-1.829276206272573146e-02,-1.829276206272573146e-02,-1.829276206272573146e-02,-1.829276206272573146e-02,-1.610144160729504517e-02,-1.371957154704430033e-02,-1.133770148679355202e-02,-8.860556624132775311e-03,-6.478686563882030472e-03,-4.096816503631283898e-03,-1.619671640970507618e-03
0.000000000000000000e+00,0.000000000000000000e+00,0.000000000000000000e+00,-9.527480241002985590e-05,-6.907423174727164586e-04,-1.286209832535403210e-03,-1.905496048200596955e-03,-2.500963563263283382e-03,-3.096431078325970459e-03,-3.691898593388656669e-03,-4.311184809053850847e-03,-4.906652324116537491e-03,-5.502119839179224134e-03,-6.097587354241910777e-03,-6.716873569907104956e-03,-7.312341084969790732e-03,-7.907808600032477375e-03,-8.527094815697671554e-03,-9.122562330760357330e-03,-9.718029845823044841e-03,-1.031349736088573235e-02,-1.093278357655092653e-02,-1.152825109161361231e-02,-1.212371860667629982e-02,-1.271918612173898386e-02,-1.333847233740417804e-02,-1.393393985246686555e-02,-1.452940736752955306e-02,-1.512487488259223883e-02,-1.574416109825743301e-02,-1.633962861332011879e-02,-1.693509612838280456e-02,-1.753056364344549381e-02,-1.814984985911068799e-02,-1.829276206272573146e-02,-1.829276206272573146e-02,-1.829276206272573146e-02,-1.829276206272573146e-02,-1.829276206272573146e-02,-1.667309042175522255e-02,-1.419594555909444930e-02,-1.181407549884370273e-02,-9.432205438592956154e-03,-7.050335378342209580e-03,-4.573190515681432866e-03,-2.191320455430686726e-03,0.000000000000000000e+00
0.000000000000000000e+00,0.000000000000000000e+00,0.000000000000000000e+00,-5.478301138576716816e-04,-1.167116329522865752e-03,-1.762583844585552395e-03,-2.358051359648239038e-03,-2.953518874710925682e-03,-3.572805090376119427e-03,-4.168272605438805636e-03,-4.763740120501492280e-03,-5.383026336166685591e-03,-5.978493851229373102e-03,-6.573961366292059745e-03,-7.169428881354745521e-03,-7.788715097019940567e-03,-8.384182612082626343e-03,-8.979650127145313854e-03,-9.575117642207999630e-03,-1.019440385787319381e-02,-1.078987137293587958e-02,-1.138533888799856710e-02,-1.198080640306125461e-02,-1.260009261872644878e-02,-1.319556013378913456e-02,-1.379102764885182207e-02,-1.441031386451701625e-02,-1.500578137957970203e-02,-1.560124889464238780e-02,-1.619671640970507531e-02,-1.681600262537026602e-02,-1.741147014043295874e-02,-1.800693765549564451e-02,-1.829276206272573146e-02,-1.829276206272573146e-02,-1.829276206272573146e-02,-1.829276206272573146e-02,-1.829276206272573146e-02,-1.714946443380537325e-02,-1.476759437355462667e-02,-1.238572431330388010e-02,-9.908579450643105122e-03,-7.526709390392359415e-03,-5.144839330141611974e-03,-2.762969269890865835e-03,-2.858244072300895541e-04,0.000000000000000000e+00
0.000000000000000000e+00,0.000000000000000000e+00,-4.287366108451343854e-04,-1.024204125907820975e-03,-1.619671640970507618e-03,-2.238957856635701363e-03,-2.834425371698388006e-03,-3.429892886761074650e-03,-4.025360401823761293e-03,-4.644646617488955471e-03,-5.240114132551641248e-03,-5.835581647614327891e-03,-6.431049162677015402e-03,-7.050335378342208713e-03,-7.645802893404895356e-03,-8.241270408467582867e-03,-8.836737923530268643e-03,-9.456024139195462822e-03,-1.005149165425815033e-02,-1.064695916932083611e-02,-1.126624538498603029e-02,-1.186171290004871780e-02,-1.245718041511140357e-02,-1.305264793017408935e-02,-1.367193414583928179e-02,-1.426740166090197277e-02,-1.486286917596465681e-02,-1.545833669102734259e-02,-1.607762290669253677e-02,-1.667309042175522601e-02,-1.726855793681791179e-02,-1.786402545188059757e-02,-1.829276206272573146e-02,-1.829276206272573146e-02,-1.829276206272573146e-02,-1.829276206272573146e-02,-1.829276206272573146e-02,-1.772111324826555409e-02,-1.533924318801480578e-02,-1.286209832535403080e-02,-1.048022826510328250e-02,-8.098358204852537656e-03,-5.716488144601791083e-03,-3.239343281941014802e-03,-8.574732216902686624e-04,0.000000000000000000e+00,0.000000000000000000e+00
0.000000000000000000e+00,-2.858244072300895541e-04,-8.812919222927761975e-04,-1.500578137957970376e-03,-2.096045653020656586e-03,-2.691513168083343229e-03,-3.286980683146029873e-03,-3.906266898811223617e-03,-4.501734413873910261e-03,-5.097201928936596904e-03,-5.716488144601791083e-03,-6.311955659664477726e-03,-6.907423174727164369e-03,-7.502890689789850145e-03,-8.122176905455044324e-03,-8.717644420517731835e-03,-9.313111935580417611e-03,-9.908579450643105122e-03,-1.052786566630829757e-02,-1.112333318137098508e-02,-1.171880069643367085e-02,-1.231426821149635836e-02,-1.293355442716155081e-02,-1.352902194222423832e-02,-1.412448945728692583e-02,-1.474377567295211827e-02,-1.533924318801480578e-02,-1.593471070307749329e-02,-1.653017821814017907e-02,-1.714946443380537325e-02,-1.774493194886805902e-02,-1.829276206272573146e-02,-1.829276206272573146e-02,-1.829276206272573146e-02,-1.829276206272573146e-02,-1.829276206272573146e-02,-1.829276206272573146e-02,-1.581561720006495475e-02,-1.343374713981421165e-02,-1.105187707956346334e-02,-8.574732216902686624e-03,-6.192862156651940918e-03,-3.810992096401194344e-03,-1.429122036150447771e-03,0.000000000000000000e+00,0.000000000000000000e+00,0.000000000000000000e+00
-6.773442983838059972e-05,-7.621984192802388472e-04,-1.357665934342925382e-03,-1.953133449405611809e-03,-2.572419665070805987e-03,-3.167887180133492631e-03,-3.763354695196178407e-03,-4.358822210258865917e-03,-4.978108425924060096e-03,-5.573575940986746739e-03,-6.169043456049433383e-03,-6.764510971112120026e-03,-7.383797186777313337e-03,-7.979264701839999113e-03,-8.574732216902686624e-03,-9.194018432567880802e-03,-9.789485947630566579e-03,-1.038495346269325235e-02,-1.098042097775593987e-02,-1.159970719342113404e-02,-1.219517470848382329e-02,-1.279064222354650733e-02,-1.338610973860919484e-02,-1.400539595427438902e-02,-1.460086346933707480e-02,-1.519633098439976231e-02,-1.579179849946244635e-02,-1.641108471512764053e-02,-1.700655223019032977e-02,-1.760201974525301555e-02,-1.819748726031570132e-02,-1.829276206272573146e-02,-1.829276206272573146e-02,-1.829276206272573146e-02,-1.829276206272573146e-02,-1.829276206272573146e-02,-1.638726601452513559e-02,-1.400539595427438902e-02,-1.152825109161361231e-02,-9.146381031362865732e-03,-6.764510971112119159e-03,-4.382640910861373452e-03,-1.905496048200597172e-03,0.000000000000000000e+00,0.000000000000000000e+00,0.000000000000000000e+00,0.000000000000000000e+00
0.000000000000000000e+00,-2.657273785967239027e-04,-1.547471204769156842e-03,-2.429507461455761210e-03,-3.024974976518447854e-03,-3.644261192183641598e-03,-4.239728707246328242e-03,-4.835196222309014885e-03,-5.430663737371701529e-03,-6.049949953036895707e-03,-6.645417468099582350e-03,-7.240884983162268126e-03,-7.836352498224955637e-03,-8.455638713890149816e-03,-9.051106228952835592e-03,-9.646573744015524837e-03,-1.024204125907820888e-02,-1.086132747474340132e-02,-1.145679498980609057e-02,-1.205226250486877808e-02,-1.264773001993146039e-02,-1.326701623559665630e-02,-1.386248375065934207e-02,-1.445795126572203132e-02,-1.507723748138722550e-02,-1.567270499644991127e-02,-1.626817251151259705e-02,-1.686364002657528283e-02,-1.748292624224047700e-02,-1.807839375730316278e-02,-1.829276206272573146e-02,-1.829276206272573146e-02,-1.829276206272573146e-02,-1.829276206272573146e-02,-1.829276206272573146e-02,-1.695891482898531297e-02,-1.448176996632453799e-02,-1.209989990607379315e-02,-9.718029845823044841e-03,-7.240884983162268994e-03,-4.859014922911522420e-03,-2.477144862660776280e-03,-9.527480241002985590e-05,0.000000000000000000e+00,0.000000000000000000e+00,0.000000000000000000e+00,0.000000000000000000e+00
0.000000000000000000e+00,0.000000000000000000e+00,-1.429122036150447771e-04,-1.997793513035313762e-03,-3.501348988568596821e-03,-4.096816503631283031e-03,-4.692284018693969674e-03,-5.311570234359163853e-03,-5.907037749421850496e-03,-6.502505264484537140e-03,-7.097972779547223783e-03,-7.717258995212417094e-03,-8.312726510275104605e-03,-8.908194025337790381e-03,-9.527480241002986294e-03,-1.012294775606567207e-02,-1.071841527112835785e-02,-1.131388278619104709e-02,-1.193316900185623780e-02,-1.252863651691892531e-02,-1.312410403198161109e-02,-1.371957154704429860e-02,-1.433885776270949278e-02,-1.493432527777217855e-02,-1.552979279283486606e-02,-1.612526030789755010e-02,-1.674454652356274428e-02,-1.734001403862543353e-02,-1.793548155368811930e-02,-1.829276206272573146e-02,-1.829276206272573146e-02,-1.829276206272573146e-02,-1.829276206272573146e-02,-1.829276206272573146e-02,-1.743528884103546020e-02,-1.505341878078471536e-02,-1.267154872053397052e-02,-1.019440385787319381e-02,-7.812533797622447235e-03,-5.430663737371701529e-03,-3.048793677120955389e-03,-5.716488144601791083e-04,0.000000000000000000e+00,0.000000000000000000e+00,0.000000000000000000e+00,0.000000000000000000e+00,0.000000000000000000e+00
0.000000000000000000e+00,0.000000000000000000e+00,0.000000000000000000e+00,0.000000000000000000e+00,-1.976952150008119344e-03,-4.573190515681432866e-03,-5.168658030744119510e-03,-5.764125545806806153e-03,-6.383411761471999464e-03,-6.978879276534686107e-03,-7.574346791597372751e-03,-8.169814306660059394e-03,-8.789100522325253573e-03,-9.384568037387941083e-03,-9.980035552450626860e-03,-1.057550306751331264e-02,-1.119478928317850508e-02,-1.179025679824119432e-02,-1.238572431330388184e-02,-1.298119182836656588e-02,-1.360047804403176179e-02,-1.419594555909444757e-02,-1.479141307415713508e-02,-1.541069928982232926e-02,-1.600616680488501503e-02,-1.660163431994770081e-02,-1.719710183501038658e-02,-1.781638805067558076e-02,-1.829276206272573146e-02,-1.829276206272573146e-02,-1.829276206272573146e-02,-1.829276206272573146e-02,-1.829276206272573146e-02,-1.800693765549564104e-02,-1.562506759524489447e-02,-1.314792273258412122e-02,-1.076605267233337292e-02,-8.384182612082628078e-03,-5.907037749421851364e-03,-3.525167689171104790e-03,-1.143297628920358217e-03,0.000000000000000000e+00,0.000000000000000000e+00,0.000000000000000000e+00,0.000000000000000000e+00,0.000000000000000000e+00,0.000000000000000000e+00
0.000000000000000000e+00,0.000000000000000000e+00,0.000000000000000000e+00,0.000000000000000000e+00,0.000000000000000000e+00,-1.570545570977835773e-03,-5.292217540119626210e-03,-6.240499557856955121e-03,-6.835967072919642631e-03,-7.431434587982328407e-03,-8.050720803647520851e-03,-8.646188318710208362e-03,-9.241655833772895873e-03,-9.860942049438090051e-03,-1.045640956450077756e-02,-1.105187707956346160e-02,-1.164734459462614911e-02,-1.226663081029134503e-02,-1.286209832535402907e-02,-1.345756584041671658e-02,-1.405303335547940409e-02,-1.467231957114459653e-02,-1.526778708620728404e-02,-1.586325460126997156e-02,-1.645872211633265386e-02,-1.707800833199785151e-02,-1.767347584706053729e-02,-1.826894336212322653e-02,-1.829276206272573146e-02,-1.829276206272573146e-02,-1.829276206272573146e-02,-1.829276206272573146e-02,-1.829276206272573146e-02,-1.610144160729504517e-02,-1.371957154704429860e-02,-1.133770148679355202e-02,-8.860556624132777045e-03,-6.478686563882028737e-03,-4.096816503631283898e-03,-1.714946443380537325e-03,0.000000000000000000e+00,0.000000000000000000e+00,0.000000000000000000e+00,0.000000000000000000e+00,0.000000000000000000e+00,0.000000000000000000e+00,0.000000000000000000e+00
0.000000000000000000e+00,0.000000000000000000e+00,0.000000000000000000e+00,0.000000000000000000e+00,0.000000000000000000e+00,0.000000000000000000e+00,-9.527480241002985861e-04,-5.037655177430328500e-03,-7.312341084969791599e-03,-7.907808600032477375e-03,-8.503276115095163151e-03,-9.122562330760357330e-03,-9.718029845823044841e-03,-1.031349736088573235e-02,-1.090896487594841813e-02,-1.152825109161361057e-02,-1.212371860667629982e-02,-1.271918612173898386e-02,-1.331465363680167310e-02,-1.393393985246686728e-02,-1.452940736752955306e-02,-1.512487488259223710e-02,-1.574416109825743301e-02,-1.633962861332011879e-02,-1.693509612838280456e-02,-1.753056364344549381e-02,-1.814984985911068452e-02,-1.829276206272573146e-02,-1.829276206272573146e-02,-1.829276206272573146e-02,-1.829276206272572800e-02,-1.829276206272573146e-02,-1.667309042175522601e-02,-1.429122036150447771e-02,-1.181407549884370273e-02,-9.432205438592956154e-03,-7.050335378342209580e-03,-4.573190515681432866e-03,-2.191320455430686726e-03,0.000000000000000000e+00,0.000000000000000000e+00,0.000000000000000000e+00,0.000000000000000000e+00,0.000000000000000000e+00,0.000000000000000000e+00,0.000000000000000000e+00,0.000000000000000000e+00
0.000000000000000000e+00,0.000000000000000000e+00,0.000000000000000000e+00,0.000000000000000000e+00,0.000000000000000000e+00,0.000000000000000000e+00,0.000000000000000000e+00,0.000000000000000000e+00,-4.610407235372850077e-03,-8.384182612082626343e-03,-8.979650127145313854e-03,-9.575117642208001364e-03,-1.019440385787319381e-02,-1.078987137293587958e-02,-1.138533888799856710e-02,-1.198080640306125461e-02,-1.260009261872644705e-02,-1.319556013378913456e-02,-2.434021534681619220e-02,-2.493568286187887451e-02,-2.555496907754406868e-02,-2.615043659260675446e-02,-2.674590410766944371e-02,-1.679218392476776109e-02,-1.741147014043295527e-02,-1.800693765549564451e-02,-1.829276206272573146e-02,-1.829276206272573146e-02,-1.829276206272573146e-02,-1.829276206272573146e-02,-1.829276206272573146e-02,-1.714946443380537325e-02,-1.476759437355462667e-02,-1.238572431330388357e-02,-1.000385425305313353e-02,-7.526709390392358548e-03,-5.144839330141611974e-03,-2.762969269890865835e-03,-3.810992096401194236e-04,0.000000000000000000e+00,0.000000000000000000e+00,0.000000000000000000e+00,0.000000000000000000e+00,0.000000000000000000e+00,0.000000000000000000e+00,0.000000000000000000e+00,0.000000000000000000e+00
0.000000000000000000e+00,0.000000000000000000e+00,0.000000000000000000e+00,0.000000000000000000e+00,0.000000000000000000e+00,0.000000000000000000e+00,0.000000000000000000e+00,0.000000000000000000e+00,0.000000000000000000e+00,-3.589924781434171257e-03,-9.456024139195462822e-03,-1.005149165425815033e-02,-1.064695916932083611e-02,-1.124242668438352188e-02,-1.186171290004871780e-02,-1.245718041511140357e-02,-1.305264793017408761e-02,-1.367193414583928526e-02,-2.481658935886633943e-02,-2.541205687392902868e-02,-2.600752438899171098e-02,-2.662681060465690516e-02,-2.722227811971959094e-02,-1.726855793681791179e-02,-1.786402545188059757e-02,-1.829276206272573146e-02,-1.829276206272573146e-02,-1.829276206272573146e-02,-1.829276206272573146e-02,-1.829276206272573146e-02,-1.772111324826555062e-02,-1.533924318801480578e-02,-1.295737312776405921e-02,-1.048022826510328423e-02,-8.098358204852537656e-03,-5.716488144601791083e-03,-3.239343281941014802e-03,-8.574732216902686624e-04,0.000000000000000000e+00,0.000000000000000000e+00,0.000000000000000000e+00,0.000000000000000000e+00,0.000000000000000000e+00,0.000000000000000000e+00,0.000000000000000000e+00,0.000000000000000000e+00,0.000000000000000000e+00
0.000000000000000000e+00,0.000000000000000000e+00,0.000000000000000000e+00,0.000000000000000000e+00,-8.164908070275583851e-02,-8.164908070275583851e-02,-8.164908070275583851e-02,0.000000000000000000e+00,0.000000000000000000e+00,0.000000000000000000e+00,-2.167501754828179191e-03,-8.882886655947627372e-03,-1.112333318137098508e-02,-1.171880069643367259e-02,-1.231426821149636010e-02,-1.293355442716155081e-02,-1.352902194222423832e-02,-1.412448945728692583e-02,-2.526914467031397826e-02,-2.588843088597917244e-02,-2.648389840104186169e-02,-2.707936591610454746e-02,-2.767483343116723324e-02,-1.774493194886805902e-02,-1.829276206272573146e-02,-1.829276206272573493e-02,-1.829276206272573146e-02,-1.829276206272573146e-02,-1.829276206272573146e-02,-1.829276206272573146e-02,-1.581561720006495475e-02,-1.343374713981420818e-02,-1.105187707956346334e-02,-8.670007019312716764e-03,-6.192862156651940918e-03,-3.810992096401194344e-03,-1.429122036150447771e-03,0.000000000000000000e+00,0.000000000000000000e+00,0.000000000000000000e+00,0.000000000000000000e+00,0.000000000000000000e+00,0.000000000000000000e+00,0.000000000000000000e+00,0.000000000000000000e+00,0.000000000000000000e+00,0.000000000000000000e+00
0.000000000000000000e+00,0.000000000000000000e+00,0.000000000000000000e+00,0.000000000000000000e+00,-8.164908070275583851e-02,-8.164908070275583851e-02,-8.164908070275583851e-02,0.000000000000000000e+00,0.000000000000000000e+00,0.000000000000000000e+00,0.000000000000000000e+00,-6.862763111097462416e-04,-7.596676823412223944e-03,-1.219517470848382155e-02,-1.279064222354650560e-02,-1.338610973860919484e-02,-1.400539595427438902e-02,-1.460086346933707480e-02,-2.574551868236412897e-02,-2.634098619742681821e-02,-2.696027241309200892e-02,-2.755573992815469470e-02,-2.815120744321738394e-02,-1.819748726031570479e-02,-1.829276206272573146e-02,-1.829276206272573146e-02,-1.829276206272573146e-02,-1.829276206272573146e-02,-1.829276206272573146e-02,-1.638726601452513212e-02,-1.400539595427438902e-02,-1.152825109161361231e-02,-9.146381031362865732e-03,-6.764510971112120026e-03,-4.382640910861372585e-03,-1.905496048200596955e-03,0.000000000000000000e+00,0.000000000000000000e+00,0.000000000000000000e+00,0.000000000000000000e+00,0.000000000000000000e+00,0.000000000000000000e+00,0.000000000000000000e+00,0.000000000000000000e+00,0.000000000000000000e+00,0.000000000000000000e+00,0.000000000000000000e+00
0.000000000000000000e+00,0.000000000000000000e+00,0.000000000000000000e+00,0.000000000000000000e+00,-8.164908070275583851e-02,-8.164908070275583851e-02,-8.164908070275583851e-02,0.000000000000000000e+00,0.000000000000000000e+00,0.000000000000000000e+00,0.000000000000000000e+00,0.000000000000000000e+00,0.000000000000000000e+00,-6.323865009965731060e-03,-1.326701623559665630e-02,-1.386248375065934207e-02,-1.445795126572202959e-02,-1.505341878078471710e-02,-2.622189269441427967e-02,-2.681736020947696544e-02,-2.741282772453965122e-02,-2.800829523960234047e-02,-2.862758145526753117e-02,-1.829276206272573146e-02,-1.829276206272573146e-02,-1.829276206272573146e-02,-1.829276206272573146e-02,-1.829276206272573146e-02,-1.695891482898531297e-02,-1.448176996632453799e-02,-1.209989990607379141e-02,-9.718029845823044841e-03,-7.336159785572298267e-03,-4.859014922911522420e-03,-2.477144862660776280e-03,-9.527480241002985590e-05,0.000000000000000000e+00,0.000000000000000000e+00,0.000000000000000000e+00,0.000000000000000000e+00,0.000000000000000000e+00,0.000000000000000000e+00,0.000000000000000000e+00,0.000000000000000000e+00,0.000000000000000000e+00,0.000000000000000000e+00,0.000000000000000000e+00
0.000000000000000000e+00,0.000000000000000000e+00,0.000000000000000000e+00,0.000000000000000000e+00,0.000000000000000000e+00,0.000000000000000000e+00,0.000000000000000000e+00,0.000000000000000000e+00,0.000000000000000000e+00,0.000000000000000000e+00,0.000000000000000000e+00,0.000000000000000000e+00,0.000000000000000000e+00,0.000000000000000000e+00,-4.287366108451343312e-03,-1.344267915254014970e-02,-1.493432527777217855e-02,-1.552979279283486433e-02,-1.612526030789755010e-02,-1.674454652356274775e-02,-1.734001403862543353e-02,-1.793548155368811930e-02,-1.829276206272573146e-02,-1.829276206272573146e-02,-1.829276206272573146e-02,-1.829276206272573146e-02,-1.829276206272573146e-02,-1.743528884103546367e-02,-1.505341878078471710e-02,-1.267154872053397052e-02,-1.019440385787319381e-02,-7.812533797622448969e-03,-5.430663737371701529e-03,-3.048793677120955389e-03,-5.716488144601791083e-04,0.000000000000000000e+00,0.000000000000000000e+00,0.000000000000000000e+00,0.000000000000000000e+00,0.000000000000000000e+00,0.000000000000000000e+00,0.000000000000000000e+00,0.000000000000000000e+00,0.000000000000000000e+00,0.000000000000000000e+00,0.000000000000000000e+00,0.000000000000000000e+00
