-1.382133645388447796e-01,-1.382133645388447796e-01,-1.382133645388447796e-01,-1.382133645388447796e-01,-1.382133645388447796e-01,-1.382133645388447796e-01,-1.382133645388447796e-01,-1.382133645388447796e-01,-1.382133645388447796e-01,-1.382133645388447796e-01,-1.382133645388447796e-01,-1.382133645388447796e-01,-1.382133645388447796e-01,-1.382133645388447796e-01,-1.382133645388447796e-01,-1.382133645388447796e-01,-1.382133645388447796e-01,-1.382133645388447796e-01,-1.382133645388447796e-01,-1.079791910459724918e-01,-4.751084406022791640e-02,-2.775557561562891351e-17,-2.775557561562891351e-17,-2.775557561562891351e-17,-2.775557561562891351e-17,-2.775557561562891351e-17,-2.775557561562891351e-17,-2.775557561562891351e-17,-2.775557561562891351e-17,-9.853101182945023240e-03,-7.696891711745726394e-02,-1.382133645388447796e-01,-1.382133645388447796e-01,-1.382133645388447796e-01,-1.382133645388447796e-01,-1.382133645388447796e-01,-1.382133645388447796e-01,-1.382133645388447796e-01,-1.382133645388447796e-01,-1.382133645388447796e-01,-1.382133645388447796e-01,-1.382133645388447796e-01,-1.382133645388447796e-01,-1.382133645388447796e-01,-1.382133645388447796e-01,-1.382133645388447796e-01,-1.382133645388447796e-01
-1.382133645388447796e-01,-1.382133645388447796e-01,-1.382133645388447796e-01,-1.382133645388447796e-01,-1.382133645388447796e-01,-1.382133645388447796e-01,-1.382133645388447796e-01,-1.382133645388447796e-01,-1.382133645388447796e-01,-1.382133645388447796e-01,-1.382133645388447796e-01,-1.382133645388447796e-01,-1.382133645388447796e-01,-1.382133645388447796e-01,-1.382133645388447796e-01,-1.382133645388447796e-01,-1.382133645388447796e-01,-1.382133645388447796e-01,-1.360537807179253433e-01,-7.558543373218075401e-02,-1.511708674643616468e-02,-2.775557561562891351e-17,-2.775557561562891351e-17,-2.775557561562891351e-17,-2.775557561562891351e-17,-2.775557561562891351e-17,-2.775557561562891351e-17,-2.775557561562891351e-17,-2.775557561562891351e-17,-4.751084406022815232e-03,-1.079791910459726445e-02,-3.201583014513086078e-02,-9.496769852493280872e-02,-1.382133645388447796e-01,-1.382133645388447796e-01,-1.382133645388447796e-01,-1.382133645388447796e-01,-1.382133645388447796e-01,-1.382133645388447796e-01,-1.382133645388447796e-01,-1.382133645388447796e-01,-1.382133645388447796e-01,-1.382133645388447796e-01,-1.382133645388447796e-01,-1.382133645388447796e-01,-1.382133645388447796e-01,-1.382133645388447796e-01
-1.382133645388447796e-01,-1.382133645388447796e-01,-1.382133645388447796e-01,-1.382133645388447796e-01,-1.382133645388447796e-01,-1.382133645388447796e-01,-1.382133645388447796e-01,-1.382133645388447796e-01,-1.382133645388447796e-01,-1.382133645388447796e-01,-1.382133645388447796e-01,-1.382133645388447796e-01,-1.382133645388447796e-01,-1.382133645388447796e-01,-1.382133645388447796e-01,-1.382133645388447796e-01,-1.382133645388447796e-01,-1.382133645388447796e-01,-1.015004395832141415e-01,-4.103209259746956605e-02,-2.775557561562891351e-17,-5.551115123125782702e-17,-2.775557561562891351e-17,-2.775557561562891351e-17,-2.775557561562891351e-17,-2.775557561562891351e-17,-2.775557561562891351e-17,-2.775557561562891351e-17,-1.943625438827534246e-03,-7.990460137401983465e-03,-1.403729483597644656e-02,-2.008412953455090966e-02,-2.613096423312535888e-02,-5.537307890826277668e-02,-1.070343731243202368e-01,-1.382133645388447796e-01,-1.382133645388447796e-01,-1.382133645388447796e-01,-1.382133645388447796e-01,-1.382133645388447796e-01,-1.382133645388447796e-01,-1.382133645388447796e-01,-1.382133645388447796e-01,-1.382133645388447796e-01,-1.382133645388447796e-01,-1.382133645388447796e-01,-1.382133645388447796e-01
-1.382133645388447796e-01,-1.382133645388447796e-01,-1.382133645388447796e-01,-1.382133645388447796e-01,-1.382133645388447796e-01,-1.382133645388447796e-01,-1.382133645388447796e-01,-1.382133645388447796e-01,-1.382133645388447796e-01,-1.382133645388447796e-01,-1.382133645388447796e-01,-1.382133645388447796e-01,-1.382133645388447796e-01,-1.382133645388447796e-01,-1.382133645388447796e-01,-1.382133645388447796e-01,-1.382133645388447796e-01,-1.295750292551669791e-01,-6.910668226942240366e-02,-8.638335283677828214e-03,0.000000000000000000e+00,-2.775557561562891351e-17,-2.775557561562891351e-17,-2.775557561562891351e-17,-2.775557561562891351e-17,-2.775557561562891351e-17,-2.775557561562891351e-17,-2.775557561562891351e-17,-5.398959552298632225e-03,-1.144579425087310920e-02,-1.749262894944755842e-02,-2.353946364802202151e-02,-2.958629834659648461e-02,-3.563313304517094771e-02,-4.167996774374541080e-02,-7.600385309748389218e-02,-1.197421741705431142e-01,-1.382133645388447796e-01,-1.382133645388447796e-01,-1.382133645388447796e-01,-1.382133645388447796e-01,-1.382133645388447796e-01,-1.382133645388447796e-01,-1.382133645388447796e-01,-1.382133645388447796e-01,-1.382133645388447796e-01,-1.382133645388447796e-01
-1.382133645388447796e-01,-1.382133645388447796e-01,-1.382133645388447796e-01,-1.382133645388447796e-01,-1.382133645388447796e-01,-1.382133645388447796e-01,-1.382133645388447796e-01,-1.382133645388447796e-01,-1.382133645388447796e-01,-1.382133645388447796e-01,-1.382133645388447796e-01,-1.382133645388447796e-01,-1.382133645388447796e-01,-1.382133645388447796e-01,-1.382133645388447796e-01,-1.382133645388447796e-01,-1.382133645388447796e-01,-9.718127194137524127e-02,-3.671292495563066582e-02,-2.775557561562891351e-17,-2.775557561562891351e-17,-2.775557561562891351e-17,-2.775557561562891351e-17,-2.775557561562891351e-17,-2.775557561562891351e-17,-2.775557561562891351e-17,-2.775557561562891351e-17,-2.591500585103351240e-03,-8.638335283677828214e-03,-1.468516998225227743e-02,-2.073200468082674053e-02,-2.677883937940120362e-02,-3.282567407797565284e-02,-3.887250877655012982e-02,-4.491934347512457903e-02,-5.096617817369902825e-02,-5.701301287227349135e-02,-9.359096383909665251e-02,-1.296020240529284773e-01,-1.382133645388447796e-01,-1.382133645388447796e-01,-1.382133645388447796e-01,-1.382133645388447796e-01,-1.382133645388447796e-01,-1.382133645388447796e-01,-1.382133645388447796e-01,-1.382133645388447796e-01
-1.382133645388447796e-01,-1.382133645388447796e-01,-1.382133645388447796e-01,-1.382133645388447796e-01,-1.382133645388447796e-01,-1.382133645388447796e-01,-1.382133645388447796e-01,-1.382133645388447796e-01,-1.382133645388447796e-01,-1.382133645388447796e-01,-1.382133645388447796e-01,-1.382133645388447796e-01,-1.382133645388447796e-01,-1.382133645388447796e-01,-1.382133645388447796e-01,-1.382133645388447796e-01,-1.230962777924086288e-01,-6.262793080666405332e-02,-2.159583820919463992e-03,-2.775557561562891351e-17,-2.775557561562891351e-17,-2.775557561562891351e-17,-2.775557561562891351e-17,-2.775557561562891351e-17,-2.775557561562891351e-17,-2.775557561562891351e-17,-2.775557561562891351e-17,-5.830876316482519472e-03,-1.187771101505699645e-02,-1.792454571363144566e-02,-2.397138041220590876e-02,-3.001821511078038573e-02,-3.628100819144677858e-02,-4.232784289002124167e-02,-4.837467758859569089e-02,-5.442151228717015399e-02,-6.046834698574460321e-02,-6.651518168431905242e-02,-7.256201638289352940e-02,-1.065484667646133532e-01,-1.365396870776321991e-01,-1.382133645388447796e-01,-1.382133645388447796e-01,-1.382133645388447796e-01,-1.382133645388447796e-01,-1.382133645388447796e-01,-1.382133645388447796e-01
-1.382133645388447796e-01,-1.382133645388447796e-01,-1.382133645388447796e-01,-1.382133645388447796e-01,-1.382133645388447796e-01,-1.382133645388447796e-01,-1.382133645388447796e-01,-1.382133645388447796e-01,-1.382133645388447796e-01,-1.382133645388447796e-01,-1.382133645388447796e-01,-1.382133645388447796e-01,-1.382133645388447796e-01,-1.382133645388447796e-01,-1.382133645388447796e-01,-1.382133645388447796e-01,-9.070252047861690481e-02,-3.023417349287232936e-02,-2.775557561562891351e-17,-2.775557561562891351e-17,-5.551115123125782702e-17,-2.775557561562891351e-17,-2.775557561562891351e-17,-2.775557561562891351e-17,-2.775557561562891351e-17,-2.775557561562891351e-17,-3.239375731379195988e-03,-9.286210429953645207e-03,-1.533304512852812218e-02,-2.137987982710258528e-02,-2.742671452567702062e-02,-3.347354922425149759e-02,-3.952038392282594681e-02,-4.556721862140040991e-02,-5.161405331997487300e-02,-5.766088801854932222e-02,-6.370772271712378532e-02,-6.975455741569823453e-02,-7.580139211427269763e-02,-8.184822681284714685e-02,-9.261240242024253166e-02,-1.188445971449734739e-01,-1.382133645388447796e-01,-1.382133645388447796e-01,-1.382133645388447796e-01,-1.382133645388447796e-01,-1.382133645388447796e-01
-1.382133645388447796e-01,-1.382133645388447796e-01,-1.382133645388447796e-01,-1.382133645388447796e-01,-1.382133645388447796e-01,-1.382133645388447796e-01,-1.382133645388447796e-01,-1.382133645388447796e-01,-1.382133645388447796e-01,-1.382133645388447796e-01,-1.382133645388447796e-01,-1.382133645388447796e-01,-1.382133645388447796e-01,-1.382133645388447796e-01,-1.382133645388447796e-01,-1.187771101505697424e-01,-5.830876316482516697e-02,-5.551115123125782702e-17,-2.775557561562891351e-17,-2.775557561562891351e-17,-2.775557561562891351e-17,-5.551115123125782702e-17,-2.775557561562891351e-17,-2.775557561562891351e-17,-2.775557561562891351e-17,-4.319167641839150029e-04,-6.478751462758364221e-03,-1.252558616133284120e-02,-1.857242085990729041e-02,-2.461925555848175351e-02,-3.066609025705620273e-02,-3.671292495563066582e-02,-4.275975965420512892e-02,-4.880659435277957814e-02,-5.485342905135404123e-02,-6.111622213202044795e-02,-6.716305683059489717e-02,-7.320989152916936027e-02,-7.925672622774380949e-02,-8.530356092631827258e-02,-9.135039562489272180e-02,-9.739723032346719878e-02,-1.088767680715421321e-01,-1.283400172575786813e-01,-1.382133645388447796e-01,-1.382133645388447796e-01,-1.382133645388447796e-01
-1.382133645388447796e-01,-1.382133645388447796e-01,-1.382133645388447796e-01,-1.382133645388447796e-01,-1.382133645388447796e-01,-1.382133645388447796e-01,-1.382133645388447796e-01,-1.382133645388447796e-01,-1.382133645388447796e-01,-1.382133645388447796e-01,-1.382133645388447796e-01,-1.382133645388447796e-01,-1.382133645388447796e-01,-1.382133645388447796e-01,-1.382133645388447796e-01,-8.422376901585854059e-02,-2.375542203011397902e-02,-2.775557561562891351e-17,-2.775557561562891351e-17,0.000000000000000000e+00,-2.775557561562891351e-17,-2.775557561562891351e-17,-2.775557561562891351e-17,-2.775557561562891351e-17,-2.775557561562891351e-17,-3.671292495563110991e-03,-9.718127194137532454e-03,-1.576496189271200943e-02,-2.202775497337840227e-02,-2.807458967195286537e-02,-3.412142437052732846e-02,-4.016825906910179156e-02,-4.621509376767624078e-02,-5.226192846625069000e-02,-5.830876316482516697e-02,-6.435559786339961619e-02,-7.040243256197407928e-02,-7.644926726054852850e-02,-8.249610195912299160e-02,-8.854293665769744082e-02,-9.458977135627190391e-02,-1.006366060548463670e-01,-1.066834407534208162e-01,-1.127302754519952793e-01,-1.236361737476384948e-01,-1.344475902511164944e-01,-1.382133645388447796e-01
-1.382133645388447796e-01,-1.382133645388447796e-01,-1.382133645388447796e-01,-1.382133645388447796e-01,-1.382133645388447796e-01,-1.382133645388447796e-01,-1.382133645388447796e-01,-1.382133645388447796e-01,-1.382133645388447796e-01,-1.382133645388447796e-01,-1.382133645388447796e-01,-1.382133645388447796e-01,-1.382133645388447796e-01,-1.382133645388447796e-01,-1.122983586878113921e-01,-5.183001170206680275e-02,-2.775557561562891351e-17,-2.775557561562891351e-17,-2.775557561562891351e-17,-2.775557561562891351e-17,-2.775557561562891351e-17,-2.775557561562891351e-17,-2.775557561562891351e-17,-5.551115123125782702e-17,-1.079791910459731996e-03,-7.126626609034208970e-03,-1.317346130760865819e-02,-1.922029600618313516e-02,-2.526713070475758438e-02,-3.131396540333203360e-02,-3.736080010190649670e-02,-4.340763480048095979e-02,-4.945446949905542289e-02,-5.550130419762985823e-02,-6.154813889620433520e-02,-6.759497359477879830e-02,-7.364180829335324752e-02,-7.968864299192771061e-02,-8.573547769050215983e-02,-9.199827077116856655e-02,-9.804510546974301577e-02,-1.040919401683174927e-01,-1.101387748668919420e-01,-1.161856095654663912e-01,-1.222324442640408543e-01,-1.282792789626153174e-01,-1.356623561503836894e-01
-1.382133645388447796e-01,-1.382133645388447796e-01,-1.382133645388447796e-01,-1.382133645388447796e-01,-1.382133645388447796e-01,-1.382133645388447796e-01,-1.382133645388447796e-01,-1.382133645388447796e-01,-1.382133645388447796e-01,-1.382133645388447796e-01,-1.382133645388447796e-01,-1.382133645388447796e-01,-1.382133645388447796e-01,-1.382133645388447796e-01,-7.990460137401964036e-02,-1.727667056735562867e-02,-2.775557561562891351e-17,-2.775557561562891351e-17,-2.775557561562891351e-17,-2.775557561562891351e-17,-2.775557561562891351e-17,-2.775557561562891351e-17,-2.775557561562891351e-17,-2.775557561562891351e-17,-4.319167641838927985e-03,-1.036600234041337720e-02,-1.641283703898784030e-02,-2.245967173756230340e-02,-2.850650643613676649e-02,-3.455334113471121571e-02,-4.060017583328566493e-02,-4.664701053186014190e-02,-5.269384523043457724e-02,-5.895663831110098396e-02,-6.500347300967544706e-02,-7.105030770824991015e-02,-7.709714240682435937e-02,-8.314397710539882247e-02,-8.919081180397328557e-02,-9.523764650254773478e-02,-1.012844812011221979e-01,-1.073313158996966610e-01,-1.133781505982711102e-01,-3.209302089689565207e-01,-3.269770436675309422e-01,-3.330238783661053636e-01,-1.375654893925689348e-01
-1.382133645388447796e-01,-1.382133645388447796e-01,-1.382133645388447796e-01,-1.382133645388447796e-01,-1.382133645388447796e-01,-1.382133645388447796e-01,-1.382133645388447796e-01,-1.382133645388447796e-01,-1.382133645388447796e-01,-1.382133645388447796e-01,-1.382133645388447796e-01,-1.382133645388447796e-01,-1.382133645388447796e-01,-1.058196072250530417e-01,-4.535126023930846628e-02,-2.775557561562891351e-17,-5.551115123125782702e-17,-2.775557561562891351e-17,-2.775557561562891351e-17,-2.775557561562891351e-17,-5.551115123125782702e-17,-2.775557561562891351e-17,-2.775557561562891351e-17,-1.511708674643646999e-03,-7.558543373218068462e-03,-1.360537807179255931e-02,-1.986817115245895216e-02,-2.591500585103341525e-02,-3.196184054960787835e-02,-3.800867524818232757e-02,-4.405550994675680454e-02,-5.010234464533123988e-02,-5.614917934390571685e-02,-6.219601404248016607e-02,-6.824284874105462917e-02,-7.428968343962907839e-02,-8.033651813820354148e-02,-8.638335283677800458e-02,-9.243018753535245380e-02,-9.847702223392691689e-02,-1.045238569325013800e-01,-1.105706916310758292e-01,-1.166175263296502923e-01,-3.243855430824276187e-01,-3.304323777810020957e-01,-3.364792124795765171e-01,-1.382133645388447796e-01
-1.382133645388447796e-01,-1.382133645388447796e-01,-1.382133645388447796e-01,-1.382133645388447796e-01,-1.382133645388447796e-01,-1.382133645388447796e-01,-1.382133645388447796e-01,-1.382133645388447796e-01,-1.382133645388447796e-01,-1.382133645388447796e-01,-1.382133645388447796e-01,-1.382133645388447796e-01,-1.338941968970058793e-01,-7.342584991126130389e-02,-1.295750292551672844e-02,-2.775557561562891351e-17,-2.775557561562891351e-17,-2.775557561562891351e-17,-5.551115123125782702e-17,-2.775557561562891351e-17,-2.775557561562891351e-17,-2.775557561562891351e-17,-2.775557561562891351e-17,-4.967042788114744978e-03,-1.101387748668922195e-02,-1.706071218526367117e-02,-2.310754688383814814e-02,-2.915438158241258348e-02,-3.520121628098704658e-02,-4.124805097956149580e-02,-4.729488567813597277e-02,-5.334172037671042199e-02,-5.938855507528487121e-02,-6.543538977385933431e-02,-7.148222447243379740e-02,-7.752905917100824662e-02,-8.357589386958270972e-02,-8.983868695024911644e-02,-9.588552164882357953e-02,-1.019323563473980288e-01,-1.079791910459724780e-01,-1.140260257445469549e-01,-1.200728604431214042e-01,-3.276249188138067314e-01,-3.336717535123812084e-01,-3.397185882109556854e-01,-1.382133645388447796e-01
-1.382133645388447796e-01,-1.382133645388447796e-01,-1.382133645388447796e-01,-1.382133645388447796e-01,-1.382133645388447796e-01,-1.382133645388447796e-01,-1.382133645388447796e-01,-1.382133645388447796e-01,-1.382133645388447796e-01,-1.382133645388447796e-01,-1.382133645388447796e-01,-1.382133645388447796e-01,-9.934085576229469139e-02,-3.887250877655012982e-02,-2.775557561562891351e-17,-2.775557561562891351e-17,-2.775557561562891351e-17,-2.775557561562891351e-17,-2.775557561562891351e-17,-2.775557561562891351e-17,-2.775557561562891351e-17,-2.775557561562891351e-17,-2.159583820919491748e-03,-8.206418519493940966e-03,-1.425325321806839018e-02,-2.030008791664283940e-02,-2.634692261521731638e-02,-3.239375731379176560e-02,-3.844059201236622869e-02,-4.448742671094067791e-02,-5.075021979160708463e-02,-5.679705449018154773e-02,-6.284388918875599694e-02,-6.889072388733046004e-02,-7.493755858590492314e-02,-8.098439328447937235e-02,-8.703122798305382157e-02,-9.307806268162828467e-02,-9.912489738020274777e-02,-1.051717320787771970e-01,-1.112185667773516601e-01,-1.172654014759261232e-01,-1.233122361745005724e-01,-1.293590708730750494e-01,-1.354059055716494986e-01,-1.382133645388447796e-01,-1.382133645388447796e-01
-1.382133645388447796e-01,-1.382133645388447796e-01,-1.382133645388447796e-01,-1.382133645388447796e-01,-1.382133645388447796e-01,-1.382133645388447796e-01,-1.382133645388447796e-01,-1.382133645388447796e-01,-1.382133645388447796e-01,-1.382133645388447796e-01,-1.382133645388447796e-01,-1.274154454342475429e-01,-6.694709844850296743e-02,-6.478751462758364221e-03,-2.775557561562891351e-17,-2.775557561562891351e-17,-2.775557561562891351e-17,-2.775557561562891351e-17,-2.775557561562891351e-17,-2.775557561562891351e-17,-2.775557561562891351e-17,-2.775557561562891351e-17,-5.398959552298632225e-03,-1.166175263296506670e-02,-1.770858733153951592e-02,-2.375542203011399289e-02,-2.980225672868842823e-02,-3.584909142726289133e-02,-4.189592612583732667e-02,-4.794276082441178977e-02,-5.398959552298626674e-02,-6.003643022156071596e-02,-6.608326492013516518e-02,-7.213009961870962827e-02,-7.817693431728409137e-02,-8.422376901585854059e-02,-9.027060371443301756e-02,-9.631743841300746678e-02,-1.023642731115819160e-01,-1.084111078101563791e-01,-1.146739008908227858e-01,-1.207207355893972489e-01,-1.267675702879716981e-01,-1.328144049865461473e-01,-1.382133645388447796e-01,-1.382133645388447796e-01,-1.382133645388447796e-01
-1.382133645388447796e-01,-1.382133645388447796e-01,-1.382133645388447796e-01,-1.382133645388447796e-01,-1.382133645388447796e-01,-1.382133645388447796e-01,-1.382133645388447796e-01,-1.382133645388447796e-01,-1.382133645388447796e-01,-1.382133645388447796e-01,-1.382133645388447796e-01,-9.502168812045579116e-02,-3.455334113471121571e-02,-2.775557561562891351e-17,-2.775557561562891351e-17,-2.775557561562891351e-17,-2.775557561562891351e-17,-2.775557561562891351e-17,-2.775557561562891351e-17,-2.775557561562891351e-17,-2.775557561562891351e-17,-2.807458967195308741e-03,-8.854293665769757959e-03,-1.490112836434422106e-02,-2.094796306291868415e-02,-2.699479776149313337e-02,-3.304163246006761034e-02,-3.908846715864205956e-02,-4.513530185721650878e-02,-5.118213655579097188e-02,-5.722897125436543497e-02,-6.327580595293988419e-02,-6.932264065151434729e-02,-7.536947535008881038e-02,-8.163226843075521710e-02,-8.767910312932966632e-02,-9.372593782790412942e-02,-9.977277252647859251e-02,-1.058196072250530417e-01,-1.118664419236274910e-01,-1.179132766222019540e-01,-1.239601113207764171e-01,-1.300069460193508664e-01,-1.360537807179253433e-01,-1.382133645388447796e-01,-1.382133645388447796e-01,-1.382133645388447796e-01
-1.382133645388447796e-01,-1.382133645388447796e-01,-1.382133645388447796e-01,-1.382133645388447796e-01,-1.382133645388447796e-01,-1.382133645388447796e-01,-1.382133645388447796e-01,-1.382133645388447796e-01,-1.382133645388447796e-01,-1.382133645388447796e-01,-1.209366939714891787e-01,-6.046834698574460321e-02,-2.775557561562891351e-17,-2.775557561562891351e-17,-2.775557561562891351e-17,-2.775557561562891351e-17,-2.775557561562891351e-17,0.000000000000000000e+00,-2.775557561562891351e-17,0.000000000000000000e+00,-2.775557561562891351e-17,-6.046834698574476974e-03,-1.209366939714892619e-02,-1.814050409572340317e-02,-2.418733879429786626e-02,-3.023417349287231548e-02,-3.628100819144676470e-02,-4.254380127211318530e-02,-4.859063597068763452e-02,-5.463747066926209761e-02,-6.068430536783654683e-02,-6.673114006641100993e-02,-7.277797476498547302e-02,-7.882480946355992224e-02,-8.487164416213438534e-02,-9.091847886070883455e-02,-9.696531355928329765e-02,-1.030121482578577607e-01,-1.090589829564322100e-01,-1.151058176550066731e-01,-1.211526523535811362e-01,-1.271994870521555854e-01,-1.332463217507300346e-01,-1.382133645388447796e-01,-1.382133645388447796e-01,-1.382133645388447796e-01,-1.382133645388447796e-01
-1.382133645388447796e-01,-1.382133645388447796e-01,-1.382133645388447796e-01,-1.382133645388447796e-01,-1.382133645388447796e-01,-1.382133645388447796e-01,-1.382133645388447796e-01,-1.382133645388447796e-01,-1.382133645388447796e-01,-1.382133645388447796e-01,-8.854293665769744082e-02,-2.807458967195286537e-02,-2.775557561562891351e-17,-2.775557561562891351e-17,-2.775557561562891351e-17,-2.775557561562891351e-17,-2.775557561562891351e-17,-2.775557561562891351e-17,-2.775557561562891351e-17,-2.775557561562891351e-17,-3.455334113471153490e-03,-9.502168812045602708e-03,-1.554900351062006580e-02,-2.159583820919452890e-02,-2.764267290776897812e-02,-3.368950760634344122e-02,-3.973634230491790431e-02,-4.578317700349235353e-02,-5.183001170206680275e-02,-5.787684640064126584e-02,-6.392368109921571506e-02,-6.997051579779019204e-02,-7.601735049636464125e-02,-8.206418519493910435e-02,-8.811101989351355357e-02,-9.415785459208801667e-02,-1.002046892906624798e-01,-1.062515239892369290e-01,-1.125143170699033357e-01,-1.185611517684777849e-01,-1.246079864670522480e-01,-1.306548211656267111e-01,-1.367016558642011603e-01,-1.382133645388447796e-01,-1.382133645388447796e-01,-1.382133645388447796e-01,-1.382133645388447796e-01
-1.382133645388447796e-01,-1.382133645388447796e-01,-1.382133645388447796e-01,-1.382133645388447796e-01,-1.382133645388447796e-01,-1.382133645388447796e-01,-1.382133645388447796e-01,-1.382133645388447796e-01,-1.382133645388447796e-01,-1.166175263296502784e-01,-5.614917934390571685e-02,-2.775557561562891351e-17,-2.775557561562891351e-17,-2.775557561562891351e-17,-2.775557561562891351e-17,-2.775557561562891351e-17,-5.551115123125782702e-17,-2.775557561562891351e-17,-2.775557561562891351e-17,-6.478751462758447488e-04,-6.694709844850293967e-03,-1.274154454342477094e-02,-1.878837924199922016e-02,-2.483521394057368326e-02,-3.088204863914814635e-02,-3.692888333772262333e-02,-4.297571803629707254e-02,-4.902255273487153564e-02,-5.506938743344598486e-02,-6.111622213202044795e-02,-6.716305683059489717e-02,-7.342584991126130389e-02,-7.947268460983575311e-02,-8.551951930841023009e-02,-9.156635400698467930e-02,-9.761318870555912852e-02,-1.036600234041335916e-01,-1.097068581027080547e-01,-1.157536928012825039e-01,-1.218005274998569670e-01,-1.278473621984314301e-01,-1.338941968970058793e-01,-1.382133645388447796e-01,-1.382133645388447796e-01,-1.382133645388447796e-01,-1.382133645388447796e-01,-1.382133645388447796e-01
-1.382133645388447796e-01,-1.382133645388447796e-01,-1.382133645388447796e-01,-1.382133645388447796e-01,-1.382133645388447796e-01,-1.382133645388447796e-01,-1.382133645388447796e-01,-1.382133645388447796e-01,-1.382133645388447796e-01,-8.206418519493910435e-02,-2.159583820919452890e-02,-2.775557561562891351e-17,-2.775557561562891351e-17,-2.775557561562891351e-17,-2.775557561562891351e-17,-2.775557561562891351e-17,-2.775557561562891351e-17,-2.775557561562891351e-17,-2.775557561562891351e-17,-3.887250877655040737e-03,-9.934085576229489956e-03,-1.598092027480396693e-02,-2.202775497337840227e-02,-2.807458967195287924e-02,-3.433738275261927209e-02,-4.038421745119372130e-02,-4.643105214976818440e-02,-5.247788684834264750e-02,-5.852472154691709672e-02,-6.457155624549155981e-02,-7.061839094406602291e-02,-7.666522564264048600e-02,-8.271206034121493522e-02,-8.875889503978939832e-02,-9.480572973836384754e-02,-1.008525644369382968e-01,-1.068993991355127599e-01,-1.129462338340872229e-01,-1.189930685326616860e-01,-1.250399032312361491e-01,-1.310867379298105984e-01,-1.373495310104770051e-01,-1.382133645388447796e-01,-1.382133645388447796e-01,-1.382133645388447796e-01,-1.382133645388447796e-01,-1.382133645388447796e-01
-1.382133645388447796e-01,-1.382133645388447796e-01,-1.382133645388447796e-01,-1.382133645388447796e-01,-1.382133645388447796e-01,-1.382133645388447796e-01,-1.382133645388447796e-01,-1.382133645388447796e-01,-1.101387748668919420e-01,-4.967042788114736651e-02,-2.775557561562891351e-17,-2.775557561562891351e-17,-2.775557561562891351e-17,-2.775557561562891351e-17,-2.775557561562891351e-17,-2.775557561562891351e-17,0.000000000000000000e+00,-2.775557561562891351e-17,-1.295750292551717253e-03,-7.342584991126166472e-03,-1.338941968970060181e-02,-1.943625438827506491e-02,-2.548308908684952800e-02,-3.152992378542399110e-02,-3.757675848399844032e-02,-4.362359318257290342e-02,-4.967042788114735263e-02,-5.571726257972181573e-02,-6.176409727829627883e-02,-6.781093197687072804e-02,-7.385776667544519114e-02,-7.990460137401964036e-02,-8.595143607259411733e-02,-9.199827077116856655e-02,-9.804510546974301577e-02,-1.043078985504094225e-01,-1.103547332489838856e-01,-1.164015679475583487e-01,-1.224484026461327979e-01,-1.284952373447072471e-01,-1.345420720432817241e-01,-1.382133645388447796e-01,-1.382133645388447796e-01,-1.382133645388447796e-01,-1.382133645388447796e-01,-1.382133645388447796e-01,-1.382133645388447796e-01
-1.382133645388447796e-01,-1.382133645388447796e-01,-1.382133645388447796e-01,-1.382133645388447796e-01,-1.382133645388447796e-01,-1.382133645388447796e-01,-1.382133645388447796e-01,-1.382133645388447796e-01,-7.774501755310020412e-02,-1.727667056735562867e-02,-2.775557561562891351e-17,-2.775557561562891351e-17,-2.775557561562891351e-17,-2.775557561562891351e-17,-5.551115123125782702e-17,-2.775557561562891351e-17,-2.775557561562891351e-17,-2.775557561562891351e-17,-4.535126023930857730e-03,-1.058196072250533470e-02,-1.662879542107978392e-02,-2.267563011965424702e-02,-2.872246481822869624e-02,-3.476929951680315933e-02,-4.081613421537762243e-02,-4.686296891395208553e-02,-5.290980361252653474e-02,-5.895663831110099784e-02,-6.521943139176740456e-02,-7.126626609034183990e-02,-7.731310078891631687e-02,-8.335993548749076609e-02,-8.940677018606521531e-02,-9.545360488463969229e-02,-1.015004395832141415e-01,-1.075472742817885907e-01,-1.135941089803630538e-01,-1.196409436789375169e-01,-1.256877783775119661e-01,-1.317346130760864431e-01,-1.377814477746608923e-01,-1.382133645388447796e-01,-1.382133645388447796e-01,-1.382133645388447796e-01,-1.382133645388447796e-01,-1.382133645388447796e-01,-1.382133645388447796e-01
-1.382133645388447796e-01,-1.382133645388447796e-01,-1.382133645388447796e-01,-1.382133645388447796e-01,-1.382133645388447796e-01,-1.382133645388447796e-01,-1.382133645388447796e-01,-1.036600234041335916e-01,-4.319167641838900229e-02,-2.775557561562891351e-17,-5.551115123125782702e-17,-2.775557561562891351e-17,-2.775557561562891351e-17,-2.775557561562891351e-17,-2.775557561562891351e-17,-5.551115123125782702e-17,-2.775557561562891351e-17,-1.727667056735576745e-03,-7.774501755310053719e-03,-1.382133645388450294e-02,-1.986817115245895216e-02,-2.613096423312537275e-02,-3.217779893169980809e-02,-3.822463363027428507e-02,-4.427146832884873429e-02,-5.031830302742319738e-02,-5.636513772599766048e-02,-6.241197242457210970e-02,-6.845880712314657279e-02,-7.450564182172103589e-02,-8.055247652029548511e-02,-8.659931121886993433e-02,-9.264614591744439742e-02,-9.869298061601886052e-02,-1.047398153145933097e-01,-1.107866500131677728e-01,-1.168334847117422359e-01,-1.228803194103166851e-01,-1.289271541088911621e-01,-1.351899471895575411e-01,-1.382133645388447796e-01,-1.382133645388447796e-01,-1.382133645388447796e-01,-1.382133645388447796e-01,-1.382133645388447796e-01,-1.382133645388447796e-01,-1.382133645388447796e-01
-1.382133645388447796e-01,-1.382133645388447796e-01,-1.382133645388447796e-01,-1.382133645388447796e-01,-1.382133645388447796e-01,-1.382133645388447796e-01,-1.317346130760864431e-01,-7.126626609034185378e-02,-1.079791910459726445e-02,-2.775557561562891351e-17,-2.775557561562891351e-17,-2.775557561562891351e-17,-2.775557561562891351e-17,-2.775557561562891351e-17,-2.775557561562891351e-17,-2.775557561562891351e-17,-2.775557561562891351e-17,-5.183001170206702479e-03,-1.122983586878115170e-02,-1.727667056735561479e-02,-2.332350526593007789e-02,-2.937033996450454099e-02,-3.541717466307897633e-02,-4.146400936165345330e-02,-4.751084406022791640e-02,-5.355767875880237949e-02,-5.960451345737682871e-02,-6.565134815595127793e-02,-7.169818285452574103e-02,-7.774501755310020412e-02,-8.379185225167465334e-02,-8.983868695024911644e-02,-9.610148003091550928e-02,-1.021483147294899863e-01,-1.081951494280644355e-01,-1.142419841266388847e-01,-1.202888188252133478e-01,-1.263356535237878109e-01,-1.323824882223622601e-01,-1.382133645388447796e-01,-1.382133645388447796e-01,-1.382133645388447796e-01,-1.382133645388447796e-01,-1.382133645388447796e-01,-1.382133645388447796e-01,-1.382133645388447796e-01,-1.382133645388447796e-01
-1.382133645388447796e-01,-1.382133645388447796e-01,-1.382133645388447796e-01,-1.382133645388447796e-01,-1.382133645388447796e-01,-1.382133645388447796e-01,-9.934085576229469139e-02,-3.887250877655010206e-02,-2.775557561562891351e-17,-5.551115123125782702e-17,-2.775557561562891351e-17,-2.775557561562891351e-17,-2.775557561562891351e-17,-2.775557561562891351e-17,-2.775557561562891351e-17,-2.775557561562891351e-17,-2.375542203011421494e-03,-8.422376901585870712e-03,-1.446921160016031993e-02,-2.051604629873478303e-02,-2.656288099730924612e-02,-3.260971569588369534e-02,-3.865655039445817232e-02,-4.470338509303263541e-02,-5.075021979160708463e-02,-5.701301287227349135e-02,-6.305984757084794057e-02,-6.910668226942240366e-02,-7.515351696799685288e-02,-8.120035166657131598e-02,-8.724718636514577907e-02,-9.329402106372022829e-02,-9.934085576229470527e-02,-1.053876904608691545e-01,-1.114345251594436037e-01,-1.174813598580180668e-01,-1.235281945565925299e-01,-1.295750292551669791e-01,-1.356218639537414283e-01,-1.382133645388447796e-01,-1.382133645388447796e-01,-1.382133645388447796e-01,-1.382133645388447796e-01,-1.382133645388447796e-01,-1.382133645388447796e-01,-1.382133645388447796e-01,-1.382133645388447796e-01
-1.382133645388447796e-01,-1.382133645388447796e-01,-1.382133645388447796e-01,-1.382133645388447796e-01,-1.382133645388447796e-01,-1.252558616133280789e-01,-6.478751462758350343e-02,-4.319167641838927985e-03,-2.775557561562891351e-17,-2.775557561562891351e-17,-2.775557561562891351e-17,-2.775557561562891351e-17,-2.775557561562891351e-17,-2.775557561562891351e-17,-2.775557561562891351e-17,-2.775557561562891351e-17,-5.614917934390589727e-03,-1.166175263296506670e-02,-1.770858733153951592e-02,-2.397138041220592264e-02,-3.001821511078037186e-02,-3.606504980935483495e-02,-4.211188450792928417e-02,-4.815871920650374727e-02,-5.420555390507819649e-02,-6.025238860365265958e-02,-6.629922330222712268e-02,-7.234605800080157190e-02,-7.839289269937604887e-02,-8.443972739795049809e-02,-9.048656209652494731e-02,-9.653339679509941040e-02,-1.025802314936738735e-01,-1.086270661922483227e-01,-1.146739008908227858e-01,-1.207207355893972489e-01,-1.269835286700636556e-01,-1.330303633686381048e-01,-1.382133645388447796e-01,-1.382133645388447796e-01,-1.382133645388447796e-01,-1.382133645388447796e-01,-1.382133645388447796e-01,-1.382133645388447796e-01,-1.382133645388447796e-01,-1.382133645388447796e-01,-1.382133645388447796e-01
-1.382133645388447796e-01,-1.382133645388447796e-01,-1.382133645388447796e-01,-1.382133645388447796e-01,-1.382133645388447796e-01,-9.286210429953634105e-02,-3.239375731379176560e-02,-2.775557561562891351e-17,-2.775557561562891351e-17,-2.775557561562891351e-17,-2.775557561562891351e-17,-2.775557561562891351e-17,-2.775557561562891351e-17,-2.775557561562891351e-17,-2.775557561562891351e-17,-3.023417349287238487e-03,-9.070252047861687705e-03,-1.511708674643616468e-02,-2.116392144501062778e-02,-2.721075614358509087e-02,-3.325759084215955397e-02,-3.930442554073401706e-02,-4.535126023930846628e-02,-5.139809493788291550e-02,-5.744492963645737860e-02,-6.349176433503182782e-02,-6.953859903360629091e-02,-7.558543373218075401e-02,-8.163226843075521710e-02,-8.789506151142160995e-02,-9.394189620999607304e-02,-9.998873090857052226e-02,-1.060355656071449854e-01,-1.120824003057194485e-01,-1.181292350042938977e-01,-1.241760697028683608e-01,-1.302229044014428239e-01,-1.362697391000172731e-01,-1.382133645388447796e-01,-1.382133645388447796e-01,-1.382133645388447796e-01,-1.382133645388447796e-01,-1.382133645388447796e-01,-1.382133645388447796e-01,-1.382133645388447796e-01,-1.382133645388447796e-01,-1.382133645388447796e-01
-1.382133645388447796e-01,-1.382133645388447796e-01,-1.382133645388447796e-01,-1.382133645388447796e-01,-1.209366939714891787e-01,-5.830876316482515309e-02,-2.775557561562891351e-17,-2.775557561562891351e-17,-2.775557561562891351e-17,-2.775557561562891351e-17,-2.775557561562891351e-17,-2.775557561562891351e-17,0.000000000000000000e+00,-2.775557561562891351e-17,-2.159583820919852570e-04,-6.262793080666434475e-03,-1.230962777924088369e-02,-1.835646247781533291e-02,-2.440329717638980989e-02,-3.045013187496427298e-02,-3.649696657353872220e-02,-4.254380127211317142e-02,-4.880659435277957814e-02,-5.485342905135404123e-02,-6.090026374992849045e-02,-6.694709844850295355e-02,-7.299393314707741665e-02,-7.904076784565186586e-02,-8.508760254422632896e-02,-9.113443724280079206e-02,-9.718127194137524127e-02,-1.032281066399497044e-01,-1.092749413385241536e-01,-1.153217760370986167e-01,-1.213686107356730659e-01,-1.274154454342475429e-01,-1.334622801328219921e-01,-1.382133645388447796e-01,-1.382133645388447796e-01,-1.382133645388447796e-01,-1.382133645388447796e-01,-1.382133645388447796e-01,-1.382133645388447796e-01,-1.382133645388447796e-01,-1.382133645388447796e-01,-1.382133645388447796e-01,-1.382133645388447796e-01
-1.382133645388447796e-01,-1.382133645388447796e-01,-1.382133645388447796e-01,-1.382133645388447796e-01,-8.638335283677800458e-02,-2.591500585103341525e-02,-2.775557561562891351e-17,-2.775557561562891351e-17,-2.775557561562891351e-17,-2.775557561562891351e-17,-2.775557561562891351e-17,-2.775557561562891351e-17,-2.775557561562891351e-17,-2.775557561562891351e-17,-3.455334113471125734e-03,-9.718127194137532454e-03,-1.576496189271199555e-02,-2.181179659128645865e-02,-2.785863128986092174e-02,-3.390546598843538484e-02,-3.995230068700984793e-02,-4.599913538558429715e-02,-5.204597008415876025e-02,-5.809280478273322335e-02,-6.413963948130768644e-02,-7.018647417988213566e-02,-7.623330887845658488e-02,-8.228014357703104797e-02,-8.832697827560551107e-02,-9.437381297417996029e-02,-1.004206476727544234e-01,-1.064674823713288726e-01,-1.125143170699033357e-01,-1.187771101505697424e-01,-1.248239448491441916e-01,-1.308707795477186409e-01,-1.369176142462931178e-01,-1.382133645388447796e-01,-1.382133645388447796e-01,-1.382133645388447796e-01,-1.382133645388447796e-01,-1.382133645388447796e-01,-1.382133645388447796e-01,-1.382133645388447796e-01,-1.382133645388447796e-01,-1.382133645388447796e-01,-1.382133645388447796e-01
-1.382133645388447796e-01,-1.382133645388447796e-01,-1.382133645388447796e-01,-1.144579425087308422e-01,-5.398959552298626674e-02,-2.775557561562891351e-17,-2.775557561562891351e-17,-2.775557561562891351e-17,-2.775557561562891351e-17,-2.775557561562891351e-17,-2.775557561562891351e-17,-2.775557561562891351e-17,-2.775557561562891351e-17,-8.638335283678022503e-04,-6.910668226942251469e-03,-1.295750292551670069e-02,-1.900433762409117766e-02,-2.505117232266562688e-02,-3.109800702124010385e-02,-3.714484171981456695e-02,-4.319167641838901617e-02,-4.923851111696346539e-02,-5.528534581553792848e-02,-6.133218051411239158e-02,-6.737901521268685467e-02,-7.342584991126130389e-02,-7.968864299192771061e-02,-8.573547769050215983e-02,-9.178231238907662293e-02,-9.782914708765108602e-02,-1.038759817862255352e-01,-1.099228164847999983e-01,-1.159696511833744614e-01,-1.220164858819489107e-01,-1.280633205805233599e-01,-1.341101552790978368e-01,-1.382133645388447796e-01,-1.382133645388447796e-01,-1.382133645388447796e-01,-1.382133645388447796e-01,-1.382133645388447796e-01,-1.382133645388447796e-01,-1.382133645388447796e-01,-1.382133645388447796e-01,-1.382133645388447796e-01,-1.382133645388447796e-01,-1.382133645388447796e-01
-1.382133645388447796e-01,-1.382133645388447796e-01,-1.382133645388447796e-01,-7.990460137401964036e-02,-1.943625438827506491e-02,-2.775557561562891351e-17,-2.775557561562891351e-17,-2.775557561562891351e-17,-2.775557561562891351e-17,-2.775557561562891351e-17,-2.775557561562891351e-17,-2.775557561562891351e-17,-2.775557561562891351e-17,-4.103209259746970483e-03,-1.015004395832141970e-02,-1.619687865689588280e-02,-2.224371335547035977e-02,-2.829054805404480899e-02,-3.433738275261927209e-02,-4.038421745119373518e-02,-4.664701053186012802e-02,-5.269384523043457724e-02,-5.874067992900905422e-02,-6.478751462758350343e-02,-7.083434932615795265e-02,-7.688118402473242963e-02,-8.292801872330687885e-02,-8.897485342188132806e-02,-9.502168812045579116e-02,-1.010685228190302543e-01,-1.071153575176047035e-01,-1.131621922161791666e-01,-1.192090269147536297e-01,-1.252558616133280789e-01,-1.313026963119025559e-01,-1.373495310104770051e-01,-1.382133645388447796e-01,-1.382133645388447796e-01,-1.382133645388447796e-01,-1.382133645388447796e-01,-1.382133645388447796e-01,-1.382133645388447796e-01,-1.382133645388447796e-01,-1.382133645388447796e-01,-1.382133645388447796e-01,-1.382133645388447796e-01,-1.382133645388447796e-01
-1.382133645388447796e-01,-1.382133645388447796e-01,-1.079791910459724918e-01,-4.751084406022790252e-02,-2.775557561562891351e-17,-2.775557561562891351e-17,-2.775557561562891351e-17,-2.775557561562891351e-17,-2.775557561562891351e-17,-2.775557561562891351e-17,-2.775557561562891351e-17,-2.775557561562891351e-17,-1.295750292551717253e-03,-7.558543373218096217e-03,-1.360537807179254544e-02,-1.965221277036700853e-02,-2.569904746894147163e-02,-3.174588216751592085e-02,-3.779271686609038394e-02,-4.383955156466483316e-02,-4.988638626323929626e-02,-5.593322096181375935e-02,-6.198005566038822245e-02,-6.802689035896267167e-02,-7.407372505753713476e-02,-8.012055975611159786e-02,-8.616739445468604708e-02,-9.221422915326052405e-02,-9.826106385183497327e-02,-1.043078985504094225e-01,-1.105706916310758292e-01,-1.166175263296502784e-01,-1.226643610282247415e-01,-1.287111957267992046e-01,-1.347580304253736538e-01,-1.382133645388447796e-01,-1.382133645388447796e-01,-1.382133645388447796e-01,-1.382133645388447796e-01,-1.382133645388447796e-01,-1.382133645388447796e-01,-1.382133645388447796e-01,-1.382133645388447796e-01,-1.382133645388447796e-01,-1.382133645388447796e-01,-1.382133645388447796e-01,-1.382133645388447796e-01
-1.382133645388447796e-01,-1.360537807179253433e-01,-7.558543373218075401e-02,-1.511708674643616468e-02,-2.775557561562891351e-17,-2.775557561562891351e-17,-2.775557561562891351e-17,-2.775557561562891351e-17,-2.775557561562891351e-17,-2.775557561562891351e-17,-2.775557561562891351e-17,-2.775557561562891351e-17,-4.751084406022815232e-03,-1.079791910459726445e-02,-1.684475380317174142e-02,-2.289158850174619064e-02,-2.893842320032063986e-02,-3.498525789889511683e-02,-4.103209259746956605e-02,-4.707892729604401527e-02,-5.312576199461849225e-02,-5.917259669319294146e-02,-6.521943139176739068e-02,-7.126626609034186766e-02,-7.752905917100824662e-02,-8.357589386958270972e-02,-8.962272856815717281e-02,-9.566956326673162203e-02,-1.017163979653060851e-01,-1.077632326638805482e-01,-1.138100673624549974e-01,-1.198569020610294605e-01,-1.259037367596039236e-01,-1.319505714581783729e-01,-1.379974061567528221e-01,-1.382133645388447796e-01,-1.382133645388447796e-01,-1.382133645388447796e-01,-1.382133645388447796e-01,-1.382133645388447796e-01,-1.382133645388447796e-01,-1.382133645388447796e-01,-1.382133645388447796e-01,-1.382133645388447796e-01,-1.382133645388447796e-01,-1.382133645388447796e-01,-1.382133645388447796e-01
-1.382133645388447796e-01,-1.015004395832141415e-01,-4.103209259746955218e-02,-2.775557561562891351e-17,-2.775557561562891351e-17,-2.775557561562891351e-17,-2.775557561562891351e-17,-2.775557561562891351e-17,-2.775557561562891351e-17,-2.775557561562891351e-17,-2.775557561562891351e-17,-1.943625438827506491e-03,-7.990460137401983465e-03,-1.403729483597646044e-02,-2.008412953455090966e-02,-2.613096423312535888e-02,-3.239375731379176560e-02,-3.844059201236621481e-02,-4.448742671094069179e-02,-5.053426140951514101e-02,-5.658109610808960410e-02,-6.262793080666405332e-02,-6.867476550523851642e-02,-7.472160020381297951e-02,-8.076843490238742873e-02,-8.681526960096189183e-02,-9.286210429953634105e-02,-9.890893899811080414e-02,-1.049557736966852672e-01,-1.110026083952597165e-01,-1.170494430938341796e-01,-1.230962777924086288e-01,-1.291431124909830919e-01,-1.351899471895575411e-01,-1.382133645388447796e-01,-1.382133645388447796e-01,-1.382133645388447796e-01,-1.382133645388447796e-01,-1.382133645388447796e-01,-1.382133645388447796e-01,-1.382133645388447796e-01,-1.382133645388447796e-01,-1.382133645388447796e-01,-1.382133645388447796e-01,-1.382133645388447796e-01,-1.382133645388447796e-01,-1.382133645388447796e-01
-1.295750292551669791e-01,-6.910668226942240366e-02,-8.638335283677828214e-03,-2.775557561562891351e-17,-2.775557561562891351e-17,-2.775557561562891351e-17,-2.775557561562891351e-17,-2.775557561562891351e-17,-2.775557561562891351e-17,-2.775557561562891351e-17,-2.775557561562891351e-17,-5.398959552298632225e-03,-1.144579425087310920e-02,-1.749262894944758617e-02,-2.353946364802202151e-02,-2.958629834659648461e-02,-3.563313304517093383e-02,-4.167996774374539692e-02,-4.772680244231986002e-02,-5.377363714089430924e-02,-5.982047183946877233e-02,-6.586730653804323543e-02,-7.191414123661768465e-02,-7.796097593519214775e-02,-8.400781063376661084e-02,-9.005464533234106006e-02,-9.610148003091550928e-02,-1.023642731115819160e-01,-1.084111078101563791e-01,-1.144579425087308422e-01,-1.205047772073052914e-01,-1.265516119058797684e-01,-1.325984466044542176e-01,-1.382133645388447796e-01,-1.382133645388447796e-01,-1.382133645388447796e-01,-1.382133645388447796e-01,-1.382133645388447796e-01,-1.382133645388447796e-01,-1.382133645388447796e-01,-1.382133645388447796e-01,-1.382133645388447796e-01,-1.382133645388447796e-01,-1.382133645388447796e-01,-1.382133645388447796e-01,-1.382133645388447796e-01,-1.382133645388447796e-01
-9.718127194137524127e-02,-3.671292495563066582e-02,-2.775557561562891351e-17,-2.775557561562891351e-17,-2.775557561562891351e-17,-2.775557561562891351e-17,-2.775557561562891351e-17,-2.775557561562891351e-17,-2.775557561562891351e-17,-2.775557561562891351e-17,-2.591500585103351240e-03,-8.638335283677800458e-03,-1.468516998225229131e-02,-2.073200468082675441e-02,-2.677883937940120362e-02,-3.282567407797565284e-02,-3.887250877655011594e-02,-4.491934347512456516e-02,-5.096617817369902825e-02,-5.701301287227349135e-02,-6.305984757084795445e-02,-6.932264065151434729e-02,-7.536947535008881038e-02,-8.141631004866325960e-02,-8.746314474723772270e-02,-9.350997944581218579e-02,-9.955681414438663501e-02,-1.056036488429610981e-01,-1.116504835415355612e-01,-1.176973182401100104e-01,-1.237441529386844735e-01,-1.297909876372589366e-01,-1.358378223358333858e-01,-1.382133645388447796e-01,-1.382133645388447796e-01,-1.382133645388447796e-01,-1.382133645388447796e-01,-1.382133645388447796e-01,-1.382133645388447796e-01,-1.382133645388447796e-01,-1.382133645388447796e-01,-3.913322766030605804e-01,-3.913322766030605804e-01,-3.913322766030605804e-01,-3.913322766030605804e-01,-1.382133645388447796e-01,-1.382133645388447796e-01
-6.262793080666405332e-02,-2.159583820919491748e-03,-2.775557561562891351e-17,-2.775557561562891351e-17,-2.775557561562891351e-17,-2.775557561562891351e-17,-2.775557561562891351e-17,-2.775557561562891351e-17,-5.551115123125782702e-17,-2.775557561562891351e-17,-5.830876316482519472e-03,-1.187771101505699645e-02,-1.792454571363144566e-02,-2.397138041220592264e-02,-3.023417349287231548e-02,-3.628100819144676470e-02,-4.232784289002122780e-02,-4.837467758859569089e-02,-5.442151228717015399e-02,-6.046834698574460321e-02,-6.651518168431906630e-02,-7.256201638289352940e-02,-7.860885108146797862e-02,-8.465568578004242783e-02,-9.070252047861689093e-02,-9.674935517719135403e-02,-1.027961898757658032e-01,-1.088430245743402663e-01,-1.148898592729147294e-01,-1.209366939714891787e-01,-1.269835286700636556e-01,-1.332463217507300346e-01,-1.382133645388447796e-01,-1.382133645388447796e-01,-1.382133645388447796e-01,-1.382133645388447796e-01,-1.382133645388447796e-01,-1.382133645388447796e-01,-1.382133645388447796e-01,-1.382133645388447796e-01,-1.382133645388447796e-01,-3.913322766030605804e-01,-3.913322766030605804e-01,-3.913322766030605804e-01,-3.913322766030605804e-01,-1.382133645388447796e-01,-1.382133645388447796e-01
-6.735202041492535652e-02,-2.775557561562891351e-17,-2.775557561562891351e-17,-2.775557561562891351e-17,-2.775557561562891351e-17,-2.775557561562891351e-17,-2.775557561562891351e-17,-2.775557561562891351e-17,-2.775557561562891351e-17,-3.239375731379195988e-03,-9.286210429953645207e-03,-1.533304512852812218e-02,-2.137987982710258528e-02,-2.742671452567702062e-02,-3.347354922425149759e-02,-3.952038392282594681e-02,-4.556721862140039603e-02,-5.161405331997487300e-02,-5.766088801854932222e-02,-6.370772271712378532e-02,-6.975455741569824841e-02,-7.580139211427269763e-02,-8.184822681284716073e-02,-8.789506151142160995e-02,-9.394189620999607304e-02,-1.002046892906624798e-01,-1.062515239892369290e-01,-1.122983586878113921e-01,-1.183451933863858413e-01,-1.243920280849603044e-01,-1.304388627835347536e-01,-1.364856974821092306e-01,-1.382133645388447796e-01,-1.382133645388447796e-01,-1.382133645388447796e-01,-1.382133645388447796e-01,-1.382133645388447796e-01,-1.382133645388447796e-01,-1.382133645388447796e-01,-1.382133645388447796e-01,-1.382133645388447796e-01,-3.913322766030605804e-01,-3.913322766030605804e-01,-3.913322766030605804e-01,-3.913322766030605804e-01,-1.382133645388447796e-01,-1.382133645388447796e-01
-1.382133645388447796e-01,-9.934085576229469139e-02,-3.455334113471120183e-02,-2.775557561562891351e-17,-2.775557561562891351e-17,-2.775557561562891351e-17,-2.775557561562891351e-17,-2.775557561562891351e-17,-4.319167641839427585e-04,-6.478751462758364221e-03,-1.252558616133284120e-02,-1.857242085990729041e-02,-2.461925555848175351e-02,-3.066609025705620273e-02,-3.671292495563066582e-02,-4.275975965420512892e-02,-4.880659435277959202e-02,-5.485342905135404123e-02,-6.111622213202044795e-02,-6.716305683059489717e-02,-7.320989152916934639e-02,-7.925672622774380949e-02,-8.530356092631827258e-02,-9.135039562489272180e-02,-9.739723032346718490e-02,-1.034440650220416480e-01,-1.094908997206160972e-01,-1.155377344191905603e-01,-1.215845691177650234e-01,-1.276314038163394726e-01,-1.336782385149139496e-01,-1.382133645388447796e-01,-1.382133645388447796e-01,-1.382133645388447796e-01,-1.382133645388447796e-01,-1.382133645388447796e-01,-1.382133645388447796e-01,-1.382133645388447796e-01,-1.382133645388447796e-01,-1.382133645388447796e-01,-1.382133645388447796e-01,-3.913322766030605804e-01,-3.913322766030605804e-01,-3.913322766030605804e-01,-3.913322766030605804e-01,-1.382133645388447796e-01,-1.382133645388447796e-01
-1.382133645388447796e-01,-1.382133645388447796e-01,-1.382133645388447796e-01,-9.070252047861690481e-02,-2.159583820919451502e-02,-2.775557561562891351e-17,-2.775557561562891351e-17,-2.775557561562891351e-17,-3.671292495563083236e-03,-9.718127194137532454e-03,-1.576496189271200943e-02,-2.202775497337841615e-02,-2.807458967195286537e-02,-3.412142437052731458e-02,-4.016825906910177768e-02,-4.621509376767624078e-02,-5.226192846625070387e-02,-5.830876316482515309e-02,-6.435559786339961619e-02,-7.040243256197407928e-02,-7.644926726054852850e-02,-8.249610195912299160e-02,-8.854293665769744082e-02,-9.458977135627190391e-02,-1.006366060548463670e-01,-1.066834407534208162e-01,-1.127302754519952793e-01,-1.187771101505697285e-01,-1.250399032312361491e-01,-1.310867379298105984e-01,-1.371335726283850476e-01,-1.382133645388447796e-01,-1.382133645388447796e-01,-1.382133645388447796e-01,-1.382133645388447796e-01,-1.382133645388447796e-01,-1.382133645388447796e-01,-1.382133645388447796e-01,-1.382133645388447796e-01,-1.382133645388447796e-01,-1.382133645388447796e-01,-1.382133645388447796e-01,-1.382133645388447796e-01,-1.382133645388447796e-01,-1.382133645388447796e-01,-1.382133645388447796e-01,-1.382133645388447796e-01
-1.382133645388447796e-01,-1.382133645388447796e-01,-1.382133645388447796e-01,-1.382133645388447796e-01,-1.382133645388447796e-01,-7.774501755310020412e-02,-1.295750292551672844e-02,-1.079791910459759752e-03,-7.126626609034181214e-03,-1.317346130760868594e-02,-1.922029600618313516e-02,-2.526713070475758438e-02,-3.131396540333203360e-02,-3.736080010190651057e-02,-4.340763480048095979e-02,-4.945446949905542289e-02,-5.550130419762985823e-02,-6.154813889620433520e-02,-6.759497359477878442e-02,-7.364180829335324752e-02,-7.968864299192771061e-02,-8.573547769050215983e-02,-9.199827077116856655e-02,-9.804510546974301577e-02,-1.040919401683174789e-01,-1.101387748668919420e-01,-1.161856095654663912e-01,-1.222324442640408543e-01,-1.282792789626153174e-01,-1.343261136611897666e-01,-1.382133645388447796e-01,-1.382133645388447796e-01,-1.382133645388447796e-01,-1.382133645388447796e-01,-1.382133645388447796e-01,-1.382133645388447796e-01,-1.382133645388447796e-01,-1.382133645388447796e-01,-1.382133645388447796e-01,-1.382133645388447796e-01,-1.382133645388447796e-01,-1.382133645388447796e-01,-1.382133645388447796e-01,-1.382133645388447796e-01,-1.382133645388447796e-01,-1.382133645388447796e-01,-1.382133645388447796e-01
-1.382133645388447796e-01,-1.382133645388447796e-01,-1.382133645388447796e-01,-1.382133645388447796e-01,-1.382133645388447796e-01,-1.382133645388447796e-01,-1.338941968970058793e-01,-6.708207243731041658e-02,-1.036600234041337720e-02,-1.641283703898782642e-02,-2.245967173756230340e-02,-2.850650643613675261e-02,-3.455334113471121571e-02,-4.060017583328567881e-02,-4.664701053186012802e-02,-5.290980361252653474e-02,-5.895663831110098396e-02,-6.500347300967544706e-02,-7.105030770824991015e-02,-7.709714240682435937e-02,-8.314397710539882247e-02,-8.919081180397328557e-02,-9.523764650254773478e-02,-1.012844812011221979e-01,-1.073313158996966610e-01,-1.133781505982711102e-01,-1.194249852968455733e-01,-1.254718199954200364e-01,-1.315186546939944856e-01,-1.375654893925689348e-01,-1.382133645388447796e-01,-1.382133645388447796e-01,-1.382133645388447796e-01,-1.382133645388447796e-01,-1.382133645388447796e-01,-1.382133645388447796e-01,-1.382133645388447796e-01,-1.382133645388447796e-01,-1.382133645388447796e-01,-1.382133645388447796e-01,-1.382133645388447796e-01,-1.382133645388447796e-01,-1.382133645388447796e-01,-1.382133645388447796e-01,-1.382133645388447796e-01,-1.382133645388447796e-01,-1.382133645388447796e-01
-1.382133645388447796e-01,-1.382133645388447796e-01,-1.382133645388447796e-01,-1.382133645388447796e-01,-1.382133645388447796e-01,-1.382133645388447796e-01,-1.382133645388447796e-01,-1.382133645388447796e-01,-1.226643610282247415e-01,-6.424761867235365131e-02,-2.591500585103341525e-02,-3.196184054960787835e-02,-3.800867524818234144e-02,-4.405550994675679066e-02,-5.010234464533125376e-02,-5.614917934390570298e-02,-6.219601404248016607e-02,-6.824284874105462917e-02,-7.428968343962907839e-02,-8.033651813820354148e-02,-8.638335283677800458e-02,-9.243018753535245380e-02,-9.847702223392691689e-02,-1.045238569325013800e-01,-1.105706916310758292e-01,-1.166175263296502923e-01,-1.228803194103166851e-01,-1.289271541088911621e-01,-1.349739888074656113e-01,-1.382133645388447796e-01,-1.382133645388447796e-01,-1.382133645388447796e-01,-1.382133645388447796e-01,-1.382133645388447796e-01,-1.382133645388447796e-01,-1.382133645388447796e-01,-1.382133645388447796e-01,-1.382133645388447796e-01,-1.382133645388447796e-01,-1.382133645388447796e-01,-1.382133645388447796e-01,-1.382133645388447796e-01,-1.382133645388447796e-01,-1.382133645388447796e-01,-1.382133645388447796e-01,-1.382133645388447796e-01,-1.382133645388447796e-01
-1.382133645388447796e-01,-1.382133645388447796e-01,-1.382133645388447796e-01,-1.382133645388447796e-01,-1.382133645388447796e-01,-1.382133645388447796e-01,-1.382133645388447796e-01,-1.382133645388447796e-01,-1.382133645388447796e-01,-1.382133645388447796e-01,-1.143567120171252449e-01,-6.739251261156758988e-02,-4.124805097956152355e-02,-4.729488567813597277e-02,-5.334172037671042199e-02,-5.938855507528488509e-02,-6.543538977385934818e-02,-7.148222447243379740e-02,-7.752905917100824662e-02,-8.379185225167465334e-02,-8.983868695024911644e-02,-9.588552164882357953e-02,-1.019323563473980288e-01,-1.079791910459724918e-01,-1.140260257445469549e-01,-1.200728604431214042e-01,-1.261196951416958534e-01,-1.321665298402703304e-01,-1.382133645388447796e-01,-1.382133645388447796e-01,-1.382133645388447796e-01,-1.382133645388447796e-01,-1.382133645388447796e-01,-1.382133645388447796e-01,-1.382133645388447796e-01,-1.382133645388447796e-01,-1.382133645388447796e-01,-1.382133645388447796e-01,-1.382133645388447796e-01,-1.382133645388447796e-01,-1.382133645388447796e-01,-1.382133645388447796e-01,-1.382133645388447796e-01,-1.382133645388447796e-01,-1.382133645388447796e-01,-1.382133645388447796e-01,-1.382133645388447796e-01
-1.382133645388447796e-01,-1.382133645388447796e-01,-1.382133645388447796e-01,-1.382133645388447796e-01,-1.382133645388447796e-01,-1.382133645388447796e-01,-1.382133645388447796e-01,-1.382133645388447796e-01,-1.382133645388447796e-01,-1.382133645388447796e-01,-1.382133645388447796e-01,-1.382133645388447796e-01,-1.089914959620284785e-01,-6.988278270506532996e-02,-5.679705449018154773e-02,-6.284388918875599694e-02,-6.889072388733046004e-02,-7.493755858590492314e-02,-8.098439328447937235e-02,-8.703122798305383545e-02,-9.307806268162829855e-02,-9.912489738020274777e-02,-1.051717320787771970e-01,-1.112185667773516601e-01,-1.172654014759261232e-01,-1.233122361745005724e-01,-1.293590708730750494e-01,-1.354059055716494986e-01,-1.382133645388447796e-01,-1.382133645388447796e-01,-1.382133645388447796e-01,-1.382133645388447796e-01,-1.382133645388447796e-01,-1.382133645388447796e-01,-1.382133645388447796e-01,-1.382133645388447796e-01,-1.382133645388447796e-01,-1.382133645388447796e-01,-1.382133645388447796e-01,-1.382133645388447796e-01,-1.382133645388447796e-01,-1.382133645388447796e-01,-1.382133645388447796e-01,-1.382133645388447796e-01,-1.382133645388447796e-01,-1.382133645388447796e-01,-1.382133645388447796e-01
-1.382133645388447796e-01,-1.382133645388447796e-01,-1.382133645388447796e-01,-1.382133645388447796e-01,-1.382133645388447796e-01,-1.382133645388447796e-01,-1.382133645388447796e-01,-1.382133645388447796e-01,-1.382133645388447796e-01,-1.382133645388447796e-01,-1.382133645388447796e-01,-1.382133645388447796e-01,-1.382133645388447796e-01,-1.382133645388447796e-01,-1.088970141698632488e-01,-7.509952737247387045e-02,-7.213009961870962827e-02,-7.817693431728409137e-02,-8.422376901585854059e-02,-9.027060371443300368e-02,-9.631743841300746678e-02,-1.023642731115819160e-01,-1.084111078101563791e-01,-1.146739008908227858e-01,-1.207207355893972350e-01,-1.267675702879716981e-01,-1.328144049865461473e-01,-1.382133645388447796e-01,-1.382133645388447796e-01,-1.382133645388447796e-01,-1.382133645388447796e-01,-1.382133645388447796e-01,-1.382133645388447796e-01,-1.382133645388447796e-01,-1.382133645388447796e-01,-1.382133645388447796e-01,-1.382133645388447796e-01,-1.382133645388447796e-01,-1.382133645388447796e-01,-1.382133645388447796e-01,-1.382133645388447796e-01,-1.382133645388447796e-01,-1.382133645388447796e-01,-1.382133645388447796e-01,-1.382133645388447796e-01,-1.382133645388447796e-01,-1.382133645388447796e-01
-1.382133645388447796e-01,-1.382133645388447796e-01,-1.382133645388447796e-01,-1.382133645388447796e-01,-1.382133645388447796e-01,-1.382133645388447796e-01,-1.382133645388447796e-01,-1.382133645388447796e-01,-1.382133645388447796e-01,-1.382133645388447796e-01,-1.382133645388447796e-01,-1.382133645388447796e-01,-1.382133645388447796e-01,-1.382133645388447796e-01,-1.382133645388447796e-01,-1.382133645388447796e-01,-1.088565219732210154e-01,-8.516858693751080955e-02,-8.767910312932966632e-02,-9.372593782790412942e-02,-9.977277252647859251e-02,-1.058196072250530417e-01,-1.118664419236274910e-01,-1.179132766222019540e-01,-1.239601113207764171e-01,-1.300069460193508664e-01,-1.360537807179253433e-01,-1.382133645388447796e-01,-1.382133645388447796e-01,-1.382133645388447796e-01,-1.382133645388447796e-01,-1.382133645388447796e-01,-1.382133645388447796e-01,-1.382133645388447796e-01,-1.382133645388447796e-01,-1.382133645388447796e-01,-1.382133645388447796e-01,-1.382133645388447796e-01,-1.382133645388447796e-01,-1.382133645388447796e-01,-1.382133645388447796e-01,-1.382133645388447796e-01,-1.382133645388447796e-01,-1.382133645388447796e-01,-1.382133645388447796e-01,-1.382133645388447796e-01,-1.382133645388447796e-01
