-1.662758205988770499e-01,-1.662758205988770499e-01,-1.662758205988770499e-01,-1.662758205988770499e-01,-1.662758205988770499e-01,-1.662758205988770499e-01,-1.662758205988770499e-01,-1.662758205988770499e-01,-1.662758205988770499e-01,-1.662758205988770499e-01,-1.587314549406948216e-01,-1.168127609856293714e-01,-1.207098505309155551e-01,-1.279044773837515747e-01,-1.354988057284118308e-01,-1.426934325812478643e-01,-1.502877609259081204e-01,-1.574823877787441262e-01,-1.650767161234043823e-01,-1.662758205988770499e-01,-1.662758205988770499e-01,-1.662758205988770499e-01,-1.662758205988770499e-01,-1.662758205988770499e-01,-1.662758205988770499e-01,-1.662758205988770499e-01,-1.662758205988770499e-01,-1.662758205988770499e-01,-1.662758205988770499e-01,-1.662758205988770499e-01,-1.662758205988770499e-01,-1.662758205988770499e-01,-1.662758205988770499e-01,-1.662758205988770499e-01,-1.662758205988770499e-01,-1.662758205988770499e-01,-1.662758205988770499e-01,-1.662758205988770499e-01,-1.662758205988770499e-01,-1.662758205988770499e-01,-1.662758205988770499e-01,-1.662758205988770499e-01,-1.662758205988770499e-01,-1.662758205988770499e-01,-1.662758205988770499e-01,-1.662758205988770499e-01,-1.662758205988770499e-01
-1.662758205988770499e-01,-1.662758205988770499e-01,-1.662758205988770499e-01,-1.662758205988770499e-01,-1.662758205988770499e-01,-1.662758205988770499e-01,-1.662758205988770499e-01,-1.662758205988770499e-01,-1.662758205988770499e-01,-1.662758205988770499e-01,-1.176371453125168443e-01,-1.027232833988254990e-01,-1.103176117434857550e-01,-1.175122385963217608e-01,-1.251065669409820169e-01,-1.323011937938180504e-01,-1.398955221384782788e-01,-1.470901489913143123e-01,-1.546844773359745684e-01,-1.618791041888106019e-01,-1.662758205988770499e-01,-1.662758205988770499e-01,-1.662758205988770499e-01,-1.662758205988770499e-01,-1.662758205988770499e-01,-1.662758205988770499e-01,-1.662758205988770499e-01,-1.662758205988770499e-01,-1.662758205988770499e-01,-1.662758205988770499e-01,-1.662758205988770499e-01,-1.662758205988770499e-01,-1.662758205988770499e-01,-1.662758205988770499e-01,-1.662758205988770499e-01,-1.662758205988770499e-01,-1.662758205988770499e-01,-1.662758205988770499e-01,-1.662758205988770499e-01,-1.662758205988770499e-01,-1.662758205988770499e-01,-1.662758205988770499e-01,-1.662758205988770499e-01,-1.662758205988770499e-01,-1.662758205988770499e-01,-1.662758205988770499e-01,-1.662758205988770499e-01
-1.662758205988770499e-01,-1.662758205988770499e-01,-1.662758205988770499e-01,-1.662758205988770499e-01,-1.662758205988770499e-01,-1.662758205988770499e-01,-1.662758205988770499e-01,-1.662758205988770499e-01,-1.662758205988770499e-01,-1.274548132054493244e-01,-8.513641775855966543e-02,-9.233104461139568508e-02,-9.992537295605592729e-02,-1.071199998088919469e-01,-1.147143281535522030e-01,-1.219089550063882366e-01,-1.295032833510484926e-01,-1.366979102038844984e-01,-1.438925370567205320e-01,-1.514868654013807880e-01,-1.586814922542167938e-01,-1.662758205988770499e-01,-1.662758205988770499e-01,-1.662758205988770499e-01,-1.662758205988770499e-01,-1.662758205988770499e-01,-1.662758205988770499e-01,-1.662758205988770499e-01,-1.662758205988770499e-01,-1.662758205988770499e-01,-1.662758205988770499e-01,-1.662758205988770499e-01,-1.662758205988770499e-01,-1.662758205988770499e-01,-1.662758205988770499e-01,-1.662758205988770499e-01,-1.662758205988770499e-01,-1.662758205988770499e-01,-1.662758205988770499e-01,-1.662758205988770499e-01,-1.662758205988770499e-01,-1.662758205988770499e-01,-1.662758205988770499e-01,-1.662758205988770499e-01,-1.662758205988770499e-01,-1.662758205988770499e-01,-1.662758205988770499e-01
-1.662758205988770499e-01,-1.662758205988770499e-01,-1.662758205988770499e-01,-1.662758205988770499e-01,-1.662758205988770499e-01,-1.662758205988770499e-01,-1.662758205988770499e-01,-1.662758205988770499e-01,-1.430181900433550313e-01,-6.714985062646959546e-02,-7.474417897112982379e-02,-8.193880582396587120e-02,-8.953313416862611340e-02,-9.672776102146214694e-02,-1.039223878742981666e-01,-1.115167162189584227e-01,-1.187113430717944285e-01,-1.263056714164546845e-01,-1.335002982692907181e-01,-1.410946266139509464e-01,-1.482892534667869799e-01,-1.558835818114472360e-01,-1.630782086642832696e-01,-1.662758205988770499e-01,-1.662758205988770499e-01,-1.662758205988770499e-01,-1.662758205988770499e-01,-1.662758205988770499e-01,-1.662758205988770499e-01,-1.662758205988770499e-01,-1.662758205988770499e-01,-1.662758205988770499e-01,-1.662758205988770499e-01,-1.662758205988770499e-01,-1.662758205988770499e-01,-1.662758205988770499e-01,-1.662758205988770499e-01,-1.662758205988770499e-01,-1.662758205988770499e-01,-1.662758205988770499e-01,-1.662758205988770499e-01,-1.662758205988770499e-01,-1.662758205988770499e-01,-1.662758205988770499e-01,-1.662758205988770499e-01,-1.662758205988770499e-01,-1.662758205988770499e-01
-1.662758205988770499e-01,-1.662758205988770499e-01,-1.662758205988770499e-01,-1.662758205988770499e-01,-1.662758205988770499e-01,-1.662758205988770499e-01,-1.662758205988770499e-01,-1.662758205988770499e-01,-7.509391777647604627e-02,-5.675761183903976770e-02,-6.435194018370002378e-02,-7.154656703653605732e-02,-7.874119388937209085e-02,-8.633552223403231918e-02,-9.353014908686835271e-02,-1.011244774315286088e-01,-1.083191042843646285e-01,-1.159134326290248707e-01,-1.231080594818609042e-01,-1.307023878265211603e-01,-1.378970146793571661e-01,-1.454913430240174221e-01,-1.526859698768534557e-01,-1.602802982215136840e-01,-1.662758205988770499e-01,-1.662758205988770499e-01,-1.662758205988770499e-01,-1.662758205988770499e-01,-1.662758205988770499e-01,-1.662758205988770499e-01,-1.662758205988770499e-01,-1.662758205988770499e-01,-1.662758205988770499e-01,-1.662758205988770499e-01,-1.662758205988770499e-01,-1.662758205988770499e-01,-1.662758205988770499e-01,-1.662758205988770499e-01,-1.662758205988770499e-01,-1.662758205988770499e-01,-1.662758205988770499e-01,-1.662758205988770499e-01,-1.662758205988770499e-01,-1.662758205988770499e-01,-1.662758205988770499e-01,-1.662758205988770499e-01,-1.662758205988770499e-01
-1.662758205988770499e-01,-1.662758205988770499e-01,-1.662758205988770499e-01,-1.662758205988770499e-01,-1.662758205988770499e-01,-1.662758205988770499e-01,-1.662758205988770499e-01,-9.471676289072150645e-02,-3.877104470694972549e-02,-4.636537305160995381e-02,-5.355999990444598735e-02,-6.115432824910622955e-02,-6.834895510194226309e-02,-7.594328344660250529e-02,-8.313791029943853883e-02,-9.073223864409879491e-02,-9.792686549693481457e-02,-1.055211938415950568e-01,-1.127158206944310903e-01,-1.203101490390913325e-01,-1.275047758919273522e-01,-1.346994027447633857e-01,-1.422937310894236418e-01,-1.494883579422596476e-01,-1.570826862869199037e-01,-1.642773131397559372e-01,-1.662758205988770499e-01,-1.662758205988770499e-01,-1.662758205988770499e-01,-1.662758205988770499e-01,-1.662758205988770499e-01,-1.662758205988770499e-01,-1.662758205988770499e-01,-1.662758205988770499e-01,-1.662758205988770499e-01,-1.662758205988770499e-01,-1.662758205988770499e-01,-1.662758205988770499e-01,-1.662758205988770499e-01,-1.662758205988770499e-01,-1.662758205988770499e-01,-1.662758205988770499e-01,-1.662758205988770499e-01,-1.662758205988770499e-01,-1.662758205988770499e-01,-1.662758205988770499e-01,-1.662758205988770499e-01
-1.662758205988770499e-01,-1.662758205988770499e-01,-1.662758205988770499e-01,-1.662758205988770499e-01,-1.662758205988770499e-01,-1.662758205988770499e-01,-1.185614550123603450e-01,-2.118417906668385031e-02,-2.837880591951988385e-02,-3.597313426418016769e-02,-4.316776111701620122e-02,-5.076208946167644342e-02,-5.795671631451243533e-02,-6.555104465917269141e-02,-7.274567151200872495e-02,-8.033999985666898103e-02,-8.753462670950500069e-02,-9.472925356234102034e-02,-1.023235819070012764e-01,-1.095182087598372961e-01,-1.171125371044975383e-01,-1.243071639573335718e-01,-1.319014923019938279e-01,-1.390961191548298337e-01,-1.466904474994900898e-01,-1.538850743523261233e-01,-1.614794026969863794e-01,-1.662758205988770499e-01,-1.662758205988770499e-01,-1.662758205988770499e-01,-1.662758205988770499e-01,-1.662758205988770499e-01,-1.662758205988770499e-01,-1.662758205988770499e-01,-1.662758205988770499e-01,-1.662758205988770499e-01,-1.662758205988770499e-01,-1.662758205988770499e-01,-1.662758205988770499e-01,-1.662758205988770499e-01,-1.662758205988770499e-01,-1.662758205988770499e-01,-1.662758205988770499e-01,-1.662758205988770499e-01,-1.662758205988770499e-01,-1.662758205988770499e-01,-1.662758205988770499e-01
-1.662758205988770499e-01,-1.662758205988770499e-01,-1.662758205988770499e-01,-1.662758205988770499e-01,-1.662758205988770499e-01,-1.558835818114472360e-01,-2.358238801762921333e-02,-1.079194027925409194e-02,-1.798656713209006996e-02,-2.558089547675032605e-02,-3.277552232958635958e-02,-4.036985067424661566e-02,-4.756447752708264920e-02,-5.475910437991865498e-02,-6.235343272457889718e-02,-6.954805957741494460e-02,-7.714238792207520068e-02,-8.433701477491120646e-02,-9.193134311957146254e-02,-9.912596997240748220e-02,-1.067202983170677244e-01,-1.139149251699037579e-01,-1.215092535145640001e-01,-1.287038803674000476e-01,-1.362982087120602759e-01,-1.434928355648963094e-01,-1.510871639095565655e-01,-1.582817907623925713e-01,-1.654764176152286048e-01,-1.662758205988770499e-01,-1.662758205988770499e-01,-1.662758205988770499e-01,-1.662758205988770499e-01,-1.662758205988770499e-01,-1.662758205988770499e-01,-1.662758205988770499e-01,-1.662758205988770499e-01,-1.662758205988770499e-01,-1.662758205988770499e-01,-1.662758205988770499e-01,-1.662758205988770499e-01,-1.662758205988770499e-01,-1.662758205988770499e-01,-1.662758205988770499e-01,-1.662758205988770499e-01,-1.662758205988770499e-01,-1.662758205988770499e-01
-1.662758205988770499e-01,-1.662758205988770499e-01,-1.662758205988770499e-01,-1.662758205988770499e-01,-1.662758205988770499e-01,-5.715731333086400412e-02,-2.775557561562891351e-17,-3.997014918242502990e-04,-7.594328344660256080e-03,-1.518865668932051216e-02,-2.238328354215654570e-02,-2.957791039499255148e-02,-3.717223873965283532e-02,-4.436686559248885497e-02,-5.196119393714909718e-02,-5.915582078998513071e-02,-6.675014913464535904e-02,-7.394477598748139258e-02,-8.153910433214163478e-02,-8.873373118497766832e-02,-9.632805952963791052e-02,-1.035226863824739441e-01,-1.111170147271341863e-01,-1.183116415799702059e-01,-1.255062684328062395e-01,-1.331005967774664955e-01,-1.402952236303025013e-01,-1.478895519749627574e-01,-1.550841788277987909e-01,-1.626785071724590470e-01,-1.662758205988770499e-01,-1.662758205988770499e-01,-1.662758205988770499e-01,-1.662758205988770499e-01,-1.662758205988770499e-01,-1.662758205988770499e-01,-1.662758205988770499e-01,-1.662758205988770499e-01,-1.662758205988770499e-01,-1.662758205988770499e-01,-1.662758205988770499e-01,-1.662758205988770499e-01,-1.662758205988770499e-01,-1.662758205988770499e-01,-1.662758205988770499e-01,-1.662758205988770499e-01,-1.662758205988770499e-01
-1.662758205988770499e-01,-1.662758205988770499e-01,-1.662758205988770499e-01,-1.662758205988770499e-01,-9.872626848058325966e-02,-2.775557561562891351e-17,-2.775557561562891351e-17,-2.775557561562891351e-17,-2.775557561562891351e-17,-4.396716410066475733e-03,-1.199104475472673181e-02,-1.918567160756273760e-02,-2.677999995222299368e-02,-3.397462680505905497e-02,-4.156895514971928329e-02,-4.876358200255530295e-02,-5.635791034721557291e-02,-6.355253720005156481e-02,-7.114686554471183477e-02,-7.834149239754785443e-02,-8.553611925038387409e-02,-9.313044759504413017e-02,-1.003250744478801637e-01,-1.079194027925404059e-01,-1.151140296453764256e-01,-1.227083579900366817e-01,-1.299029848428727152e-01,-1.374973131875329435e-01,-1.446919400403689770e-01,-1.522862683850292331e-01,-1.594808952378652389e-01,-1.662758205988770499e-01,-1.662758205988770499e-01,-1.662758205988770499e-01,-1.662758205988770499e-01,-1.662758205988770499e-01,-1.662758205988770499e-01,-1.662758205988770499e-01,-1.662758205988770499e-01,-1.662758205988770499e-01,-1.662758205988770499e-01,-1.662758205988770499e-01,-1.662758205988770499e-01,-1.662758205988770499e-01,-1.662758205988770499e-01,-1.662758205988770499e-01,-1.662758205988770499e-01
-1.662758205988770499e-01,-1.662758205988770499e-01,-1.662758205988770499e-01,-1.402952236303025013e-01,-5.196119393714920820e-03,-2.775557561562891351e-17,-2.775557561562891351e-17,-2.775557561562891351e-17,-2.775557561562891351e-17,-2.775557561562891351e-17,-1.598805967296917929e-03,-8.793432820132951466e-03,-1.638776116479317979e-02,-2.358238801762921333e-02,-3.117671636228946941e-02,-3.837134321512550295e-02,-4.556597006796153648e-02,-5.316029841262176481e-02,-6.035492526545779834e-02,-6.794925361011804055e-02,-7.514388046295407408e-02,-8.273820880761431629e-02,-8.993283566045033595e-02,-9.752716400511059203e-02,-1.047217908579466117e-01,-1.123161192026068678e-01,-1.195107460554428874e-01,-1.271050744001031296e-01,-1.342997012529391632e-01,-1.418940295975993915e-01,-1.490886564504354250e-01,-1.562832833032714586e-01,-1.638776116479317146e-01,-1.662758205988770499e-01,-1.662758205988770499e-01,-1.662758205988770499e-01,-1.662758205988770499e-01,-1.662758205988770499e-01,-1.662758205988770499e-01,-1.662758205988770499e-01,-1.662758205988770499e-01,-1.662758205988770499e-01,-1.662758205988770499e-01,-1.662758205988770499e-01,-1.662758205988770499e-01,-1.662758205988770499e-01,-1.662758205988770499e-01
-1.662758205988770499e-01,-1.662758205988770499e-01,-1.662758205988770499e-01,-4.156895514971928329e-02,0.000000000000000000e+00,-2.775557561562891351e-17,-2.775557561562891351e-17,-2.775557561562891351e-17,-2.775557561562891351e-17,0.000000000000000000e+00,-2.775557561562891351e-17,-2.775557561562891351e-17,-5.995522377363393662e-03,-1.319014923019939944e-02,-2.038477608303543298e-02,-2.797910442769566131e-02,-3.517373128053172260e-02,-4.276805962519196480e-02,-4.996268647802798446e-02,-5.755701482268822666e-02,-6.475164167552424632e-02,-7.234597002018450240e-02,-7.954059687302053594e-02,-8.713492521768077814e-02,-9.432955207051679780e-02,-1.019238804151770539e-01,-1.091185072680130735e-01,-1.163131341208490932e-01,-1.239074624655093493e-01,-1.311020893183453828e-01,-1.386964176630056111e-01,-1.458910445158416447e-01,-1.534853728605019008e-01,-1.606799997133379065e-01,-1.662758205988770499e-01,-1.662758205988770499e-01,-1.662758205988770499e-01,-1.662758205988770499e-01,-1.662758205988770499e-01,-1.662758205988770499e-01,-1.662758205988770499e-01,-1.662758205988770499e-01,-1.662758205988770499e-01,-1.662758205988770499e-01,-1.662758205988770499e-01,-1.662758205988770499e-01,-1.662758205988770499e-01
-1.662758205988770499e-01,-1.662758205988770499e-01,-8.313791029943853883e-02,-2.775557561562891351e-17,0.000000000000000000e+00,-2.775557561562891351e-17,-2.775557561562891351e-17,-2.775557561562891351e-17,-2.775557561562891351e-17,-5.551115123125782702e-17,-2.775557561562891351e-17,-2.775557561562891351e-17,-2.775557561562891351e-17,-2.797910442769613315e-03,-9.992537295605591341e-03,-1.758686564026587518e-02,-2.478149249310188096e-02,-3.237582083776213704e-02,-3.957044769059817058e-02,-4.716477603525841278e-02,-5.435940288809444632e-02,-6.195373123275467464e-02,-6.914835808559070818e-02,-7.634298493842674171e-02,-8.393731328308698392e-02,-9.113194013592300358e-02,-9.872626848058325966e-02,-1.059208953334192793e-01,-1.135152236780795354e-01,-1.207098505309155551e-01,-1.283041788755757973e-01,-1.354988057284118308e-01,-1.430931340730720869e-01,-1.502877609259081204e-01,-1.578820892705683487e-01,-1.650767161234043823e-01,-1.662758205988770499e-01,-1.662758205988770499e-01,-1.662758205988770499e-01,-1.662758205988770499e-01,-1.662758205988770499e-01,-1.662758205988770499e-01,-1.662758205988770499e-01,-1.662758205988770499e-01,-1.662758205988770499e-01,-1.662758205988770499e-01,-1.662758205988770499e-01
-1.662758205988770499e-01,-1.247068654491577944e-01,-2.775557561562891351e-17,-2.775557561562891351e-17,-2.775557561562891351e-17,-5.551115123125782702e-17,-2.775557561562891351e-17,-2.775557561562891351e-17,-2.775557561562891351e-17,-2.775557561562891351e-17,-2.775557561562891351e-17,-2.775557561562891351e-17,-2.775557561562891351e-17,-2.775557561562891351e-17,-2.775557561562891351e-17,-7.194626852836033537e-03,-1.438925370567209483e-02,-2.198358205033232315e-02,-2.917820890316835669e-02,-3.637283575600436247e-02,-4.396716410066464631e-02,-5.116179095350065209e-02,-5.875611929816089429e-02,-6.595074615099691395e-02,-7.354507449565717003e-02,-8.073970134849320357e-02,-8.833402969315343189e-02,-9.552865654598946543e-02,-1.031229848906497215e-01,-1.103176117434857550e-01,-1.179119400881459834e-01,-1.251065669409820169e-01,-1.327008952856422730e-01,-1.398955221384782788e-01,-1.470901489913143123e-01,-1.546844773359745684e-01,-1.618791041888106019e-01,-1.662758205988770499e-01,-1.662758205988770499e-01,-1.662758205988770499e-01,-1.662758205988770499e-01,-1.662758205988770499e-01,-1.662758205988770499e-01,-1.662758205988770499e-01,-1.662758205988770499e-01,-1.662758205988770499e-01,-1.662758205988770499e-01
-1.610797012051621291e-01,-2.598059696857454859e-02,-2.775557561562891351e-17,-2.775557561562891351e-17,-2.775557561562891351e-17,-5.551115123125782702e-17,-2.775557561562891351e-17,-2.775557561562891351e-17,-2.775557561562891351e-17,-2.775557561562891351e-17,0.000000000000000000e+00,-2.775557561562891351e-17,-2.775557561562891351e-17,-2.775557561562891351e-17,-2.775557561562891351e-17,-2.775557561562891351e-17,-3.997014918242253190e-03,-1.119164177107828673e-02,-1.878597011573851505e-02,-2.598059696857454859e-02,-3.357492531323480467e-02,-4.076955216607083821e-02,-4.836388051073109429e-02,-5.555850736356710007e-02,-6.315283570822737003e-02,-7.034746256106338969e-02,-7.794179090572363189e-02,-8.513641775855966543e-02,-9.273074610321990763e-02,-9.992537295605592729e-02,-1.071199998088919608e-01,-1.147143281535522030e-01,-1.219089550063882366e-01,-1.295032833510484649e-01,-1.366979102038844984e-01,-1.442922385485447545e-01,-1.514868654013807880e-01,-1.590811937460410164e-01,-1.662758205988770499e-01,-1.662758205988770499e-01,-1.662758205988770499e-01,-1.662758205988770499e-01,-1.662758205988770499e-01,-1.662758205988770499e-01,-1.662758205988770499e-01,-1.662758205988770499e-01,-1.662758205988770499e-01
-6.754955211829381800e-02,0.000000000000000000e+00,-2.775557561562891351e-17,-2.775557561562891351e-17,-2.775557561562891351e-17,-2.775557561562891351e-17,-2.775557561562891351e-17,-2.775557561562891351e-17,-2.775557561562891351e-17,-2.775557561562891351e-17,-2.775557561562891351e-17,-2.775557561562891351e-17,-2.775557561562891351e-17,-2.775557561562891351e-17,-2.775557561562891351e-17,-5.551115123125782702e-17,-2.775557561562891351e-17,-7.994029836484728424e-04,-8.393731328308728923e-03,-1.558835818114473470e-02,-2.318268652580499078e-02,-3.037731337864099657e-02,-3.797164172330128040e-02,-4.516626857613730006e-02,-5.276059692079754226e-02,-1.431966250629052584e-01,-1.503912519157412642e-01,-1.579855802604015202e-01,-1.651802071132375538e-01,-8.953313416862611340e-02,-9.672776102146214694e-02,-1.043220893661223891e-01,-1.115167162189584227e-01,-1.191110445636186649e-01,-1.263056714164546845e-01,-1.338999997611149406e-01,-1.410946266139509742e-01,-1.486889549586112025e-01,-1.558835818114472360e-01,-1.630782086642832696e-01,-1.662758205988770499e-01,-1.662758205988770499e-01,-1.662758205988770499e-01,-1.662758205988770499e-01,-1.662758205988770499e-01,-1.662758205988770499e-01,-1.662758205988770499e-01
0.000000000000000000e+00,-2.775557561562891351e-17,-2.775557561562891351e-17,-2.775557561562891351e-17,-2.775557561562891351e-17,0.000000000000000000e+00,-2.775557561562891351e-17,-2.775557561562891351e-17,-2.775557561562891351e-17,-2.775557561562891351e-17,-2.775557561562891351e-17,0.000000000000000000e+00,-2.775557561562891351e-17,-2.775557561562891351e-17,-2.775557561562891351e-17,-2.775557561562891351e-17,-2.775557561562891351e-17,-2.775557561562891351e-17,-2.775557561562891351e-17,-5.196119393714920820e-03,-1.279044773837517690e-02,-1.998507459121121044e-02,-2.717970144404721622e-02,-3.477402978870747230e-02,-4.196865664154351971e-02,-1.328043862754754167e-01,-1.399990131283114225e-01,-1.475933414729717064e-01,-1.547879683258077121e-01,-7.914089538119631340e-02,-8.633552223403233306e-02,-9.392985057869257526e-02,-1.011244774315286088e-01,-1.087188057761888510e-01,-1.159134326290248707e-01,-1.235077609736851267e-01,-1.307023878265211603e-01,-1.378970146793571661e-01,-1.454913430240174221e-01,-1.526859698768534557e-01,-1.602802982215136840e-01,-1.662758205988770499e-01,-1.662758205988770499e-01,-1.662758205988770499e-01,-1.662758205988770499e-01,-1.662758205988770499e-01,-1.662758205988770499e-01
-6.928159191619903678e-03,-2.775557561562891351e-17,-2.775557561562891351e-17,-2.775557561562891351e-17,-2.775557561562891351e-17,-2.775557561562891351e-17,-2.775557561562891351e-17,-2.775557561562891351e-17,-2.775557561562891351e-17,-2.775557561562891351e-17,-2.775557561562891351e-17,-2.775557561562891351e-17,-2.775557561562891351e-17,-2.775557561562891351e-17,-2.775557561562891351e-17,-2.775557561562891351e-17,-2.775557561562891351e-17,-2.775557561562891351e-17,-2.775557561562891351e-17,-2.775557561562891351e-17,-1.998507459121168228e-03,-9.592835803781396553e-03,-1.678746265661740233e-02,-2.438179100127763066e-02,-3.157641785411369195e-02,-1.224121474880456167e-01,-1.296067743408816364e-01,-1.372011026855418647e-01,-1.443957295383778983e-01,-6.874865659376649951e-02,-7.594328344660251917e-02,-8.353761179126276137e-02,-9.073223864409878103e-02,-9.792686549693481457e-02,-1.055211938415950568e-01,-1.127158206944310903e-01,-1.203101490390913325e-01,-1.275047758919273522e-01,-1.350991042365876083e-01,-1.422937310894236418e-01,-1.498880594340838979e-01,-1.570826862869199037e-01,-1.646770146315801597e-01,-1.662758205988770499e-01,-1.662758205988770499e-01,-1.662758205988770499e-01,-1.662758205988770499e-01
-2.193917077346296818e-02,-1.154693198603315429e-02,-5.773465993016702047e-04,-2.775557561562891351e-17,-2.775557561562891351e-17,-2.775557561562891351e-17,-5.551115123125782702e-17,-2.775557561562891351e-17,-2.775557561562891351e-17,-2.775557561562891351e-17,-2.775557561562891351e-17,-2.775557561562891351e-17,-2.775557561562891351e-17,-2.775557561562891351e-17,-2.775557561562891351e-17,-2.775557561562891351e-17,-2.775557561562891351e-17,-2.775557561562891351e-17,-2.775557561562891351e-17,0.000000000000000000e+00,-2.775557561562891351e-17,-2.775557561562891351e-17,-6.395223869187588450e-03,-1.398955221384784453e-02,-2.118417906668387807e-02,-1.120199087006157751e-01,-1.192145355534518364e-01,-1.268088638981120786e-01,-1.340034907509480844e-01,-5.795671631451244921e-02,-6.555104465917269141e-02,-7.274567151200872495e-02,-8.033999985666898103e-02,-8.753462670950501456e-02,-9.512895505416524289e-02,-1.023235819070012764e-01,-1.099179102516615186e-01,-1.171125371044975383e-01,-1.247068654491577944e-01,-1.319014923019938279e-01,-1.394958206466540562e-01,-1.466904474994900898e-01,-1.538850743523261233e-01,-1.614794026969863794e-01,-1.662758205988770499e-01,-1.662758205988770499e-01,-1.662758205988770499e-01
-3.695018235530603268e-02,-2.655794356787621879e-02,-1.558835818114476246e-02,-5.196119393714920820e-03,-2.775557561562891351e-17,-2.775557561562891351e-17,-2.775557561562891351e-17,-2.775557561562891351e-17,0.000000000000000000e+00,-2.775557561562891351e-17,-2.775557561562891351e-17,-2.775557561562891351e-17,-2.775557561562891351e-17,-2.775557561562891351e-17,-2.775557561562891351e-17,-2.775557561562891351e-17,-2.775557561562891351e-17,-2.775557561562891351e-17,-2.775557561562891351e-17,0.000000000000000000e+00,-2.775557561562891351e-17,-2.775557561562891351e-17,-2.775557561562891351e-17,-3.597313426418030646e-03,-1.079194027925406418e-02,-1.798656713209006996e-02,-2.558089547675032605e-02,-3.277552232958638734e-02,-4.036985067424661566e-02,-4.756447752708263532e-02,-5.515880587174289140e-02,-6.235343272457889718e-02,-6.994776106923916714e-02,-7.714238792207520068e-02,-8.473671626673542900e-02,-9.193134311957146254e-02,-9.952567146423170474e-02,-1.067202983170677244e-01,-1.143146266617279805e-01,-1.215092535145640001e-01,-1.287038803674000476e-01,-1.362982087120602759e-01,-1.434928355648963094e-01,-1.510871639095565655e-01,-1.582817907623925713e-01,-1.658761191070528274e-01,-1.662758205988770499e-01
-5.196119393714909718e-02,-4.156895514971928329e-02,-3.059936976298779920e-02,-2.020713097555798532e-02,-9.237545588826528986e-03,-2.775557561562891351e-17,-2.775557561562891351e-17,-2.775557561562891351e-17,-5.551115123125782702e-17,-2.775557561562891351e-17,-2.775557561562891351e-17,-2.775557561562891351e-17,-2.775557561562891351e-17,-2.775557561562891351e-17,-2.775557561562891351e-17,0.000000000000000000e+00,-2.775557561562891351e-17,-2.775557561562891351e-17,-2.775557561562891351e-17,-2.775557561562891351e-17,-2.775557561562891351e-17,-2.775557561562891351e-17,-2.775557561562891351e-17,-2.775557561562891351e-17,-3.997014918242780546e-04,-7.594328344660256080e-03,-1.518865668932051216e-02,-2.238328354215654570e-02,-2.997761188681677402e-02,-3.717223873965283532e-02,-4.476656708431307752e-02,-5.196119393714909718e-02,-5.955552228180933938e-02,-6.675014913464535904e-02,-7.434447747930561512e-02,-8.153910433214163478e-02,-8.873373118497766832e-02,-9.632805952963792440e-02,-1.035226863824739441e-01,-1.111170147271341863e-01,-1.183116415799702059e-01,-1.259059699246304620e-01,-1.331005967774664955e-01,-1.406949251221267239e-01,-1.478895519749627574e-01,-1.554838803196230135e-01,-1.626785071724590470e-01
-6.697220551899216168e-02,-5.657996673156234779e-02,-4.618772794413253391e-02,-3.521814255740104982e-02,-2.482590376997123593e-02,-1.385631838323977960e-02,-3.464079595809965717e-03,-2.775557561562891351e-17,0.000000000000000000e+00,-2.775557561562891351e-17,-2.775557561562891351e-17,-2.775557561562891351e-17,-2.775557561562891351e-17,-2.775557561562891351e-17,-2.775557561562891351e-17,-2.775557561562891351e-17,-2.775557561562891351e-17,-2.775557561562891351e-17,-2.775557561562891351e-17,-2.775557561562891351e-17,0.000000000000000000e+00,-2.775557561562891351e-17,-2.775557561562891351e-17,-2.775557561562891351e-17,-2.775557561562891351e-17,-5.551115123125782702e-17,-4.796417901890698277e-03,-1.199104475472673181e-02,-1.958537309938698789e-02,-2.677999995222299368e-02,-3.397462680505902721e-02,-4.156895514971929717e-02,-4.876358200255530295e-02,-5.635791034721555903e-02,-6.355253720005157869e-02,-7.114686554471182089e-02,-7.834149239754785443e-02,-8.593582074220809663e-02,-9.313044759504413017e-02,-1.007247759397043863e-01,-1.079194027925404059e-01,-1.155137311372006481e-01,-1.227083579900366817e-01,-1.303026863346969377e-01,-1.374973131875329435e-01,-1.446919400403689770e-01,-1.522862683850292331e-01
-8.256056370013688250e-02,-7.159097831340541229e-02,-6.119873952597559841e-02,-5.022915413924412820e-02,-3.983691535181430043e-02,-2.886732996508284410e-02,-1.847509117765303022e-02,-7.505505790921573883e-03,-2.775557561562891351e-17,-2.775557561562891351e-17,-2.775557561562891351e-17,-2.775557561562891351e-17,-2.775557561562891351e-17,-2.775557561562891351e-17,-2.775557561562891351e-17,-2.775557561562891351e-17,-5.551115123125782702e-17,-2.775557561562891351e-17,-2.775557561562891351e-17,-2.775557561562891351e-17,-2.775557561562891351e-17,-2.775557561562891351e-17,-2.775557561562891351e-17,-2.775557561562891351e-17,-2.775557561562891351e-17,0.000000000000000000e+00,-2.775557561562891351e-17,-1.598805967296917929e-03,-8.793432820132923711e-03,-1.638776116479317979e-02,-2.358238801762924108e-02,-3.117671636228946941e-02,-3.837134321512550295e-02,-4.596567155978574515e-02,-5.316029841262176481e-02,-6.075462675728202089e-02,-6.794925361011805443e-02,-7.554358195477829663e-02,-8.273820880761431629e-02,-9.033253715227455849e-02,-9.752716400511059203e-02,-1.047217908579466117e-01,-1.123161192026068678e-01,-1.195107460554428874e-01,-1.271050744001031296e-01,-1.342997012529391632e-01,-1.418940295975994192e-01
-9.757157528197994700e-02,-8.660198989524847679e-02,-7.620975110781866291e-02,-6.524016572108719270e-02,-5.484792693365737881e-02,-4.387834154692590860e-02,-3.348610275949609472e-02,-2.251651737276461063e-02,-1.212427858533479674e-02,-1.732039797905010614e-03,-2.775557561562891351e-17,-2.775557561562891351e-17,-2.775557561562891351e-17,-2.775557561562891351e-17,-2.775557561562891351e-17,-2.775557561562891351e-17,0.000000000000000000e+00,-2.775557561562891351e-17,-2.775557561562891351e-17,-2.775557561562891351e-17,-2.775557561562891351e-17,-2.775557561562891351e-17,0.000000000000000000e+00,-2.775557561562891351e-17,-2.775557561562891351e-17,-2.775557561562891351e-17,-2.775557561562891351e-17,-2.775557561562891351e-17,-2.775557561562891351e-17,-5.995522377363365907e-03,-1.319014923019939944e-02,-2.078447757485965552e-02,-2.797910442769566131e-02,-3.557343277235594514e-02,-4.276805962519195092e-02,-5.036238796985220700e-02,-5.755701482268822666e-02,-6.515134316734846887e-02,-7.234597002018450240e-02,-7.954059687302053594e-02,-8.713492521768077814e-02,-9.432955207051679780e-02,-1.019238804151770539e-01,-1.091185072680130597e-01,-1.167128356126733157e-01,-1.239074624655093493e-01,-1.315017908101696054e-01
-1.125825868638230115e-01,-1.016130014770915413e-01,-9.122076268966172741e-02,-8.025117730293025720e-02,-6.985893851550044331e-02,-5.946669972807064330e-02,-4.849711434133915922e-02,-3.810487555390934533e-02,-2.713529016717786124e-02,-1.674305137974807511e-02,-5.773465993016591025e-03,-2.775557561562891351e-17,0.000000000000000000e+00,-2.775557561562891351e-17,-2.775557561562891351e-17,0.000000000000000000e+00,-2.775557561562891351e-17,-2.775557561562891351e-17,-2.775557561562891351e-17,-2.775557561562891351e-17,-2.775557561562891351e-17,-2.775557561562891351e-17,-2.775557561562891351e-17,-2.775557561562891351e-17,-2.775557561562891351e-17,-2.775557561562891351e-17,-5.551115123125782702e-17,-2.775557561562891351e-17,-2.775557561562891351e-17,-2.775557561562891351e-17,-2.797910442769613315e-03,-1.039223878742984164e-02,-1.758686564026584742e-02,-2.478149249310188096e-02,-3.237582083776213704e-02,-3.957044769059817058e-02,-4.716477603525842666e-02,-5.435940288809444632e-02,-6.195373123275467464e-02,-6.914835808559070818e-02,-7.674268643025096426e-02,-8.393731328308698392e-02,-9.153164162774724000e-02,-9.872626848058325966e-02,-1.063205968252435019e-01,-1.135152236780795354e-01,-1.211095520227397776e-01
-1.275935984456660899e-01,-1.172013596582362621e-01,-1.062317742715047919e-01,-9.583953548407497802e-02,-8.486995009734350781e-02,-7.447771130991369393e-02,-6.350812592318222372e-02,-5.311588713575240983e-02,-4.214630174902092574e-02,-3.175406296159113961e-02,-2.078447757485965552e-02,-1.039223878742984164e-02,0.000000000000000000e+00,-2.775557561562891351e-17,-2.775557561562891351e-17,-2.775557561562891351e-17,-2.775557561562891351e-17,-5.551115123125782702e-17,-2.775557561562891351e-17,-2.775557561562891351e-17,-2.775557561562891351e-17,-2.775557561562891351e-17,-5.551115123125782702e-17,-2.775557561562891351e-17,-2.775557561562891351e-17,-2.775557561562891351e-17,-2.775557561562891351e-17,-2.775557561562891351e-17,-2.775557561562891351e-17,-2.775557561562891351e-17,-2.775557561562891351e-17,-2.775557561562891351e-17,-7.194626852836033537e-03,-1.438925370567206707e-02,-2.198358205033229540e-02,-2.917820890316835669e-02,-3.677253724782861277e-02,-4.396716410066461855e-02,-5.156149244532487463e-02,-5.875611929816090817e-02,-6.635044764282113650e-02,-7.354507449565717003e-02,-8.113940284031742611e-02,-8.833402969315343189e-02,-9.552865654598946543e-02,-1.031229848906497215e-01,-1.103176117434857412e-01
-1.426046100275091266e-01,-1.322123712400793405e-01,-1.212427858533478564e-01,-1.108505470659180425e-01,-9.988096167918657231e-02,-8.948872289175677230e-02,-7.851913750502528822e-02,-6.812689871759547433e-02,-5.715731333086400412e-02,-4.676507454343419024e-02,-3.579548915670272002e-02,-2.540325036927290614e-02,-1.501101158184309226e-02,-4.041426195111635922e-03,-2.775557561562891351e-17,-2.775557561562891351e-17,-2.775557561562891351e-17,-2.775557561562891351e-17,-2.775557561562891351e-17,-2.775557561562891351e-17,-2.775557561562891351e-17,-2.775557561562891351e-17,-5.551115123125782702e-17,-2.775557561562891351e-17,-2.775557561562891351e-17,-2.775557561562891351e-17,-2.775557561562891351e-17,-2.775557561562891351e-17,-2.775557561562891351e-17,-2.775557561562891351e-17,-2.775557561562891351e-17,-2.775557561562891351e-17,-2.775557561562891351e-17,-3.997014918242253190e-03,-1.159134326290248151e-02,-1.878597011573854281e-02,-2.638029846039877113e-02,-3.357492531323480467e-02,-4.116925365789506075e-02,-4.836388051073109429e-02,-5.555850736356711395e-02,-6.315283570822735615e-02,-7.034746256106338969e-02,-7.794179090572364577e-02,-8.513641775855965155e-02,-9.273074610321990763e-02,-9.992537295605592729e-02
-1.576156216093522189e-01,-1.472233828219223772e-01,-1.362537974351909209e-01,-1.258615586477611070e-01,-1.148919732610296368e-01,-1.044997344735998229e-01,-9.353014908686835271e-02,-8.313791029943853883e-02,-7.274567151200872495e-02,-6.177608612527725473e-02,-5.138384733784744085e-02,-4.041426195111597064e-02,-3.002202316368615675e-02,-1.905243777695470042e-02,-8.660198989524886537e-03,-2.775557561562891351e-17,-2.775557561562891351e-17,-2.775557561562891351e-17,0.000000000000000000e+00,-2.775557561562891351e-17,-2.775557561562891351e-17,-2.775557561562891351e-17,-2.775557561562891351e-17,-2.775557561562891351e-17,-5.551115123125782702e-17,-2.775557561562891351e-17,-2.775557561562891351e-17,-2.775557561562891351e-17,-2.775557561562891351e-17,-5.551115123125782702e-17,-5.551115123125782702e-17,-2.775557561562891351e-17,-2.775557561562891351e-17,-2.775557561562891351e-17,-1.199104475472695386e-03,-8.393731328308728923e-03,-1.558835818114473470e-02,-2.318268652580499078e-02,-3.037731337864102432e-02,-3.797164172330128040e-02,-4.516626857613730006e-02,-5.276059692079754226e-02,-5.995522377363357580e-02,-6.754955211829380413e-02,-7.474417897112985154e-02,-8.233850731579009374e-02,-8.953313416862611340e-02
-1.662758205988770499e-01,-1.622343944037654695e-01,-1.512648090170339854e-01,-1.408725702296041715e-01,-1.304803314421743576e-01,-1.195107460554428874e-01,-1.091185072680130735e-01,-9.814892188128160333e-02,-8.775668309385178945e-02,-7.678709770712031923e-02,-6.639485891969049147e-02,-5.542527353295903514e-02,-4.503303474552922125e-02,-3.406344935879773717e-02,-2.367121057136792328e-02,-1.270162518463646695e-02,-2.309386397206653063e-03,-2.775557561562891351e-17,-2.775557561562891351e-17,-2.775557561562891351e-17,-2.775557561562891351e-17,-2.775557561562891351e-17,-2.775557561562891351e-17,-2.775557561562891351e-17,-2.775557561562891351e-17,-2.775557561562891351e-17,-2.775557561562891351e-17,-2.775557561562891351e-17,-2.775557561562891351e-17,-2.775557561562891351e-17,0.000000000000000000e+00,-2.775557561562891351e-17,-2.775557561562891351e-17,-2.775557561562891351e-17,-2.775557561562891351e-17,-2.775557561562891351e-17,-5.196119393714920820e-03,-1.279044773837517690e-02,-1.998507459121118268e-02,-2.757940293587143876e-02,-3.477402978870750005e-02,-4.236835813336772838e-02,-4.956298498620374804e-02,-5.715731333086400412e-02,-6.435194018370000990e-02,-7.194626852836027986e-02,-7.914089538119631340e-02
-1.662758205988770499e-01,-1.662758205988770499e-01,-1.662758205988770499e-01,-1.558835818114472360e-01,-1.454913430240174221e-01,-1.345217576372859658e-01,-1.241295188498561380e-01,-1.131599334631246678e-01,-1.714842511232678168e-01,-1.605146657365363327e-01,-1.501224269491065189e-01,-1.391528415623750625e-01,-6.004404632737228575e-02,-4.907446094064081554e-02,-3.868222215321101554e-02,-2.828998336578117390e-02,-1.732039797904971756e-02,-6.928159191619903678e-03,-2.775557561562891351e-17,-5.551115123125782702e-17,-2.775557561562891351e-17,-2.775557561562891351e-17,-2.775557561562891351e-17,-2.775557561562891351e-17,-2.775557561562891351e-17,-2.775557561562891351e-17,-5.551115123125782702e-17,-2.775557561562891351e-17,-2.775557561562891351e-17,0.000000000000000000e+00,0.000000000000000000e+00,-2.775557561562891351e-17,-2.775557561562891351e-17,-2.775557561562891351e-17,-2.775557561562891351e-17,-2.775557561562891351e-17,-2.775557561562891351e-17,-2.398208950945363016e-03,-9.592835803781396553e-03,-1.718716414844165263e-02,-2.438179100127768617e-02,-3.197611934593791450e-02,-3.917074619877394803e-02,-4.636537305160995381e-02,-5.395970139627020989e-02,-6.115432824910622955e-02,-6.874865659376648563e-02
-1.662758205988770499e-01,-1.662758205988770499e-01,-1.662758205988770499e-01,-1.662758205988770499e-01,-1.605023546058604866e-01,-1.495327692191290025e-01,-1.391405304316992164e-01,-1.281709450449677323e-01,-1.864952627051108536e-01,-1.755256773183793972e-01,-1.651334385309495834e-01,-1.547411997435197695e-01,-7.505505790921535025e-02,-6.466281912178553637e-02,-5.369323373505405228e-02,-4.330099494762425227e-02,-3.233140956089278206e-02,-2.193917077346296818e-02,-1.096958538673151184e-02,-5.773465993016979603e-04,-2.775557561562891351e-17,-2.775557561562891351e-17,-5.551115123125782702e-17,-2.775557561562891351e-17,-5.551115123125782702e-17,-2.775557561562891351e-17,-2.775557561562891351e-17,-2.775557561562891351e-17,0.000000000000000000e+00,-2.775557561562891351e-17,-2.775557561562891351e-17,-5.551115123125782702e-17,-2.775557561562891351e-17,-2.775557561562891351e-17,-2.775557561562891351e-17,-2.775557561562891351e-17,-2.775557561562891351e-17,-2.775557561562891351e-17,-2.775557561562891351e-17,-6.395223869187616206e-03,-1.398955221384784453e-02,-2.118417906668387807e-02,-2.877850741134410639e-02,-3.597313426418016769e-02,-4.356746260884040989e-02,-5.076208946167642955e-02,-5.835641780633667175e-02
-1.662758205988770499e-01,-1.662758205988770499e-01,-1.662758205988770499e-01,-1.662758205988770499e-01,-1.662758205988770499e-01,-1.645437808009720948e-01,-1.541515420135422532e-01,-1.437593032261124670e-01,-2.015062742869539458e-01,-1.911140354995241042e-01,-1.801444501127926479e-01,-1.697522113253628340e-01,-9.006606949105841475e-02,-7.967383070362860087e-02,-6.870424531689713066e-02,-5.831200652946731677e-02,-4.734242114273584656e-02,-3.695018235530603268e-02,-2.598059696857454859e-02,-1.558835818114476246e-02,-4.618772794413278371e-03,-2.775557561562891351e-17,-2.775557561562891351e-17,-2.775557561562891351e-17,-2.775557561562891351e-17,-2.775557561562891351e-17,-2.775557561562891351e-17,-5.551115123125782702e-17,-2.775557561562891351e-17,-2.775557561562891351e-17,-2.775557561562891351e-17,-5.551115123125782702e-17,-2.775557561562891351e-17,-2.775557561562891351e-17,-2.775557561562891351e-17,-2.775557561562891351e-17,-2.775557561562891351e-17,-2.775557561562891351e-17,-2.775557561562891351e-17,-2.775557561562891351e-17,-3.597313426418030646e-03,-1.079194027925409194e-02,-1.838626862391429251e-02,-2.558089547675032605e-02,-3.317522382141058213e-02,-4.036985067424661566e-02,-9.602828341076974361e-02
-1.662758205988770499e-01,-1.662758205988770499e-01,-1.662758205988770499e-01,-1.662758205988770499e-01,-1.662758205988770499e-01,-1.662758205988770499e-01,-1.662758205988770499e-01,-1.587703148079555038e-01,-2.165172858687969826e-01,-2.061250470813671964e-01,-1.951554616946357124e-01,-1.847632229072058985e-01,-1.050770810729014793e-01,-9.468484228547166537e-02,-8.371525689874019516e-02,-7.332301811131038127e-02,-6.235343272457891106e-02,-5.196119393714909718e-02,-4.156895514971928329e-02,-3.059936976298782696e-02,-2.020713097555798532e-02,-9.237545588826528986e-03,-2.775557561562891351e-17,-2.775557561562891351e-17,-2.775557561562891351e-17,-2.775557561562891351e-17,-2.775557561562891351e-17,-2.775557561562891351e-17,-2.775557561562891351e-17,-2.775557561562891351e-17,-2.775557561562891351e-17,-1.691924182321222214e-01,-1.691924182321222214e-01,-1.691924182321222214e-01,-2.775557561562891351e-17,-2.775557561562891351e-17,-2.775557561562891351e-17,-2.775557561562891351e-17,-2.775557561562891351e-17,-2.775557561562891351e-17,-2.775557561562891351e-17,-3.997014918242502990e-04,-7.994029836484506379e-03,-1.518865668932051216e-02,-2.278298503398076824e-02,-5.127420699807620774e-02,-1.622413336657762828e-01
-1.662758205988770499e-01,-1.662758205988770499e-01,-1.662758205988770499e-01,-1.662758205988770499e-01,-1.662758205988770499e-01,-1.662758205988770499e-01,-1.662758205988770499e-01,-1.662758205988770499e-01,-1.628117410030671119e-01,-1.524195022156372981e-01,-1.414499168289058417e-01,-1.310576780414760001e-01,-1.200880926547445438e-01,-1.096958538673147299e-01,-9.930361507988491598e-02,-8.833402969315344577e-02,-7.794179090572363189e-02,-6.697220551899216168e-02,-5.657996673156234779e-02,-4.561038134483087758e-02,-3.521814255740104982e-02,-2.424855717066959349e-02,-1.385631838323977960e-02,-2.886732996508295512e-03,-2.775557561562891351e-17,-2.775557561562891351e-17,-2.775557561562891351e-17,-2.775557561562891351e-17,-2.775557561562891351e-17,-2.775557561562891351e-17,-2.775557561562891351e-17,-1.691924182321222214e-01,-1.691924182321221937e-01,-1.691924182321222214e-01,-2.775557561562891351e-17,-2.775557561562891351e-17,-2.775557561562891351e-17,-5.551115123125782702e-17,-2.775557561562891351e-17,-2.775557561562891351e-17,-2.775557561562891351e-17,-2.775557561562891351e-17,-5.551115123125782702e-17,-4.796417901890698277e-03,-1.199104475472673181e-02,-1.296032087240045483e-01,-1.662758205988770499e-01
-1.662758205988770499e-01,-1.662758205988770499e-01,-1.662758205988770499e-01,-1.662758205988770499e-01,-1.662758205988770499e-01,-1.662758205988770499e-01,-1.662758205988770499e-01,-1.662758205988770499e-01,-1.662758205988770499e-01,-1.662758205988770499e-01,-1.570382750100505487e-01,-1.460686896233190923e-01,-1.356764508358892507e-01,-1.247068654491577944e-01,-1.143146266617279805e-01,-1.033450412749965103e-01,-9.295280248756669639e-02,-8.198321710083522618e-02,-7.159097831340541229e-02,-6.062139292667394208e-02,-5.022915413924411432e-02,-3.925956875251265799e-02,-2.886732996508284410e-02,-1.847509117765303022e-02,-7.505505790921546128e-03,-2.775557561562891351e-17,-2.775557561562891351e-17,-2.775557561562891351e-17,-5.551115123125782702e-17,-2.775557561562891351e-17,-2.775557561562891351e-17,-1.691924182321222214e-01,-1.691924182321222214e-01,-1.691924182321222214e-01,-2.775557561562891351e-17,-2.775557561562891351e-17,-2.775557561562891351e-17,-2.775557561562891351e-17,-2.775557561562891351e-17,-2.775557561562891351e-17,-2.775557561562891351e-17,-2.775557561562891351e-17,-2.775557561562891351e-17,-2.775557561562891351e-17,-8.393731328308698392e-02,-1.662758205988770499e-01,-1.662758205988770499e-01
-1.662758205988770499e-01,-1.662758205988770499e-01,-1.662758205988770499e-01,-1.662758205988770499e-01,-1.662758205988770499e-01,-1.662758205988770499e-01,-1.662758205988770499e-01,-1.662758205988770499e-01,-1.662758205988770499e-01,-1.662758205988770499e-01,-1.662758205988770499e-01,-1.610797012051621291e-01,-1.506874624177323430e-01,-1.397178770310008589e-01,-1.293256382435710450e-01,-1.183560528568395748e-01,-1.079638140694097609e-01,-9.699422868267829068e-02,-8.660198989524847679e-02,-7.563240450851700658e-02,-6.524016572108717882e-02,-5.484792693365737881e-02,-4.387834154692590860e-02,-3.348610275949609472e-02,-2.251651737276463838e-02,-1.212427858533482450e-02,-1.154693198603340409e-03,-2.775557561562891351e-17,-2.775557561562891351e-17,-2.775557561562891351e-17,-2.775557561562891351e-17,-2.775557561562891351e-17,-2.775557561562891351e-17,-5.551115123125782702e-17,-2.775557561562891351e-17,-2.775557561562891351e-17,-2.775557561562891351e-17,-2.775557561562891351e-17,0.000000000000000000e+00,-2.775557561562891351e-17,-2.775557561562891351e-17,-1.816478253199147463e-01,-1.816478253199147463e-01,-2.232167804696340019e-01,-1.662758205988770499e-01,-1.662758205988770499e-01,-1.662758205988770499e-01
-1.662758205988770499e-01,-1.662758205988770499e-01,-1.662758205988770499e-01,-1.662758205988770499e-01,-1.662758205988770499e-01,-1.662758205988770499e-01,-1.662758205988770499e-01,-1.662758205988770499e-01,-1.662758205988770499e-01,-1.662758205988770499e-01,-1.662758205988770499e-01,-1.662758205988770499e-01,-1.656984739995753797e-01,-1.547288886128439234e-01,-1.443366498254141095e-01,-1.333670644386826254e-01,-1.229748256512528254e-01,-1.125825868638230115e-01,-1.016130014770915413e-01,-9.122076268966172741e-02,-8.025117730293025720e-02,-6.985893851550045719e-02,-5.888935312876897310e-02,-4.849711434133915922e-02,-3.752752895460767513e-02,-2.713529016717786124e-02,-1.616570478044640491e-02,-5.773465993016591025e-03,-2.775557561562891351e-17,0.000000000000000000e+00,-2.775557561562891351e-17,-2.775557561562891351e-17,-2.775557561562891351e-17,-2.775557561562891351e-17,-2.775557561562891351e-17,-2.775557561562891351e-17,-2.775557561562891351e-17,-2.775557561562891351e-17,-2.775557561562891351e-17,-2.775557561562891351e-17,-2.775557561562891351e-17,-1.816478253199147741e-01,-1.868439447136296394e-01,-3.219430489502171922e-01,-1.662758205988770499e-01,-1.662758205988770499e-01,-1.662758205988770499e-01
-1.662758205988770499e-01,-1.662758205988770499e-01,-1.662758205988770499e-01,-1.662758205988770499e-01,-1.662758205988770499e-01,-1.662758205988770499e-01,-1.662758205988770499e-01,-1.662758205988770499e-01,-1.662758205988770499e-01,-1.662758205988770499e-01,-1.662758205988770499e-01,-1.662758205988770499e-01,-1.662758205988770499e-01,-1.662758205988770499e-01,-1.593476614072571740e-01,-1.489554226198273601e-01,-1.379858372330958760e-01,-1.275935984456660899e-01,-1.166240130589346058e-01,-1.062317742715047919e-01,-9.526218888477332170e-02,-8.486995009734350781e-02,-7.390036471061203760e-02,-6.350812592318222372e-02,-5.253854053645075350e-02,-4.214630174902095350e-02,-3.175406296159113961e-02,-2.078447757485965552e-02,-1.039223878742984164e-02,-2.775557561562891351e-17,-2.775557561562891351e-17,-2.775557561562891351e-17,-2.775557561562891351e-17,0.000000000000000000e+00,-2.775557561562891351e-17,-2.775557561562891351e-17,-2.775557561562891351e-17,-2.775557561562891351e-17,-2.775557561562891351e-17,-2.775557561562891351e-17,-2.775557561562891351e-17,-1.816478253199147463e-01,-2.803740938004979921e-01,-3.479236459187917685e-01,-1.662758205988770499e-01,-1.662758205988770499e-01,-1.662758205988770499e-01
-1.662758205988770499e-01,-1.662758205988770499e-01,-1.662758205988770499e-01,-1.662758205988770499e-01,-1.662758205988770499e-01,-1.662758205988770499e-01,-1.662758205988770499e-01,-1.662758205988770499e-01,-1.662758205988770499e-01,-1.662758205988770499e-01,-1.662758205988770499e-01,-1.662758205988770499e-01,-1.662758205988770499e-01,-1.662758205988770499e-01,-1.662758205988770499e-01,-1.639664342016704246e-01,-1.529968488149389683e-01,-1.426046100275091266e-01,-1.316350246407776703e-01,-1.212427858533478564e-01,-1.102732004666163862e-01,-9.988096167918657231e-02,-8.948872289175675843e-02,-7.851913750502528822e-02,-6.812689871759547433e-02,-5.715731333086400412e-02,-4.676507454343419024e-02,-3.579548915670272002e-02,-2.540325036927290614e-02,-1.443366498254144981e-02,-4.041426195111635922e-03,-2.775557561562891351e-17,-2.775557561562891351e-17,-2.775557561562891351e-17,-2.775557561562891351e-17,-2.775557561562891351e-17,-2.775557561562891351e-17,-2.775557561562891351e-17,-2.775557561562891351e-17,0.000000000000000000e+00,-2.775557561562891351e-17,-5.715731333086400412e-02,-1.662758205988770499e-01,-1.662758205988770499e-01,-1.662758205988770499e-01,-1.662758205988770499e-01,-1.662758205988770499e-01
-1.662758205988770499e-01,-1.662758205988770499e-01,-1.662758205988770499e-01,-1.662758205988770499e-01,-1.662758205988770499e-01,-1.662758205988770499e-01,-1.662758205988770499e-01,-1.662758205988770499e-01,-1.662758205988770499e-01,-1.662758205988770499e-01,-1.662758205988770499e-01,-1.662758205988770499e-01,-1.662758205988770499e-01,-1.662758205988770499e-01,-1.662758205988770499e-01,-1.662758205988770499e-01,-1.662758205988770499e-01,-1.576156216093522189e-01,-1.466460362226207348e-01,-1.362537974351909209e-01,-1.258615586477611070e-01,-1.148919732610296368e-01,-1.044997344735998090e-01,-9.353014908686835271e-02,-8.313791029943853883e-02,-7.216832491270706862e-02,-6.177608612527725473e-02,-5.080650073854578452e-02,-4.041426195111597064e-02,-2.944467656438448655e-02,-1.905243777695467267e-02,-8.082852390223216332e-03,-2.775557561562891351e-17,-2.775557561562891351e-17,-5.551115123125782702e-17,0.000000000000000000e+00,-2.775557561562891351e-17,-2.775557561562891351e-17,-2.775557561562891351e-17,-2.775557561562891351e-17,-2.078447757485965552e-02,-1.558835818114472360e-01,-1.662758205988770499e-01,-1.662758205988770499e-01,-1.662758205988770499e-01,-1.662758205988770499e-01,-1.662758205988770499e-01
-1.662758205988770499e-01,-1.662758205988770499e-01,-1.662758205988770499e-01,-1.662758205988770499e-01,-1.662758205988770499e-01,-1.662758205988770499e-01,-1.662758205988770499e-01,-1.662758205988770499e-01,-1.662758205988770499e-01,-1.662758205988770499e-01,-1.662758205988770499e-01,-1.662758205988770499e-01,-1.662758205988770499e-01,-1.662758205988770499e-01,-1.662758205988770499e-01,-2.163035748329071861e-01,-2.163035748329071861e-01,-2.163035748329071861e-01,-1.622343944037654695e-01,-1.512648090170339854e-01,-1.408725702296041715e-01,-1.299029848428727152e-01,-1.195107460554428874e-01,-1.085411606687114172e-01,-9.814892188128160333e-02,-8.717933649455013312e-02,-7.678709770712031923e-02,-6.581751232038883515e-02,-5.542527353295903514e-02,-4.503303474552922125e-02,-3.406344935879776492e-02,-2.367121057136795104e-02,-1.270162518463646695e-02,-2.309386397206653063e-03,-2.775557561562891351e-17,-2.775557561562891351e-17,0.000000000000000000e+00,-2.775557561562891351e-17,-2.775557561562891351e-17,-2.775557561562891351e-17,-1.143146266617279805e-01,-1.662758205988770499e-01,-1.662758205988770499e-01,-1.662758205988770499e-01,-1.662758205988770499e-01,-1.662758205988770499e-01,-1.662758205988770499e-01
-1.662758205988770499e-01,-1.662758205988770499e-01,-1.662758205988770499e-01,-1.662758205988770499e-01,-1.662758205988770499e-01,-1.662758205988770499e-01,-1.662758205988770499e-01,-1.662758205988770499e-01,-1.662758205988770499e-01,-1.662758205988770499e-01,-1.662758205988770499e-01,-1.662758205988770499e-01,-1.662758205988770499e-01,-1.662758205988770499e-01,-1.662758205988770499e-01,-2.163035748329071861e-01,-2.163035748329071861e-01,-2.163035748329071861e-01,-1.662758205988770499e-01,-1.662758205988770499e-01,-1.558835818114472360e-01,-1.449139964247157519e-01,-1.345217576372859658e-01,-1.235521722505544817e-01,-1.131599334631246678e-01,-1.027676946756948539e-01,-9.179810928896338373e-02,-8.140587050153356985e-02,-7.043628511480209964e-02,-6.004404632737228575e-02,-4.907446094064081554e-02,-3.868222215321101554e-02,-2.771263676647953145e-02,-1.732039797904971756e-02,-6.350812592318261229e-03,-2.775557561562891351e-17,-2.775557561562891351e-17,-2.775557561562891351e-17,-5.551115123125782702e-17,-7.794179090572363189e-02,-1.662758205988770499e-01,-1.662758205988770499e-01,-1.662758205988770499e-01,-1.662758205988770499e-01,-1.662758205988770499e-01,-1.662758205988770499e-01,-1.662758205988770499e-01
-1.662758205988770499e-01,-1.662758205988770499e-01,-1.662758205988770499e-01,-1.662758205988770499e-01,-1.662758205988770499e-01,-1.662758205988770499e-01,-1.662758205988770499e-01,-1.662758205988770499e-01,-1.662758205988770499e-01,-1.662758205988770499e-01,-1.662758205988770499e-01,-1.662758205988770499e-01,-1.662758205988770499e-01,-1.662758205988770499e-01,-1.662758205988770499e-01,-2.163035748329071861e-01,-2.163035748329071861e-01,-2.163035748329071861e-01,-1.662758205988770499e-01,-1.662758205988770499e-01,-1.662758205988770499e-01,-1.599250080065588442e-01,-1.495327692191290025e-01,-1.391405304316992164e-01,-1.281709450449677323e-01,-1.177787062575379184e-01,-1.068091208708064482e-01,-9.641688208337663435e-02,-8.544729669664516414e-02,-7.505505790921535025e-02,-6.408547252248388004e-02,-5.369323373505406616e-02,-4.272364834832259595e-02,-3.233140956089278206e-02,-2.136182417416129797e-02,-1.096958538673151184e-02,-5.773465993016702047e-04,-2.775557561562891351e-17,-3.637283575600439023e-02,-1.662758205988770499e-01,-1.662758205988770499e-01,-1.662758205988770499e-01,-1.662758205988770499e-01,-1.662758205988770499e-01,-1.662758205988770499e-01,-1.662758205988770499e-01,-1.662758205988770499e-01
-1.662758205988770499e-01,-1.662758205988770499e-01,-1.662758205988770499e-01,-1.662758205988770499e-01,-1.662758205988770499e-01,-1.662758205988770499e-01,-1.662758205988770499e-01,-1.662758205988770499e-01,-1.662758205988770499e-01,-1.662758205988770499e-01,-1.662758205988770499e-01,-1.662758205988770499e-01,-1.662758205988770499e-01,-1.662758205988770499e-01,-1.662758205988770499e-01,-1.662758205988770499e-01,-1.662758205988770499e-01,-1.662758205988770499e-01,-1.662758205988770499e-01,-1.662758205988770499e-01,-1.662758205988770499e-01,-1.662758205988770499e-01,-1.645437808009720948e-01,-1.541515420135422532e-01,-1.431819566268107968e-01,-1.327897178393809829e-01,-1.218201324526495127e-01,-1.114278936652196988e-01,-1.004583082784882286e-01,-9.006606949105841475e-02,-7.909648410432694454e-02,-6.870424531689713066e-02,-5.831200652946731677e-02,-4.734242114273584656e-02,-3.695018235530603268e-02,-2.598059696857457634e-02,-1.558835818114476246e-02,-4.618772794413278371e-03,-1.299029848428727152e-01,-1.662758205988770499e-01,-1.662758205988770499e-01,-1.662758205988770499e-01,-1.662758205988770499e-01,-1.662758205988770499e-01,-1.662758205988770499e-01,-1.662758205988770499e-01,-1.662758205988770499e-01
-1.662758205988770499e-01,-1.662758205988770499e-01,-1.662758205988770499e-01,-1.662758205988770499e-01,-1.662758205988770499e-01,-1.662758205988770499e-01,-1.662758205988770499e-01,-1.662758205988770499e-01,-1.662758205988770499e-01,-1.662758205988770499e-01,-1.662758205988770499e-01,-1.662758205988770499e-01,-1.662758205988770499e-01,-1.662758205988770499e-01,-1.662758205988770499e-01,-1.662758205988770499e-01,-1.662758205988770499e-01,-1.662758205988770499e-01,-1.662758205988770499e-01,-1.662758205988770499e-01,-1.662758205988770499e-01,-1.662758205988770499e-01,-1.662758205988770499e-01,-1.662758205988770499e-01,-1.581929682086538613e-01,-1.478007294212240474e-01,-1.368311440344925911e-01,-1.264389052470627495e-01,-1.160466664596329495e-01,-1.050770810729014793e-01,-9.468484228547166537e-02,-8.371525689874019516e-02,-7.332301811131038127e-02,-6.235343272457891106e-02,-5.196119393714909718e-02,-4.099160855041764084e-02,-3.059936976298779920e-02,-1.021181797514804923e-01,-1.662758205988770499e-01,-1.662758205988770499e-01,-1.662758205988770499e-01,-1.662758205988770499e-01,-1.662758205988770499e-01,-1.662758205988770499e-01,-1.662758205988770499e-01,-1.662758205988770499e-01,-1.662758205988770499e-01
-1.662758205988770499e-01,-1.662758205988770499e-01,-1.662758205988770499e-01,-1.662758205988770499e-01,-1.662758205988770499e-01,-1.662758205988770499e-01,-1.662758205988770499e-01,-1.662758205988770499e-01,-1.662758205988770499e-01,-1.662758205988770499e-01,-1.662758205988770499e-01,-1.662758205988770499e-01,-1.662758205988770499e-01,-1.662758205988770499e-01,-1.662758205988770499e-01,-1.662758205988770499e-01,-1.662758205988770499e-01,-1.662758205988770499e-01,-1.662758205988770499e-01,-1.662758205988770499e-01,-1.662758205988770499e-01,-1.662758205988770499e-01,-1.662758205988770499e-01,-1.662758205988770499e-01,-1.662758205988770499e-01,-1.628117410030671119e-01,-1.524195022156372981e-01,-1.414499168289058417e-01,-1.310576780414760001e-01,-1.200880926547445438e-01,-1.096958538673147299e-01,-9.872626848058325966e-02,-8.833402969315344577e-02,-7.736444430642197556e-02,-6.697220551899216168e-02,-5.600262013226070534e-02,-8.331833111172029516e-02,-1.662758205988770499e-01,-1.662758205988770499e-01,-1.662758205988770499e-01,-1.662758205988770499e-01,-1.662758205988770499e-01,-1.662758205988770499e-01,-1.662758205988770499e-01,-1.662758205988770499e-01,-1.662758205988770499e-01,-1.662758205988770499e-01
-1.662758205988770499e-01,-1.662758205988770499e-01,-1.662758205988770499e-01,-1.662758205988770499e-01,-1.662758205988770499e-01,-1.662758205988770499e-01,-1.662758205988770499e-01,-1.662758205988770499e-01,-1.662758205988770499e-01,-1.662758205988770499e-01,-1.662758205988770499e-01,-1.662758205988770499e-01,-1.662758205988770499e-01,-1.662758205988770499e-01,-1.662758205988770499e-01,-1.662758205988770499e-01,-1.662758205988770499e-01,-1.662758205988770499e-01,-1.662758205988770499e-01,-1.662758205988770499e-01,-1.662758205988770499e-01,-1.662758205988770499e-01,-1.662758205988770499e-01,-1.662758205988770499e-01,-1.662758205988770499e-01,-1.662758205988770499e-01,-1.662758205988770499e-01,-1.564609284107488785e-01,-1.460686896233190923e-01,-1.350991042365876083e-01,-1.247068654491577944e-01,-1.137372800624263242e-01,-1.033450412749965103e-01,-9.237545588826504006e-02,-8.198321710083522618e-02,-7.750878095624738617e-02,-1.530690171398516597e-01,-1.662758205988770499e-01,-1.662758205988770499e-01,-1.662758205988770499e-01,-1.662758205988770499e-01,-1.662758205988770499e-01,-1.662758205988770499e-01,-1.662758205988770499e-01,-1.662758205988770499e-01,-1.662758205988770499e-01,-1.662758205988770499e-01
