0.000000000000000000e+00,0.000000000000000000e+00,0.000000000000000000e+00,0.000000000000000000e+00,0.000000000000000000e+00,0.000000000000000000e+00,0.000000000000000000e+00,0.000000000000000000e+00,0.000000000000000000e+00,0.000000000000000000e+00,0.000000000000000000e+00,0.000000000000000000e+00,0.000000000000000000e+00,0.000000000000000000e+00,0.000000000000000000e+00,0.000000000000000000e+00,0.000000000000000000e+00,0.000000000000000000e+00,0.000000000000000000e+00,0.000000000000000000e+00,0.000000000000000000e+00,0.000000000000000000e+00,0.000000000000000000e+00,-3.406475956908410624e-02,-6.943970219851761105e-02,-1.061248278883004936e-01,-1.240306630464088067e-01,-1.201001138653606526e-01,-1.161695646843124707e-01,-1.122390155032643028e-01,-8.461598931423135184e-02,-2.609447928529199170e-02,0.000000000000000000e+00,0.000000000000000000e+00,0.000000000000000000e+00,0.000000000000000000e+00,0.000000000000000000e+00,0.000000000000000000e+00,0.000000000000000000e+00,0.000000000000000000e+00,0.000000000000000000e+00,0.000000000000000000e+00,0.000000000000000000e+00,0.000000000000000000e+00,0.000000000000000000e+00,0.000000000000000000e+00,0.000000000000000000e+00
0.000000000000000000e+00,0.000000000000000000e+00,0.000000000000000000e+00,0.000000000000000000e+00,-1.464643283252758665e-01,-1.464643283252758665e-01,-1.464643283252758665e-01,-1.464643283252758665e-01,0.000000000000000000e+00,0.000000000000000000e+00,0.000000000000000000e+00,0.000000000000000000e+00,0.000000000000000000e+00,0.000000000000000000e+00,0.000000000000000000e+00,0.000000000000000000e+00,0.000000000000000000e+00,0.000000000000000000e+00,0.000000000000000000e+00,0.000000000000000000e+00,0.000000000000000000e+00,0.000000000000000000e+00,-2.096292896559022109e-02,-5.633787159502372244e-02,-9.171281422445720644e-02,-1.254864220023525767e-01,-1.215558728213043949e-01,-1.176253236402562408e-01,-1.136947744592080867e-01,-1.097642252781598909e-01,-1.058336760971117368e-01,-1.019031269160635689e-01,-5.502768853467432386e-02,-2.934264145574151921e-03,0.000000000000000000e+00,0.000000000000000000e+00,0.000000000000000000e+00,0.000000000000000000e+00,0.000000000000000000e+00,0.000000000000000000e+00,0.000000000000000000e+00,0.000000000000000000e+00,0.000000000000000000e+00,0.000000000000000000e+00,0.000000000000000000e+00,0.000000000000000000e+00,0.000000000000000000e+00
0.000000000000000000e+00,0.000000000000000000e+00,0.000000000000000000e+00,0.000000000000000000e+00,-1.464643283252758665e-01,-1.464643283252758665e-01,-1.464643283252758665e-01,-1.464643283252758665e-01,0.000000000000000000e+00,0.000000000000000000e+00,0.000000000000000000e+00,0.000000000000000000e+00,0.000000000000000000e+00,0.000000000000000000e+00,0.000000000000000000e+00,0.000000000000000000e+00,0.000000000000000000e+00,0.000000000000000000e+00,0.000000000000000000e+00,0.000000000000000000e+00,0.000000000000000000e+00,-7.861098362096332476e-03,-4.323604099152983382e-02,-7.861098362096333170e-02,-1.139859262503968296e-01,-1.230116317772481649e-01,-1.190810825962000108e-01,-1.151505334151518289e-01,-1.112199842341036748e-01,-1.072894350530555069e-01,-1.033588858720073389e-01,-9.942833669095915705e-02,-9.535221161431663150e-02,-8.285088158014955462e-02,-3.280916746958261604e-02,0.000000000000000000e+00,0.000000000000000000e+00,0.000000000000000000e+00,0.000000000000000000e+00,0.000000000000000000e+00,0.000000000000000000e+00,0.000000000000000000e+00,0.000000000000000000e+00,0.000000000000000000e+00,0.000000000000000000e+00,0.000000000000000000e+00,0.000000000000000000e+00
0.000000000000000000e+00,0.000000000000000000e+00,0.000000000000000000e+00,0.000000000000000000e+00,-1.464643283252758665e-01,-1.464643283252758665e-01,-1.464643283252758665e-01,-1.464643283252758665e-01,0.000000000000000000e+00,0.000000000000000000e+00,0.000000000000000000e+00,0.000000000000000000e+00,0.000000000000000000e+00,0.000000000000000000e+00,0.000000000000000000e+00,0.000000000000000000e+00,0.000000000000000000e+00,0.000000000000000000e+00,0.000000000000000000e+00,0.000000000000000000e+00,0.000000000000000000e+00,-3.013421038803594521e-02,-6.550915301746944308e-02,-1.008840956469029271e-01,-1.246129666287863202e-01,-1.206824174477381384e-01,-1.166062923710956128e-01,-1.126757431900474310e-01,-1.087451940089992630e-01,-1.048146448279510951e-01,-1.008840956469029271e-01,-9.695354646585475911e-02,-9.302299728480661889e-02,-8.894687220816407947e-02,-8.501632302711589761e-02,-5.574646951917155979e-02,-1.205550385390930651e-02,0.000000000000000000e+00,0.000000000000000000e+00,0.000000000000000000e+00,0.000000000000000000e+00,0.000000000000000000e+00,0.000000000000000000e+00,0.000000000000000000e+00,0.000000000000000000e+00,0.000000000000000000e+00,0.000000000000000000e+00
0.000000000000000000e+00,0.000000000000000000e+00,0.000000000000000000e+00,0.000000000000000000e+00,-1.464643283252758665e-01,-1.464643283252758665e-01,-1.464643283252758665e-01,-1.464643283252758665e-01,0.000000000000000000e+00,0.000000000000000000e+00,0.000000000000000000e+00,0.000000000000000000e+00,0.000000000000000000e+00,0.000000000000000000e+00,0.000000000000000000e+00,0.000000000000000000e+00,0.000000000000000000e+00,0.000000000000000000e+00,0.000000000000000000e+00,0.000000000000000000e+00,-1.703237978454205659e-02,-5.240732241397555446e-02,-8.778226504340905234e-02,-1.231572076728425363e-01,-1.221381764036819084e-01,-1.182076272226337543e-01,-1.141315021459912010e-01,-1.102009529649430331e-01,-1.062704037838948512e-01,-1.023398546028466971e-01,-9.840930542179852913e-02,-9.447875624075037504e-02,-9.054820705970220707e-02,-8.647208198305966764e-02,-8.254153280201149967e-02,-7.861098362096333170e-02,-7.468043443991514985e-02,-3.316400871509389559e-02,0.000000000000000000e+00,0.000000000000000000e+00,0.000000000000000000e+00,0.000000000000000000e+00,0.000000000000000000e+00,0.000000000000000000e+00,0.000000000000000000e+00,0.000000000000000000e+00,0.000000000000000000e+00
0.000000000000000000e+00,0.000000000000000000e+00,0.000000000000000000e+00,0.000000000000000000e+00,0.000000000000000000e+00,0.000000000000000000e+00,0.000000000000000000e+00,0.000000000000000000e+00,0.000000000000000000e+00,0.000000000000000000e+00,0.000000000000000000e+00,0.000000000000000000e+00,0.000000000000000000e+00,0.000000000000000000e+00,0.000000000000000000e+00,0.000000000000000000e+00,0.000000000000000000e+00,0.000000000000000000e+00,0.000000000000000000e+00,-2.620366120698777637e-03,-3.930549181048166585e-02,-7.468043443991516372e-02,-1.100553770693486616e-01,-1.235939353596256784e-01,-1.196633861785775244e-01,-1.157328369975293425e-01,-1.118022878164811745e-01,-1.077261627398386351e-01,-1.037956135587904671e-01,-9.986506437774228528e-02,-9.593451519669413119e-02,-9.200396601564597709e-02,-8.807341683459779524e-02,-8.414286765354962727e-02,-8.006674257690710172e-02,-7.613619339585891987e-02,-7.220564421481075190e-02,-6.827509503376258393e-02,-5.026917644743314484e-02,-1.510349916791656547e-02,0.000000000000000000e+00,0.000000000000000000e+00,0.000000000000000000e+00,0.000000000000000000e+00,0.000000000000000000e+00,0.000000000000000000e+00,0.000000000000000000e+00
0.000000000000000000e+00,0.000000000000000000e+00,0.000000000000000000e+00,0.000000000000000000e+00,0.000000000000000000e+00,0.000000000000000000e+00,0.000000000000000000e+00,0.000000000000000000e+00,0.000000000000000000e+00,0.000000000000000000e+00,0.000000000000000000e+00,0.000000000000000000e+00,0.000000000000000000e+00,0.000000000000000000e+00,0.000000000000000000e+00,0.000000000000000000e+00,0.000000000000000000e+00,0.000000000000000000e+00,0.000000000000000000e+00,-3.010199366683452560e-01,-3.377050623581281386e-01,-3.730800049875616642e-01,-1.250496943155694485e-01,-1.211191451345212805e-01,-1.171885959534731125e-01,-1.132580467724249446e-01,-1.093274975913767766e-01,-1.052513725147342372e-01,-1.013208233336860553e-01,-9.739027415263788734e-02,-9.345972497158974712e-02,-8.952917579054157915e-02,-8.559862660949341118e-02,-8.166807742844522933e-02,-7.759195235180268990e-02,-7.366140317075452193e-02,-6.973085398970635396e-02,-6.580030480865818598e-02,-6.186975562761003189e-02,-5.793920644656185698e-02,-3.206764025139875740e-02,-3.120783261804446849e-03,0.000000000000000000e+00,0.000000000000000000e+00,0.000000000000000000e+00,0.000000000000000000e+00,0.000000000000000000e+00
0.000000000000000000e+00,0.000000000000000000e+00,0.000000000000000000e+00,0.000000000000000000e+00,0.000000000000000000e+00,0.000000000000000000e+00,0.000000000000000000e+00,0.000000000000000000e+00,0.000000000000000000e+00,0.000000000000000000e+00,0.000000000000000000e+00,0.000000000000000000e+00,0.000000000000000000e+00,0.000000000000000000e+00,0.000000000000000000e+00,0.000000000000000000e+00,0.000000000000000000e+00,0.000000000000000000e+00,-1.179164754314449871e-02,-3.232930486942848791e-01,-3.586679913237183492e-01,-3.953531170135012873e-01,-1.225749040904650505e-01,-1.186443549094168826e-01,-1.147138057283687146e-01,-1.107832565473205466e-01,-1.068527073662723648e-01,-1.029221581852241829e-01,-9.884603310858164349e-02,-9.491548392753350327e-02,-9.098493474648533530e-02,-8.705438556543716733e-02,-8.312383638438899935e-02,-7.919328720334083138e-02,-7.511716212669827808e-02,-7.118661294565011011e-02,-6.725606376460194213e-02,-6.332551458355378804e-02,-5.939496540250563394e-02,-5.546441622145745209e-02,-5.153386704040929106e-02,-4.300857865466362062e-02,-1.632269729351946974e-02,0.000000000000000000e+00,0.000000000000000000e+00,0.000000000000000000e+00,0.000000000000000000e+00
0.000000000000000000e+00,0.000000000000000000e+00,0.000000000000000000e+00,0.000000000000000000e+00,0.000000000000000000e+00,0.000000000000000000e+00,0.000000000000000000e+00,0.000000000000000000e+00,0.000000000000000000e+00,0.000000000000000000e+00,0.000000000000000000e+00,0.000000000000000000e+00,0.000000000000000000e+00,0.000000000000000000e+00,0.000000000000000000e+00,0.000000000000000000e+00,0.000000000000000000e+00,0.000000000000000000e+00,-3.406475956908410624e-02,-3.455661607202245023e-01,-3.809411033496579724e-01,-4.001571215681156701e-01,-1.201001138653606387e-01,-1.161695646843124707e-01,-1.122390155032643028e-01,-1.083084663222161348e-01,-1.043779171411679529e-01,-1.004473679601198127e-01,-9.637124288347725942e-02,-9.244069370242910533e-02,-8.851014452138093735e-02,-8.457959534033276938e-02,-8.064904615928460141e-02,-7.671849697823643344e-02,-7.278794779718825159e-02,-6.871182272054571216e-02,-6.478127353949755807e-02,-6.085072435844939703e-02,-5.692017517740122212e-02,-5.298962599635305415e-02,-4.905907681530488618e-02,-4.498295173866234675e-02,-4.105240255761418572e-02,-2.552127419638913416e-02,-5.186141280549663377e-03,0.000000000000000000e+00,0.000000000000000000e+00
0.000000000000000000e+00,0.000000000000000000e+00,0.000000000000000000e+00,0.000000000000000000e+00,0.000000000000000000e+00,0.000000000000000000e+00,0.000000000000000000e+00,0.000000000000000000e+00,0.000000000000000000e+00,0.000000000000000000e+00,0.000000000000000000e+00,0.000000000000000000e+00,0.000000000000000000e+00,0.000000000000000000e+00,0.000000000000000000e+00,0.000000000000000000e+00,0.000000000000000000e+00,-2.096292896559022109e-02,-5.633787159502372244e-02,-9.171281422445722031e-02,-1.256319978979469343e-01,-1.215558728213043949e-01,-1.176253236402562408e-01,-1.136947744592080728e-01,-1.097642252781599048e-01,-1.058336760971117230e-01,-1.019031269160635550e-01,-9.797257773501538702e-02,-9.389645265837286148e-02,-8.996590347732470738e-02,-8.603535429627652553e-02,-8.210480511522835756e-02,-7.817425593418018959e-02,-7.424370675313202161e-02,-7.031315757208385364e-02,-6.623703249544131422e-02,-6.230648331439316012e-02,-5.837593413334499215e-02,-5.444538495229681724e-02,-5.051483577124865620e-02,-4.658428659020049517e-02,-4.265373740915232026e-02,-3.857761233250978083e-02,-3.464706315146161286e-02,-3.071651397041344836e-02,-1.255592099501497659e-02,0.000000000000000000e+00
0.000000000000000000e+00,0.000000000000000000e+00,0.000000000000000000e+00,0.000000000000000000e+00,0.000000000000000000e+00,0.000000000000000000e+00,0.000000000000000000e+00,0.000000000000000000e+00,0.000000000000000000e+00,0.000000000000000000e+00,0.000000000000000000e+00,0.000000000000000000e+00,0.000000000000000000e+00,0.000000000000000000e+00,0.000000000000000000e+00,0.000000000000000000e+00,-7.861098362096332476e-03,-4.323604099152983382e-02,-7.861098362096333170e-02,-1.139859262503968296e-01,-1.231572076728425502e-01,-1.192266584917943822e-01,-1.151505334151518428e-01,-1.112199842341036610e-01,-1.072894350530554930e-01,-1.033588858720073389e-01,-9.942833669095915705e-02,-9.549778750991100296e-02,-9.156723832886284886e-02,-8.749111325222030944e-02,-8.356056407117212759e-02,-7.963001489012394574e-02,-7.569946570907579164e-02,-7.176891652802762367e-02,-6.783836734697945570e-02,-6.376224227033691627e-02,-5.983169308928875524e-02,-5.590114390824058727e-02,-5.197059472719241929e-02,-4.804004554614425826e-02,-4.410949636509609029e-02,-4.017894718404792231e-02,-3.610282210740537595e-02,-3.217227292635721492e-02,-2.824172374530904694e-02,-2.431117456426088591e-02,-1.592236358063493437e-02
0.000000000000000000e+00,0.000000000000000000e+00,0.000000000000000000e+00,0.000000000000000000e+00,0.000000000000000000e+00,0.000000000000000000e+00,0.000000000000000000e+00,0.000000000000000000e+00,0.000000000000000000e+00,0.000000000000000000e+00,0.000000000000000000e+00,0.000000000000000000e+00,0.000000000000000000e+00,0.000000000000000000e+00,0.000000000000000000e+00,0.000000000000000000e+00,-3.013421038803594174e-02,-6.550915301746944308e-02,-1.008840956469029271e-01,-1.246129666287863202e-01,-1.206824174477381523e-01,-1.167518682666899843e-01,-1.126757431900474310e-01,-1.087451940089992769e-01,-1.048146448279510812e-01,-1.008840956469029271e-01,-9.695354646585475911e-02,-9.302299728480661889e-02,-8.909244810375843704e-02,-8.501632302711589761e-02,-8.108577384606772964e-02,-7.715522466501956167e-02,-7.322467548397137982e-02,-6.929412630292322572e-02,-6.536357712187505775e-02,-6.143302794082689672e-02,-5.735690286418435035e-02,-5.342635368313618238e-02,-4.949580450208801441e-02,-4.556525532103986031e-02,-4.163470613999169234e-02,-3.770415695894351743e-02,-3.377360777789535640e-02,-2.969748270125280656e-02,-2.576693352020464553e-02,-2.183638433915648103e-02,-1.790583515810831305e-02
0.000000000000000000e+00,0.000000000000000000e+00,0.000000000000000000e+00,0.000000000000000000e+00,0.000000000000000000e+00,0.000000000000000000e+00,0.000000000000000000e+00,0.000000000000000000e+00,0.000000000000000000e+00,0.000000000000000000e+00,0.000000000000000000e+00,0.000000000000000000e+00,0.000000000000000000e+00,0.000000000000000000e+00,0.000000000000000000e+00,-1.572219672419266495e-02,-5.240732241397554753e-02,-8.778226504340905234e-02,-1.231572076728425363e-01,-1.221381764036819084e-01,-1.182076272226337543e-01,-1.142770780415855864e-01,-1.103465288605374045e-01,-1.062704037838948651e-01,-1.023398546028466971e-01,-9.840930542179851526e-02,-9.447875624075037504e-02,-9.054820705970220707e-02,-8.661765787865403909e-02,-8.268710869760587112e-02,-7.861098362096333170e-02,-7.468043443991516372e-02,-7.074988525886698187e-02,-6.681933607781882778e-02,-6.288878689677065981e-02,-5.895823771572249183e-02,-5.488211263907995241e-02,-5.095156345803178444e-02,-4.702101427698362340e-02,-4.309046509593545543e-02,-3.915991591488728746e-02,-3.522936673383911949e-02,-3.129881755279095151e-02,-2.722269247614841209e-02,-2.329214329510024759e-02,-1.936159411405207961e-02,-1.543104493300391164e-02
0.000000000000000000e+00,0.000000000000000000e+00,0.000000000000000000e+00,0.000000000000000000e+00,0.000000000000000000e+00,0.000000000000000000e+00,0.000000000000000000e+00,0.000000000000000000e+00,0.000000000000000000e+00,0.000000000000000000e+00,0.000000000000000000e+00,0.000000000000000000e+00,0.000000000000000000e+00,0.000000000000000000e+00,-2.620366120698777637e-03,-3.799530875013227421e-02,-7.468043443991516372e-02,-1.100553770693486616e-01,-1.235939353596256784e-01,-1.196633861785775244e-01,-1.157328369975293425e-01,-1.118022878164811745e-01,-1.078717386354330066e-01,-1.037956135587904671e-01,-9.986506437774228528e-02,-9.593451519669413119e-02,-9.200396601564597709e-02,-8.807341683459780912e-02,-8.414286765354964115e-02,-8.021231847250147318e-02,-7.613619339585891987e-02,-7.220564421481075190e-02,-6.827509503376258393e-02,-6.434454585271442983e-02,-6.041399667166626186e-02,-5.648344749061808695e-02,-5.255289830956992592e-02,-4.847677323292738649e-02,-4.454622405187922546e-02,-4.061567487083105749e-02,-3.668512568978288257e-02,-3.275457650873472154e-02,-2.882402732768655010e-02,-2.489347814663838906e-02,-2.081735306999584270e-02,-1.688680388894767820e-02,-1.295625470789951196e-02
0.000000000000000000e+00,0.000000000000000000e+00,0.000000000000000000e+00,0.000000000000000000e+00,0.000000000000000000e+00,0.000000000000000000e+00,0.000000000000000000e+00,0.000000000000000000e+00,0.000000000000000000e+00,0.000000000000000000e+00,0.000000000000000000e+00,0.000000000000000000e+00,0.000000000000000000e+00,0.000000000000000000e+00,-2.489347814663838906e-02,-6.026842077607189041e-02,-9.564336340550538829e-02,-1.250496943155694485e-01,-1.211191451345212805e-01,-1.171885959534730987e-01,-1.132580467724249584e-01,-1.093274975913767766e-01,-1.053969484103285947e-01,-1.014663992292804268e-01,-9.739027415263788734e-02,-9.345972497158974712e-02,-8.952917579054157915e-02,-8.559862660949341118e-02,-8.166807742844522933e-02,-7.773752824739707523e-02,-7.366140317075450805e-02,-6.973085398970635396e-02,-6.580030480865818598e-02,-6.186975562761002495e-02,-5.793920644656186392e-02,-5.400865726551369594e-02,-5.007810808446552797e-02,-4.600198300782298855e-02,-4.207143382677481364e-02,-3.814088464572665260e-02,-3.421033546467848463e-02,-3.027978628363031666e-02,-2.634923710258215562e-02,-2.241868792153398765e-02,-1.834256284489144129e-02,-1.441201366384327678e-02,-1.048146448279510881e-02
0.000000000000000000e+00,0.000000000000000000e+00,0.000000000000000000e+00,0.000000000000000000e+00,0.000000000000000000e+00,0.000000000000000000e+00,0.000000000000000000e+00,0.000000000000000000e+00,0.000000000000000000e+00,0.000000000000000000e+00,0.000000000000000000e+00,0.000000000000000000e+00,0.000000000000000000e+00,-1.179164754314449871e-02,-4.716659017257800179e-02,-8.254153280201149967e-02,-1.179164754314449837e-01,-1.225749040904650505e-01,-1.186443549094168826e-01,-1.147138057283687146e-01,-1.107832565473205466e-01,-1.068527073662723648e-01,-1.029221581852241968e-01,-9.899160900417604270e-02,-9.491548392753350327e-02,-9.098493474648533530e-02,-8.705438556543718120e-02,-8.312383638438899935e-02,-7.919328720334083138e-02,-7.526273802229266341e-02,-7.133218884124449544e-02,-6.725606376460195601e-02,-6.332551458355378804e-02,-5.939496540250562701e-02,-5.546441622145745209e-02,-5.153386704040928412e-02,-4.760331785936113003e-02,-4.352719278271859060e-02,-3.959664360167041569e-02,-3.566609442062224772e-02,-3.173554523957408668e-02,-2.780499605852591871e-02,-2.387444687747775768e-02,-1.994389769642958624e-02,-1.586777261978704334e-02,-1.193722343873887537e-02,-8.006674257690709132e-03
0.000000000000000000e+00,0.000000000000000000e+00,0.000000000000000000e+00,0.000000000000000000e+00,0.000000000000000000e+00,0.000000000000000000e+00,0.000000000000000000e+00,0.000000000000000000e+00,0.000000000000000000e+00,0.000000000000000000e+00,0.000000000000000000e+00,0.000000000000000000e+00,0.000000000000000000e+00,-3.406475956908411318e-02,-6.943970219851761105e-02,-1.048146448279510951e-01,-1.241762389420031920e-01,-1.201001138653606387e-01,-1.161695646843124707e-01,-1.122390155032642889e-01,-1.083084663222161348e-01,-1.043779171411679668e-01,-1.004473679601197988e-01,-9.651681877907163087e-02,-9.244069370242910533e-02,-8.851014452138093735e-02,-8.457959534033276938e-02,-8.064904615928458753e-02,-7.671849697823641956e-02,-7.278794779718826546e-02,-6.885739861614009749e-02,-6.478127353949755807e-02,-6.085072435844939703e-02,-5.692017517740122906e-02,-5.298962599635305415e-02,-4.905907681530488618e-02,-4.512852763425673208e-02,-4.119797845320856411e-02,-3.712185337656601775e-02,-3.319130419551784977e-02,-2.926075501446968180e-02,-2.533020583342151730e-02,-2.139965665237335279e-02,-1.746910747132518135e-02,-1.353855829027701685e-02,-9.462433213634473955e-03,-5.531884032586307717e-03
0.000000000000000000e+00,0.000000000000000000e+00,0.000000000000000000e+00,0.000000000000000000e+00,0.000000000000000000e+00,0.000000000000000000e+00,0.000000000000000000e+00,0.000000000000000000e+00,0.000000000000000000e+00,0.000000000000000000e+00,0.000000000000000000e+00,0.000000000000000000e+00,-2.096292896559022109e-02,-5.633787159502372244e-02,-9.171281422445720644e-02,-1.256319978979469620e-01,-1.217014487168987802e-01,-1.177708995358506122e-01,-1.136947744592080728e-01,-1.097642252781598909e-01,-1.058336760971117230e-01,-1.019031269160635550e-01,-9.797257773501538702e-02,-9.404202855396723293e-02,-9.011147937291907883e-02,-8.603535429627653941e-02,-8.210480511522837144e-02,-7.817425593418020346e-02,-7.424370675313202161e-02,-7.031315757208385364e-02,-6.638260839103568567e-02,-6.230648331439316012e-02,-5.837593413334499215e-02,-5.444538495229682418e-02,-5.051483577124865620e-02,-4.658428659020049517e-02,-4.265373740915232720e-02,-3.872318822810415923e-02,-3.464706315146161286e-02,-3.071651397041344489e-02,-2.678596478936528386e-02,-2.285541560831711588e-02,-1.892486642726894791e-02,-1.499431724622078341e-02,-1.106376806517261543e-02,-6.987642988530073408e-03,-3.057093807481906737e-03
0.000000000000000000e+00,0.000000000000000000e+00,0.000000000000000000e+00,0.000000000000000000e+00,0.000000000000000000e+00,0.000000000000000000e+00,0.000000000000000000e+00,0.000000000000000000e+00,0.000000000000000000e+00,0.000000000000000000e+00,0.000000000000000000e+00,-7.861098362096332476e-03,-4.323604099152983382e-02,-7.861098362096334558e-02,-1.139859262503968296e-01,-1.231572076728425502e-01,-1.192266584917943961e-01,-1.152961093107462143e-01,-1.112199842341036748e-01,-1.072894350530555069e-01,-1.033588858720073250e-01,-9.942833669095915705e-02,-9.549778750991100296e-02,-9.156723832886284886e-02,-8.763668914781466701e-02,-8.356056407117212759e-02,-7.963001489012395961e-02,-7.569946570907577776e-02,-7.176891652802763755e-02,-6.783836734697945570e-02,-6.390781816593130160e-02,-5.997726898488313363e-02,-5.590114390824058727e-02,-5.197059472719241235e-02,-4.804004554614425826e-02,-4.410949636509609029e-02,-4.017894718404792231e-02,-3.624839800299975434e-02,-3.231784882195158637e-02,-2.824172374530904694e-02,-2.431117456426088244e-02,-2.038062538321271447e-02,-1.645007620216454650e-02,-1.251952702111638199e-02,-8.588977840068214020e-03,-4.512852763425672861e-03,-5.823035823775060812e-04
0.000000000000000000e+00,0.000000000000000000e+00,0.000000000000000000e+00,0.000000000000000000e+00,0.000000000000000000e+00,0.000000000000000000e+00,0.000000000000000000e+00,0.000000000000000000e+00,0.000000000000000000e+00,0.000000000000000000e+00,0.000000000000000000e+00,-2.882402732768655357e-02,-6.550915301746944308e-02,-1.008840956469029271e-01,-1.246129666287863202e-01,-1.206824174477381523e-01,-1.167518682666899704e-01,-1.128213190856418163e-01,-1.088907699045936345e-01,-1.048146448279510951e-01,-1.008840956469029132e-01,-9.695354646585477298e-02,-9.302299728480661889e-02,-8.909244810375843704e-02,-8.516189892271026907e-02,-8.108577384606771576e-02,-7.715522466501956167e-02,-7.322467548397139370e-02,-6.929412630292322572e-02,-6.536357712187507163e-02,-6.143302794082690366e-02,-5.750247875977873568e-02,-5.342635368313618238e-02,-4.949580450208802135e-02,-4.556525532103986031e-02,-4.163470613999169234e-02,-3.770415695894351743e-02,-3.377360777789535640e-02,-2.984305859684718842e-02,-2.576693352020464900e-02,-2.183638433915648103e-02,-1.790583515810831305e-02,-1.397528597706014682e-02,-1.004473679601198058e-02,-6.114187614963814341e-03,-2.183638433915647669e-03,0.000000000000000000e+00
0.000000000000000000e+00,0.000000000000000000e+00,0.000000000000000000e+00,0.000000000000000000e+00,0.000000000000000000e+00,0.000000000000000000e+00,0.000000000000000000e+00,0.000000000000000000e+00,0.000000000000000000e+00,0.000000000000000000e+00,-1.572219672419266495e-02,-5.109713935362616977e-02,-8.778226504340905234e-02,-1.231572076728425363e-01,-1.221381764036819084e-01,-1.182076272226337404e-01,-1.142770780415855725e-01,-1.103465288605374045e-01,-1.064159796794892365e-01,-1.023398546028466971e-01,-9.840930542179851526e-02,-9.447875624075037504e-02,-9.054820705970220707e-02,-8.661765787865403909e-02,-8.268710869760587112e-02,-7.875655951655770315e-02,-7.468043443991517760e-02,-7.074988525886698187e-02,-6.681933607781882778e-02,-6.288878689677065981e-02,-5.895823771572249183e-02,-5.502768853467432386e-02,-5.109713935362615589e-02,-4.702101427698362340e-02,-4.309046509593545543e-02,-3.915991591488728746e-02,-3.522936673383911949e-02,-3.129881755279095845e-02,-2.736826837174279048e-02,-2.343771919069462598e-02,-1.936159411405207614e-02,-1.543104493300391164e-02,-1.150049575195574540e-02,-7.569946570907579164e-03,-3.639397389859412926e-03,0.000000000000000000e+00,0.000000000000000000e+00
0.000000000000000000e+00,0.000000000000000000e+00,0.000000000000000000e+00,0.000000000000000000e+00,0.000000000000000000e+00,0.000000000000000000e+00,0.000000000000000000e+00,0.000000000000000000e+00,0.000000000000000000e+00,-2.620366120698777637e-03,-3.799530875013227421e-02,-7.337025137956576515e-02,-1.087451940089992491e-01,-1.235939353596256784e-01,-1.196633861785775105e-01,-1.157328369975293425e-01,-1.118022878164811745e-01,-1.078717386354330066e-01,-1.039411894543848386e-01,-9.986506437774228528e-02,-9.593451519669413119e-02,-9.200396601564597709e-02,-8.807341683459780912e-02,-8.414286765354962727e-02,-8.021231847250147318e-02,-7.628176929145330520e-02,-7.220564421481075190e-02,-6.827509503376258393e-02,-6.434454585271442983e-02,-6.041399667166626186e-02,-5.648344749061809389e-02,-5.255289830956991898e-02,-4.862234912852175794e-02,-4.454622405187921852e-02,-4.061567487083105055e-02,-3.668512568978288257e-02,-3.275457650873472154e-02,-2.882402732768655357e-02,-2.489347814663838560e-02,-2.096292896559022109e-02,-1.688680388894767820e-02,-1.295625470789951196e-02,-9.025705526851343988e-03,-5.095156345803178617e-03,-1.164607164755012162e-03,0.000000000000000000e+00,0.000000000000000000e+00
0.000000000000000000e+00,0.000000000000000000e+00,0.000000000000000000e+00,0.000000000000000000e+00,0.000000000000000000e+00,0.000000000000000000e+00,0.000000000000000000e+00,0.000000000000000000e+00,0.000000000000000000e+00,-2.489347814663838560e-02,-6.026842077607189041e-02,-9.564336340550538829e-02,-1.251952702111638061e-01,-1.211191451345212944e-01,-1.171885959534731125e-01,-1.132580467724249446e-01,-1.093274975913767766e-01,-1.053969484103286086e-01,-1.014663992292804268e-01,-9.753585004823225879e-02,-9.345972497158973324e-02,-8.952917579054157915e-02,-8.559862660949341118e-02,-8.166807742844524320e-02,-7.773752824739707523e-02,-7.380697906634889338e-02,-6.987642988530072541e-02,-6.580030480865819986e-02,-6.186975562761002495e-02,-5.793920644656186392e-02,-5.400865726551369594e-02,-5.007810808446552103e-02,-4.614755890341736000e-02,-4.207143382677482057e-02,-3.814088464572665260e-02,-3.421033546467848463e-02,-3.027978628363031666e-02,-2.634923710258215562e-02,-2.241868792153398765e-02,-1.848813874048581968e-02,-1.441201366384327678e-02,-1.048146448279510881e-02,-6.550915301746943441e-03,-2.620366120698777203e-03,0.000000000000000000e+00,0.000000000000000000e+00,0.000000000000000000e+00
0.000000000000000000e+00,0.000000000000000000e+00,0.000000000000000000e+00,0.000000000000000000e+00,0.000000000000000000e+00,0.000000000000000000e+00,0.000000000000000000e+00,0.000000000000000000e+00,-1.179164754314449871e-02,-4.716659017257799486e-02,-8.254153280201149967e-02,-1.179164754314449837e-01,-1.227204799860594220e-01,-1.186443549094168826e-01,-1.147138057283687007e-01,-1.107832565473205466e-01,-1.068527073662723648e-01,-1.029221581852241968e-01,-9.899160900417604270e-02,-9.506105982312787472e-02,-9.098493474648533530e-02,-8.705438556543716733e-02,-8.312383638438899935e-02,-7.919328720334083138e-02,-7.526273802229266341e-02,-7.133218884124449544e-02,-6.740163966019632746e-02,-6.332551458355378804e-02,-5.939496540250562007e-02,-5.546441622145745209e-02,-5.153386704040928412e-02,-4.760331785936113697e-02,-4.367276867831296205e-02,-3.974221949726479408e-02,-3.566609442062224772e-02,-3.173554523957408668e-02,-2.780499605852591524e-02,-2.387444687747775421e-02,-1.994389769642958624e-02,-1.601334851538141826e-02,-1.208279933433325203e-02,-8.006674257690707397e-03,-4.076125076642542894e-03,-1.455758955943765203e-04,0.000000000000000000e+00,0.000000000000000000e+00,0.000000000000000000e+00
0.000000000000000000e+00,0.000000000000000000e+00,0.000000000000000000e+00,0.000000000000000000e+00,0.000000000000000000e+00,0.000000000000000000e+00,0.000000000000000000e+00,0.000000000000000000e+00,-3.406475956908411318e-02,-6.943970219851761105e-02,-1.048146448279511089e-01,-1.241762389420031920e-01,-1.202456897609550240e-01,-1.163151405799068561e-01,-1.122390155032642889e-01,-1.083084663222161487e-01,-1.043779171411679529e-01,-1.004473679601197988e-01,-9.651681877907163087e-02,-9.258626959802349066e-02,-8.865572041697530881e-02,-8.457959534033276938e-02,-8.064904615928460141e-02,-7.671849697823643344e-02,-7.278794779718825159e-02,-6.885739861614009749e-02,-6.492684943509194340e-02,-6.085072435844939009e-02,-5.692017517740122212e-02,-5.298962599635304721e-02,-4.905907681530489312e-02,-4.512852763425673208e-02,-4.119797845320855717e-02,-3.726742927216038920e-02,-3.319130419551784977e-02,-2.926075501446968180e-02,-2.533020583342152077e-02,-2.139965665237335279e-02,-1.746910747132518135e-02,-1.353855829027701685e-02,-9.608009109228848876e-03,-5.531884032586307717e-03,-1.601334851538141696e-03,0.000000000000000000e+00,0.000000000000000000e+00,0.000000000000000000e+00,0.000000000000000000e+00
0.000000000000000000e+00,0.000000000000000000e+00,0.000000000000000000e+00,0.000000000000000000e+00,0.000000000000000000e+00,0.000000000000000000e+00,0.000000000000000000e+00,-2.096292896559022109e-02,-5.633787159502372244e-02,-9.171281422445722031e-02,-1.256319978979469343e-01,-1.217014487168987941e-01,-1.177708995358506261e-01,-1.138403503548024442e-01,-1.097642252781599048e-01,-1.058336760971117230e-01,-1.019031269160635689e-01,-9.797257773501538702e-02,-9.404202855396726068e-02,-9.011147937291907883e-02,-8.618093019187091086e-02,-8.210480511522835756e-02,-7.817425593418020346e-02,-7.424370675313202161e-02,-7.031315757208385364e-02,-6.638260839103569955e-02,-6.245205920998753157e-02,-5.852151002893936360e-02,-5.444538495229681724e-02,-5.051483577124865620e-02,-4.658428659020049517e-02,-4.265373740915232026e-02,-3.872318822810415229e-02,-3.479263904705599125e-02,-3.086208986600782328e-02,-2.678596478936528386e-02,-2.285541560831711935e-02,-1.892486642726894791e-02,-1.499431724622078167e-02,-1.106376806517261543e-02,-7.133218884124449197e-03,-3.057093807481906737e-03,0.000000000000000000e+00,0.000000000000000000e+00,0.000000000000000000e+00,0.000000000000000000e+00,0.000000000000000000e+00
0.000000000000000000e+00,0.000000000000000000e+00,0.000000000000000000e+00,0.000000000000000000e+00,0.000000000000000000e+00,0.000000000000000000e+00,-6.550915301746944308e-03,-4.192585793118044218e-02,-7.861098362096334558e-02,-1.139859262503968296e-01,-1.231572076728425502e-01,-1.192266584917943684e-01,-1.152961093107462143e-01,-1.113655601296980463e-01,-1.074350109486498783e-01,-1.033588858720073111e-01,-9.942833669095917093e-02,-9.549778750991100296e-02,-9.156723832886284886e-02,-8.763668914781466701e-02,-8.370613996676651292e-02,-7.963001489012397349e-02,-7.569946570907579164e-02,-7.176891652802762367e-02,-6.783836734697946957e-02,-6.390781816593130160e-02,-5.997726898488313363e-02,-5.604671980383496566e-02,-5.197059472719241929e-02,-4.804004554614426520e-02,-4.410949636509609029e-02,-4.017894718404792231e-02,-3.624839800299975434e-02,-3.231784882195159331e-02,-2.838729964090342534e-02,-2.431117456426088591e-02,-2.038062538321271447e-02,-1.645007620216454650e-02,-1.251952702111638199e-02,-8.588977840068215755e-03,-4.658428659020048650e-03,-7.278794779718825202e-04,0.000000000000000000e+00,0.000000000000000000e+00,0.000000000000000000e+00,0.000000000000000000e+00,0.000000000000000000e+00
0.000000000000000000e+00,0.000000000000000000e+00,0.000000000000000000e+00,0.000000000000000000e+00,0.000000000000000000e+00,0.000000000000000000e+00,-2.882402732768655357e-02,-6.419896995712005838e-02,-1.008840956469029271e-01,-1.246129666287863064e-01,-1.206824174477381523e-01,-1.167518682666899843e-01,-1.128213190856418163e-01,-1.088907699045936484e-01,-1.049602207235454665e-01,-1.008840956469029271e-01,-9.695354646585477298e-02,-9.302299728480661889e-02,-8.909244810375843704e-02,-8.516189892271026907e-02,-8.123134974166210109e-02,-7.730080056061394700e-02,-7.322467548397139370e-02,-6.929412630292322572e-02,-6.536357712187507163e-02,-6.143302794082689672e-02,-5.750247875977873568e-02,-5.357192957873056771e-02,-4.949580450208801441e-02,-4.556525532103986031e-02,-4.163470613999168540e-02,-3.770415695894352437e-02,-3.377360777789535640e-02,-2.984305859684718842e-02,-2.591250941579902392e-02,-2.183638433915648103e-02,-1.790583515810831305e-02,-1.397528597706014682e-02,-1.004473679601198058e-02,-6.114187614963814341e-03,-2.183638433915647669e-03,0.000000000000000000e+00,0.000000000000000000e+00,0.000000000000000000e+00,0.000000000000000000e+00,0.000000000000000000e+00,0.000000000000000000e+00
0.000000000000000000e+00,0.000000000000000000e+00,0.000000000000000000e+00,0.000000000000000000e+00,0.000000000000000000e+00,-1.572219672419266495e-02,-5.109713935362616283e-02,-8.647208198305966764e-02,-1.231572076728425502e-01,-1.221381764036819084e-01,-1.182076272226337404e-01,-1.142770780415855725e-01,-1.103465288605374045e-01,-1.064159796794892365e-01,-1.024854304984410686e-01,-9.840930542179851526e-02,-9.447875624075036116e-02,-9.054820705970220707e-02,-8.661765787865403909e-02,-8.268710869760587112e-02,-7.875655951655770315e-02,-7.482601033550952130e-02,-7.074988525886698187e-02,-6.681933607781882778e-02,-6.288878689677065981e-02,-5.895823771572249877e-02,-5.502768853467432386e-02,-5.109713935362615589e-02,-4.716659017257800179e-02,-4.309046509593545543e-02,-3.915991591488728746e-02,-3.522936673383911949e-02,-3.129881755279095151e-02,-2.736826837174279048e-02,-2.343771919069462598e-02,-1.950717000964645453e-02,-1.543104493300391337e-02,-1.150049575195574714e-02,-7.569946570907579164e-03,-3.639397389859412926e-03,0.000000000000000000e+00,0.000000000000000000e+00,0.000000000000000000e+00,0.000000000000000000e+00,0.000000000000000000e+00,0.000000000000000000e+00,0.000000000000000000e+00
0.000000000000000000e+00,0.000000000000000000e+00,0.000000000000000000e+00,0.000000000000000000e+00,-2.620366120698777637e-03,-3.799530875013228115e-02,-7.337025137956577903e-02,-1.087451940089992630e-01,-1.237395112552200499e-01,-1.196633861785775105e-01,-1.157328369975293425e-01,-1.118022878164811745e-01,-1.078717386354330066e-01,-1.039411894543848386e-01,-1.000106402733366567e-01,-9.608009109228848876e-02,-9.200396601564597709e-02,-8.807341683459779524e-02,-8.414286765354964115e-02,-8.021231847250147318e-02,-7.628176929145330520e-02,-7.235122011040513723e-02,-6.842067092935696926e-02,-6.434454585271442983e-02,-6.041399667166626186e-02,-5.648344749061809389e-02,-5.255289830956992592e-02,-4.862234912852176488e-02,-4.469179994747359691e-02,-4.061567487083105055e-02,-3.668512568978288257e-02,-3.275457650873471460e-02,-2.882402732768655357e-02,-2.489347814663838906e-02,-2.096292896559022109e-02,-1.703237978454205312e-02,-1.295625470789951196e-02,-9.025705526851343988e-03,-5.095156345803178617e-03,-1.164607164755012162e-03,0.000000000000000000e+00,0.000000000000000000e+00,0.000000000000000000e+00,0.000000000000000000e+00,0.000000000000000000e+00,0.000000000000000000e+00,0.000000000000000000e+00
0.000000000000000000e+00,0.000000000000000000e+00,0.000000000000000000e+00,0.000000000000000000e+00,-2.489347814663838906e-02,-6.026842077607189041e-02,-9.564336340550538829e-02,-1.251952702111638061e-01,-1.212647210301156520e-01,-1.171885959534731125e-01,-1.132580467724249307e-01,-1.093274975913767766e-01,-1.053969484103285947e-01,-1.014663992292804129e-01,-9.753585004823225879e-02,-9.360530086718413245e-02,-8.952917579054157915e-02,-8.559862660949341118e-02,-8.166807742844522933e-02,-7.773752824739706135e-02,-7.380697906634889338e-02,-6.987642988530072541e-02,-6.594588070425257131e-02,-6.186975562761002495e-02,-5.793920644656185698e-02,-5.400865726551369594e-02,-5.007810808446552797e-02,-4.614755890341736694e-02,-4.221700972236919897e-02,-3.828646054132102405e-02,-3.421033546467849157e-02,-3.027978628363031666e-02,-2.634923710258215562e-02,-2.241868792153398765e-02,-1.848813874048581968e-02,-1.455758955943765344e-02,-1.062704037838948547e-02,-6.550915301746942573e-03,-2.620366120698777203e-03,0.000000000000000000e+00,0.000000000000000000e+00,0.000000000000000000e+00,0.000000000000000000e+00,0.000000000000000000e+00,0.000000000000000000e+00,0.000000000000000000e+00,0.000000000000000000e+00
0.000000000000000000e+00,0.000000000000000000e+00,0.000000000000000000e+00,-1.179164754314450045e-02,-4.716659017257800179e-02,-8.254153280201148579e-02,-1.179164754314449837e-01,-1.227204799860594081e-01,-1.187899308050112679e-01,-1.148593816239630860e-01,-1.107832565473205466e-01,-1.068527073662723648e-01,-1.029221581852242107e-01,-9.899160900417604270e-02,-9.506105982312787472e-02,-9.113051064207972063e-02,-8.719996146103153878e-02,-8.312383638438899935e-02,-7.919328720334083138e-02,-7.526273802229266341e-02,-7.133218884124448156e-02,-6.740163966019632746e-02,-6.347109047914817337e-02,-5.939496540250562701e-02,-5.546441622145745903e-02,-5.153386704040928412e-02,-4.760331785936113003e-02,-4.367276867831296205e-02,-3.974221949726479408e-02,-3.581167031621662611e-02,-3.173554523957408668e-02,-2.780499605852591871e-02,-2.387444687747775421e-02,-1.994389769642958624e-02,-1.601334851538141826e-02,-1.208279933433325376e-02,-8.152250153285084053e-03,-4.076125076642542894e-03,-1.455758955943765203e-04,0.000000000000000000e+00,0.000000000000000000e+00,0.000000000000000000e+00,0.000000000000000000e+00,0.000000000000000000e+00,0.000000000000000000e+00,0.000000000000000000e+00,0.000000000000000000e+00
0.000000000000000000e+00,0.000000000000000000e+00,0.000000000000000000e+00,-3.406475956908411318e-02,-6.943970219851761105e-02,-1.048146448279511089e-01,-1.241762389420031781e-01,-1.202456897609550240e-01,-1.163151405799068561e-01,-1.123845913988586881e-01,-1.083084663222161348e-01,-1.043779171411679668e-01,-1.004473679601197988e-01,-9.651681877907163087e-02,-9.258626959802349066e-02,-8.865572041697530881e-02,-8.472517123592715471e-02,-8.064904615928460141e-02,-7.671849697823643344e-02,-7.278794779718825159e-02,-6.885739861614009749e-02,-6.492684943509192952e-02,-6.099630025404376849e-02,-5.706575107299560051e-02,-5.298962599635306109e-02,-4.905907681530488618e-02,-4.512852763425673208e-02,-4.119797845320856411e-02,-3.726742927216038920e-02,-3.333688009111222816e-02,-2.940633091006406019e-02,-2.533020583342152077e-02,-2.139965665237335279e-02,-1.746910747132518135e-02,-1.353855829027701685e-02,-9.608009109228848876e-03,-5.677459928180683506e-03,-1.601334851538141696e-03,0.000000000000000000e+00,0.000000000000000000e+00,0.000000000000000000e+00,0.000000000000000000e+00,0.000000000000000000e+00,0.000000000000000000e+00,0.000000000000000000e+00,0.000000000000000000e+00,0.000000000000000000e+00
0.000000000000000000e+00,0.000000000000000000e+00,-1.965274590524083292e-02,-5.502768853467432386e-02,-9.171281422445720644e-02,-1.256319978979469343e-01,-1.217014487168987941e-01,-1.177708995358505983e-01,-1.138403503548024442e-01,-1.099098011737542763e-01,-1.059792519927061222e-01,-1.019031269160635689e-01,-9.797257773501540090e-02,-9.404202855396723293e-02,-9.011147937291907883e-02,-8.618093019187091086e-02,-8.225038101082274289e-02,-7.817425593418020346e-02,-7.424370675313202161e-02,-7.031315757208386752e-02,-6.638260839103569955e-02,-6.245205920998754545e-02,-5.852151002893937054e-02,-5.459096084789119563e-02,-5.051483577124865620e-02,-4.658428659020049517e-02,-4.265373740915232720e-02,-3.872318822810415923e-02,-3.479263904705598431e-02,-3.086208986600782675e-02,-2.693154068495965878e-02,-2.285541560831711588e-02,-1.892486642726894791e-02,-1.499431724622078167e-02,-1.106376806517261543e-02,-7.133218884124450064e-03,-3.202669703076283392e-03,0.000000000000000000e+00,0.000000000000000000e+00,0.000000000000000000e+00,0.000000000000000000e+00,0.000000000000000000e+00,0.000000000000000000e+00,0.000000000000000000e+00,0.000000000000000000e+00,0.000000000000000000e+00,0.000000000000000000e+00
0.000000000000000000e+00,-6.550915301746944308e-03,-4.192585793118044218e-02,-7.730080056061394700e-02,-1.139859262503968157e-01,-1.231572076728425502e-01,-1.192266584917943961e-01,-1.152961093107462143e-01,-1.113655601296980463e-01,-1.074350109486498644e-01,-1.035044617676016965e-01,-9.942833669095915705e-02,-9.549778750991101683e-02,-9.156723832886284886e-02,-8.763668914781469477e-02,-8.370613996676651292e-02,-7.977559078571835882e-02,-7.584504160467017697e-02,-7.176891652802762367e-02,-6.783836734697945570e-02,-6.390781816593130160e-02,-5.997726898488313363e-02,-5.604671980383496566e-02,-5.211617062278679768e-02,-4.804004554614425826e-02,-4.410949636509609723e-02,-4.017894718404792231e-02,-3.624839800299975434e-02,-3.231784882195158637e-02,-2.838729964090342534e-02,-2.445675045985525736e-02,-2.038062538321271794e-02,-1.645007620216454997e-02,-1.251952702111638199e-02,-8.588977840068214020e-03,-4.658428659020048650e-03,-7.278794779718826286e-04,0.000000000000000000e+00,0.000000000000000000e+00,0.000000000000000000e+00,0.000000000000000000e+00,0.000000000000000000e+00,0.000000000000000000e+00,0.000000000000000000e+00,0.000000000000000000e+00,0.000000000000000000e+00,0.000000000000000000e+00
0.000000000000000000e+00,-2.882402732768655357e-02,-6.419896995712004450e-02,-9.957391258655354238e-02,-1.246129666287863064e-01,-1.206824174477381523e-01,-1.167518682666899843e-01,-1.128213190856418163e-01,-1.088907699045936345e-01,-1.049602207235454665e-01,-1.010296715424973124e-01,-9.695354646585475911e-02,-9.302299728480661889e-02,-8.909244810375843704e-02,-8.516189892271026907e-02,-8.123134974166210109e-02,-7.730080056061394700e-02,-7.337025137956576515e-02,-6.929412630292322572e-02,-6.536357712187505775e-02,-6.143302794082689672e-02,-5.750247875977872875e-02,-5.357192957873056077e-02,-4.964138039768239280e-02,-4.571083121663423177e-02,-4.163470613999169234e-02,-3.770415695894351743e-02,-3.377360777789535640e-02,-2.984305859684718842e-02,-2.591250941579902392e-02,-2.198196023475085942e-02,-1.805141105370268798e-02,-1.397528597706014682e-02,-1.004473679601197884e-02,-6.114187614963814341e-03,-2.183638433915647669e-03,0.000000000000000000e+00,0.000000000000000000e+00,0.000000000000000000e+00,0.000000000000000000e+00,0.000000000000000000e+00,0.000000000000000000e+00,0.000000000000000000e+00,0.000000000000000000e+00,0.000000000000000000e+00,0.000000000000000000e+00,0.000000000000000000e+00
-1.228296619077551971e-02,-5.109713935362616977e-02,-8.647208198305966764e-02,-1.218470246124931655e-01,-1.222837522992762938e-01,-1.182076272226337682e-01,-1.142770780415855725e-01,-1.103465288605373906e-01,-1.064159796794892365e-01,-1.024854304984410686e-01,-9.855488131739290059e-02,-9.462433213634474649e-02,-9.054820705970220707e-02,-8.661765787865405297e-02,-8.268710869760587112e-02,-7.875655951655770315e-02,-7.482601033550953518e-02,-7.089546115446135333e-02,-6.681933607781882778e-02,-6.288878689677065981e-02,-5.895823771572249877e-02,-5.502768853467432386e-02,-5.109713935362615589e-02,-4.716659017257800179e-02,-4.323604099152982688e-02,-3.915991591488728746e-02,-3.522936673383911949e-02,-3.129881755279095845e-02,-2.736826837174278701e-02,-2.343771919069462598e-02,-1.950717000964645453e-02,-1.557662082859828656e-02,-1.150049575195574540e-02,-7.569946570907579164e-03,-3.639397389859412926e-03,0.000000000000000000e+00,0.000000000000000000e+00,0.000000000000000000e+00,0.000000000000000000e+00,0.000000000000000000e+00,0.000000000000000000e+00,0.000000000000000000e+00,0.000000000000000000e+00,0.000000000000000000e+00,0.000000000000000000e+00,0.000000000000000000e+00,0.000000000000000000e+00
0.000000000000000000e+00,-3.439230533417145935e-02,-1.087451940089992630e-01,-1.237395112552200360e-01,-1.198089620741718958e-01,-1.157328369975293425e-01,-1.118022878164811745e-01,-1.078717386354330066e-01,-1.039411894543848525e-01,-1.000106402733366706e-01,-9.608009109228850264e-02,-9.214954191124036242e-02,-8.807341683459780912e-02,-8.414286765354964115e-02,-8.021231847250147318e-02,-7.628176929145330520e-02,-7.235122011040512335e-02,-6.842067092935696926e-02,-6.449012174830880129e-02,-6.041399667166626186e-02,-5.648344749061809389e-02,-5.255289830956992592e-02,-4.862234912852175794e-02,-4.469179994747359691e-02,-4.076125076642542894e-02,-3.683070158537725403e-02,-3.275457650873472154e-02,-2.882402732768655010e-02,-2.489347814663838906e-02,-2.096292896559022109e-02,-1.703237978454205312e-02,-1.310183060349388862e-02,-9.171281422445722378e-03,-5.095156345803177750e-03,-1.164607164755012162e-03,0.000000000000000000e+00,0.000000000000000000e+00,0.000000000000000000e+00,0.000000000000000000e+00,0.000000000000000000e+00,0.000000000000000000e+00,0.000000000000000000e+00,0.000000000000000000e+00,0.000000000000000000e+00,0.000000000000000000e+00,0.000000000000000000e+00,0.000000000000000000e+00
0.000000000000000000e+00,0.000000000000000000e+00,-1.956176097049434556e-02,-8.336949570820451072e-02,-1.173341718490674840e-01,-1.134036226680193021e-01,-1.093274975913767766e-01,-1.053969484103286086e-01,-1.014663992292804406e-01,-9.753585004823227267e-02,-9.360530086718411857e-02,-8.967475168613595060e-02,-8.574420250508778263e-02,-8.166807742844524320e-02,-7.773752824739707523e-02,-7.380697906634889338e-02,-6.987642988530072541e-02,-6.594588070425257131e-02,-6.201533152320440334e-02,-5.793920644656186392e-02,-5.400865726551369594e-02,-5.007810808446552797e-02,-4.614755890341736694e-02,-4.221700972236919897e-02,-3.828646054132102405e-02,-3.435591136027285608e-02,-3.027978628363031666e-02,-2.634923710258215215e-02,-2.241868792153398765e-02,-1.848813874048581968e-02,-1.455758955943765171e-02,-1.062704037838948720e-02,-6.696491197341320964e-03,-2.620366120698777203e-03,0.000000000000000000e+00,0.000000000000000000e+00,0.000000000000000000e+00,0.000000000000000000e+00,0.000000000000000000e+00,0.000000000000000000e+00,0.000000000000000000e+00,0.000000000000000000e+00,0.000000000000000000e+00,0.000000000000000000e+00,0.000000000000000000e+00,0.000000000000000000e+00,0.000000000000000000e+00
0.000000000000000000e+00,0.000000000000000000e+00,0.000000000000000000e+00,0.000000000000000000e+00,-4.307226810898615726e-02,-1.005292544013916406e-01,-1.068527073662723648e-01,-1.029221581852241968e-01,-9.899160900417604270e-02,-9.506105982312787472e-02,-9.113051064207970675e-02,-8.719996146103153878e-02,-8.326941227998338468e-02,-7.919328720334083138e-02,-7.526273802229266341e-02,-7.133218884124448156e-02,-6.740163966019632746e-02,-6.347109047914817337e-02,-5.954054129809999846e-02,-5.560999211705183742e-02,-5.153386704040927718e-02,-4.760331785936112309e-02,-4.367276867831296205e-02,-3.974221949726479408e-02,-3.581167031621662611e-02,-3.188112113516845814e-02,-2.795057195412029363e-02,-2.387444687747775421e-02,-1.994389769642958624e-02,-1.601334851538141826e-02,-1.208279933433325203e-02,-8.152250153285085787e-03,-4.221700972236918682e-03,-1.455758955943765203e-04,0.000000000000000000e+00,0.000000000000000000e+00,0.000000000000000000e+00,0.000000000000000000e+00,0.000000000000000000e+00,0.000000000000000000e+00,0.000000000000000000e+00,0.000000000000000000e+00,0.000000000000000000e+00,0.000000000000000000e+00,0.000000000000000000e+00,0.000000000000000000e+00,0.000000000000000000e+00
0.000000000000000000e+00,0.000000000000000000e+00,0.000000000000000000e+00,0.000000000000000000e+00,0.000000000000000000e+00,-6.778377638613156640e-03,-5.871257839190698047e-02,-1.004473679601197988e-01,-9.651681877907163087e-02,-9.258626959802349066e-02,-8.865572041697530881e-02,-8.472517123592715471e-02,-8.079462205487898674e-02,-7.671849697823643344e-02,-7.278794779718825159e-02,-6.885739861614009749e-02,-6.492684943509192952e-02,-6.099630025404376155e-02,-5.706575107299560745e-02,-5.313520189194743254e-02,-4.905907681530488618e-02,-4.512852763425673208e-02,-4.119797845320855717e-02,-3.726742927216038920e-02,-3.333688009111222816e-02,-2.940633091006406019e-02,-2.547578172901589569e-02,-2.139965665237334932e-02,-1.746910747132518482e-02,-1.353855829027701685e-02,-9.608009109228848876e-03,-5.677459928180683506e-03,-1.746910747132518135e-03,0.000000000000000000e+00,0.000000000000000000e+00,0.000000000000000000e+00,0.000000000000000000e+00,0.000000000000000000e+00,0.000000000000000000e+00,0.000000000000000000e+00,0.000000000000000000e+00,0.000000000000000000e+00,0.000000000000000000e+00,0.000000000000000000e+00,0.000000000000000000e+00,0.000000000000000000e+00,0.000000000000000000e+00
0.000000000000000000e+00,0.000000000000000000e+00,0.000000000000000000e+00,0.000000000000000000e+00,0.000000000000000000e+00,0.000000000000000000e+00,0.000000000000000000e+00,-2.449314443375384676e-02,-7.347033480778691894e-02,-9.011147937291907883e-02,-8.618093019187091086e-02,-8.225038101082274289e-02,-7.831983182977457492e-02,-7.438928264872640694e-02,-7.031315757208385364e-02,-6.638260839103569955e-02,-6.245205920998753157e-02,-5.852151002893936360e-02,-5.459096084789119563e-02,-5.066041166684302766e-02,-4.658428659020049517e-02,-4.265373740915232026e-02,-3.872318822810415229e-02,-3.479263904705599125e-02,-3.086208986600782675e-02,-2.693154068495965878e-02,-2.300099150391149427e-02,-1.892486642726894791e-02,-1.499431724622078341e-02,-1.106376806517261717e-02,-7.133218884124449197e-03,-3.202669703076283392e-03,0.000000000000000000e+00,0.000000000000000000e+00,0.000000000000000000e+00,0.000000000000000000e+00,0.000000000000000000e+00,0.000000000000000000e+00,0.000000000000000000e+00,0.000000000000000000e+00,0.000000000000000000e+00,0.000000000000000000e+00,0.000000000000000000e+00,0.000000000000000000e+00,0.000000000000000000e+00,0.000000000000000000e+00,0.000000000000000000e+00
0.000000000000000000e+00,0.000000000000000000e+00,0.000000000000000000e+00,0.000000000000000000e+00,0.000000000000000000e+00,0.000000000000000000e+00,0.000000000000000000e+00,0.000000000000000000e+00,0.000000000000000000e+00,-4.107969803803813297e-02,-8.370613996676649904e-02,-7.977559078571834494e-02,-7.584504160467017697e-02,-7.191449242362199512e-02,-6.783836734697945570e-02,-6.390781816593130160e-02,-5.997726898488313363e-02,-5.604671980383495872e-02,-5.211617062278679074e-02,-4.818562144173863665e-02,-4.425507226069046868e-02,-4.017894718404791538e-02,-3.624839800299975434e-02,-3.231784882195159331e-02,-2.838729964090341840e-02,-2.445675045985525736e-02,-2.052620127880708939e-02,-1.659565209775892142e-02,-1.251952702111638026e-02,-8.588977840068214020e-03,-4.658428659020048650e-03,-7.278794779718826286e-04,0.000000000000000000e+00,0.000000000000000000e+00,0.000000000000000000e+00,0.000000000000000000e+00,0.000000000000000000e+00,0.000000000000000000e+00,0.000000000000000000e+00,0.000000000000000000e+00,0.000000000000000000e+00,0.000000000000000000e+00,0.000000000000000000e+00,0.000000000000000000e+00,0.000000000000000000e+00,0.000000000000000000e+00,0.000000000000000000e+00
0.000000000000000000e+00,0.000000000000000000e+00,0.000000000000000000e+00,0.000000000000000000e+00,0.000000000000000000e+00,0.000000000000000000e+00,0.000000000000000000e+00,0.000000000000000000e+00,0.000000000000000000e+00,0.000000000000000000e+00,-1.269239839713470416e-02,-5.314430038542207468e-02,-7.337025137956576515e-02,-6.943970219851759718e-02,-6.536357712187507163e-02,-6.143302794082689672e-02,-5.750247875977873568e-02,-5.357192957873056077e-02,-4.964138039768239974e-02,-4.571083121663423871e-02,-4.178028203558606379e-02,-3.770415695894352437e-02,-3.377360777789535640e-02,-2.984305859684718842e-02,-2.591250941579902392e-02,-2.198196023475085942e-02,-1.805141105370268798e-02,-1.412086187265452347e-02,-1.004473679601198058e-02,-6.114187614963814341e-03,-2.183638433915647669e-03,0.000000000000000000e+00,0.000000000000000000e+00,0.000000000000000000e+00,0.000000000000000000e+00,0.000000000000000000e+00,0.000000000000000000e+00,0.000000000000000000e+00,0.000000000000000000e+00,0.000000000000000000e+00,0.000000000000000000e+00,0.000000000000000000e+00,0.000000000000000000e+00,0.000000000000000000e+00,0.000000000000000000e+00,0.000000000000000000e+00,0.000000000000000000e+00
0.000000000000000000e+00,0.000000000000000000e+00,0.000000000000000000e+00,0.000000000000000000e+00,0.000000000000000000e+00,0.000000000000000000e+00,0.000000000000000000e+00,0.000000000000000000e+00,0.000000000000000000e+00,0.000000000000000000e+00,0.000000000000000000e+00,0.000000000000000000e+00,-2.658579793292301097e-02,-5.859429797673654933e-02,-6.303436279236504514e-02,-5.895823771572249183e-02,-5.502768853467433080e-02,-5.109713935362615589e-02,-4.716659017257800179e-02,-4.323604099152983382e-02,-3.930549181048165891e-02,-3.537494262943349788e-02,-3.129881755279095151e-02,-2.736826837174279048e-02,-2.343771919069462598e-02,-1.950717000964645453e-02,-1.557662082859828830e-02,-1.164607164755012206e-02,-7.569946570907579164e-03,-3.639397389859412926e-03,0.000000000000000000e+00,0.000000000000000000e+00,0.000000000000000000e+00,0.000000000000000000e+00,0.000000000000000000e+00,0.000000000000000000e+00,0.000000000000000000e+00,0.000000000000000000e+00,0.000000000000000000e+00,0.000000000000000000e+00,0.000000000000000000e+00,0.000000000000000000e+00,0.000000000000000000e+00,0.000000000000000000e+00,0.000000000000000000e+00,0.000000000000000000e+00,0.000000000000000000e+00
0.000000000000000000e+00,0.000000000000000000e+00,0.000000000000000000e+00,0.000000000000000000e+00,0.000000000000000000e+00,0.000000000000000000e+00,0.000000000000000000e+00,0.000000000000000000e+00,0.000000000000000000e+00,0.000000000000000000e+00,0.000000000000000000e+00,0.000000000000000000e+00,0.000000000000000000e+00,-2.015316304634650040e-03,-3.406475956908411318e-02,-5.648344749061809389e-02,-5.255289830956991898e-02,-4.862234912852176488e-02,-4.469179994747359691e-02,-4.076125076642542894e-02,-3.683070158537726096e-02,-3.290015240432909299e-02,-2.882402732768655357e-02,-2.489347814663838560e-02,-2.096292896559022109e-02,-1.703237978454205312e-02,-1.310183060349388688e-02,-9.171281422445720644e-03,-5.240732241397554406e-03,-1.164607164755012162e-03,0.000000000000000000e+00,0.000000000000000000e+00,0.000000000000000000e+00,0.000000000000000000e+00,0.000000000000000000e+00,0.000000000000000000e+00,0.000000000000000000e+00,0.000000000000000000e+00,0.000000000000000000e+00,0.000000000000000000e+00,0.000000000000000000e+00,0.000000000000000000e+00,0.000000000000000000e+00,0.000000000000000000e+00,0.000000000000000000e+00,0.000000000000000000e+00,0.000000000000000000e+00
0.000000000000000000e+00,0.000000000000000000e+00,0.000000000000000000e+00,0.000000000000000000e+00,0.000000000000000000e+00,0.000000000000000000e+00,0.000000000000000000e+00,0.000000000000000000e+00,0.000000000000000000e+00,0.000000000000000000e+00,0.000000000000000000e+00,0.000000000000000000e+00,0.000000000000000000e+00,0.000000000000000000e+00,0.000000000000000000e+00,-1.350216431637842399e-02,-3.912352194098869113e-02,-4.614755890341736000e-02,-4.221700972236919897e-02,-3.828646054132102405e-02,-3.435591136027286302e-02,-3.042536217922469505e-02,-2.634923710258215215e-02,-2.241868792153398765e-02,-1.848813874048581968e-02,-1.455758955943765344e-02,-1.062704037838948720e-02,-6.696491197341319229e-03,-2.765942016293153859e-03,0.000000000000000000e+00,0.000000000000000000e+00,0.000000000000000000e+00,0.000000000000000000e+00,0.000000000000000000e+00,0.000000000000000000e+00,0.000000000000000000e+00,0.000000000000000000e+00,0.000000000000000000e+00,0.000000000000000000e+00,0.000000000000000000e+00,0.000000000000000000e+00,0.000000000000000000e+00,0.000000000000000000e+00,0.000000000000000000e+00,0.000000000000000000e+00,0.000000000000000000e+00,0.000000000000000000e+00
