0.000000000000000000e+00,0.000000000000000000e+00,0.000000000000000000e+00,0.000000000000000000e+00,0.000000000000000000e+00,0.000000000000000000e+00,0.000000000000000000e+00,0.000000000000000000e+00,0.000000000000000000e+00,0.000000000000000000e+00,0.000000000000000000e+00,0.000000000000000000e+00,0.000000000000000000e+00,0.000000000000000000e+00,0.000000000000000000e+00,0.000000000000000000e+00,0.000000000000000000e+00,0.000000000000000000e+00,0.000000000000000000e+00,0.000000000000000000e+00,0.000000000000000000e+00,0.000000000000000000e+00,0.000000000000000000e+00,-1.023168313441571303e-02,-3.495825070925368677e-02,-5.883217802289034820e-02,-8.355874559772831500e-02,-1.074326729113650042e-01,-1.091379534337676149e-01,-8.867458716493618887e-02,-4.092673253766285213e-02,0.000000000000000000e+00,0.000000000000000000e+00,0.000000000000000000e+00,0.000000000000000000e+00,0.000000000000000000e+00,0.000000000000000000e+00,0.000000000000000000e+00,0.000000000000000000e+00,0.000000000000000000e+00,0.000000000000000000e+00,0.000000000000000000e+00,0.000000000000000000e+00,0.000000000000000000e+00,0.000000000000000000e+00,0.000000000000000000e+00,0.000000000000000000e+00
0.000000000000000000e+00,0.000000000000000000e+00,0.000000000000000000e+00,0.000000000000000000e+00,0.000000000000000000e+00,0.000000000000000000e+00,0.000000000000000000e+00,0.000000000000000000e+00,0.000000000000000000e+00,0.000000000000000000e+00,0.000000000000000000e+00,0.000000000000000000e+00,0.000000000000000000e+00,0.000000000000000000e+00,0.000000000000000000e+00,0.000000000000000000e+00,0.000000000000000000e+00,0.000000000000000000e+00,0.000000000000000000e+00,0.000000000000000000e+00,0.000000000000000000e+00,0.000000000000000000e+00,0.000000000000000000e+00,-2.302128705243535606e-02,-4.774785462727332980e-02,-7.162178194090999817e-02,-9.549570925454665959e-02,-1.091379534337676149e-01,-1.091379534337676149e-01,-1.091379534337676149e-01,-1.091379534337676288e-01,-8.526402612013095350e-02,-3.751617149285761676e-02,0.000000000000000000e+00,0.000000000000000000e+00,0.000000000000000000e+00,0.000000000000000000e+00,0.000000000000000000e+00,0.000000000000000000e+00,0.000000000000000000e+00,0.000000000000000000e+00,0.000000000000000000e+00,0.000000000000000000e+00,0.000000000000000000e+00,0.000000000000000000e+00,0.000000000000000000e+00,0.000000000000000000e+00
0.000000000000000000e+00,0.000000000000000000e+00,0.000000000000000000e+00,0.000000000000000000e+00,0.000000000000000000e+00,0.000000000000000000e+00,0.000000000000000000e+00,0.000000000000000000e+00,0.000000000000000000e+00,0.000000000000000000e+00,0.000000000000000000e+00,0.000000000000000000e+00,0.000000000000000000e+00,0.000000000000000000e+00,0.000000000000000000e+00,0.000000000000000000e+00,0.000000000000000000e+00,0.000000000000000000e+00,0.000000000000000000e+00,0.000000000000000000e+00,0.000000000000000000e+00,0.000000000000000000e+00,-1.193696365681833245e-02,-3.581089097045499908e-02,-5.968481828409166051e-02,-8.441138585892962731e-02,-1.082853131725663026e-01,-1.091379534337676149e-01,-1.091379534337676149e-01,-1.091379534337676149e-01,-1.091379534337676149e-01,-1.091379534337676149e-01,-1.091379534337676288e-01,-8.185346507532570426e-02,-3.057514686651571084e-02,0.000000000000000000e+00,0.000000000000000000e+00,0.000000000000000000e+00,0.000000000000000000e+00,0.000000000000000000e+00,0.000000000000000000e+00,0.000000000000000000e+00,0.000000000000000000e+00,0.000000000000000000e+00,0.000000000000000000e+00,0.000000000000000000e+00,0.000000000000000000e+00
0.000000000000000000e+00,0.000000000000000000e+00,0.000000000000000000e+00,0.000000000000000000e+00,0.000000000000000000e+00,0.000000000000000000e+00,0.000000000000000000e+00,0.000000000000000000e+00,0.000000000000000000e+00,0.000000000000000000e+00,0.000000000000000000e+00,0.000000000000000000e+00,0.000000000000000000e+00,0.000000000000000000e+00,0.000000000000000000e+00,0.000000000000000000e+00,0.000000000000000000e+00,0.000000000000000000e+00,0.000000000000000000e+00,0.000000000000000000e+00,0.000000000000000000e+00,0.000000000000000000e+00,-2.387392731363666490e-02,-4.860049488847464211e-02,-7.247442220211131048e-02,-9.634834951574797191e-02,-1.091379534337676149e-01,-1.091379534337676149e-01,-1.091379534337676149e-01,-1.091379534337676149e-01,-1.091379534337676149e-01,-1.091379534337676149e-01,-1.091379534337676149e-01,-1.091379534337676149e-01,-1.055142323236620550e-01,-7.154850816846300421e-02,-2.334102715038584644e-02,0.000000000000000000e+00,0.000000000000000000e+00,0.000000000000000000e+00,0.000000000000000000e+00,0.000000000000000000e+00,0.000000000000000000e+00,0.000000000000000000e+00,0.000000000000000000e+00,0.000000000000000000e+00,0.000000000000000000e+00
0.000000000000000000e+00,0.000000000000000000e+00,0.000000000000000000e+00,0.000000000000000000e+00,0.000000000000000000e+00,0.000000000000000000e+00,0.000000000000000000e+00,0.000000000000000000e+00,0.000000000000000000e+00,0.000000000000000000e+00,0.000000000000000000e+00,0.000000000000000000e+00,0.000000000000000000e+00,0.000000000000000000e+00,0.000000000000000000e+00,0.000000000000000000e+00,0.000000000000000000e+00,0.000000000000000000e+00,0.000000000000000000e+00,0.000000000000000000e+00,0.000000000000000000e+00,-1.278960391801964303e-02,-3.666353123165631139e-02,-6.053745854529297282e-02,-8.526402612013093962e-02,-1.091379534337676149e-01,-1.091379534337676011e-01,-1.091379534337676149e-01,-1.091379534337676149e-01,-1.091379534337676149e-01,-1.091379534337676149e-01,-1.091379534337676149e-01,-1.091379534337676149e-01,-1.084984732378666272e-01,-1.023168313441571442e-01,-9.634834951574797191e-02,-9.016670762203847500e-02,-5.788628023312014648e-02,-1.711275649239190483e-02,0.000000000000000000e+00,0.000000000000000000e+00,0.000000000000000000e+00,0.000000000000000000e+00,0.000000000000000000e+00,0.000000000000000000e+00,0.000000000000000000e+00,0.000000000000000000e+00
0.000000000000000000e+00,0.000000000000000000e+00,0.000000000000000000e+00,0.000000000000000000e+00,0.000000000000000000e+00,0.000000000000000000e+00,0.000000000000000000e+00,0.000000000000000000e+00,0.000000000000000000e+00,0.000000000000000000e+00,0.000000000000000000e+00,0.000000000000000000e+00,0.000000000000000000e+00,0.000000000000000000e+00,0.000000000000000000e+00,0.000000000000000000e+00,0.000000000000000000e+00,0.000000000000000000e+00,0.000000000000000000e+00,0.000000000000000000e+00,-8.526402612013094916e-04,-2.472656757483797721e-02,-4.945313514967594748e-02,-7.332706246331260891e-02,-9.805363003815059653e-02,-1.091379534337676149e-01,-1.091379534337676149e-01,-1.091379534337676149e-01,-1.091379534337676149e-01,-1.091379534337676149e-01,-1.091379534337676149e-01,-1.091379534337676149e-01,-1.091379534337676149e-01,-1.053010722583617303e-01,-9.911943036465223344e-02,-9.315094853624306115e-02,-8.718246670783390273e-02,-8.100082481412439195e-02,-7.503234298571523353e-02,-4.532315888448210789e-02,-1.179041611192435841e-02,0.000000000000000000e+00,0.000000000000000000e+00,0.000000000000000000e+00,0.000000000000000000e+00,0.000000000000000000e+00,0.000000000000000000e+00
0.000000000000000000e+00,0.000000000000000000e+00,0.000000000000000000e+00,0.000000000000000000e+00,0.000000000000000000e+00,0.000000000000000000e+00,0.000000000000000000e+00,0.000000000000000000e+00,0.000000000000000000e+00,0.000000000000000000e+00,0.000000000000000000e+00,0.000000000000000000e+00,0.000000000000000000e+00,0.000000000000000000e+00,0.000000000000000000e+00,0.000000000000000000e+00,0.000000000000000000e+00,0.000000000000000000e+00,0.000000000000000000e+00,0.000000000000000000e+00,-1.364224417922095187e-02,-3.751617149285761676e-02,-6.224273906769559744e-02,-8.611666638133225193e-02,-1.091379534337676149e-01,-1.091379534337676149e-01,-1.091379534337676149e-01,-1.091379534337676149e-01,-1.091379534337676288e-01,-1.091379534337676149e-01,-1.091379534337676149e-01,-1.091379534337676288e-01,-1.080721531072659780e-01,-1.021036712788568196e-01,-9.613518945044763342e-02,-8.995354755673815039e-02,-8.398506572832899197e-02,-7.801658389991980580e-02,-7.183494200621032277e-02,-6.586646017780115048e-02,-5.968481828409166745e-02,-3.357271028480156294e-02,-7.460602285511457564e-03,0.000000000000000000e+00,0.000000000000000000e+00,0.000000000000000000e+00,0.000000000000000000e+00
0.000000000000000000e+00,0.000000000000000000e+00,0.000000000000000000e+00,0.000000000000000000e+00,0.000000000000000000e+00,0.000000000000000000e+00,0.000000000000000000e+00,0.000000000000000000e+00,0.000000000000000000e+00,0.000000000000000000e+00,0.000000000000000000e+00,0.000000000000000000e+00,0.000000000000000000e+00,0.000000000000000000e+00,0.000000000000000000e+00,0.000000000000000000e+00,0.000000000000000000e+00,0.000000000000000000e+00,0.000000000000000000e+00,-1.705280522402618983e-03,-2.643184809724059142e-02,-5.030577541087725979e-02,-7.417970272451392122e-02,-9.890627029935189496e-02,-1.091379534337676149e-01,-1.091379534337676288e-01,-1.091379534337676149e-01,-1.091379534337676149e-01,-1.091379534337676149e-01,-1.091379534337676149e-01,-1.091379534337676149e-01,-1.091379534337676149e-01,-1.050879121930613919e-01,-9.890627029935189496e-02,-9.293778847094273654e-02,-8.696930664253356424e-02,-8.078766474882406734e-02,-7.481918292041490892e-02,-6.863754102670541202e-02,-6.266905919829625360e-02,-5.670057736988708130e-02,-5.051893547617758440e-02,-4.455045364776841210e-02,-2.158245661165814760e-02,-4.050041240706220465e-03,0.000000000000000000e+00,0.000000000000000000e+00
0.000000000000000000e+00,0.000000000000000000e+00,0.000000000000000000e+00,0.000000000000000000e+00,0.000000000000000000e+00,0.000000000000000000e+00,0.000000000000000000e+00,0.000000000000000000e+00,0.000000000000000000e+00,0.000000000000000000e+00,0.000000000000000000e+00,0.000000000000000000e+00,0.000000000000000000e+00,0.000000000000000000e+00,0.000000000000000000e+00,0.000000000000000000e+00,0.000000000000000000e+00,0.000000000000000000e+00,0.000000000000000000e+00,-1.449488444042226071e-02,-3.836881175405892908e-02,-6.309537932889690282e-02,-8.696930664253356424e-02,-1.091379534337676288e-01,-1.091379534337676149e-01,-1.091379534337676149e-01,-1.091379534337676149e-01,-1.091379534337676149e-01,-1.091379534337676149e-01,-1.091379534337676288e-01,-1.091379534337676288e-01,-1.078589930419656534e-01,-1.018905112135564811e-01,-9.592202938514732269e-02,-8.974038749143782578e-02,-8.377190566302865349e-02,-7.759026376931915658e-02,-7.162178194090999817e-02,-6.565330011250083975e-02,-5.947165821879134284e-02,-5.350317639038217055e-02,-4.732153449667268058e-02,-4.135305266826350828e-02,-3.538457083985434293e-02,-2.920292894614484949e-02,-1.234330003129708100e-02,-1.618684245874361027e-03
0.000000000000000000e+00,0.000000000000000000e+00,0.000000000000000000e+00,0.000000000000000000e+00,0.000000000000000000e+00,0.000000000000000000e+00,0.000000000000000000e+00,0.000000000000000000e+00,0.000000000000000000e+00,0.000000000000000000e+00,0.000000000000000000e+00,0.000000000000000000e+00,0.000000000000000000e+00,0.000000000000000000e+00,0.000000000000000000e+00,0.000000000000000000e+00,0.000000000000000000e+00,0.000000000000000000e+00,-2.557920783603928258e-03,-2.728448835844190373e-02,-5.115841567207856516e-02,-7.588498324691653196e-02,-9.975891056055320727e-02,-1.091379534337676149e-01,-1.091379534337676149e-01,-1.091379534337676149e-01,-1.091379534337676149e-01,-1.091379534337676011e-01,-1.091379534337676149e-01,-1.091379534337676288e-01,-1.091379534337676149e-01,-1.048747521277610673e-01,-9.869311023405157035e-02,-9.272462840564241193e-02,-8.654298651193291503e-02,-8.057450468352374273e-02,-7.460602285511458431e-02,-6.842438096140508741e-02,-6.245589913299592205e-02,-5.627425723928642515e-02,-5.030577541087725979e-02,-4.433729358246808749e-02,-3.815565168875859753e-02,-3.218716986034943217e-02,-2.621868803194026681e-02,-2.003704613823076991e-02,-1.362892167513968245e-02
0.000000000000000000e+00,0.000000000000000000e+00,0.000000000000000000e+00,0.000000000000000000e+00,0.000000000000000000e+00,0.000000000000000000e+00,0.000000000000000000e+00,0.000000000000000000e+00,0.000000000000000000e+00,0.000000000000000000e+00,0.000000000000000000e+00,0.000000000000000000e+00,0.000000000000000000e+00,0.000000000000000000e+00,0.000000000000000000e+00,0.000000000000000000e+00,0.000000000000000000e+00,0.000000000000000000e+00,-1.534752470162357128e-02,-4.007409227646154676e-02,-6.394801959009821513e-02,-8.782194690373486268e-02,-1.091379534337676288e-01,-1.091379534337676149e-01,-1.091379534337676149e-01,-1.091379534337676288e-01,-1.091379534337676149e-01,-1.091379534337676149e-01,-1.091379534337676149e-01,-1.091379534337676149e-01,-1.076458329766653288e-01,-1.016773511482561565e-01,-9.549570925454665959e-02,-8.952722742613750118e-02,-8.355874559772832888e-02,-7.737710370401883198e-02,-7.140862187560967356e-02,-6.522697998190017665e-02,-5.925849815349101130e-02,-5.329001632508184594e-02,-4.710837443137234209e-02,-4.113989260296317674e-02,-3.517141077455401832e-02,-2.898976888084452141e-02,-2.302128705243535606e-02,-1.683964515872586262e-02,-1.087116333031669380e-02
0.000000000000000000e+00,0.000000000000000000e+00,0.000000000000000000e+00,0.000000000000000000e+00,0.000000000000000000e+00,0.000000000000000000e+00,0.000000000000000000e+00,0.000000000000000000e+00,0.000000000000000000e+00,0.000000000000000000e+00,0.000000000000000000e+00,0.000000000000000000e+00,0.000000000000000000e+00,0.000000000000000000e+00,0.000000000000000000e+00,0.000000000000000000e+00,0.000000000000000000e+00,-3.410561044805237967e-03,-2.813712861964320910e-02,-5.201105593327987747e-02,-7.673762350811785815e-02,-1.006115508217545196e-01,-1.091379534337676288e-01,-1.091379534337676149e-01,-1.091379534337676149e-01,-1.091379534337676011e-01,-1.091379534337676011e-01,-1.091379534337676149e-01,-1.091379534337676149e-01,-1.091379534337676288e-01,-1.044484319971604180e-01,-9.847995016875123186e-02,-9.251146834034207345e-02,-8.632982644663259042e-02,-8.036134461822341812e-02,-7.439286278981424583e-02,-6.821122089610476280e-02,-6.224273906769559744e-02,-5.606109717398610054e-02,-5.009261534557692824e-02,-4.412413351716776289e-02,-3.794249162345826598e-02,-3.197400979504910756e-02,-2.579236790133961413e-02,-1.982388607293044530e-02,-1.385540424452127821e-02,-7.673762350811784774e-03
0.000000000000000000e+00,0.000000000000000000e+00,0.000000000000000000e+00,0.000000000000000000e+00,0.000000000000000000e+00,0.000000000000000000e+00,0.000000000000000000e+00,0.000000000000000000e+00,0.000000000000000000e+00,0.000000000000000000e+00,0.000000000000000000e+00,0.000000000000000000e+00,0.000000000000000000e+00,0.000000000000000000e+00,0.000000000000000000e+00,0.000000000000000000e+00,0.000000000000000000e+00,-1.620016496282488186e-02,-4.092673253766285213e-02,-6.480065985129951356e-02,-8.867458716493617499e-02,-1.091379534337676149e-01,-1.091379534337676149e-01,-1.091379534337676149e-01,-1.091379534337676149e-01,-1.091379534337676149e-01,-1.091379534337676149e-01,-1.091379534337676149e-01,-1.091379534337676149e-01,-1.074326729113649903e-01,-1.014641910829558319e-01,-9.528254918924633499e-02,-8.931406736083717657e-02,-8.334558553242800427e-02,-7.716394363871850737e-02,-7.119546181030933507e-02,-6.501381991659985204e-02,-5.904533808819068669e-02,-5.307685625978151439e-02,-4.689521436607201749e-02,-4.092673253766285213e-02,-3.474509064395336216e-02,-2.877660881554419681e-02,-2.280812698713502798e-02,-1.662648509342553454e-02,-1.065800326501636919e-02,-4.476361371306874885e-03
0.000000000000000000e+00,0.000000000000000000e+00,0.000000000000000000e+00,0.000000000000000000e+00,0.000000000000000000e+00,0.000000000000000000e+00,0.000000000000000000e+00,0.000000000000000000e+00,0.000000000000000000e+00,0.000000000000000000e+00,0.000000000000000000e+00,0.000000000000000000e+00,0.000000000000000000e+00,0.000000000000000000e+00,0.000000000000000000e+00,0.000000000000000000e+00,-5.115841567207856516e-03,-2.898976888084452488e-02,-5.286369619448118978e-02,-7.759026376931915658e-02,-1.014641910829558180e-01,-1.091379534337676149e-01,-1.091379534337676288e-01,-1.091379534337676149e-01,-1.091379534337676011e-01,-1.091379534337676149e-01,-1.091379534337676288e-01,-1.091379534337676149e-01,-1.091379534337676149e-01,-1.042352719318600796e-01,-9.826679010345092113e-02,-9.229830827504174884e-02,-8.611666638133225193e-02,-8.014818455292309352e-02,-7.396654265921359661e-02,-6.799806083080443819e-02,-6.202957900239526590e-02,-5.584793710868576899e-02,-4.987945528027660363e-02,-4.369781338656710673e-02,-3.772933155815794137e-02,-3.176084972974878295e-02,-2.557920783603928605e-02,-1.961072600763012069e-02,-1.342908411392062205e-02,-7.460602285511457564e-03,-1.492120457102291556e-03
0.000000000000000000e+00,0.000000000000000000e+00,0.000000000000000000e+00,0.000000000000000000e+00,0.000000000000000000e+00,0.000000000000000000e+00,0.000000000000000000e+00,0.000000000000000000e+00,0.000000000000000000e+00,0.000000000000000000e+00,0.000000000000000000e+00,0.000000000000000000e+00,0.000000000000000000e+00,0.000000000000000000e+00,0.000000000000000000e+00,0.000000000000000000e+00,-1.705280522402619070e-02,-4.177937279886416444e-02,-6.565330011250082587e-02,-9.037986768733879961e-02,-1.091379534337676011e-01,-1.091379534337676149e-01,-1.091379534337676149e-01,-1.091379534337676149e-01,-1.091379534337676149e-01,-1.091379534337676149e-01,-1.091379534337676149e-01,-1.091379534337676149e-01,-1.072195128460646657e-01,-1.012510310176555073e-01,-9.506938912394601038e-02,-8.910090729553685196e-02,-8.291926540182734118e-02,-7.695078357341816888e-02,-7.098230174500901046e-02,-6.480065985129952744e-02,-5.883217802289035514e-02,-5.265053612918085824e-02,-4.668205430077169288e-02,-4.071357247236252752e-02,-3.453193057865303062e-02,-2.856344875024386873e-02,-2.238180685653437529e-02,-1.641332502812520647e-02,-1.044484319971604284e-02,-4.263201306006547675e-03,0.000000000000000000e+00
0.000000000000000000e+00,0.000000000000000000e+00,0.000000000000000000e+00,0.000000000000000000e+00,0.000000000000000000e+00,0.000000000000000000e+00,0.000000000000000000e+00,0.000000000000000000e+00,0.000000000000000000e+00,0.000000000000000000e+00,0.000000000000000000e+00,0.000000000000000000e+00,0.000000000000000000e+00,0.000000000000000000e+00,0.000000000000000000e+00,-5.968481828409167092e-03,-2.984240914204583026e-02,-5.456897671688380747e-02,-7.844290403052046889e-02,-1.023168313441571303e-01,-1.091379534337676149e-01,-1.091379534337676149e-01,-1.091379534337676149e-01,-1.091379534337676288e-01,-1.091379534337676149e-01,-1.091379534337676149e-01,-1.091379534337676149e-01,-1.091379534337676149e-01,-1.040221118665597688e-01,-9.805363003815059653e-02,-9.187198814444109962e-02,-8.590350631603192733e-02,-7.993502448762275503e-02,-7.375338259391327200e-02,-6.778490076550411358e-02,-6.160325887179460974e-02,-5.563477704338544438e-02,-4.966629521497627209e-02,-4.348465332126678212e-02,-3.751617149285761676e-02,-3.133452959914812680e-02,-2.536604777073895797e-02,-1.939756594232978915e-02,-1.321592404862029745e-02,-7.247442220211131221e-03,-1.278960391801964129e-03,0.000000000000000000e+00
0.000000000000000000e+00,0.000000000000000000e+00,0.000000000000000000e+00,0.000000000000000000e+00,0.000000000000000000e+00,0.000000000000000000e+00,0.000000000000000000e+00,0.000000000000000000e+00,0.000000000000000000e+00,0.000000000000000000e+00,0.000000000000000000e+00,0.000000000000000000e+00,0.000000000000000000e+00,0.000000000000000000e+00,0.000000000000000000e+00,-1.875808574642880838e-02,-4.263201306006547675e-02,-6.650594037370213818e-02,-9.123250794854012580e-02,-1.091379534337676149e-01,-1.091379534337676149e-01,-1.091379534337676149e-01,-3.719169520504548299e-01,-3.719169520504548854e-01,-3.719169520504548299e-01,-3.719169520504548854e-01,-3.719169520504548299e-01,-1.070063527807643411e-01,-1.008247108870548442e-01,-9.485622905864567189e-02,-8.888774723023651347e-02,-8.270610533652701657e-02,-7.673762350811785815e-02,-7.055598161440836125e-02,-6.458749978599920283e-02,-5.861901795759002359e-02,-5.243737606388053363e-02,-4.646889423547136827e-02,-4.028725234176187830e-02,-3.431877051335270601e-02,-2.835028868494354065e-02,-2.216864679123404375e-02,-1.620016496282487839e-02,-1.023168313441571303e-02,-4.050041240706220465e-03,0.000000000000000000e+00,0.000000000000000000e+00
0.000000000000000000e+00,0.000000000000000000e+00,0.000000000000000000e+00,0.000000000000000000e+00,-2.665531336587070865e-01,-2.665531336587070865e-01,-2.665531336587070865e-01,-2.665531336587070865e-01,0.000000000000000000e+00,0.000000000000000000e+00,0.000000000000000000e+00,0.000000000000000000e+00,0.000000000000000000e+00,0.000000000000000000e+00,-6.821122089610475933e-03,-3.069504940324714604e-02,-5.542161697808511978e-02,-7.929554429172178120e-02,-1.031694716053584565e-01,-1.091379534337676149e-01,-1.091379534337676149e-01,-1.091379534337676149e-01,-3.719169520504548299e-01,-3.719169520504548299e-01,-3.719169520504548854e-01,-3.719169520504548299e-01,-3.719169520504548299e-01,-1.038089518012594303e-01,-9.784046997285025804e-02,-9.165882807914077501e-02,-8.569034625073160272e-02,-7.950870435702210581e-02,-7.354022252861294739e-02,-6.757174070020378898e-02,-6.139009880649427819e-02,-5.542161697808511978e-02,-4.945313514967594748e-02,-4.327149325596645058e-02,-3.730301142755728522e-02,-3.112136953384779872e-02,-2.515288770543862643e-02,-1.918440587702946454e-02,-1.300276398331996937e-02,-7.034282154910803143e-03,-8.526402612013094916e-04,0.000000000000000000e+00,0.000000000000000000e+00
0.000000000000000000e+00,0.000000000000000000e+00,0.000000000000000000e+00,0.000000000000000000e+00,-2.665531336587070865e-01,-2.665531336587070865e-01,-2.665531336587070865e-01,-2.665531336587070865e-01,0.000000000000000000e+00,0.000000000000000000e+00,0.000000000000000000e+00,0.000000000000000000e+00,0.000000000000000000e+00,0.000000000000000000e+00,-1.961072600763011722e-02,-4.348465332126678906e-02,-6.735858063490345049e-02,-9.208514820974141035e-02,-1.091379534337676011e-01,-1.091379534337676149e-01,-1.091379534337676149e-01,-1.091379534337676149e-01,-3.719169520504548299e-01,-3.719169520504548299e-01,-3.719169520504548299e-01,-3.719169520504548299e-01,-3.695721913321512453e-01,-1.006115508217545196e-01,-9.464306899334536116e-02,-8.846142709963587814e-02,-8.249294527122669196e-02,-7.652446344281751966e-02,-7.034282154910803664e-02,-6.437433972069886434e-02,-5.840585789228969898e-02,-5.222421599858020902e-02,-4.625573417017104366e-02,-4.007409227646153982e-02,-3.410561044805238140e-02,-2.813712861964321604e-02,-2.195548672593371914e-02,-1.598700489752455378e-02,-9.805363003815060347e-03,-3.836881175405892387e-03,0.000000000000000000e+00,0.000000000000000000e+00,0.000000000000000000e+00
0.000000000000000000e+00,0.000000000000000000e+00,0.000000000000000000e+00,0.000000000000000000e+00,-2.665531336587070865e-01,-2.665531336587070865e-01,-2.665531336587070865e-01,-2.665531336587070865e-01,0.000000000000000000e+00,0.000000000000000000e+00,0.000000000000000000e+00,0.000000000000000000e+00,0.000000000000000000e+00,-7.673762350811785642e-03,-3.154768966444845141e-02,-5.627425723928643209e-02,-8.014818455292307964e-02,-1.048747521277610673e-01,-1.091379534337676149e-01,-1.091379534337676149e-01,-1.091379534337676149e-01,-1.091379534337676149e-01,-3.719169520504548299e-01,-3.719169520504548299e-01,-3.719169520504548299e-01,-3.719169520504548299e-01,-3.663747903526463623e-01,-9.741414984224960882e-02,-9.144566801384045041e-02,-8.547718618543126423e-02,-7.929554429172178120e-02,-7.332706246331260891e-02,-6.735858063490345049e-02,-6.117693874119396052e-02,-5.520845691278478823e-02,-4.902681501907529132e-02,-4.305833319066612597e-02,-3.708985136225696061e-02,-3.090820946854747064e-02,-2.493972764013830182e-02,-1.875808574642880838e-02,-1.278960391801964129e-02,-6.821122089610475933e-03,-6.394801959009821729e-04,0.000000000000000000e+00,0.000000000000000000e+00,0.000000000000000000e+00
0.000000000000000000e+00,0.000000000000000000e+00,0.000000000000000000e+00,0.000000000000000000e+00,-2.665531336587070865e-01,-2.665531336587070865e-01,-2.665531336587070865e-01,-2.665531336587070865e-01,0.000000000000000000e+00,0.000000000000000000e+00,0.000000000000000000e+00,0.000000000000000000e+00,0.000000000000000000e+00,-2.046336626883142953e-02,-4.433729358246809443e-02,-6.906386115730606123e-02,-9.293778847094272266e-02,-1.091379534337676149e-01,-1.091379534337676149e-01,-1.091379534337676149e-01,-1.091379534337676149e-01,-1.091379534337676149e-01,-3.719169520504548854e-01,-3.719169520504548299e-01,-3.719169520504548299e-01,-3.691458712015506238e-01,-3.631773893731414238e-01,-9.442990892804502268e-02,-8.824826703433553965e-02,-8.227978520592635348e-02,-7.631130337751719506e-02,-7.012966148380769815e-02,-6.416117965539853973e-02,-5.797953776168904283e-02,-5.201105593327987747e-02,-4.604257410487071212e-02,-3.986093221116121521e-02,-3.389245038275204985e-02,-2.771080848904255989e-02,-2.174232666063339106e-02,-1.577384483222422223e-02,-9.592202938514732269e-03,-3.623721110105565177e-03,0.000000000000000000e+00,0.000000000000000000e+00,0.000000000000000000e+00,0.000000000000000000e+00
0.000000000000000000e+00,0.000000000000000000e+00,0.000000000000000000e+00,0.000000000000000000e+00,0.000000000000000000e+00,0.000000000000000000e+00,0.000000000000000000e+00,0.000000000000000000e+00,0.000000000000000000e+00,-1.407350459066437631e-01,-1.407350459066437631e-01,-1.407350459066437631e-01,-8.526402612013095350e-03,-3.325297018685106909e-02,-5.712689750048773052e-02,-8.100082481412439195e-02,-1.057273923889623796e-01,-1.091379534337676149e-01,-1.091379534337676149e-01,-1.091379534337676149e-01,-1.091379534337676149e-01,-1.091379534337676149e-01,-1.091379534337676149e-01,-1.091379534337676149e-01,-1.091379534337676149e-01,-1.033826316706587811e-01,-9.720098977694928422e-02,-9.123250794854011192e-02,-8.526402612013095350e-02,-7.908238422642145660e-02,-7.311390239801229818e-02,-6.693226050430280127e-02,-6.096377867589362898e-02,-5.499529684748446362e-02,-4.881365495377497365e-02,-4.284517312536580136e-02,-3.666353123165630445e-02,-3.069504940324714257e-02,-2.472656757483797374e-02,-1.854492568112847684e-02,-1.257644385271931495e-02,-6.607962024310148723e-03,-4.263201306006547458e-04,0.000000000000000000e+00,0.000000000000000000e+00,0.000000000000000000e+00,0.000000000000000000e+00
0.000000000000000000e+00,0.000000000000000000e+00,0.000000000000000000e+00,0.000000000000000000e+00,0.000000000000000000e+00,0.000000000000000000e+00,0.000000000000000000e+00,0.000000000000000000e+00,0.000000000000000000e+00,-1.407350459066437631e-01,-1.407350459066437631e-01,-1.407350459066437631e-01,-2.131600653003273838e-02,-4.518993384366939980e-02,-6.991650141850737354e-02,-9.379042873214403497e-02,-1.091379534337676149e-01,-1.091379534337676288e-01,-1.091379534337676011e-01,-1.091379534337676149e-01,-1.091379534337676149e-01,-1.091379534337676149e-01,-1.091379534337676149e-01,-1.091379534337676149e-01,-1.061537125195630288e-01,-1.001852306911538565e-01,-9.421674886274469807e-02,-8.803510696903521504e-02,-8.206662514062604274e-02,-7.588498324691654584e-02,-6.991650141850738742e-02,-6.394801959009821513e-02,-5.776637769638871822e-02,-5.179789586797955286e-02,-4.561625397427004902e-02,-3.964777214586089060e-02,-3.367929031745172525e-02,-2.749764842374222834e-02,-2.152916659533306298e-02,-1.556068476692389763e-02,-9.379042873214404191e-03,-3.410561044805237967e-03,0.000000000000000000e+00,0.000000000000000000e+00,0.000000000000000000e+00,0.000000000000000000e+00,0.000000000000000000e+00
0.000000000000000000e+00,0.000000000000000000e+00,0.000000000000000000e+00,0.000000000000000000e+00,0.000000000000000000e+00,0.000000000000000000e+00,0.000000000000000000e+00,0.000000000000000000e+00,0.000000000000000000e+00,-1.407350459066437631e-01,-1.407350459066437631e-01,-1.501140887798581569e-01,-3.410561044805238140e-02,-5.797953776168904977e-02,-8.270610533652700269e-02,-1.065800326501636919e-01,-1.091379534337676149e-01,-1.091379534337676149e-01,-1.091379534337676149e-01,-1.091379534337676149e-01,-1.091379534337676149e-01,-1.091379534337676149e-01,-1.091379534337676288e-01,-1.091379534337676149e-01,-1.031694716053584565e-01,-9.698782971164895961e-02,-9.101934788323977343e-02,-8.483770598953030428e-02,-7.886922416112111811e-02,-7.290074233271195969e-02,-6.671910043900247667e-02,-6.075061861059330437e-02,-5.456897671688380747e-02,-4.860049488847463517e-02,-4.263201306006547675e-02,-3.645037116635597985e-02,-3.048188933794681449e-02,-2.451340750953764566e-02,-1.833176561582815223e-02,-1.236328378741898860e-02,-6.181641893709493435e-03,-2.131600653003273729e-04,0.000000000000000000e+00,0.000000000000000000e+00,0.000000000000000000e+00,0.000000000000000000e+00,0.000000000000000000e+00
0.000000000000000000e+00,0.000000000000000000e+00,0.000000000000000000e+00,0.000000000000000000e+00,0.000000000000000000e+00,0.000000000000000000e+00,0.000000000000000000e+00,0.000000000000000000e+00,0.000000000000000000e+00,0.000000000000000000e+00,0.000000000000000000e+00,-2.216864679123404722e-02,-4.689521436607202443e-02,-7.076914167970868585e-02,-9.464306899334534728e-02,-1.091379534337676288e-01,-1.091379534337676011e-01,-1.091379534337676149e-01,-1.091379534337676149e-01,-1.091379534337676149e-01,-1.091379534337676149e-01,-1.091379534337676149e-01,-1.091379534337676149e-01,-1.059405524542627042e-01,-9.997207062585353188e-02,-9.379042873214404885e-02,-8.782194690373489043e-02,-8.185346507532570426e-02,-7.567182318161622123e-02,-6.970334135320704894e-02,-6.352169945949755203e-02,-5.755321763108839361e-02,-5.158473580267922132e-02,-4.540309390896972441e-02,-3.943461208056055906e-02,-3.346613025215140064e-02,-2.728448835844190373e-02,-2.131600653003273838e-02,-1.513436463632324321e-02,-9.165882807914077848e-03,-3.197400979504910756e-03,0.000000000000000000e+00,0.000000000000000000e+00,0.000000000000000000e+00,0.000000000000000000e+00,0.000000000000000000e+00,0.000000000000000000e+00
0.000000000000000000e+00,0.000000000000000000e+00,0.000000000000000000e+00,0.000000000000000000e+00,0.000000000000000000e+00,0.000000000000000000e+00,0.000000000000000000e+00,0.000000000000000000e+00,0.000000000000000000e+00,0.000000000000000000e+00,-1.023168313441571477e-02,-3.495825070925369371e-02,-5.883217802289034820e-02,-8.355874559772831500e-02,-1.074326729113650042e-01,-1.091379534337676149e-01,-1.091379534337676149e-01,-1.091379534337676149e-01,-1.091379534337676149e-01,-1.091379534337676149e-01,-1.091379534337676149e-01,-1.091379534337676149e-01,-1.089247933684672764e-01,-1.027431514747577934e-01,-9.677466964634862112e-02,-9.080618781793946270e-02,-8.462454592422996580e-02,-7.865606409582079350e-02,-7.268758226741163508e-02,-6.650594037370213818e-02,-6.053745854529297282e-02,-5.435581665158347592e-02,-4.838733482317431056e-02,-4.241885299476513826e-02,-3.623721110105565524e-02,-3.026872927264648641e-02,-2.408708737893699298e-02,-1.811860555052782762e-02,-1.215012372211866226e-02,-5.968481828409167092e-03,0.000000000000000000e+00,0.000000000000000000e+00,0.000000000000000000e+00,0.000000000000000000e+00,0.000000000000000000e+00,0.000000000000000000e+00,0.000000000000000000e+00
0.000000000000000000e+00,0.000000000000000000e+00,0.000000000000000000e+00,0.000000000000000000e+00,0.000000000000000000e+00,0.000000000000000000e+00,0.000000000000000000e+00,0.000000000000000000e+00,0.000000000000000000e+00,0.000000000000000000e+00,-2.302128705243535606e-02,-4.774785462727332980e-02,-7.162178194090998429e-02,-9.549570925454665959e-02,-1.091379534337676011e-01,-1.091379534337676011e-01,-1.091379534337676149e-01,-1.091379534337676288e-01,-1.091379534337676149e-01,-1.091379534337676149e-01,-1.091379534337676149e-01,-1.091379534337676149e-01,-1.057273923889623796e-01,-9.975891056055320727e-02,-9.357726866684372424e-02,-8.760878683843455195e-02,-8.164030501002537965e-02,-7.545866311631589662e-02,-6.949018128790672433e-02,-6.330853939419722742e-02,-5.734005756578806207e-02,-5.137157573737889671e-02,-4.518993384366939980e-02,-3.922145201526023445e-02,-3.303981012155074448e-02,-2.707132829314157565e-02,-2.110284646473240683e-02,-1.492120457102291513e-02,-8.952722742613749771e-03,-2.771080848904255902e-03,0.000000000000000000e+00,0.000000000000000000e+00,0.000000000000000000e+00,0.000000000000000000e+00,0.000000000000000000e+00,0.000000000000000000e+00,0.000000000000000000e+00
0.000000000000000000e+00,0.000000000000000000e+00,0.000000000000000000e+00,0.000000000000000000e+00,0.000000000000000000e+00,0.000000000000000000e+00,0.000000000000000000e+00,0.000000000000000000e+00,0.000000000000000000e+00,-1.193696365681833245e-02,-3.581089097045499908e-02,-5.968481828409166051e-02,-8.441138585892964119e-02,-1.082853131725663165e-01,-1.091379534337676149e-01,-1.091379534337676149e-01,-1.091379534337676149e-01,-1.091379534337676149e-01,-1.091379534337676011e-01,-1.091379534337676149e-01,-1.091379534337676149e-01,-1.087116333031669657e-01,-1.025299914094574688e-01,-9.656150958104829651e-02,-9.059302775263913809e-02,-8.441138585892962731e-02,-7.844290403052046889e-02,-7.226126213681097199e-02,-6.629278030840181357e-02,-6.032429847999264821e-02,-5.414265658628315131e-02,-4.817417475787397901e-02,-4.199253286416448905e-02,-3.602405103575532369e-02,-3.005556920734615833e-02,-2.387392731363666490e-02,-1.790544548522749607e-02,-1.172380359151800437e-02,-5.755321763108839014e-03,0.000000000000000000e+00,0.000000000000000000e+00,0.000000000000000000e+00,0.000000000000000000e+00,0.000000000000000000e+00,0.000000000000000000e+00,0.000000000000000000e+00,0.000000000000000000e+00
0.000000000000000000e+00,0.000000000000000000e+00,0.000000000000000000e+00,0.000000000000000000e+00,0.000000000000000000e+00,0.000000000000000000e+00,0.000000000000000000e+00,0.000000000000000000e+00,0.000000000000000000e+00,-2.387392731363666490e-02,-4.860049488847464211e-02,-7.247442220211131048e-02,-9.720098977694928422e-02,-1.091379534337676149e-01,-1.091379534337676149e-01,-1.091379534337676149e-01,-1.091379534337676149e-01,-1.091379534337676149e-01,-1.091379534337676149e-01,-1.091379534337676149e-01,-1.091379534337676149e-01,-1.055142323236620550e-01,-9.954575049525288266e-02,-9.336410860154338576e-02,-8.739562677313422734e-02,-8.121398487942473043e-02,-7.524550305101557202e-02,-6.927702122260639972e-02,-6.309537932889690282e-02,-5.712689750048773746e-02,-5.094525560677824055e-02,-4.497677377836907520e-02,-3.900829194995990984e-02,-3.282665005625041987e-02,-2.685816822784125105e-02,-2.067652633413175067e-02,-1.470804450572258879e-02,-8.739562677313423428e-03,-2.557920783603928258e-03,0.000000000000000000e+00,0.000000000000000000e+00,0.000000000000000000e+00,0.000000000000000000e+00,0.000000000000000000e+00,0.000000000000000000e+00,0.000000000000000000e+00,0.000000000000000000e+00
0.000000000000000000e+00,0.000000000000000000e+00,0.000000000000000000e+00,0.000000000000000000e+00,0.000000000000000000e+00,0.000000000000000000e+00,0.000000000000000000e+00,0.000000000000000000e+00,-1.278960391801964303e-02,-3.666353123165630445e-02,-6.139009880649427819e-02,-8.526402612013093962e-02,-1.091379534337676149e-01,-1.091379534337676288e-01,-1.091379534337676288e-01,-1.091379534337676149e-01,-1.091379534337676149e-01,-1.091379534337676149e-01,-1.091379534337676149e-01,-1.091379534337676149e-01,-1.084984732378666272e-01,-1.023168313441571442e-01,-9.634834951574797191e-02,-9.016670762203848888e-02,-8.419822579362931658e-02,-7.822974396522014429e-02,-7.204810207151066126e-02,-6.607962024310148896e-02,-5.989797834939199206e-02,-5.392949652098281976e-02,-4.796101469257365441e-02,-4.177937279886416444e-02,-3.581089097045499908e-02,-2.984240914204583373e-02,-2.366076724833633682e-02,-1.769228541992717146e-02,-1.151064352621767803e-02,-5.542161697808511804e-03,0.000000000000000000e+00,0.000000000000000000e+00,0.000000000000000000e+00,0.000000000000000000e+00,0.000000000000000000e+00,0.000000000000000000e+00,0.000000000000000000e+00,0.000000000000000000e+00,0.000000000000000000e+00
0.000000000000000000e+00,0.000000000000000000e+00,0.000000000000000000e+00,0.000000000000000000e+00,0.000000000000000000e+00,0.000000000000000000e+00,0.000000000000000000e+00,-8.526402612013094916e-04,-2.557920783603928605e-02,-4.945313514967594748e-02,-7.332706246331260891e-02,-9.805363003815058265e-02,-1.091379534337676149e-01,-1.091379534337676149e-01,-1.091379534337676149e-01,-1.091379534337676011e-01,-1.091379534337676011e-01,-1.091379534337676011e-01,-1.091379534337676288e-01,-1.091379534337676149e-01,-1.053010722583617303e-01,-9.911943036465223344e-02,-9.315094853624306115e-02,-8.718246670783388885e-02,-8.100082481412439195e-02,-7.503234298571523353e-02,-6.885070109200573663e-02,-6.288221926359657821e-02,-5.691373743518740591e-02,-5.073209554147791595e-02,-4.476361371306874365e-02,-3.879513188465957829e-02,-3.261348999095008833e-02,-2.664500816254091950e-02,-2.046336626883142606e-02,-1.449488444042226071e-02,-8.526402612013095350e-03,-2.344760718303601048e-03,0.000000000000000000e+00,0.000000000000000000e+00,0.000000000000000000e+00,0.000000000000000000e+00,0.000000000000000000e+00,0.000000000000000000e+00,0.000000000000000000e+00,0.000000000000000000e+00,0.000000000000000000e+00
0.000000000000000000e+00,0.000000000000000000e+00,0.000000000000000000e+00,0.000000000000000000e+00,0.000000000000000000e+00,0.000000000000000000e+00,0.000000000000000000e+00,-1.364224417922095187e-02,-3.751617149285761676e-02,-6.224273906769558357e-02,-8.611666638133225193e-02,-1.091379534337676149e-01,-1.091379534337676149e-01,-1.091379534337676149e-01,-1.091379534337676149e-01,-1.091379534337676149e-01,-1.091379534337676149e-01,-1.091379534337676288e-01,-1.091379534337676011e-01,-1.080721531072659780e-01,-1.021036712788568196e-01,-9.613518945044763342e-02,-8.995354755673815039e-02,-8.398506572832897810e-02,-7.780342383461949507e-02,-7.183494200621033665e-02,-6.586646017780115048e-02,-5.968481828409166051e-02,-5.371633645568250903e-02,-4.774785462727332980e-02,-4.156621273356383289e-02,-3.559773090515466754e-02,-2.941608901144517757e-02,-2.344760718303601221e-02,-1.747912535462683992e-02,-1.129748346091734995e-02,-5.329001632508184594e-03,0.000000000000000000e+00,0.000000000000000000e+00,0.000000000000000000e+00,0.000000000000000000e+00,0.000000000000000000e+00,0.000000000000000000e+00,0.000000000000000000e+00,0.000000000000000000e+00,0.000000000000000000e+00,0.000000000000000000e+00
0.000000000000000000e+00,0.000000000000000000e+00,0.000000000000000000e+00,0.000000000000000000e+00,0.000000000000000000e+00,0.000000000000000000e+00,-1.705280522402618983e-03,-2.643184809724059489e-02,-5.030577541087725979e-02,-7.417970272451392122e-02,-9.890627029935189496e-02,-1.091379534337676149e-01,-1.091379534337676288e-01,-1.091379534337676149e-01,-1.091379534337676149e-01,-1.091379534337676149e-01,-1.091379534337676149e-01,-1.091379534337676149e-01,-1.091379534337676149e-01,-1.050879121930614057e-01,-9.890627029935190884e-02,-9.293778847094273654e-02,-8.675614657723325351e-02,-8.078766474882406734e-02,-7.481918292041490892e-02,-6.863754102670541202e-02,-6.266905919829625360e-02,-5.670057736988708130e-02,-5.051893547617758440e-02,-4.455045364776841210e-02,-3.836881175405892908e-02,-3.240032992564976372e-02,-2.643184809724059489e-02,-2.025020620353110146e-02,-1.428172437512193263e-02,-8.100082481412439195e-03,-2.131600653003273838e-03,0.000000000000000000e+00,0.000000000000000000e+00,0.000000000000000000e+00,0.000000000000000000e+00,0.000000000000000000e+00,0.000000000000000000e+00,0.000000000000000000e+00,0.000000000000000000e+00,0.000000000000000000e+00,0.000000000000000000e+00
0.000000000000000000e+00,0.000000000000000000e+00,0.000000000000000000e+00,0.000000000000000000e+00,0.000000000000000000e+00,0.000000000000000000e+00,-1.449488444042226071e-02,-3.836881175405892908e-02,-6.309537932889688894e-02,-8.696930664253357812e-02,-1.091379534337676011e-01,-1.091379534337676149e-01,-1.091379534337676149e-01,-1.091379534337676149e-01,-1.091379534337676149e-01,-1.091379534337676288e-01,-1.091379534337676149e-01,-1.091379534337676288e-01,-1.078589930419656395e-01,-1.018905112135564950e-01,-9.592202938514732269e-02,-8.974038749143781191e-02,-8.377190566302866737e-02,-7.759026376931917046e-02,-7.162178194090999817e-02,-6.565330011250082587e-02,-5.947165821879133590e-02,-5.350317639038217055e-02,-4.732153449667268058e-02,-4.135305266826350828e-02,-3.538457083985434293e-02,-2.920292894614485296e-02,-2.323444711773568067e-02,-1.705280522402619070e-02,-1.108432339561702361e-02,-5.115841567207856516e-03,0.000000000000000000e+00,0.000000000000000000e+00,0.000000000000000000e+00,0.000000000000000000e+00,0.000000000000000000e+00,0.000000000000000000e+00,0.000000000000000000e+00,0.000000000000000000e+00,0.000000000000000000e+00,0.000000000000000000e+00,0.000000000000000000e+00
0.000000000000000000e+00,0.000000000000000000e+00,0.000000000000000000e+00,0.000000000000000000e+00,0.000000000000000000e+00,-2.557920783603928692e-03,-2.728448835844190373e-02,-5.115841567207857210e-02,-7.588498324691653196e-02,-9.975891056055320727e-02,-1.091379534337676149e-01,-1.091379534337676011e-01,-1.091379534337676149e-01,-1.091379534337676149e-01,-1.091379534337676011e-01,-1.091379534337676149e-01,-1.091379534337676149e-01,-1.091379534337676149e-01,-1.048747521277610673e-01,-9.869311023405157035e-02,-9.272462840564241193e-02,-8.654298651193291503e-02,-8.057450468352375661e-02,-7.460602285511458431e-02,-6.842438096140508741e-02,-6.245589913299592205e-02,-5.627425723928643209e-02,-5.030577541087725285e-02,-4.433729358246808749e-02,-3.815565168875859753e-02,-3.218716986034943217e-02,-2.600552796663993874e-02,-2.003704613823076991e-02,-1.406856430982160802e-02,-7.886922416112112852e-03,-1.918440587702946410e-03,0.000000000000000000e+00,0.000000000000000000e+00,0.000000000000000000e+00,0.000000000000000000e+00,0.000000000000000000e+00,0.000000000000000000e+00,0.000000000000000000e+00,0.000000000000000000e+00,0.000000000000000000e+00,0.000000000000000000e+00,0.000000000000000000e+00
0.000000000000000000e+00,0.000000000000000000e+00,0.000000000000000000e+00,0.000000000000000000e+00,0.000000000000000000e+00,-1.534752470162357128e-02,-4.007409227646154676e-02,-6.394801959009821513e-02,-8.782194690373486268e-02,-1.091379534337676149e-01,-1.091379534337676149e-01,-1.091379534337676149e-01,-1.091379534337676149e-01,-1.091379534337676149e-01,-1.091379534337676288e-01,-1.091379534337676149e-01,-1.091379534337676149e-01,-1.076458329766653288e-01,-1.016773511482561704e-01,-9.549570925454665959e-02,-8.952722742613748730e-02,-8.355874559772832888e-02,-7.737710370401883198e-02,-7.140862187560967356e-02,-6.522697998190017665e-02,-5.925849815349101130e-02,-5.329001632508184594e-02,-4.710837443137234903e-02,-4.113989260296317674e-02,-3.495825070925369371e-02,-2.898976888084452141e-02,-2.302128705243535259e-02,-1.683964515872585915e-02,-1.087116333031669553e-02,-4.902681501907529306e-03,0.000000000000000000e+00,0.000000000000000000e+00,0.000000000000000000e+00,0.000000000000000000e+00,0.000000000000000000e+00,0.000000000000000000e+00,0.000000000000000000e+00,0.000000000000000000e+00,0.000000000000000000e+00,0.000000000000000000e+00,0.000000000000000000e+00,0.000000000000000000e+00
0.000000000000000000e+00,0.000000000000000000e+00,0.000000000000000000e+00,0.000000000000000000e+00,-4.263201306006547675e-03,-2.813712861964321257e-02,-5.201105593327988441e-02,-7.673762350811784427e-02,-1.006115508217545196e-01,-1.091379534337676149e-01,-1.091379534337676149e-01,-1.091379534337676149e-01,-1.091379534337676011e-01,-1.091379534337676149e-01,-1.091379534337676149e-01,-1.091379534337676149e-01,-1.091379534337676149e-01,-1.044484319971604180e-01,-9.847995016875124574e-02,-9.251146834034207345e-02,-8.632982644663257654e-02,-8.036134461822341812e-02,-7.417970272451392122e-02,-6.821122089610476280e-02,-6.224273906769559744e-02,-5.606109717398610054e-02,-5.009261534557693518e-02,-4.391097345186743828e-02,-3.794249162345827292e-02,-3.197400979504910756e-02,-2.579236790133961066e-02,-1.982388607293044530e-02,-1.385540424452127994e-02,-7.673762350811784774e-03,-1.705280522402618983e-03,0.000000000000000000e+00,0.000000000000000000e+00,0.000000000000000000e+00,0.000000000000000000e+00,0.000000000000000000e+00,0.000000000000000000e+00,0.000000000000000000e+00,0.000000000000000000e+00,0.000000000000000000e+00,0.000000000000000000e+00,0.000000000000000000e+00,0.000000000000000000e+00
0.000000000000000000e+00,0.000000000000000000e+00,0.000000000000000000e+00,0.000000000000000000e+00,-1.620016496282487839e-02,-4.092673253766285213e-02,-6.480065985129951356e-02,-8.867458716493618887e-02,-1.091379534337676149e-01,-1.091379534337676011e-01,-1.091379534337676149e-01,-1.091379534337676149e-01,-1.091379534337676149e-01,-1.091379534337676149e-01,-1.091379534337676149e-01,-1.091379534337676149e-01,-1.074326729113649903e-01,-2.042817157189252553e-01,-1.981000738252157167e-01,-1.921315919968065722e-01,-1.859499501030970614e-01,-1.799814682746879169e-01,-7.119546181030934895e-02,-6.501381991659985204e-02,-5.904533808819068669e-02,-5.286369619448118284e-02,-4.689521436607202443e-02,-4.092673253766285213e-02,-3.474509064395336216e-02,-2.877660881554419681e-02,-2.280812698713502798e-02,-1.662648509342553454e-02,-1.065800326501636919e-02,-4.476361371306874885e-03,0.000000000000000000e+00,0.000000000000000000e+00,0.000000000000000000e+00,0.000000000000000000e+00,0.000000000000000000e+00,0.000000000000000000e+00,0.000000000000000000e+00,0.000000000000000000e+00,0.000000000000000000e+00,0.000000000000000000e+00,0.000000000000000000e+00,0.000000000000000000e+00,0.000000000000000000e+00
0.000000000000000000e+00,0.000000000000000000e+00,0.000000000000000000e+00,-5.115841567207856516e-03,-2.898976888084452488e-02,-5.286369619448118978e-02,-7.759026376931915658e-02,-1.014641910829558319e-01,-1.091379534337676149e-01,-1.091379534337676149e-01,-1.091379534337676149e-01,-1.091379534337676149e-01,-1.091379534337676149e-01,-1.091379534337676288e-01,-1.091379534337676149e-01,-1.091379534337676149e-01,-1.042352719318600796e-01,-2.010843147394203445e-01,-1.949026728457108337e-01,-1.889341910173016614e-01,-1.829657091888924891e-01,-1.767840672951830061e-01,-6.799806083080443819e-02,-6.181641893709494129e-02,-5.584793710868576899e-02,-4.987945528027660363e-02,-4.369781338656710673e-02,-3.772933155815794137e-02,-3.176084972974878295e-02,-2.557920783603928258e-02,-1.961072600763011375e-02,-1.342908411392062552e-02,-7.460602285511457564e-03,-1.492120457102291556e-03,0.000000000000000000e+00,0.000000000000000000e+00,0.000000000000000000e+00,0.000000000000000000e+00,0.000000000000000000e+00,0.000000000000000000e+00,0.000000000000000000e+00,0.000000000000000000e+00,0.000000000000000000e+00,0.000000000000000000e+00,0.000000000000000000e+00,0.000000000000000000e+00,0.000000000000000000e+00
0.000000000000000000e+00,0.000000000000000000e+00,0.000000000000000000e+00,-9.592202938514732269e-03,-4.177937279886416444e-02,-6.565330011250083975e-02,-9.037986768733879961e-02,-1.091379534337676149e-01,-1.091379534337676288e-01,-1.091379534337676149e-01,-1.091379534337676149e-01,-1.091379534337676149e-01,-1.091379534337676149e-01,-1.091379534337676149e-01,-1.091379534337676149e-01,-1.072195128460646657e-01,-1.010378709523551827e-01,-1.978869137599154060e-01,-1.919184319315062615e-01,-1.857367900377967507e-01,-1.797683082093875784e-01,-1.737998263809784338e-01,-6.480065985129951356e-02,-5.883217802289035514e-02,-5.265053612918085824e-02,-4.668205430077169288e-02,-4.071357247236252752e-02,-3.453193057865303756e-02,-2.856344875024386873e-02,-2.238180685653437529e-02,-1.641332502812520647e-02,-1.044484319971604111e-02,-4.263201306006547675e-03,0.000000000000000000e+00,0.000000000000000000e+00,0.000000000000000000e+00,0.000000000000000000e+00,0.000000000000000000e+00,0.000000000000000000e+00,0.000000000000000000e+00,0.000000000000000000e+00,0.000000000000000000e+00,0.000000000000000000e+00,0.000000000000000000e+00,0.000000000000000000e+00,0.000000000000000000e+00,0.000000000000000000e+00
0.000000000000000000e+00,0.000000000000000000e+00,0.000000000000000000e+00,0.000000000000000000e+00,-8.526402612013095350e-03,-4.902681501907529132e-02,-1.023168313441571442e-01,-1.091379534337676149e-01,-1.091379534337676149e-01,-1.091379534337676149e-01,-1.091379534337676288e-01,-1.091379534337676149e-01,-1.091379534337676149e-01,-1.091379534337676149e-01,-1.091379534337676149e-01,-1.040221118665597688e-01,-9.805363003815059653e-02,-1.946895127804105230e-01,-1.887210309520013229e-01,-1.827525491235921784e-01,-1.765709072298826676e-01,-1.706024254014735231e-01,-6.160325887179461668e-02,-5.563477704338544438e-02,-4.966629521497627903e-02,-4.348465332126678212e-02,-3.751617149285761676e-02,-3.133452959914811986e-02,-2.536604777073896144e-02,-1.939756594232978915e-02,-1.321592404862029745e-02,-7.247442220211131221e-03,-1.065800326501636919e-03,0.000000000000000000e+00,0.000000000000000000e+00,0.000000000000000000e+00,0.000000000000000000e+00,0.000000000000000000e+00,0.000000000000000000e+00,0.000000000000000000e+00,0.000000000000000000e+00,0.000000000000000000e+00,0.000000000000000000e+00,0.000000000000000000e+00,0.000000000000000000e+00,0.000000000000000000e+00,0.000000000000000000e+00
0.000000000000000000e+00,0.000000000000000000e+00,0.000000000000000000e+00,0.000000000000000000e+00,0.000000000000000000e+00,0.000000000000000000e+00,-2.046336626883142953e-02,-7.162178194090999817e-02,-1.091379534337676149e-01,-1.091379534337676149e-01,-1.091379534337676149e-01,-1.091379534337676149e-01,-1.091379534337676149e-01,-1.091379534337676011e-01,-1.070063527807643411e-01,-1.008247108870548581e-01,-9.485622905864568577e-02,-1.917052718662059507e-01,-1.855236299724964399e-01,-1.795551481440872399e-01,-1.733735062503777846e-01,-1.674050244219685846e-01,-5.861901795759002359e-02,-5.243737606388053363e-02,-4.646889423547136133e-02,-4.028725234176187137e-02,-3.431877051335270601e-02,-2.835028868494354065e-02,-2.216864679123404375e-02,-1.620016496282487839e-02,-1.001852306911538669e-02,-4.050041240706219597e-03,0.000000000000000000e+00,0.000000000000000000e+00,0.000000000000000000e+00,0.000000000000000000e+00,0.000000000000000000e+00,0.000000000000000000e+00,0.000000000000000000e+00,0.000000000000000000e+00,0.000000000000000000e+00,0.000000000000000000e+00,0.000000000000000000e+00,0.000000000000000000e+00,0.000000000000000000e+00,0.000000000000000000e+00,0.000000000000000000e+00
0.000000000000000000e+00,0.000000000000000000e+00,0.000000000000000000e+00,0.000000000000000000e+00,0.000000000000000000e+00,0.000000000000000000e+00,0.000000000000000000e+00,0.000000000000000000e+00,-2.387392731363666837e-02,-7.503234298571523353e-02,-1.091379534337676149e-01,-1.091379534337676288e-01,-1.091379534337676149e-01,-1.091379534337676149e-01,-1.038089518012594303e-01,-9.784046997285025804e-02,-9.165882807914077501e-02,-8.569034625073160272e-02,-7.950870435702209194e-02,-2.752155959397781793e-01,-2.692471141113690347e-01,-2.630654722176595239e-01,-2.570969903892503794e-01,-4.923997508437562287e-02,-4.327149325596645058e-02,-3.730301142755729216e-02,-3.112136953384779872e-02,-2.515288770543862990e-02,-1.897124581172913299e-02,-1.300276398331996937e-02,-7.034282154910803143e-03,-8.526402612013094916e-04,0.000000000000000000e+00,0.000000000000000000e+00,0.000000000000000000e+00,0.000000000000000000e+00,0.000000000000000000e+00,0.000000000000000000e+00,0.000000000000000000e+00,-2.013318791931586749e-01,-2.013318791931586749e-01,-2.013318791931586749e-01,-2.013318791931586749e-01,0.000000000000000000e+00,0.000000000000000000e+00,0.000000000000000000e+00,0.000000000000000000e+00
0.000000000000000000e+00,0.000000000000000000e+00,0.000000000000000000e+00,0.000000000000000000e+00,0.000000000000000000e+00,0.000000000000000000e+00,0.000000000000000000e+00,0.000000000000000000e+00,0.000000000000000000e+00,0.000000000000000000e+00,-2.728448835844190373e-02,-7.844290403052048277e-02,-1.091379534337676149e-01,-1.067931927154640165e-01,-1.006115508217545335e-01,-9.464306899334534728e-02,-8.846142709963585038e-02,-8.249294527122669196e-02,-7.652446344281751966e-02,-2.720181949602732963e-01,-2.660497131318640962e-01,-2.598680712381546409e-01,-2.538995894097454409e-01,-4.625573417017104366e-02,-4.007409227646155370e-02,-3.410561044805238140e-02,-2.792396855434288450e-02,-2.195548672593371567e-02,-1.598700489752455031e-02,-9.805363003815058612e-03,-3.836881175405892821e-03,0.000000000000000000e+00,0.000000000000000000e+00,0.000000000000000000e+00,0.000000000000000000e+00,0.000000000000000000e+00,0.000000000000000000e+00,0.000000000000000000e+00,0.000000000000000000e+00,-2.013318791931586749e-01,-2.013318791931586749e-01,-2.013318791931586749e-01,-2.013318791931586749e-01,0.000000000000000000e+00,0.000000000000000000e+00,0.000000000000000000e+00,0.000000000000000000e+00
0.000000000000000000e+00,0.000000000000000000e+00,0.000000000000000000e+00,0.000000000000000000e+00,0.000000000000000000e+00,0.000000000000000000e+00,0.000000000000000000e+00,0.000000000000000000e+00,0.000000000000000000e+00,0.000000000000000000e+00,0.000000000000000000e+00,0.000000000000000000e+00,-3.069504940324714257e-02,-7.769684380196932583e-02,-9.741414984224960882e-02,-9.144566801384043653e-02,-8.547718618543127811e-02,-7.929554429172178120e-02,-7.332706246331260891e-02,-2.688207939807684133e-01,-2.628523121523592132e-01,-2.568838303239500687e-01,-2.507021884302405579e-01,-4.305833319066612597e-02,-3.708985136225696061e-02,-3.090820946854747064e-02,-2.493972764013829835e-02,-1.875808574642880838e-02,-1.278960391801964129e-02,-6.821122089610475933e-03,-6.394801959009820645e-04,0.000000000000000000e+00,0.000000000000000000e+00,0.000000000000000000e+00,0.000000000000000000e+00,0.000000000000000000e+00,0.000000000000000000e+00,0.000000000000000000e+00,0.000000000000000000e+00,-2.013318791931586749e-01,-2.013318791931586749e-01,-2.013318791931586749e-01,-2.013318791931586749e-01,0.000000000000000000e+00,0.000000000000000000e+00,0.000000000000000000e+00,0.000000000000000000e+00
0.000000000000000000e+00,0.000000000000000000e+00,0.000000000000000000e+00,0.000000000000000000e+00,0.000000000000000000e+00,0.000000000000000000e+00,0.000000000000000000e+00,0.000000000000000000e+00,0.000000000000000000e+00,0.000000000000000000e+00,0.000000000000000000e+00,0.000000000000000000e+00,0.000000000000000000e+00,0.000000000000000000e+00,-3.246028119401547785e-02,-6.894395862057463298e-02,-8.227978520592636735e-02,-7.609814331221687045e-02,-7.012966148380771203e-02,-2.658365530665637855e-01,-2.596549111728543302e-01,-2.536864293444451302e-01,-2.477179475160359856e-01,-3.986093221116121521e-02,-3.389245038275205679e-02,-2.771080848904255989e-02,-2.174232666063339106e-02,-1.577384483222422223e-02,-9.592202938514732269e-03,-3.623721110105565177e-03,0.000000000000000000e+00,0.000000000000000000e+00,0.000000000000000000e+00,0.000000000000000000e+00,0.000000000000000000e+00,0.000000000000000000e+00,0.000000000000000000e+00,0.000000000000000000e+00,0.000000000000000000e+00,-2.013318791931586749e-01,-2.013318791931586749e-01,-2.013318791931586749e-01,-2.013318791931586749e-01,0.000000000000000000e+00,0.000000000000000000e+00,0.000000000000000000e+00,0.000000000000000000e+00
0.000000000000000000e+00,0.000000000000000000e+00,0.000000000000000000e+00,0.000000000000000000e+00,0.000000000000000000e+00,0.000000000000000000e+00,0.000000000000000000e+00,0.000000000000000000e+00,0.000000000000000000e+00,0.000000000000000000e+00,0.000000000000000000e+00,0.000000000000000000e+00,0.000000000000000000e+00,0.000000000000000000e+00,0.000000000000000000e+00,0.000000000000000000e+00,-2.965589408490804449e-02,-5.940504569838497839e-02,-6.693226050430278740e-02,-6.096377867589363592e-02,-5.499529684748446362e-02,-4.881365495377496672e-02,-4.284517312536579442e-02,-3.666353123165630445e-02,-3.069504940324714257e-02,-2.472656757483797721e-02,-1.854492568112848030e-02,-1.257644385271931495e-02,-6.394801959009821513e-03,-4.263201306006547458e-04,0.000000000000000000e+00,0.000000000000000000e+00,0.000000000000000000e+00,0.000000000000000000e+00,0.000000000000000000e+00,0.000000000000000000e+00,0.000000000000000000e+00,0.000000000000000000e+00,0.000000000000000000e+00,0.000000000000000000e+00,0.000000000000000000e+00,0.000000000000000000e+00,0.000000000000000000e+00,0.000000000000000000e+00,0.000000000000000000e+00,0.000000000000000000e+00,0.000000000000000000e+00
