-1.664329970656619195e-01,-1.664329970656619195e-01,-1.664329970656619195e-01,-1.664329970656619195e-01,-1.664329970656619195e-01,-1.664329970656619195e-01,-1.664329970656619195e-01,-1.664329970656619195e-01,-1.664329970656619195e-01,-1.664329970656619195e-01,-1.664329970656619195e-01,-1.664329970656619195e-01,-1.664329970656619195e-01,-1.664329970656619195e-01,-1.664329970656619195e-01,-9.654414087597967820e-02,-6.414605095239055144e-02,-1.092216543243406390e-01,-1.542972576962907405e-01,-1.664329970656619195e-01,-1.664329970656619195e-01,-1.664329970656619195e-01,-1.664329970656619195e-01,-1.664329970656619195e-01,-1.664329970656619195e-01,-1.664329970656619195e-01,-1.664329970656619195e-01,-1.664329970656619195e-01,-1.664329970656619195e-01,-1.664329970656619195e-01,-1.664329970656619195e-01,-1.664329970656619195e-01,-1.664329970656619195e-01,-1.664329970656619195e-01,-1.664329970656619195e-01,-1.664329970656619195e-01,-1.664329970656619195e-01,-1.664329970656619195e-01,-1.664329970656619195e-01,-1.664329970656619195e-01,-1.664329970656619195e-01,-1.664329970656619195e-01,-1.664329970656619195e-01,-1.664329970656619195e-01,-1.664329970656619195e-01,-1.664329970656619195e-01,-1.664329970656619195e-01
-1.664329970656619195e-01,-1.664329970656619195e-01,-1.664329970656619195e-01,-1.664329970656619195e-01,-1.664329970656619195e-01,-1.664329970656619195e-01,-1.664329970656619195e-01,-1.664329970656619195e-01,-1.664329970656619195e-01,-1.664329970656619195e-01,-1.664329970656619195e-01,-1.664329970656619195e-01,-1.664329970656619195e-01,-1.352268101158503044e-01,-4.160824926641550070e-02,-2.775557561562891351e-17,-3.293986400257895020e-02,-7.801546737452903779e-02,-1.248247477992464466e-01,-1.664329970656619195e-01,-1.664329970656619195e-01,-1.664329970656619195e-01,-1.664329970656619195e-01,-1.664329970656619195e-01,-1.664329970656619195e-01,-1.664329970656619195e-01,-1.664329970656619195e-01,-1.664329970656619195e-01,-1.664329970656619195e-01,-1.664329970656619195e-01,-1.664329970656619195e-01,-1.664329970656619195e-01,-1.664329970656619195e-01,-1.664329970656619195e-01,-1.664329970656619195e-01,-1.664329970656619195e-01,-1.664329970656619195e-01,-1.664329970656619195e-01,-1.664329970656619195e-01,-1.664329970656619195e-01,-1.664329970656619195e-01,-1.664329970656619195e-01,-1.664329970656619195e-01,-1.664329970656619195e-01,-1.664329970656619195e-01,-1.664329970656619195e-01,-1.664329970656619195e-01
-1.664329970656619195e-01,-1.664329970656619195e-01,-1.664329970656619195e-01,-1.664329970656619195e-01,-1.664329970656619195e-01,-1.664329970656619195e-01,-1.664329970656619195e-01,-1.664329970656619195e-01,-1.664329970656619195e-01,-1.664329970656619195e-01,-1.664329970656619195e-01,-1.664329970656619195e-01,-9.361856084943484535e-02,-2.775557561562891351e-17,-2.775557561562891351e-17,-2.775557561562891351e-17,-1.733677052767362836e-03,-4.680928042471743655e-02,-9.361856084943484535e-02,-1.386941642213849468e-01,-1.664329970656619195e-01,-1.664329970656619195e-01,-1.664329970656619195e-01,-1.664329970656619195e-01,-1.664329970656619195e-01,-1.664329970656619195e-01,-1.664329970656619195e-01,-1.664329970656619195e-01,-1.664329970656619195e-01,-1.664329970656619195e-01,-1.664329970656619195e-01,-1.664329970656619195e-01,-1.664329970656619195e-01,-1.664329970656619195e-01,-1.664329970656619195e-01,-1.664329970656619195e-01,-1.664329970656619195e-01,-1.664329970656619195e-01,-1.664329970656619195e-01,-1.664329970656619195e-01,-1.664329970656619195e-01,-1.664329970656619195e-01,-1.664329970656619195e-01,-1.664329970656619195e-01,-1.664329970656619195e-01,-1.664329970656619195e-01,-1.664329970656619195e-01
-1.664329970656619195e-01,-1.664329970656619195e-01,-1.664329970656619195e-01,-1.664329970656619195e-01,-1.664329970656619195e-01,-1.664329970656619195e-01,-1.664329970656619195e-01,-1.664329970656619195e-01,-1.664329970656619195e-01,-1.664329970656619195e-01,-1.404278412741522541e-01,-4.680928042471743655e-02,-2.775557561562891351e-17,-2.775557561562891351e-17,-2.775557561562891351e-17,-2.775557561562891351e-17,-2.775557561562891351e-17,-1.560309347490582144e-02,-6.241237389962324411e-02,-1.074879772715733317e-01,-1.525635806435234332e-01,-1.664329970656619195e-01,-1.664329970656619195e-01,-1.664329970656619195e-01,-1.664329970656619195e-01,-1.664329970656619195e-01,-1.664329970656619195e-01,-1.664329970656619195e-01,-1.664329970656619195e-01,-1.664329970656619195e-01,-1.664329970656619195e-01,-1.664329970656619195e-01,-1.664329970656619195e-01,-1.664329970656619195e-01,-1.664329970656619195e-01,-1.664329970656619195e-01,-1.664329970656619195e-01,-1.664329970656619195e-01,-1.664329970656619195e-01,-1.664329970656619195e-01,-1.664329970656619195e-01,-1.664329970656619195e-01,-1.664329970656619195e-01,-1.664329970656619195e-01,-1.664329970656619195e-01,-1.664329970656619195e-01,-1.664329970656619195e-01
-1.664329970656619195e-01,-1.664329970656619195e-01,-1.664329970656619195e-01,-1.664329970656619195e-01,-1.664329970656619195e-01,-1.664329970656619195e-01,-1.664329970656619195e-01,-1.664329970656619195e-01,-1.664329970656619195e-01,-9.881959200773678120e-02,-5.201031158301977486e-03,-2.775557561562891351e-17,-2.775557561562891351e-17,-2.775557561562891351e-17,-2.775557561562891351e-17,-2.775557561562891351e-17,-2.775557561562891351e-17,-2.775557561562891351e-17,-3.120618694981161512e-02,-7.628179032176171659e-02,-1.213573936937118181e-01,-1.664329970656619195e-01,-1.664329970656619195e-01,-1.664329970656619195e-01,-1.664329970656619195e-01,-1.664329970656619195e-01,-1.664329970656619195e-01,-1.664329970656619195e-01,-1.664329970656619195e-01,-1.664329970656619195e-01,-1.664329970656619195e-01,-1.664329970656619195e-01,-1.664329970656619195e-01,-1.664329970656619195e-01,-1.664329970656619195e-01,-1.664329970656619195e-01,-1.664329970656619195e-01,-1.664329970656619195e-01,-1.664329970656619195e-01,-1.664329970656619195e-01,-1.664329970656619195e-01,-1.664329970656619195e-01,-1.664329970656619195e-01,-1.664329970656619195e-01,-1.664329970656619195e-01,-1.664329970656619195e-01,-1.664329970656619195e-01
-1.664329970656619195e-01,-1.664329970656619195e-01,-1.664329970656619195e-01,-1.664329970656619195e-01,-1.664329970656619195e-01,-1.664329970656619195e-01,-1.664329970656619195e-01,-1.456288724324541761e-01,-5.201031158301937241e-02,-2.775557561562891351e-17,0.000000000000000000e+00,0.000000000000000000e+00,-5.551115123125782702e-17,-2.775557561562891351e-17,-2.775557561562891351e-17,0.000000000000000000e+00,-2.775557561562891351e-17,-2.775557561562891351e-17,-2.775557561562891351e-17,-4.507560337195011535e-02,-9.015120674390021682e-02,-1.369604871686176395e-01,-1.664329970656619195e-01,-1.664329970656619195e-01,-1.664329970656619195e-01,-1.664329970656619195e-01,-1.664329970656619195e-01,-1.664329970656619195e-01,-1.664329970656619195e-01,-1.664329970656619195e-01,-1.664329970656619195e-01,-1.664329970656619195e-01,-1.664329970656619195e-01,-1.664329970656619195e-01,-1.664329970656619195e-01,-1.664329970656619195e-01,-1.664329970656619195e-01,-1.664329970656619195e-01,-1.664329970656619195e-01,-1.664329970656619195e-01,-1.664329970656619195e-01,-1.664329970656619195e-01,-1.664329970656619195e-01,-1.664329970656619195e-01,-1.664329970656619195e-01,-1.664329970656619195e-01,-1.664329970656619195e-01
-1.664329970656619195e-01,-1.664329970656619195e-01,-1.664329970656619195e-01,-1.664329970656619195e-01,-1.664329970656619195e-01,-1.664329970656619195e-01,-1.040206231660387171e-01,-1.040206231660389946e-02,0.000000000000000000e+00,-2.775557561562891351e-17,-2.775557561562891351e-17,-2.775557561562891351e-17,-2.775557561562891351e-17,-2.775557561562891351e-17,-2.775557561562891351e-17,-2.775557561562891351e-17,-2.775557561562891351e-17,-2.775557561562891351e-17,-2.775557561562891351e-17,-1.386941642213851411e-02,-5.894501979408861558e-02,-1.057543002188060244e-01,-1.508299035907561259e-01,-1.664329970656619195e-01,-1.664329970656619195e-01,-1.664329970656619195e-01,-1.664329970656619195e-01,-1.664329970656619195e-01,-1.664329970656619195e-01,-1.664329970656619195e-01,-1.664329970656619195e-01,-1.664329970656619195e-01,-1.664329970656619195e-01,-1.664329970656619195e-01,-1.664329970656619195e-01,-1.664329970656619195e-01,-1.664329970656619195e-01,-1.664329970656619195e-01,-1.664329970656619195e-01,-1.664329970656619195e-01,-1.664329970656619195e-01,-1.664329970656619195e-01,-1.664329970656619195e-01,-1.664329970656619195e-01,-1.664329970656619195e-01,-1.664329970656619195e-01,-1.664329970656619195e-01
-1.664329970656619195e-01,-1.664329970656619195e-01,-1.664329970656619195e-01,-1.664329970656619195e-01,-1.508299035907561259e-01,-5.721134274132130826e-02,-2.775557561562891351e-17,-2.775557561562891351e-17,-2.775557561562891351e-17,-2.775557561562891351e-17,0.000000000000000000e+00,-5.551115123125782702e-17,-2.775557561562891351e-17,-2.775557561562891351e-17,-2.775557561562891351e-17,-2.775557561562891351e-17,-2.775557561562891351e-17,-2.775557561562891351e-17,-2.775557561562891351e-17,-2.775557561562891351e-17,-2.773883284427700047e-02,-7.454811326899440926e-02,-1.196237166409445107e-01,-1.664329970656619195e-01,-1.664329970656619195e-01,-1.664329970656619195e-01,-1.664329970656619195e-01,-1.664329970656619195e-01,-1.664329970656619195e-01,-1.664329970656619195e-01,-1.664329970656619195e-01,-1.664329970656619195e-01,-1.664329970656619195e-01,-1.664329970656619195e-01,-1.664329970656619195e-01,-1.664329970656619195e-01,-1.664329970656619195e-01,-1.664329970656619195e-01,-1.664329970656619195e-01,-1.664329970656619195e-01,-1.664329970656619195e-01,-1.664329970656619195e-01,-1.664329970656619195e-01,-1.664329970656619195e-01,-1.664329970656619195e-01,-1.664329970656619195e-01,-1.664329970656619195e-01
-1.664329970656619195e-01,-1.664329970656619195e-01,-1.664329970656619195e-01,-1.092216543243406390e-01,-1.560309347490582144e-02,-2.775557561562891351e-17,-2.775557561562891351e-17,0.000000000000000000e+00,-2.775557561562891351e-17,-2.775557561562891351e-17,-2.775557561562891351e-17,0.000000000000000000e+00,-2.775557561562891351e-17,0.000000000000000000e+00,-2.775557561562891351e-17,-2.775557561562891351e-17,-2.775557561562891351e-17,-2.775557561562891351e-17,-2.775557561562891351e-17,-2.775557561562891351e-17,-5.551115123125782702e-17,-4.334192631918282190e-02,-8.841752969113289562e-02,-1.352268101158503044e-01,-1.664329970656619195e-01,-1.664329970656619195e-01,-1.664329970656619195e-01,-1.664329970656619195e-01,-1.664329970656619195e-01,-1.664329970656619195e-01,-1.664329970656619195e-01,-1.664329970656619195e-01,-1.664329970656619195e-01,-1.664329970656619195e-01,-1.664329970656619195e-01,-1.664329970656619195e-01,-1.664329970656619195e-01,-1.664329970656619195e-01,-1.664329970656619195e-01,-1.664329970656619195e-01,-1.664329970656619195e-01,-1.664329970656619195e-01,-1.664329970656619195e-01,-1.664329970656619195e-01,-1.664329970656619195e-01,-1.664329970656619195e-01,-1.664329970656619195e-01
-1.664329970656619195e-01,-1.560309347490580478e-01,-6.241237389962323023e-02,-2.775557561562891351e-17,-2.775557561562891351e-17,-2.775557561562891351e-17,-2.775557561562891351e-17,-2.775557561562891351e-17,-2.775557561562891351e-17,-2.775557561562891351e-17,-2.775557561562891351e-17,-2.775557561562891351e-17,-2.775557561562891351e-17,-2.775557561562891351e-17,-2.775557561562891351e-17,-2.775557561562891351e-17,-2.775557561562891351e-17,-2.775557561562891351e-17,-2.775557561562891351e-17,-2.775557561562891351e-17,-2.775557561562891351e-17,-1.213573936937120679e-02,-5.721134274132129438e-02,-1.040206231660387032e-01,-1.490962265379888185e-01,-1.664329970656619195e-01,-1.664329970656619195e-01,-1.664329970656619195e-01,-1.664329970656619195e-01,-1.664329970656619195e-01,-1.664329970656619195e-01,-1.664329970656619195e-01,-1.664329970656619195e-01,-1.664329970656619195e-01,-1.664329970656619195e-01,-1.664329970656619195e-01,-1.664329970656619195e-01,-1.664329970656619195e-01,-1.664329970656619195e-01,-1.664329970656619195e-01,-1.664329970656619195e-01,-1.664329970656619195e-01,-1.664329970656619195e-01,-1.664329970656619195e-01,-1.664329970656619195e-01,-1.664329970656619195e-01,-1.664329970656619195e-01
-1.144226854826425749e-01,-2.080412463320777117e-02,-2.775557561562891351e-17,-2.775557561562891351e-17,-2.775557561562891351e-17,-2.775557561562891351e-17,-2.775557561562891351e-17,-2.775557561562891351e-17,-2.775557561562891351e-17,-2.775557561562891351e-17,-2.775557561562891351e-17,0.000000000000000000e+00,-2.775557561562891351e-17,-2.775557561562891351e-17,-2.775557561562891351e-17,-2.775557561562891351e-17,-2.775557561562891351e-17,-2.775557561562891351e-17,0.000000000000000000e+00,-2.775557561562891351e-17,-2.775557561562891351e-17,-2.775557561562891351e-17,-2.600515579150969314e-02,-7.281443621622710194e-02,-1.178900395881772034e-01,-1.646993200128946122e-01,-1.664329970656619195e-01,-1.664329970656619195e-01,-1.664329970656619195e-01,-1.664329970656619195e-01,-1.664329970656619195e-01,-1.664329970656619195e-01,-1.664329970656619195e-01,-1.664329970656619195e-01,-1.664329970656619195e-01,-1.664329970656619195e-01,-1.664329970656619195e-01,-1.664329970656619195e-01,-1.664329970656619195e-01,-1.664329970656619195e-01,-1.664329970656619195e-01,-1.664329970656619195e-01,-1.664329970656619195e-01,-1.664329970656619195e-01,-1.664329970656619195e-01,-1.664329970656619195e-01,-1.664329970656619195e-01
-2.775557561562891351e-17,-2.775557561562891351e-17,-2.775557561562891351e-17,-2.775557561562891351e-17,-2.775557561562891351e-17,-2.775557561562891351e-17,-2.775557561562891351e-17,-2.775557561562891351e-17,-2.775557561562891351e-17,-2.775557561562891351e-17,-2.775557561562891351e-17,-2.775557561562891351e-17,-2.775557561562891351e-17,-2.775557561562891351e-17,-2.775557561562891351e-17,-2.775557561562891351e-17,-2.775557561562891351e-17,-2.775557561562891351e-17,-2.775557561562891351e-17,-2.775557561562891351e-17,-2.775557561562891351e-17,-2.775557561562891351e-17,-2.775557561562891351e-17,-4.160824926641550070e-02,-8.668385263836558829e-02,-1.334931330630829971e-01,-1.664329970656619195e-01,-1.664329970656619195e-01,-1.664329970656619195e-01,-1.664329970656619195e-01,-1.664329970656619195e-01,-1.664329970656619195e-01,-1.664329970656619195e-01,-1.664329970656619195e-01,-1.664329970656619195e-01,-1.664329970656619195e-01,-1.664329970656619195e-01,-1.664329970656619195e-01,-1.664329970656619195e-01,-1.664329970656619195e-01,-1.664329970656619195e-01,-1.664329970656619195e-01,-1.664329970656619195e-01,-1.664329970656619195e-01,-1.664329970656619195e-01,-1.664329970656619195e-01,-1.664329970656619195e-01
0.000000000000000000e+00,-2.775557561562891351e-17,-2.775557561562891351e-17,-2.775557561562891351e-17,-2.775557561562891351e-17,-2.775557561562891351e-17,-2.775557561562891351e-17,-5.551115123125782702e-17,-2.775557561562891351e-17,-2.775557561562891351e-17,-2.775557561562891351e-17,-2.775557561562891351e-17,0.000000000000000000e+00,-2.775557561562891351e-17,-2.775557561562891351e-17,-2.775557561562891351e-17,0.000000000000000000e+00,-2.775557561562891351e-17,-2.775557561562891351e-17,-2.775557561562891351e-17,-2.775557561562891351e-17,-2.775557561562891351e-17,-2.775557561562891351e-17,-1.040206231660389946e-02,-5.547766568855398706e-02,-1.022869461132713959e-01,-1.473625494852214834e-01,-1.664329970656619195e-01,-1.664329970656619195e-01,-1.664329970656619195e-01,-1.664329970656619195e-01,-1.664329970656619195e-01,-1.664329970656619195e-01,-1.664329970656619195e-01,-1.664329970656619195e-01,-1.664329970656619195e-01,-1.664329970656619195e-01,-1.664329970656619195e-01,-1.664329970656619195e-01,-1.664329970656619195e-01,-1.664329970656619195e-01,-1.664329970656619195e-01,-1.664329970656619195e-01,-1.664329970656619195e-01,-1.664329970656619195e-01,-1.664329970656619195e-01,-1.664329970656619195e-01
-2.775557561562891351e-17,-2.775557561562891351e-17,-2.775557561562891351e-17,-2.775557561562891351e-17,-2.775557561562891351e-17,-2.775557561562891351e-17,-2.775557561562891351e-17,-2.775557561562891351e-17,-2.775557561562891351e-17,-2.775557561562891351e-17,-2.775557561562891351e-17,-2.775557561562891351e-17,-2.775557561562891351e-17,-2.775557561562891351e-17,-2.775557561562891351e-17,-2.130650406248833506e-01,-2.130650406248833506e-01,-2.130650406248833506e-01,-2.775557561562891351e-17,-2.775557561562891351e-17,-2.775557561562891351e-17,-2.775557561562891351e-17,-2.775557561562891351e-17,-2.775557561562891351e-17,-2.427147873874238582e-02,-7.108075916345978074e-02,-1.161563625354098961e-01,-1.629656429601273049e-01,-1.664329970656619195e-01,-1.664329970656619195e-01,-1.664329970656619195e-01,-1.664329970656619195e-01,-1.664329970656619195e-01,-1.664329970656619195e-01,-1.664329970656619195e-01,-1.664329970656619195e-01,-1.664329970656619195e-01,-1.664329970656619195e-01,-1.664329970656619195e-01,-1.664329970656619195e-01,-1.664329970656619195e-01,-1.664329970656619195e-01,-1.664329970656619195e-01,-1.664329970656619195e-01,-1.664329970656619195e-01,-1.664329970656619195e-01,-1.664329970656619195e-01
-2.775557561562891351e-17,-2.775557561562891351e-17,-2.775557561562891351e-17,-2.775557561562891351e-17,-2.775557561562891351e-17,0.000000000000000000e+00,-2.775557561562891351e-17,-2.775557561562891351e-17,-2.775557561562891351e-17,-2.775557561562891351e-17,-2.775557561562891351e-17,-2.775557561562891351e-17,-2.775557561562891351e-17,0.000000000000000000e+00,-2.775557561562891351e-17,-2.130650406248833506e-01,-2.130650406248833506e-01,-2.130650406248833506e-01,-2.775557561562891351e-17,-2.775557561562891351e-17,-2.775557561562891351e-17,-2.775557561562891351e-17,-2.775557561562891351e-17,-2.775557561562891351e-17,-2.775557561562891351e-17,-3.987457221364817950e-02,-8.495017558559828097e-02,-1.317594560103156898e-01,-1.664329970656619195e-01,-1.664329970656619195e-01,-1.664329970656619195e-01,-1.664329970656619195e-01,-1.664329970656619195e-01,-1.664329970656619195e-01,-1.664329970656619195e-01,-1.664329970656619195e-01,-1.664329970656619195e-01,-1.664329970656619195e-01,-1.664329970656619195e-01,-1.664329970656619195e-01,-1.664329970656619195e-01,-1.664329970656619195e-01,-1.664329970656619195e-01,-1.664329970656619195e-01,-1.664329970656619195e-01,-1.664329970656619195e-01,-1.664329970656619195e-01
-9.824169965681445182e-03,-2.775557561562891351e-17,-2.775557561562891351e-17,-2.775557561562891351e-17,-2.775557561562891351e-17,-2.775557561562891351e-17,-2.775557561562891351e-17,-2.775557561562891351e-17,-2.775557561562891351e-17,-2.775557561562891351e-17,-2.775557561562891351e-17,-2.775557561562891351e-17,-2.775557561562891351e-17,-2.775557561562891351e-17,-2.775557561562891351e-17,-2.130650406248833506e-01,-2.130650406248833506e-01,-2.130650406248833506e-01,-2.775557561562891351e-17,-2.775557561562891351e-17,-5.551115123125782702e-17,-2.775557561562891351e-17,-2.775557561562891351e-17,-2.775557561562891351e-17,-2.775557561562891351e-17,-8.668385263836564381e-03,-5.374398863578666585e-02,-1.005532690605040747e-01,-1.456288724324541761e-01,-1.664329970656619195e-01,-1.664329970656619195e-01,-1.664329970656619195e-01,-1.664329970656619195e-01,-1.664329970656619195e-01,-1.664329970656619195e-01,-1.664329970656619195e-01,-1.664329970656619195e-01,-1.664329970656619195e-01,-1.664329970656619195e-01,-1.664329970656619195e-01,-1.664329970656619195e-01,-1.664329970656619195e-01,-1.664329970656619195e-01,-1.664329970656619195e-01,-1.664329970656619195e-01,-1.664329970656619195e-01,-1.664329970656619195e-01
-2.022623228228531689e-02,-4.623138807379523207e-03,-2.775557561562891351e-17,0.000000000000000000e+00,-2.775557561562891351e-17,-2.775557561562891351e-17,-2.775557561562891351e-17,-2.775557561562891351e-17,-2.775557561562891351e-17,-2.775557561562891351e-17,-5.551115123125782702e-17,-2.775557561562891351e-17,-2.775557561562891351e-17,-2.775557561562891351e-17,-2.775557561562891351e-17,-2.775557561562891351e-17,-2.775557561562891351e-17,-2.775557561562891351e-17,-2.775557561562891351e-17,-2.775557561562891351e-17,-2.775557561562891351e-17,-2.775557561562891351e-17,-2.775557561562891351e-17,-2.775557561562891351e-17,-2.775557561562891351e-17,-2.775557561562891351e-17,-2.253780168597507849e-02,-6.934708211069247341e-02,-1.144226854826425749e-01,-1.612319659073599976e-01,-1.664329970656619195e-01,-1.664329970656619195e-01,-1.664329970656619195e-01,-1.664329970656619195e-01,-1.664329970656619195e-01,-1.664329970656619195e-01,-1.664329970656619195e-01,-1.664329970656619195e-01,-1.664329970656619195e-01,-1.664329970656619195e-01,-1.664329970656619195e-01,-1.664329970656619195e-01,-1.664329970656619195e-01,-1.664329970656619195e-01,-1.664329970656619195e-01,-1.664329970656619195e-01,-1.664329970656619195e-01
-3.062829459888918859e-02,-1.502520112398339491e-02,-2.775557561562891351e-17,-2.775557561562891351e-17,-2.775557561562891351e-17,-2.775557561562891351e-17,-2.775557561562891351e-17,-2.775557561562891351e-17,-2.775557561562891351e-17,-2.775557561562891351e-17,-2.775557561562891351e-17,-2.775557561562891351e-17,-2.775557561562891351e-17,0.000000000000000000e+00,-2.775557561562891351e-17,-2.775557561562891351e-17,-2.775557561562891351e-17,-2.775557561562891351e-17,-2.775557561562891351e-17,-2.775557561562891351e-17,-2.775557561562891351e-17,-2.775557561562891351e-17,-2.775557561562891351e-17,-2.775557561562891351e-17,0.000000000000000000e+00,-2.775557561562891351e-17,-2.775557561562891351e-17,-3.814089516088087217e-02,-8.321649853283097364e-02,-1.300257789575483824e-01,-1.664329970656619195e-01,-1.664329970656619195e-01,-1.664329970656619195e-01,-1.664329970656619195e-01,-1.664329970656619195e-01,-1.664329970656619195e-01,-1.664329970656619195e-01,-1.664329970656619195e-01,-1.664329970656619195e-01,-1.664329970656619195e-01,-1.664329970656619195e-01,-1.664329970656619195e-01,-1.664329970656619195e-01,-1.664329970656619195e-01,-1.664329970656619195e-01,-1.664329970656619195e-01,-1.664329970656619195e-01
-4.103035691549308805e-02,-2.542726344058726662e-02,-1.040206231660389946e-02,-2.775557561562891351e-17,-2.775557561562891351e-17,-2.775557561562891351e-17,-2.775557561562891351e-17,-2.775557561562891351e-17,-2.775557561562891351e-17,-2.775557561562891351e-17,-2.775557561562891351e-17,-2.775557561562891351e-17,-2.775557561562891351e-17,-2.775557561562891351e-17,0.000000000000000000e+00,0.000000000000000000e+00,-5.551115123125782702e-17,-2.775557561562891351e-17,-2.775557561562891351e-17,0.000000000000000000e+00,-2.775557561562891351e-17,-2.775557561562891351e-17,-2.775557561562891351e-17,-2.775557561562891351e-17,-2.775557561562891351e-17,-2.775557561562891351e-17,-2.775557561562891351e-17,-6.934708211069284811e-03,-5.201031158301935853e-02,-9.881959200773676733e-02,-1.438951953796868688e-01,-1.664329970656619195e-01,-1.664329970656619195e-01,-1.664329970656619195e-01,-1.664329970656619195e-01,-1.664329970656619195e-01,-1.664329970656619195e-01,-1.664329970656619195e-01,-1.664329970656619195e-01,-1.664329970656619195e-01,-1.664329970656619195e-01,-1.664329970656619195e-01,-1.664329970656619195e-01,-1.664329970656619195e-01,-1.664329970656619195e-01,-1.664329970656619195e-01,-1.664329970656619195e-01
-5.143241923209693200e-02,-3.582932575719113832e-02,-2.080412463320774341e-02,-5.201031158301977486e-03,-2.775557561562891351e-17,-2.775557561562891351e-17,-2.775557561562891351e-17,-5.551115123125782702e-17,-2.775557561562891351e-17,-2.775557561562891351e-17,-2.775557561562891351e-17,-2.775557561562891351e-17,0.000000000000000000e+00,-2.775557561562891351e-17,-2.775557561562891351e-17,-2.775557561562891351e-17,-2.775557561562891351e-17,-2.775557561562891351e-17,-2.775557561562891351e-17,-2.775557561562891351e-17,-2.775557561562891351e-17,-2.775557561562891351e-17,-2.775557561562891351e-17,-2.775557561562891351e-17,-2.775557561562891351e-17,-2.775557561562891351e-17,-2.775557561562891351e-17,-2.775557561562891351e-17,-2.080412463320774341e-02,-6.761340505792515221e-02,-1.126890084298752676e-01,-1.594982888545926625e-01,-1.664329970656619195e-01,-1.664329970656619195e-01,-1.664329970656619195e-01,-1.664329970656619195e-01,-1.664329970656619195e-01,-1.664329970656619195e-01,-1.664329970656619195e-01,-1.664329970656619195e-01,-1.664329970656619195e-01,-1.664329970656619195e-01,-1.664329970656619195e-01,-1.664329970656619195e-01,-1.664329970656619195e-01,-1.664329970656619195e-01,-1.664329970656619195e-01
-6.183448154870078983e-02,-4.623138807379501003e-02,-3.120618694981164287e-02,-1.560309347490582144e-02,-5.778923509224542787e-04,-2.775557561562891351e-17,-2.775557561562891351e-17,-2.775557561562891351e-17,-2.775557561562891351e-17,-2.775557561562891351e-17,-2.775557561562891351e-17,-2.122844826908757976e-01,-2.122844826908757976e-01,-2.122844826908757976e-01,-2.122844826908757698e-01,-2.122844826908758253e-01,-2.775557561562891351e-17,-2.775557561562891351e-17,-2.775557561562891351e-17,-2.775557561562891351e-17,-2.775557561562891351e-17,-2.775557561562891351e-17,-2.775557561562891351e-17,-2.775557561562891351e-17,-2.775557561562891351e-17,-2.775557561562891351e-17,-2.775557561562891351e-17,-2.775557561562891351e-17,-2.775557561562891351e-17,-3.640721810811356485e-02,-8.148282148006366632e-02,-1.282921019047810751e-01,-1.664329970656619195e-01,-1.664329970656619195e-01,-1.664329970656619195e-01,-1.664329970656619195e-01,-1.664329970656619195e-01,-1.664329970656619195e-01,-1.664329970656619195e-01,-1.664329970656619195e-01,-1.664329970656619195e-01,-1.664329970656619195e-01,-1.664329970656619195e-01,-1.664329970656619195e-01,-1.664329970656619195e-01,-1.664329970656619195e-01,-1.664329970656619195e-01
-7.223654386530464766e-02,-5.663345039039885398e-02,-4.160824926641551458e-02,-2.600515579150972090e-02,-1.097995466752632598e-02,-2.775557561562891351e-17,-2.775557561562891351e-17,-2.775557561562891351e-17,-2.775557561562891351e-17,-2.775557561562891351e-17,-2.775557561562891351e-17,-2.122844826908757698e-01,-2.122844826908757976e-01,-2.122844826908757976e-01,-2.122844826908757976e-01,-2.122844826908757698e-01,-2.775557561562891351e-17,0.000000000000000000e+00,-2.775557561562891351e-17,-2.775557561562891351e-17,-2.775557561562891351e-17,-2.775557561562891351e-17,-2.775557561562891351e-17,-2.775557561562891351e-17,-2.775557561562891351e-17,-2.775557561562891351e-17,-2.775557561562891351e-17,-2.775557561562891351e-17,-2.775557561562891351e-17,-5.201031158301949731e-03,-5.027663453025205120e-02,-9.708591495496946000e-02,-1.421615183269195615e-01,-1.664329970656619195e-01,-1.664329970656619195e-01,-1.664329970656619195e-01,-1.664329970656619195e-01,-1.664329970656619195e-01,-1.664329970656619195e-01,-1.664329970656619195e-01,-1.664329970656619195e-01,-1.664329970656619195e-01,-1.664329970656619195e-01,-1.664329970656619195e-01,-1.664329970656619195e-01,-1.664329970656619195e-01,-1.664329970656619195e-01
-8.263860618190851937e-02,-6.703551270700272569e-02,-5.201031158301935853e-02,-3.640721810811359260e-02,-2.138201698413019769e-02,-5.778923509224404009e-03,0.000000000000000000e+00,-2.775557561562891351e-17,-2.775557561562891351e-17,-2.775557561562891351e-17,-2.775557561562891351e-17,-2.122844826908757976e-01,-2.122844826908757976e-01,-2.122844826908757976e-01,-2.122844826908757976e-01,-2.122844826908757976e-01,-2.775557561562891351e-17,-2.775557561562891351e-17,-2.775557561562891351e-17,-2.775557561562891351e-17,-2.775557561562891351e-17,-2.775557561562891351e-17,-2.775557561562891351e-17,-2.775557561562891351e-17,-2.775557561562891351e-17,-2.775557561562891351e-17,0.000000000000000000e+00,-2.775557561562891351e-17,-2.775557561562891351e-17,-2.775557561562891351e-17,-1.907044758044046384e-02,-6.587972800515784488e-02,-1.109553313771079464e-01,-1.577646118018253552e-01,-1.664329970656619195e-01,-1.664329970656619195e-01,-1.664329970656619195e-01,-1.664329970656619195e-01,-1.664329970656619195e-01,-1.664329970656619195e-01,-1.664329970656619195e-01,-1.664329970656619195e-01,-1.664329970656619195e-01,-1.664329970656619195e-01,-1.664329970656619195e-01,-1.664329970656619195e-01,-1.664329970656619195e-01
-9.304066849851240495e-02,-7.743757502360659739e-02,-6.241237389962323023e-02,-4.680928042471743655e-02,-3.178407930073406940e-02,-1.618098582582824796e-02,-1.155784701844908557e-03,-2.775557561562891351e-17,-2.775557561562891351e-17,-2.775557561562891351e-17,-2.775557561562891351e-17,-2.122844826908757976e-01,-2.122844826908757976e-01,-2.122844826908757976e-01,-2.122844826908757976e-01,-2.122844826908757698e-01,-2.775557561562891351e-17,-2.775557561562891351e-17,-2.775557561562891351e-17,-2.775557561562891351e-17,-2.775557561562891351e-17,-2.775557561562891351e-17,0.000000000000000000e+00,-2.775557561562891351e-17,-2.775557561562891351e-17,-2.775557561562891351e-17,-2.775557561562891351e-17,-2.775557561562891351e-17,-2.775557561562891351e-17,-2.775557561562891351e-17,0.000000000000000000e+00,-3.467354105534625752e-02,-7.974914442729634512e-02,-1.265584248520137400e-01,-1.664329970656619195e-01,-1.664329970656619195e-01,-1.664329970656619195e-01,-1.664329970656619195e-01,-1.664329970656619195e-01,-1.664329970656619195e-01,-1.664329970656619195e-01,-1.664329970656619195e-01,-1.664329970656619195e-01,-1.664329970656619195e-01,-1.664329970656619195e-01,-1.664329970656619195e-01,-1.664329970656619195e-01
-1.034427308151162767e-01,-8.783963734021046910e-02,-7.281443621622710194e-02,-5.721134274132130826e-02,-4.218614161733794110e-02,-2.658304814243214742e-02,-1.155784701844878026e-02,-2.775557561562891351e-17,-2.775557561562891351e-17,-2.775557561562891351e-17,-2.775557561562891351e-17,-2.122844826908757976e-01,-2.122844826908757976e-01,-2.122844826908757976e-01,-2.122844826908757976e-01,-2.122844826908757976e-01,-2.775557561562891351e-17,-2.775557561562891351e-17,-2.775557561562891351e-17,-2.775557561562891351e-17,-2.775557561562891351e-17,-2.775557561562891351e-17,-2.775557561562891351e-17,-2.775557561562891351e-17,-2.775557561562891351e-17,-2.775557561562891351e-17,-2.775557561562891351e-17,-2.775557561562891351e-17,-2.775557561562891351e-17,-2.775557561562891351e-17,-2.775557561562891351e-17,-3.467354105534670161e-03,-4.854295747748474388e-02,-9.535223790220215268e-02,-1.404278412741522541e-01,-1.664329970656619195e-01,-1.664329970656619195e-01,-1.664329970656619195e-01,-1.664329970656619195e-01,-1.664329970656619195e-01,-1.664329970656619195e-01,-1.664329970656619195e-01,-1.664329970656619195e-01,-1.664329970656619195e-01,-1.664329970656619195e-01,-1.664329970656619195e-01,-1.664329970656619195e-01
-1.138447931317201345e-01,-9.824169965681434080e-02,-8.321649853283095977e-02,-6.761340505792515221e-02,-5.258820393394179893e-02,-3.698511045903601913e-02,-2.195990933505262421e-02,-6.356815860146830532e-03,-2.775557561562891351e-17,-2.775557561562891351e-17,-2.775557561562891351e-17,-2.775557561562891351e-17,-2.775557561562891351e-17,-2.775557561562891351e-17,-2.775557561562891351e-17,-2.775557561562891351e-17,0.000000000000000000e+00,-2.775557561562891351e-17,-2.775557561562891351e-17,-2.775557561562891351e-17,0.000000000000000000e+00,-2.775557561562891351e-17,-2.775557561562891351e-17,-2.775557561562891351e-17,-2.775557561562891351e-17,-2.775557561562891351e-17,-2.775557561562891351e-17,-5.551115123125782702e-17,-2.775557561562891351e-17,-2.775557561562891351e-17,-2.775557561562891351e-17,-2.775557561562891351e-17,-1.733677052767315652e-02,-6.414605095239053756e-02,-1.092216543243406390e-01,-1.560309347490580478e-01,-1.664329970656619195e-01,-1.664329970656619195e-01,-1.664329970656619195e-01,-1.664329970656619195e-01,-1.664329970656619195e-01,-1.664329970656619195e-01,-1.664329970656619195e-01,-1.664329970656619195e-01,-1.664329970656619195e-01,-1.664329970656619195e-01,-1.664329970656619195e-01
-1.242468554483240062e-01,-1.086437619734181986e-01,-9.361856084943484535e-02,-7.801546737452902391e-02,-6.299026625054567063e-02,-4.738717277563989083e-02,-3.236197165165649592e-02,-1.675887817675070224e-02,-1.733677052767335081e-03,-2.775557561562891351e-17,-2.775557561562891351e-17,-2.775557561562891351e-17,-2.775557561562891351e-17,-2.775557561562891351e-17,-2.775557561562891351e-17,-2.775557561562891351e-17,-2.775557561562891351e-17,-2.775557561562891351e-17,-2.775557561562891351e-17,-2.775557561562891351e-17,-2.775557561562891351e-17,-2.775557561562891351e-17,-2.775557561562891351e-17,-2.775557561562891351e-17,-2.775557561562891351e-17,-2.775557561562891351e-17,-2.775557561562891351e-17,-2.775557561562891351e-17,-2.775557561562891351e-17,-2.775557561562891351e-17,0.000000000000000000e+00,-2.775557561562891351e-17,-2.775557561562891351e-17,-3.293986400257895020e-02,-7.801546737452902391e-02,-1.248247477992464466e-01,-1.664329970656619195e-01,-1.820915733020750105e-01,-1.820915733020750105e-01,-1.820915733020750105e-01,-1.664329970656619195e-01,-1.664329970656619195e-01,-1.664329970656619195e-01,-1.664329970656619195e-01,-1.664329970656619195e-01,-1.664329970656619195e-01,-1.664329970656619195e-01
-1.346489177649278779e-01,-1.190458242900220842e-01,-1.040206231660387032e-01,-8.841752969113289562e-02,-7.339232856714952846e-02,-5.778923509224373478e-02,-4.276403396826038150e-02,-2.716094049335457394e-02,-1.213573936937120679e-02,0.000000000000000000e+00,-2.775557561562891351e-17,-2.775557561562891351e-17,-2.775557561562891351e-17,-2.775557561562891351e-17,-2.775557561562891351e-17,-2.775557561562891351e-17,-2.775557561562891351e-17,0.000000000000000000e+00,-2.775557561562891351e-17,-2.775557561562891351e-17,-2.775557561562891351e-17,-2.775557561562891351e-17,-2.775557561562891351e-17,-2.775557561562891351e-17,-2.775557561562891351e-17,-2.775557561562891351e-17,-2.775557561562891351e-17,-2.775557561562891351e-17,-2.775557561562891351e-17,-2.775557561562891351e-17,-2.775557561562891351e-17,0.000000000000000000e+00,0.000000000000000000e+00,-1.733677052767335081e-03,-4.680928042471743655e-02,-9.361856084943484535e-02,-1.386941642213849468e-01,-1.820915733020750105e-01,-1.820915733020750105e-01,-1.820915733020750105e-01,-1.664329970656619195e-01,-1.664329970656619195e-01,-1.664329970656619195e-01,-1.664329970656619195e-01,-1.664329970656619195e-01,-1.664329970656619195e-01,-1.664329970656619195e-01
-1.450509800815317496e-01,-1.294478866066259282e-01,-1.144226854826425749e-01,-9.881959200773676733e-02,-8.379439088375340017e-02,-6.819129740884759261e-02,-5.316609628486423933e-02,-3.756300280995847340e-02,-2.253780168597507849e-02,-6.934708211069257056e-03,-2.775557561562891351e-17,-2.775557561562891351e-17,-2.775557561562891351e-17,-2.775557561562891351e-17,-2.775557561562891351e-17,-2.775557561562891351e-17,-2.775557561562891351e-17,-2.775557561562891351e-17,-2.775557561562891351e-17,-2.775557561562891351e-17,-2.775557561562891351e-17,-2.775557561562891351e-17,-2.775557561562891351e-17,-2.775557561562891351e-17,-5.551115123125782702e-17,-2.775557561562891351e-17,-2.775557561562891351e-17,-2.775557561562891351e-17,-2.775557561562891351e-17,0.000000000000000000e+00,-2.775557561562891351e-17,-2.775557561562891351e-17,-2.775557561562891351e-17,-2.775557561562891351e-17,-1.560309347490582144e-02,-6.241237389962323023e-02,-1.074879772715733317e-01,-1.699558339327038314e-01,-1.820915733020750105e-01,-1.820915733020750105e-01,-1.664329970656619195e-01,-1.664329970656619195e-01,-1.664329970656619195e-01,-1.664329970656619195e-01,-1.664329970656619195e-01,-1.664329970656619195e-01,-1.664329970656619195e-01
-1.554530423981356213e-01,-1.398499489232297999e-01,-1.248247477992464466e-01,-1.092216543243406390e-01,-9.419645320035727187e-02,-7.859335972545147819e-02,-6.356815860146811104e-02,-4.796506512656231735e-02,-3.293986400257895020e-02,-1.733677052767315652e-02,-2.311569403689789359e-03,-2.775557561562891351e-17,-2.775557561562891351e-17,-2.775557561562891351e-17,-5.551115123125782702e-17,-2.775557561562891351e-17,-2.775557561562891351e-17,-2.775557561562891351e-17,-2.775557561562891351e-17,-2.775557561562891351e-17,-2.775557561562891351e-17,-2.775557561562891351e-17,-2.775557561562891351e-17,-2.775557561562891351e-17,-2.775557561562891351e-17,-2.775557561562891351e-17,-2.775557561562891351e-17,-2.775557561562891351e-17,-2.775557561562891351e-17,-2.775557561562891351e-17,-2.775557561562891351e-17,0.000000000000000000e+00,-5.551115123125782702e-17,-2.775557561562891351e-17,-2.775557561562891351e-17,-3.120618694981164287e-02,-7.628179032176171659e-02,-1.230910707464791393e-01,-1.664329970656619195e-01,-1.664329970656619195e-01,-1.664329970656619195e-01,-1.664329970656619195e-01,-1.664329970656619195e-01,-1.664329970656619195e-01,-1.664329970656619195e-01,-1.664329970656619195e-01,-1.664329970656619195e-01
-1.658551047147394930e-01,-1.502520112398336716e-01,-1.352268101158503044e-01,-1.196237166409445107e-01,-1.045985155169611436e-01,-8.899542204205533602e-02,-7.397022091807196886e-02,-5.836712744316617518e-02,-4.334192631918282190e-02,-2.773883284427700047e-02,-1.271363172029363331e-02,-2.775557561562891351e-17,-2.775557561562891351e-17,-2.775557561562891351e-17,-2.775557561562891351e-17,-2.775557561562891351e-17,-2.775557561562891351e-17,0.000000000000000000e+00,-2.775557561562891351e-17,-2.775557561562891351e-17,-2.775557561562891351e-17,-2.775557561562891351e-17,-2.775557561562891351e-17,-2.775557561562891351e-17,-2.775557561562891351e-17,-2.775557561562891351e-17,-2.775557561562891351e-17,-2.775557561562891351e-17,0.000000000000000000e+00,-2.775557561562891351e-17,-2.775557561562891351e-17,-2.775557561562891351e-17,0.000000000000000000e+00,-2.775557561562891351e-17,0.000000000000000000e+00,-2.775557561562891351e-17,-4.507560337195011535e-02,-9.188488379666752415e-02,-1.369604871686176395e-01,-1.664329970656619195e-01,-1.664329970656619195e-01,-1.664329970656619195e-01,-1.664329970656619195e-01,-1.664329970656619195e-01,-1.664329970656619195e-01,-1.664329970656619195e-01,-1.664329970656619195e-01
-1.664329970656619195e-01,-1.606540735564375433e-01,-1.456288724324541761e-01,-1.300257789575483824e-01,-1.150005778335650153e-01,-9.939748435865922160e-02,-8.437228323467584057e-02,-6.876918975977003301e-02,-5.374398863578666585e-02,-3.814089516088089993e-02,-2.311569403689753277e-02,-7.512600561991711334e-03,-2.775557561562891351e-17,-2.775557561562891351e-17,-2.775557561562891351e-17,-2.775557561562891351e-17,-2.775557561562891351e-17,-2.775557561562891351e-17,0.000000000000000000e+00,0.000000000000000000e+00,-5.551115123125782702e-17,-2.775557561562891351e-17,-2.775557561562891351e-17,0.000000000000000000e+00,-2.775557561562891351e-17,-2.775557561562891351e-17,-2.775557561562891351e-17,-2.775557561562891351e-17,-2.775557561562891351e-17,-2.775557561562891351e-17,-2.775557561562891351e-17,-2.775557561562891351e-17,-2.775557561562891351e-17,-2.775557561562891351e-17,-2.775557561562891351e-17,-2.775557561562891351e-17,-1.386941642213851411e-02,-6.067869684685593679e-02,-1.057543002188060244e-01,-1.508299035907561259e-01,-1.664329970656619195e-01,-1.664329970656619195e-01,-1.664329970656619195e-01,-1.664329970656619195e-01,-1.664329970656619195e-01,-1.664329970656619195e-01,-1.664329970656619195e-01
-1.664329970656619195e-01,-1.664329970656619195e-01,-1.560309347490580478e-01,-1.404278412741522541e-01,-1.254026401501688870e-01,-1.097995466752630794e-01,-9.477434555127971227e-02,-7.917125207637390472e-02,-6.414605095239053756e-02,-4.854295747748474388e-02,-3.351775635350137672e-02,-1.791466287859558304e-02,-2.889461754612215882e-03,-2.775557561562891351e-17,-2.775557561562891351e-17,-2.775557561562891351e-17,0.000000000000000000e+00,-2.775557561562891351e-17,-2.775557561562891351e-17,-2.775557561562891351e-17,-2.775557561562891351e-17,-2.775557561562891351e-17,-2.775557561562891351e-17,-2.775557561562891351e-17,-2.775557561562891351e-17,-2.775557561562891351e-17,-2.775557561562891351e-17,-2.775557561562891351e-17,-2.775557561562891351e-17,-2.775557561562891351e-17,-2.775557561562891351e-17,-2.775557561562891351e-17,0.000000000000000000e+00,-2.775557561562891351e-17,-2.775557561562891351e-17,-2.775557561562891351e-17,-2.775557561562891351e-17,-2.947250989704433555e-02,-7.454811326899442314e-02,-1.196237166409445107e-01,-1.664329970656619195e-01,-1.664329970656619195e-01,-1.664329970656619195e-01,-1.664329970656619195e-01,-1.664329970656619195e-01,-1.664329970656619195e-01,-1.664329970656619195e-01
-1.664329970656619195e-01,-1.664329970656619195e-01,-1.664329970656619195e-01,-1.508299035907561259e-01,-1.358047024667727587e-01,-1.202016089918669511e-01,-1.051764078678835840e-01,-8.957331439297776254e-02,-7.454811326899440926e-02,-5.894501979408861558e-02,-4.391981867010526230e-02,-2.831672519519945475e-02,-1.329152407121605983e-02,-2.775557561562891351e-17,-2.775557561562891351e-17,-2.775557561562891351e-17,-2.775557561562891351e-17,-2.775557561562891351e-17,0.000000000000000000e+00,-5.551115123125782702e-17,-2.775557561562891351e-17,-2.775557561562891351e-17,-2.775557561562891351e-17,-2.775557561562891351e-17,-2.775557561562891351e-17,-2.775557561562891351e-17,-2.775557561562891351e-17,-2.775557561562891351e-17,-2.775557561562891351e-17,-2.775557561562891351e-17,-2.775557561562891351e-17,-2.775557561562891351e-17,-2.775557561562891351e-17,-2.775557561562891351e-17,-2.775557561562891351e-17,-2.775557561562891351e-17,-2.775557561562891351e-17,-2.775557561562891351e-17,-4.334192631918280803e-02,-9.015120674390021682e-02,-1.352268101158503044e-01,-1.664329970656619195e-01,-1.664329970656619195e-01,-1.664329970656619195e-01,-1.664329970656619195e-01,-1.664329970656619195e-01,-1.664329970656619195e-01
-1.664329970656619195e-01,-1.664329970656619195e-01,-1.664329970656619195e-01,-1.612319659073599976e-01,-1.462067647833766304e-01,-1.306036713084708090e-01,-1.155784701844874557e-01,-9.997537670958164813e-02,-8.495017558559828097e-02,-6.934708211069247341e-02,-5.432188098670910625e-02,-3.871878751180332645e-02,-2.369358638781993154e-02,-8.668385263836564381e-03,-2.775557561562891351e-17,0.000000000000000000e+00,-2.775557561562891351e-17,-2.775557561562891351e-17,-2.775557561562891351e-17,0.000000000000000000e+00,-2.775557561562891351e-17,0.000000000000000000e+00,-2.775557561562891351e-17,-2.775557561562891351e-17,-2.775557561562891351e-17,-2.775557561562891351e-17,-2.775557561562891351e-17,-2.775557561562891351e-17,-2.775557561562891351e-17,-2.775557561562891351e-17,-2.775557561562891351e-17,-2.775557561562891351e-17,-2.775557561562891351e-17,0.000000000000000000e+00,-2.775557561562891351e-17,-2.775557561562891351e-17,-2.775557561562891351e-17,0.000000000000000000e+00,-1.213573936937120679e-02,-5.894501979408860171e-02,-1.040206231660387171e-01,-1.490962265379888185e-01,-1.664329970656619195e-01,-1.664329970656619195e-01,-1.664329970656619195e-01,-1.664329970656619195e-01,-1.664329970656619195e-01
-1.664329970656619195e-01,-1.664329970656619195e-01,-1.664329970656619195e-01,-1.664329970656619195e-01,-1.566088270999804744e-01,-1.410057336250746807e-01,-1.259805325010913135e-01,-1.103774390261855198e-01,-9.535223790220215268e-02,-7.974914442729633124e-02,-6.472394330331296408e-02,-4.912084982840717040e-02,-3.409564870442380324e-02,-1.907044758044043609e-02,-3.467354105534670161e-03,-2.775557561562891351e-17,-2.775557561562891351e-17,-2.775557561562891351e-17,-2.775557561562891351e-17,-2.775557561562891351e-17,-2.775557561562891351e-17,-2.775557561562891351e-17,-2.775557561562891351e-17,-2.775557561562891351e-17,-2.775557561562891351e-17,-2.775557561562891351e-17,-2.775557561562891351e-17,-2.775557561562891351e-17,-2.775557561562891351e-17,-2.775557561562891351e-17,-2.775557561562891351e-17,-2.775557561562891351e-17,-2.775557561562891351e-17,-2.775557561562891351e-17,-2.775557561562891351e-17,-2.775557561562891351e-17,-2.775557561562891351e-17,-2.775557561562891351e-17,-2.775557561562891351e-17,-2.773883284427702822e-02,-7.281443621622710194e-02,-1.178900395881772034e-01,-1.646993200128946122e-01,-1.664329970656619195e-01,-1.664329970656619195e-01,-1.664329970656619195e-01,-1.664329970656619195e-01
-1.664329970656619195e-01,-1.664329970656619195e-01,-1.664329970656619195e-01,-1.664329970656619195e-01,-1.664329970656619195e-01,-1.514077959416785524e-01,-1.363825948176951852e-01,-1.207795013427893915e-01,-1.057543002188060244e-01,-9.015120674390020294e-02,-7.512600561991683579e-02,-5.952291214501104211e-02,-4.449771102102767495e-02,-2.889461754612188127e-02,-1.386941642213851411e-02,-2.775557561562891351e-17,-2.775557561562891351e-17,-2.775557561562891351e-17,-2.775557561562891351e-17,0.000000000000000000e+00,-2.775557561562891351e-17,-2.775557561562891351e-17,-2.775557561562891351e-17,-2.775557561562891351e-17,-2.775557561562891351e-17,-2.775557561562891351e-17,0.000000000000000000e+00,-2.775557561562891351e-17,-2.775557561562891351e-17,-2.775557561562891351e-17,-2.775557561562891351e-17,-2.775557561562891351e-17,-2.775557561562891351e-17,-2.775557561562891351e-17,0.000000000000000000e+00,-2.775557561562891351e-17,-2.775557561562891351e-17,-2.775557561562891351e-17,-2.775557561562891351e-17,-2.775557561562891351e-17,-4.160824926641548682e-02,-8.668385263836558829e-02,-1.334931330630829971e-01,-1.664329970656619195e-01,-1.664329970656619195e-01,-1.664329970656619195e-01,-1.664329970656619195e-01
-1.664329970656619195e-01,-1.664329970656619195e-01,-1.664329970656619195e-01,-1.664329970656619195e-01,-1.664329970656619195e-01,-1.618098582582824241e-01,-1.467846571342990569e-01,-1.311815636593932632e-01,-1.161563625354098822e-01,-1.005532690605040885e-01,-8.552806793652072137e-02,-6.992497446161489993e-02,-5.489977333763156053e-02,-3.929667986272578073e-02,-2.427147873874238582e-02,-9.246277614759018659e-03,-2.775557561562891351e-17,-2.775557561562891351e-17,-2.775557561562891351e-17,-2.775557561562891351e-17,-2.775557561562891351e-17,-2.775557561562891351e-17,-2.775557561562891351e-17,-2.775557561562891351e-17,-2.775557561562891351e-17,-2.775557561562891351e-17,-2.775557561562891351e-17,-2.775557561562891351e-17,-2.775557561562891351e-17,-2.775557561562891351e-17,-2.775557561562891351e-17,-2.775557561562891351e-17,-2.775557561562891351e-17,-2.775557561562891351e-17,-2.775557561562891351e-17,-2.775557561562891351e-17,-2.775557561562891351e-17,-2.775557561562891351e-17,-2.775557561562891351e-17,-2.775557561562891351e-17,-1.040206231660389946e-02,-5.547766568855398706e-02,-1.022869461132713959e-01,-1.473625494852214834e-01,-1.664329970656619195e-01,-1.664329970656619195e-01,-1.664329970656619195e-01
-1.664329970656619195e-01,-1.664329970656619195e-01,-1.664329970656619195e-01,-1.664329970656619195e-01,-1.664329970656619195e-01,-1.664329970656619195e-01,-1.571867194509029286e-01,-1.415836259759971072e-01,-1.265584248520137678e-01,-1.109553313771079464e-01,-9.593013025312459308e-02,-8.032703677821878552e-02,-6.530183565423541836e-02,-4.969874217932962468e-02,-3.467354105534625752e-02,-1.964833993136289036e-02,-4.045246456457068929e-03,-2.775557561562891351e-17,-2.775557561562891351e-17,-2.775557561562891351e-17,0.000000000000000000e+00,-2.775557561562891351e-17,-2.775557561562891351e-17,-2.775557561562891351e-17,0.000000000000000000e+00,-2.775557561562891351e-17,-2.775557561562891351e-17,-2.775557561562891351e-17,-2.775557561562891351e-17,-2.775557561562891351e-17,-2.775557561562891351e-17,-5.551115123125782702e-17,-2.775557561562891351e-17,-2.775557561562891351e-17,-2.775557561562891351e-17,-2.775557561562891351e-17,-2.775557561562891351e-17,-2.775557561562891351e-17,-2.775557561562891351e-17,-2.775557561562891351e-17,-2.775557561562891351e-17,-2.427147873874238582e-02,-8.002003146679123602e-02,-1.491504039458877717e-01,-1.664329970656619195e-01,-1.664329970656619195e-01,-1.664329970656619195e-01
-1.664329970656619195e-01,-1.664329970656619195e-01,-1.664329970656619195e-01,-1.664329970656619195e-01,-1.664329970656619195e-01,-1.664329970656619195e-01,-1.664329970656619195e-01,-1.519856882926009789e-01,-1.369604871686176117e-01,-1.213573936937118181e-01,-1.063321925697284509e-01,-9.072909909482264335e-02,-7.570389797083927619e-02,-6.010080449593348251e-02,-4.507560337195012923e-02,-3.005040224796676207e-02,-1.444730877306094063e-02,-2.775557561562891351e-17,-2.775557561562891351e-17,-2.775557561562891351e-17,-2.775557561562891351e-17,-2.775557561562891351e-17,-2.775557561562891351e-17,-2.775557561562891351e-17,-2.775557561562891351e-17,-2.775557561562891351e-17,-2.775557561562891351e-17,-2.775557561562891351e-17,-2.775557561562891351e-17,-2.775557561562891351e-17,-2.775557561562891351e-17,-2.775557561562891351e-17,-2.775557561562891351e-17,-2.775557561562891351e-17,0.000000000000000000e+00,-2.775557561562891351e-17,-2.775557561562891351e-17,-2.775557561562891351e-17,-2.775557561562891351e-17,-2.775557561562891351e-17,-2.775557561562891351e-17,-5.721134274132130826e-02,-1.545681447357856175e-01,-1.664329970656619195e-01,-1.664329970656619195e-01,-1.664329970656619195e-01,-1.664329970656619195e-01
-1.664329970656619195e-01,-1.664329970656619195e-01,-1.664329970656619195e-01,-1.664329970656619195e-01,-1.664329970656619195e-01,-1.664329970656619195e-01,-1.664329970656619195e-01,-1.623877506092048506e-01,-1.473625494852214834e-01,-1.317594560103156898e-01,-1.167342548863323226e-01,-1.011311614114265151e-01,-8.610596028744316177e-02,-7.050286681253734034e-02,-5.547766568855398706e-02,-4.045246456457063378e-02,-2.484937108966481234e-02,-9.824169965681445182e-03,-2.775557561562891351e-17,-2.775557561562891351e-17,-2.775557561562891351e-17,0.000000000000000000e+00,-2.775557561562891351e-17,-2.775557561562891351e-17,-2.775557561562891351e-17,-2.775557561562891351e-17,-2.775557561562891351e-17,-2.775557561562891351e-17,-2.775557561562891351e-17,-2.775557561562891351e-17,-2.775557561562891351e-17,-2.775557561562891351e-17,-2.775557561562891351e-17,-2.775557561562891351e-17,-2.775557561562891351e-17,0.000000000000000000e+00,0.000000000000000000e+00,-5.551115123125782702e-17,-2.775557561562891351e-17,-1.040206231660389946e-02,-1.040206231660387171e-01,-1.664329970656619195e-01,-1.664329970656619195e-01,-1.664329970656619195e-01,-1.664329970656619195e-01,-1.664329970656619195e-01,-1.664329970656619195e-01
-1.664329970656619195e-01,-1.664329970656619195e-01,-1.664329970656619195e-01,-1.664329970656619195e-01,-1.664329970656619195e-01,-1.664329970656619195e-01,-1.664329970656619195e-01,-1.664329970656619195e-01,-1.577646118018253552e-01,-1.421615183269195615e-01,-1.271363172029361943e-01,-1.115332237280303868e-01,-9.650802260404703348e-02,-8.090492912914121204e-02,-6.587972800515784488e-02,-5.085452688117450548e-02,-3.525143340626868405e-02,-2.022623228228531689e-02,-4.623138807379523207e-03,-2.775557561562891351e-17,-2.775557561562891351e-17,-2.775557561562891351e-17,-2.775557561562891351e-17,-2.775557561562891351e-17,-2.775557561562891351e-17,-2.775557561562891351e-17,-2.775557561562891351e-17,-2.775557561562891351e-17,-2.775557561562891351e-17,-2.775557561562891351e-17,-2.775557561562891351e-17,-2.775557561562891351e-17,-2.775557561562891351e-17,0.000000000000000000e+00,-2.775557561562891351e-17,-2.775557561562891351e-17,-2.775557561562891351e-17,-2.775557561562891351e-17,-5.201031158301937241e-02,-1.456288724324541761e-01,-1.664329970656619195e-01,-1.664329970656619195e-01,-1.664329970656619195e-01,-1.664329970656619195e-01,-1.664329970656619195e-01,-1.664329970656619195e-01,-1.664329970656619195e-01
-1.664329970656619195e-01,-1.664329970656619195e-01,-1.664329970656619195e-01,-1.664329970656619195e-01,-1.664329970656619195e-01,-1.664329970656619195e-01,-1.664329970656619195e-01,-1.664329970656619195e-01,-1.664329970656619195e-01,-1.525635806435234332e-01,-1.375383795195400660e-01,-1.219352860446342585e-01,-1.069100849206508913e-01,-9.130699144574509762e-02,-7.628179032176171659e-02,-6.125658919777834943e-02,-4.565349572287256963e-02,-3.062829459888918859e-02,-1.502520112398339491e-02,-2.775557561562891351e-17,-2.775557561562891351e-17,-2.775557561562891351e-17,-2.775557561562891351e-17,-2.775557561562891351e-17,-2.775557561562891351e-17,-2.775557561562891351e-17,-2.775557561562891351e-17,-2.775557561562891351e-17,-2.775557561562891351e-17,-2.775557561562891351e-17,-2.775557561562891351e-17,-2.775557561562891351e-17,-2.775557561562891351e-17,-2.775557561562891351e-17,-2.775557561562891351e-17,0.000000000000000000e+00,-5.201031158301977486e-03,-9.881959200773678120e-02,-1.664329970656619195e-01,-1.664329970656619195e-01,-1.664329970656619195e-01,-1.664329970656619195e-01,-1.664329970656619195e-01,-1.664329970656619195e-01,-1.664329970656619195e-01,-1.664329970656619195e-01,-1.664329970656619195e-01
-1.664329970656619195e-01,-1.664329970656619195e-01,-1.664329970656619195e-01,-1.664329970656619195e-01,-1.664329970656619195e-01,-1.664329970656619195e-01,-1.664329970656619195e-01,-1.664329970656619195e-01,-1.664329970656619195e-01,-1.629656429601273049e-01,-1.479404418361439377e-01,-1.323373483612381163e-01,-1.173121472372547630e-01,-1.017090537623489555e-01,-8.668385263836560217e-02,-7.165865151438222114e-02,-5.605555803947642746e-02,-4.103035691549308805e-02,-2.542726344058726662e-02,-1.040206231660389946e-02,-2.775557561562891351e-17,0.000000000000000000e+00,-2.775557561562891351e-17,-2.775557561562891351e-17,-2.775557561562891351e-17,-2.775557561562891351e-17,-2.775557561562891351e-17,-2.775557561562891351e-17,-2.775557561562891351e-17,-2.775557561562891351e-17,-2.775557561562891351e-17,-2.775557561562891351e-17,0.000000000000000000e+00,-2.775557561562891351e-17,-2.775557561562891351e-17,-4.680928042471743655e-02,-1.404278412741522541e-01,-1.664329970656619195e-01,-1.664329970656619195e-01,-1.664329970656619195e-01,-1.664329970656619195e-01,-1.664329970656619195e-01,-1.664329970656619195e-01,-1.664329970656619195e-01,-1.664329970656619195e-01,-1.664329970656619195e-01,-1.664329970656619195e-01
-1.664329970656619195e-01,-1.664329970656619195e-01,-1.664329970656619195e-01,-1.664329970656619195e-01,-1.664329970656619195e-01,-1.664329970656619195e-01,-1.664329970656619195e-01,-1.664329970656619195e-01,-1.664329970656619195e-01,-1.664329970656619195e-01,-1.583425041527478094e-01,-1.427394106778419880e-01,-1.277142095538586208e-01,-1.121111160789528272e-01,-9.708591495496946000e-02,-8.206071383098607896e-02,-6.645762035608029916e-02,-5.143241923209693200e-02,-3.582932575719113832e-02,-2.080412463320777117e-02,-5.201031158301977486e-03,-2.775557561562891351e-17,0.000000000000000000e+00,0.000000000000000000e+00,-5.551115123125782702e-17,-2.775557561562891351e-17,-2.775557561562891351e-17,0.000000000000000000e+00,-2.775557561562891351e-17,-2.775557561562891351e-17,-2.775557561562891351e-17,-2.775557561562891351e-17,-2.775557561562891351e-17,-2.775557561562891351e-17,-9.361856084943484535e-02,-1.664329970656619195e-01,-1.664329970656619195e-01,-1.664329970656619195e-01,-1.664329970656619195e-01,-1.664329970656619195e-01,-1.664329970656619195e-01,-1.664329970656619195e-01,-1.664329970656619195e-01,-1.664329970656619195e-01,-1.664329970656619195e-01,-1.664329970656619195e-01,-1.664329970656619195e-01
-1.664329970656619195e-01,-1.664329970656619195e-01,-1.664329970656619195e-01,-1.664329970656619195e-01,-1.664329970656619195e-01,-1.664329970656619195e-01,-1.664329970656619195e-01,-1.664329970656619195e-01,-1.664329970656619195e-01,-1.664329970656619195e-01,-1.664329970656619195e-01,-1.531414729944458597e-01,-1.381162718704624925e-01,-1.225131783955566989e-01,-1.074879772715733317e-01,-9.246277614758996455e-02,-7.685968267268415699e-02,-6.183448154870078983e-02,-4.623138807379499615e-02,-3.120618694981164287e-02,-1.560309347490582144e-02,-5.778923509224542787e-04,-2.775557561562891351e-17,-2.775557561562891351e-17,-2.775557561562891351e-17,-2.775557561562891351e-17,-2.775557561562891351e-17,-2.775557561562891351e-17,-2.775557561562891351e-17,-2.775557561562891351e-17,-2.775557561562891351e-17,-2.775557561562891351e-17,-4.160824926641550070e-02,-1.352268101158503044e-01,-1.664329970656619195e-01,-1.664329970656619195e-01,-1.664329970656619195e-01,-1.664329970656619195e-01,-1.664329970656619195e-01,-1.664329970656619195e-01,-1.664329970656619195e-01,-1.664329970656619195e-01,-1.664329970656619195e-01,-1.664329970656619195e-01,-1.664329970656619195e-01,-1.664329970656619195e-01,-1.664329970656619195e-01
-1.664329970656619195e-01,-1.664329970656619195e-01,-1.664329970656619195e-01,-1.664329970656619195e-01,-1.664329970656619195e-01,-1.664329970656619195e-01,-1.664329970656619195e-01,-1.664329970656619195e-01,-1.664329970656619195e-01,-1.664329970656619195e-01,-1.664329970656619195e-01,-1.635435353110497314e-01,-1.485183341870663642e-01,-1.329152407121605706e-01,-1.178900395881772034e-01,-1.028648384641938363e-01,-8.726174498928802870e-02,-7.223654386530464766e-02,-5.663345039039885398e-02,-4.160824926641550070e-02,-2.600515579150969314e-02,-1.097995466752632598e-02,0.000000000000000000e+00,-5.551115123125782702e-17,-2.775557561562891351e-17,-2.775557561562891351e-17,-2.775557561562891351e-17,-2.775557561562891351e-17,-2.775557561562891351e-17,-2.775557561562891351e-17,-2.775557561562891351e-17,-8.841752969113290950e-02,-1.664329970656619195e-01,-1.664329970656619195e-01,-1.664329970656619195e-01,-1.664329970656619195e-01,-1.664329970656619195e-01,-1.664329970656619195e-01,-1.664329970656619195e-01,-1.664329970656619195e-01,-1.664329970656619195e-01,-1.664329970656619195e-01,-1.664329970656619195e-01,-1.664329970656619195e-01,-1.664329970656619195e-01,-1.664329970656619195e-01,-1.664329970656619195e-01
