-2.549063138898700065e-01,-2.549063138898700065e-01,-2.549063138898700065e-01,-2.549063138898700065e-01,-2.549063138898700065e-01,-2.549063138898700065e-01,-2.549063138898700065e-01,-2.549063138898700065e-01,-2.549063138898700065e-01,-2.549063138898700065e-01,-2.549063138898700065e-01,-2.549063138898700065e-01,-2.549063138898700065e-01,-2.549063138898700065e-01,-2.549063138898700065e-01,-2.549063138898700065e-01,-1.990326817018386596e-01,-1.521085057517170824e-01,-1.633154824820725881e-01,-1.820206522766227575e-01,-2.000808162161884507e-01,-2.181409801557541439e-01,-2.362011440953198371e-01,-2.542613080348855026e-01,-2.549063138898700065e-01,-2.549063138898700065e-01,-2.549063138898700065e-01,-2.549063138898700065e-01,-2.549063138898700065e-01,-2.549063138898700065e-01,-2.549063138898700065e-01,-2.549063138898700065e-01,-2.549063138898700065e-01,-2.549063138898700065e-01,-2.549063138898700065e-01,-2.549063138898700065e-01,-2.549063138898700065e-01,-2.549063138898700065e-01,-2.549063138898700065e-01,-2.549063138898700065e-01,-2.549063138898700065e-01,-2.549063138898700065e-01,-2.549063138898700065e-01,-2.549063138898700065e-01,-2.549063138898700065e-01,-2.549063138898700065e-01,-2.549063138898700065e-01
-2.549063138898700065e-01,-2.549063138898700065e-01,-2.549063138898700065e-01,-2.549063138898700065e-01,-2.549063138898700065e-01,-2.549063138898700065e-01,-2.549063138898700065e-01,-2.549063138898700065e-01,-2.549063138898700065e-01,-2.549063138898700065e-01,-2.549063138898700065e-01,-2.549063138898700065e-01,-2.549063138898700065e-01,-2.549063138898700065e-01,-1.898413482683097009e-01,-1.237484045653678699e-01,-1.175200667781738928e-01,-1.355802307177395860e-01,-1.536403946573052515e-01,-1.717005585968709447e-01,-1.897607225364366379e-01,-2.084658923309868073e-01,-2.265260562705525005e-01,-2.445862202101181937e-01,-2.549063138898700065e-01,-2.549063138898700065e-01,-2.549063138898700065e-01,-2.549063138898700065e-01,-2.549063138898700065e-01,-2.549063138898700065e-01,-2.549063138898700065e-01,-2.549063138898700065e-01,-2.549063138898700065e-01,-2.549063138898700065e-01,-2.549063138898700065e-01,-2.549063138898700065e-01,-2.549063138898700065e-01,-2.549063138898700065e-01,-2.549063138898700065e-01,-2.549063138898700065e-01,-2.549063138898700065e-01,-2.549063138898700065e-01,-2.549063138898700065e-01,-2.549063138898700065e-01,-2.549063138898700065e-01,-2.549063138898700065e-01,-2.549063138898700065e-01
-2.549063138898700065e-01,-2.549063138898700065e-01,-2.549063138898700065e-01,-2.549063138898700065e-01,-2.549063138898700065e-01,-2.549063138898700065e-01,-2.549063138898700065e-01,-2.549063138898700065e-01,-2.549063138898700065e-01,-2.549063138898700065e-01,-2.549063138898700065e-01,-2.549063138898700065e-01,-1.930462211102638714e-01,-9.718222591319422565e-02,-7.107964521929066581e-02,-8.978481501384086294e-02,-1.078449789534065839e-01,-1.259051428929722494e-01,-1.439653068325379426e-01,-1.620254707721036080e-01,-1.800856347116693013e-01,-1.981457986512349945e-01,-2.162059625908006877e-01,-2.349111323853508571e-01,-2.529712963249165503e-01,-2.549063138898700065e-01,-2.549063138898700065e-01,-2.549063138898700065e-01,-2.549063138898700065e-01,-2.549063138898700065e-01,-2.549063138898700065e-01,-2.549063138898700065e-01,-2.549063138898700065e-01,-2.549063138898700065e-01,-2.549063138898700065e-01,-2.549063138898700065e-01,-2.549063138898700065e-01,-2.549063138898700065e-01,-2.549063138898700065e-01,-2.549063138898700065e-01,-2.549063138898700065e-01,-2.549063138898700065e-01,-2.549063138898700065e-01,-2.549063138898700065e-01,-2.549063138898700065e-01,-2.549063138898700065e-01,-2.549063138898700065e-01
-2.549063138898700065e-01,-2.549063138898700065e-01,-2.549063138898700065e-01,-2.549063138898700065e-01,-2.549063138898700065e-01,-2.549063138898700065e-01,-2.549063138898700065e-01,-2.549063138898700065e-01,-2.549063138898700065e-01,-2.549063138898700065e-01,-1.993430907695499521e-01,-8.462476817396497042e-02,-2.528422951539197050e-02,-4.334439345495763596e-02,-6.140455739452332917e-02,-7.946472133408902239e-02,-9.752488527365471560e-02,-1.162300550682049127e-01,-1.342902190077706059e-01,-1.523503829473362992e-01,-1.704105468869019646e-01,-1.884707108264676578e-01,-2.065308747660333510e-01,-2.245910387055990443e-01,-2.426512026451647097e-01,-2.549063138898700065e-01,-2.549063138898700065e-01,-2.549063138898700065e-01,-2.549063138898700065e-01,-2.549063138898700065e-01,-2.549063138898700065e-01,-2.549063138898700065e-01,-2.549063138898700065e-01,-2.549063138898700065e-01,-2.549063138898700065e-01,-2.549063138898700065e-01,-2.549063138898700065e-01,-2.549063138898700065e-01,-2.549063138898700065e-01,-2.549063138898700065e-01,-2.549063138898700065e-01,-2.549063138898700065e-01,-2.549063138898700065e-01,-2.549063138898700065e-01,-2.549063138898700065e-01,-2.549063138898700065e-01,-2.549063138898700065e-01
-2.549063138898700065e-01,-2.549063138898700065e-01,-2.549063138898700065e-01,-2.549063138898700065e-01,-2.549063138898700065e-01,-2.549063138898700065e-01,-2.549063138898700065e-01,-2.549063138898700065e-01,-2.195317740305644527e-01,-1.060712128521991982e-01,-5.031045668879019495e-03,-3.837784837157742768e-03,-1.560914169062466161e-02,-3.366930563019035483e-02,-5.172946956975602029e-02,-6.978963350932171350e-02,-8.784979744888737896e-02,-1.059099613884530722e-01,-1.239701253280187654e-01,-1.426752951225689348e-01,-1.607354590621346280e-01,-1.787956230017003212e-01,-1.968557869412660144e-01,-2.149159508808317076e-01,-2.329761148203973731e-01,-2.510362787599630940e-01,-2.549063138898700065e-01,-2.549063138898700065e-01,-2.549063138898700065e-01,-2.549063138898700065e-01,-2.549063138898700065e-01,-2.549063138898700065e-01,-2.549063138898700065e-01,-2.549063138898700065e-01,-2.549063138898700065e-01,-2.549063138898700065e-01,-2.549063138898700065e-01,-2.549063138898700065e-01,-2.549063138898700065e-01,-2.549063138898700065e-01,-2.549063138898700065e-01,-2.549063138898700065e-01,-2.549063138898700065e-01,-2.549063138898700065e-01,-2.549063138898700065e-01,-2.549063138898700065e-01,-2.549063138898700065e-01
-2.549063138898700065e-01,-2.549063138898700065e-01,-2.549063138898700065e-01,-2.549063138898700065e-01,-2.549063138898700065e-01,-2.549063138898700065e-01,-2.426169367091186579e-01,-1.376986718227042605e-01,-3.479806587641318116e-02,-2.305895931569548751e-02,-1.131985275497779386e-02,-2.257520492445763693e-04,-6.546809428092603689e-03,-2.399421780542299043e-02,-4.205438174498868364e-02,-6.011454568455437686e-02,-7.817470962412007007e-02,-9.623487356368576329e-02,-1.142950375032514287e-01,-1.323552014428171497e-01,-1.504153653823828152e-01,-1.691205351769329845e-01,-1.871806991164986778e-01,-2.052408630560643710e-01,-2.233010269956300364e-01,-2.413611909351957296e-01,-2.549063138898700065e-01,-2.549063138898700065e-01,-2.549063138898700065e-01,-2.549063138898700065e-01,-2.549063138898700065e-01,-2.549063138898700065e-01,-2.549063138898700065e-01,-2.549063138898700065e-01,-2.549063138898700065e-01,-2.549063138898700065e-01,-2.549063138898700065e-01,-2.549063138898700065e-01,-2.549063138898700065e-01,-2.549063138898700065e-01,-2.549063138898700065e-01,-2.549063138898700065e-01,-2.549063138898700065e-01,-2.549063138898700065e-01,-2.549063138898700065e-01,-2.549063138898700065e-01,-2.549063138898700065e-01
-2.549063138898700065e-01,-2.549063138898700065e-01,-2.549063138898700065e-01,-2.549063138898700065e-01,-2.549063138898700065e-01,-1.713830947776207592e-01,-7.685446326469869138e-02,-5.282597952322964918e-02,-4.108687296251198329e-02,-2.934776640179426188e-02,-1.760865984107656823e-02,-5.869553280358819070e-03,-3.160528689424013660e-03,-1.367412412567120539e-02,-3.173428806523687085e-02,-4.979445200480256406e-02,-6.849962179935276119e-02,-8.655978573891845440e-02,-1.046199496784841199e-01,-1.226801136180498131e-01,-1.407402775576154785e-01,-1.588004414971811717e-01,-1.768606054367468650e-01,-1.949207693763125582e-01,-2.136259391708627275e-01,-2.316861031104284208e-01,-2.497462670499940862e-01,-2.549063138898700065e-01,-2.549063138898700065e-01,-2.549063138898700065e-01,-2.549063138898700065e-01,-2.549063138898700065e-01,-2.549063138898700065e-01,-2.549063138898700065e-01,-2.549063138898700065e-01,-2.549063138898700065e-01,-2.549063138898700065e-01,-2.549063138898700065e-01,-2.549063138898700065e-01,-2.549063138898700065e-01,-2.549063138898700065e-01,-2.549063138898700065e-01,-2.549063138898700065e-01,-2.549063138898700065e-01,-2.549063138898700065e-01,-2.549063138898700065e-01,-2.549063138898700065e-01
-2.549063138898700065e-01,-2.549063138898700065e-01,-2.549063138898700065e-01,-1.946123759518980922e-01,-1.147707293213025281e-01,-8.301225353650376615e-02,-7.127314697578601699e-02,-5.953404041506835109e-02,-4.779493385435065744e-02,-3.563657348789303625e-02,-2.389746692717531484e-02,-1.215836036645762119e-02,-4.192538057399275431e-04,-6.095305329603423194e-03,-2.205920024046953420e-02,-4.011936418003525517e-02,-5.817952811960089288e-02,-7.623969205916658609e-02,-9.494486185371675546e-02,-1.130050257932824764e-01,-1.310651897328481419e-01,-1.491253536724138351e-01,-1.671855176119795283e-01,-1.852456815515451938e-01,-2.033058454911109147e-01,-2.213660094306765802e-01,-2.400711792252267496e-01,-2.549063138898700065e-01,-2.549063138898700065e-01,-2.549063138898700065e-01,-2.549063138898700065e-01,-2.549063138898700065e-01,-2.549063138898700065e-01,-2.549063138898700065e-01,-2.549063138898700065e-01,-2.549063138898700065e-01,-2.549063138898700065e-01,-2.549063138898700065e-01,-2.549063138898700065e-01,-2.549063138898700065e-01,-2.549063138898700065e-01,-2.549063138898700065e-01,-2.549063138898700065e-01,-2.549063138898700065e-01,-2.549063138898700065e-01,-2.549063138898700065e-01,-2.549063138898700065e-01
-2.549063138898700065e-01,-2.179595722590397522e-01,-1.493067615691282268e-01,-1.131985275497778276e-01,-1.010401671833202064e-01,-8.930106062260251276e-02,-7.756195406188481911e-02,-6.582284750116709771e-02,-5.408374094044940406e-02,-4.234463437973171041e-02,-3.060552781901401675e-02,-1.886642125829626759e-02,-6.708060891838701911e-03,-2.709024590934860921e-03,-1.238411241570219756e-02,-3.044427635526789078e-02,-4.850444029483358399e-02,-6.656460423439924945e-02,-8.462476817396494266e-02,-1.026849321135306359e-01,-1.213901019080808052e-01,-1.394502658476465262e-01,-1.575104297872121917e-01,-1.755705937267778849e-01,-1.936307576663435781e-01,-2.116909216059092436e-01,-2.297510855454749368e-01,-2.478112494850406300e-01,-2.549063138898700065e-01,-2.549063138898700065e-01,-2.549063138898700065e-01,-2.549063138898700065e-01,-2.549063138898700065e-01,-2.549063138898700065e-01,-2.549063138898700065e-01,-2.549063138898700065e-01,-2.549063138898700065e-01,-2.549063138898700065e-01,-2.549063138898700065e-01,-2.549063138898700065e-01,-2.549063138898700065e-01,-2.549063138898700065e-01,-2.549063138898700065e-01,-2.549063138898700065e-01,-2.549063138898700065e-01,-2.549063138898700065e-01,-2.549063138898700065e-01
-1.828863710726097713e-01,-1.429655477573119615e-01,-1.312264411965942679e-01,-1.194873346358765742e-01,-1.077482280751588528e-01,-9.600912151444118692e-02,-8.385076114798356572e-02,-7.211165458726584432e-02,-6.037254802654817842e-02,-4.863344146583048477e-02,-3.689433490511279112e-02,-2.515522834439509747e-02,-1.341612178367737607e-02,-1.677015222959710172e-03,-5.643801231114325967e-03,-2.076918853050058189e-02,-3.882935247006624735e-02,-5.688951640963191281e-02,-7.494968034919760602e-02,-9.300984428876329924e-02,-1.110700082283290202e-01,-1.291301721678946857e-01,-1.478353419624448550e-01,-1.658955059020105482e-01,-1.839556698415762415e-01,-2.020158337811419069e-01,-2.200759977207076001e-01,-2.381361616602732934e-01,-2.549063138898700065e-01,-2.549063138898700065e-01,-2.549063138898700065e-01,-2.549063138898700065e-01,-2.549063138898700065e-01,-2.549063138898700065e-01,-2.549063138898700065e-01,-2.549063138898700065e-01,-2.549063138898700065e-01,-2.549063138898700065e-01,-2.549063138898700065e-01,-2.549063138898700065e-01,-2.549063138898700065e-01,-2.549063138898700065e-01,-2.549063138898700065e-01,-2.549063138898700065e-01,-2.549063138898700065e-01,-2.549063138898700065e-01,-2.549063138898700065e-01
-1.609934614041284295e-01,-1.492543548434107636e-01,-1.375152482826930422e-01,-1.257761417219753208e-01,-1.140370351612576272e-01,-1.022979286005399335e-01,-9.055882203982226764e-02,-7.881971547910457399e-02,-6.666135511264692504e-02,-5.492224855192923139e-02,-4.318314199121156549e-02,-3.144403543049384409e-02,-1.970492886977615044e-02,-7.965822309058456785e-03,-2.031768443201187324e-03,-1.044909485074874134e-02,-2.915426464529891071e-02,-4.721442858486460392e-02,-6.527459252443029714e-02,-8.333475646399596259e-02,-1.013949204035616836e-01,-1.194550843431273490e-01,-1.375152482826930422e-01,-1.555754122222587355e-01,-1.742805820168089048e-01,-1.923407459563745980e-01,-2.104009098959402912e-01,-2.284610738355059567e-01,-2.465212377750716499e-01,-2.549063138898700065e-01,-2.549063138898700065e-01,-2.549063138898700065e-01,-2.549063138898700065e-01,-2.549063138898700065e-01,-2.549063138898700065e-01,-2.549063138898700065e-01,-2.549063138898700065e-01,-2.549063138898700065e-01,-2.549063138898700065e-01,-2.549063138898700065e-01,-2.549063138898700065e-01,-2.549063138898700065e-01,-2.549063138898700065e-01,-2.549063138898700065e-01,-2.549063138898700065e-01,-2.549063138898700065e-01,-2.549063138898700065e-01
-1.677015222959671314e-01,-1.559624157352494100e-01,-1.438040553687918166e-01,-1.320649488080740952e-01,-1.203258422473564293e-01,-1.085867356866386801e-01,-9.684762912592101425e-02,-8.510852256520332060e-02,-7.336941600448559919e-02,-6.163030944376793330e-02,-4.947194907731031210e-02,-3.773284251659261845e-02,-2.599373595587495256e-02,-1.425462939515720340e-02,-2.515522834439509747e-03,-4.966545083380596859e-03,-1.883417096554707015e-02,-3.689433490511279112e-02,-5.559950469966293274e-02,-7.365966863922862595e-02,-9.171983257879431917e-02,-1.097799965183600124e-01,-1.278401604579257056e-01,-1.459003243974913988e-01,-1.639604883370570920e-01,-1.820206522766227852e-01,-2.007258220711729546e-01,-2.187859860107386201e-01,-2.368461499503043133e-01,-2.549063138898700065e-01,-2.549063138898700065e-01,-2.549063138898700065e-01,-2.549063138898700065e-01,-2.549063138898700065e-01,-2.549063138898700065e-01,-2.549063138898700065e-01,-2.549063138898700065e-01,-2.549063138898700065e-01,-2.549063138898700065e-01,-2.549063138898700065e-01,-2.549063138898700065e-01,-2.549063138898700065e-01,-2.549063138898700065e-01,-2.549063138898700065e-01,-2.549063138898700065e-01,-2.549063138898700065e-01,-2.549063138898700065e-01
-1.739903293820658781e-01,-1.622512228213481844e-01,-1.505121162606304908e-01,-1.387730096999127971e-01,-1.266146493334551759e-01,-1.148755427727374823e-01,-1.031364362120197886e-01,-9.139732965130209497e-02,-7.965822309058440132e-02,-6.791911652986667991e-02,-5.618000996914901402e-02,-4.444090340843132036e-02,-3.228254304197367142e-02,-2.054343648125600552e-02,-8.804329920538284115e-03,-1.580264344711979074e-03,-9.159083140779761267e-03,-2.721924708034542673e-02,-4.527941101991114770e-02,-6.333957495947681315e-02,-8.204474475402698253e-02,-1.001049086935926757e-01,-1.181650726331583967e-01,-1.362252365727240622e-01,-1.542854005122897554e-01,-1.723455644518554486e-01,-1.904057283914211141e-01,-2.084658923309868073e-01,-2.271710621255369766e-01,-2.452312260651026699e-01,-2.549063138898700065e-01,-2.549063138898700065e-01,-2.549063138898700065e-01,-2.549063138898700065e-01,-2.549063138898700065e-01,-2.549063138898700065e-01,-2.549063138898700065e-01,-2.549063138898700065e-01,-2.549063138898700065e-01,-2.549063138898700065e-01,-2.549063138898700065e-01,-2.549063138898700065e-01,-2.549063138898700065e-01,-2.549063138898700065e-01,-2.549063138898700065e-01,-2.549063138898700065e-01,-2.549063138898700065e-01
-1.802791364681646524e-01,-1.685400299074469588e-01,-1.568009233467292374e-01,-1.450618167860115437e-01,-1.333227102252938501e-01,-1.215836036645761564e-01,-1.094252432981185630e-01,-9.768613673740086933e-02,-8.594703017668314793e-02,-7.420792361596545428e-02,-6.246881705524776063e-02,-5.072971049453006698e-02,-3.899060393381237333e-02,-2.725149737309465192e-02,-1.509313700663705848e-02,-3.354030445919309322e-03,-4.515040984891416365e-03,-1.754415925557811784e-02,-3.560432319514378330e-02,-5.366448713470947651e-02,-7.172465107427516973e-02,-8.978481501384086294e-02,-1.084899848083910601e-01,-1.265501487479567533e-01,-1.446103126875224187e-01,-1.626704766270881120e-01,-1.807306405666537774e-01,-1.987908045062194706e-01,-2.168509684457851638e-01,-2.349111323853508571e-01,-2.536163021799010542e-01,-2.549063138898700065e-01,-2.549063138898700065e-01,-2.549063138898700065e-01,-2.549063138898700065e-01,-2.549063138898700065e-01,-2.549063138898700065e-01,-2.549063138898700065e-01,-2.549063138898700065e-01,-2.549063138898700065e-01,-2.549063138898700065e-01,-2.549063138898700065e-01,-2.549063138898700065e-01,-2.549063138898700065e-01,-2.549063138898700065e-01,-2.549063138898700065e-01,-2.549063138898700065e-01
-1.865679435542634268e-01,-1.748288369935457331e-01,-1.630897304328280117e-01,-1.513506238721103458e-01,-1.396115173113926244e-01,-1.278724107506749308e-01,-1.161333041899572371e-01,-1.043941976292395157e-01,-9.223583726278195005e-02,-8.049673070206422865e-02,-6.875762414134650724e-02,-5.701851758062884135e-02,-4.527941101991114770e-02,-3.354030445919342629e-02,-2.180119789847573264e-02,-1.006209133775801123e-02,-9.030081969782499662e-04,-7.869071430810781198e-03,-2.592923537037644666e-02,-4.398939930994216763e-02,-6.204956324950780533e-02,-8.010972718907352630e-02,-9.816989112863921951e-02,-1.162300550682049127e-01,-1.342902190077706059e-01,-1.529953888023207753e-01,-1.710555527418864408e-01,-1.891157166814521617e-01,-2.071758806210178272e-01,-2.252360445605835204e-01,-2.432962085001492136e-01,-2.549063138898700065e-01,-2.549063138898700065e-01,-2.549063138898700065e-01,-2.549063138898700065e-01,-2.549063138898700065e-01,-2.549063138898700065e-01,-2.549063138898700065e-01,-2.549063138898700065e-01,-2.549063138898700065e-01,-2.549063138898700065e-01,-2.549063138898700065e-01,-2.549063138898700065e-01,-2.549063138898700065e-01,-2.549063138898700065e-01,-2.549063138898700065e-01,-2.549063138898700065e-01
-1.932760044461021010e-01,-1.815368978853844073e-01,-1.693785375189267861e-01,-1.576394309582090925e-01,-1.459003243974913988e-01,-1.341612178367737052e-01,-1.224221112760560115e-01,-1.106830047153383179e-01,-9.894389815462062421e-02,-8.720479159390290280e-02,-7.504643122744528161e-02,-6.330732466672761571e-02,-5.156821810600992206e-02,-3.982911154529220066e-02,-2.809000498457450701e-02,-1.635089842385681336e-02,-4.611791863139091951e-03,-3.837784837157742768e-03,-1.560914169062466161e-02,-3.431431148517483098e-02,-5.237447542474052420e-02,-7.043463936430621741e-02,-8.849480330387188287e-02,-1.065549672434375761e-01,-1.246151311830032693e-01,-1.426752951225689348e-01,-1.607354590621346557e-01,-1.794406288566848251e-01,-1.975007927962504906e-01,-2.155609567358161838e-01,-2.336211206753818770e-01,-2.516812846149475424e-01,-2.549063138898700065e-01,-2.549063138898700065e-01,-2.549063138898700065e-01,-2.549063138898700065e-01,-2.549063138898700065e-01,-2.549063138898700065e-01,-2.549063138898700065e-01,-2.549063138898700065e-01,-2.549063138898700065e-01,-2.549063138898700065e-01,-2.549063138898700065e-01,-2.549063138898700065e-01,-2.549063138898700065e-01,-2.549063138898700065e-01,-2.549063138898700065e-01
-1.995648115322008753e-01,-1.878257049714831539e-01,-1.760865984107654603e-01,-1.643474918500477666e-01,-1.526083852893300730e-01,-1.404500249228724518e-01,-1.287109183621547581e-01,-1.169718118014370645e-01,-1.052327052407193708e-01,-9.349359868000170493e-02,-8.175449211928395576e-02,-7.001538555856626211e-02,-5.827627899784856846e-02,-4.611791863139100278e-02,-3.437881207067328138e-02,-2.263970550995558773e-02,-1.090059894923783856e-02,-4.515040984891527387e-04,-6.772561477337152303e-03,-2.399421780542299043e-02,-4.205438174498871140e-02,-6.075955153953885302e-02,-7.881971547910454623e-02,-9.687987941867023944e-02,-1.149400433582359327e-01,-1.330002072978016259e-01,-1.510603712373673191e-01,-1.691205351769329845e-01,-1.871806991164987055e-01,-2.058858689110488749e-01,-2.239460328506145403e-01,-2.420061967901802336e-01,-2.549063138898700065e-01,-2.549063138898700065e-01,-2.549063138898700065e-01,-2.549063138898700065e-01,-2.549063138898700065e-01,-2.549063138898700065e-01,-2.549063138898700065e-01,-2.549063138898700065e-01,-2.549063138898700065e-01,-2.549063138898700065e-01,-2.549063138898700065e-01,-2.549063138898700065e-01,-2.549063138898700065e-01,-2.549063138898700065e-01,-2.549063138898700065e-01
-2.058536186182996497e-01,-1.941145120575819283e-01,-1.823754054968642346e-01,-1.706362989361465410e-01,-1.588971923754288473e-01,-1.471580858147111537e-01,-1.354189792539934323e-01,-1.232606188875358388e-01,-1.115215123268181174e-01,-9.978240576610042378e-02,-8.804329920538275789e-02,-7.630419264466503648e-02,-6.456508608394734283e-02,-5.282597952322964918e-02,-4.108687296251198329e-02,-2.892851259605436209e-02,-1.718940603533664069e-02,-5.450299474618919282e-03,-3.386280738668590029e-03,-1.431912998065568154e-02,-3.237929392022134700e-02,-5.043945785978704022e-02,-6.849962179935270568e-02,-8.720479159390293056e-02,-1.052649555334686238e-01,-1.233251194730343170e-01,-1.413852834125999824e-01,-1.594454473521656479e-01,-1.775056112917313411e-01,-1.955657752312970343e-01,-2.136259391708627275e-01,-2.323311089654128969e-01,-2.503912729049785901e-01,-2.549063138898700065e-01,-2.549063138898700065e-01,-2.549063138898700065e-01,-2.549063138898700065e-01,-2.549063138898700065e-01,-2.549063138898700065e-01,-2.549063138898700065e-01,-2.549063138898700065e-01,-2.549063138898700065e-01,-2.549063138898700065e-01,-2.549063138898700065e-01,-2.549063138898700065e-01,-2.549063138898700065e-01,-2.549063138898700065e-01
-2.125616795101383238e-01,-2.004033191436807027e-01,-1.886642125829630090e-01,-1.769251060222453154e-01,-1.651859994615276217e-01,-1.534468929008099003e-01,-1.417077863400922344e-01,-1.299686797793745130e-01,-1.182295732186568193e-01,-1.060712128521991982e-01,-9.433210629148153226e-02,-8.259299973076383861e-02,-7.085389317004611720e-02,-5.911478660932842355e-02,-4.737568004861072990e-02,-3.563657348789303625e-02,-2.389746692717531484e-02,-1.173910656071769365e-02,0.000000000000000000e+00,-6.321057378847999564e-03,-2.270420609545403812e-02,-4.076437003501973133e-02,-5.882453397458539679e-02,-7.688469791415109000e-02,-9.494486185371678322e-02,-1.136500316482669526e-01,-1.317101955878326458e-01,-1.497703595273983390e-01,-1.678305234669640322e-01,-1.858906874065296977e-01,-2.039508513460953909e-01,-2.220110152856610841e-01,-2.400711792252267496e-01,-2.549063138898700065e-01,-2.549063138898700065e-01,-2.549063138898700065e-01,-2.549063138898700065e-01,-2.549063138898700065e-01,-2.549063138898700065e-01,-2.549063138898700065e-01,-2.549063138898700065e-01,-2.549063138898700065e-01,-2.549063138898700065e-01,-2.549063138898700065e-01,-2.549063138898700065e-01,-2.549063138898700065e-01,-2.549063138898700065e-01
-2.188504865962370705e-01,-2.071113800355193768e-01,-1.953722734748016832e-01,-1.832139131083440620e-01,-1.714748065476263683e-01,-1.597356999869086747e-01,-1.479965934261909810e-01,-1.362574868654732874e-01,-1.245183803047555937e-01,-1.127792737440379001e-01,-1.010401671833202064e-01,-8.888180681686258522e-02,-7.714270025614489157e-02,-6.540359369542719792e-02,-5.366448713470950427e-02,-4.192538057399178286e-02,-3.018627401327408921e-02,-1.844716745255639556e-02,-6.708060891838674156e-03,-2.934776640179437290e-03,-1.302911827068667372e-02,-3.108928221025236693e-02,-4.914944614981808790e-02,-6.720961008938372561e-02,-8.526977402894941882e-02,-1.033299379685151398e-01,-1.213901019080808330e-01,-1.400952717026310024e-01,-1.581554356421966956e-01,-1.762155995817623610e-01,-1.942757635213280543e-01,-2.123359274608937475e-01,-2.303960914004594407e-01,-2.484562553400251061e-01,-2.549063138898700065e-01,-2.549063138898700065e-01,-2.549063138898700065e-01,-2.549063138898700065e-01,-2.549063138898700065e-01,-2.549063138898700065e-01,-2.549063138898700065e-01,-2.549063138898700065e-01,-2.549063138898700065e-01,-2.549063138898700065e-01,-2.549063138898700065e-01,-2.549063138898700065e-01,-2.549063138898700065e-01
-2.251392936823358448e-01,-2.134001871216181512e-01,-2.016610805609004575e-01,-1.899219740001827639e-01,-1.781828674394650425e-01,-1.660245070730074490e-01,-1.542854005122897554e-01,-1.425462939515720617e-01,-1.308071873908543403e-01,-1.190680808301366467e-01,-1.073289742694189530e-01,-9.558986770870128713e-02,-8.385076114798356572e-02,-7.169240078152594453e-02,-5.995329422080827864e-02,-4.821418766009058499e-02,-3.647508109937286358e-02,-2.473597453865516993e-02,-1.299686797793747628e-02,-1.257761417219727118e-03,-5.643801231114298211e-03,-2.141419438548508580e-02,-3.947435832505072351e-02,-5.753452226461644448e-02,-7.559468620418208218e-02,-9.365485014374780315e-02,-1.117150140833134964e-01,-1.297751780228791896e-01,-1.478353419624448550e-01,-1.665405117569950244e-01,-1.846006756965607176e-01,-2.026608396361264108e-01,-2.207210035756921040e-01,-2.387811675152577973e-01,-2.549063138898700065e-01,-2.549063138898700065e-01,-2.549063138898700065e-01,-2.549063138898700065e-01,-2.549063138898700065e-01,-2.549063138898700065e-01,-2.549063138898700065e-01,-2.549063138898700065e-01,-2.549063138898700065e-01,-2.549063138898700065e-01,-2.549063138898700065e-01,-2.549063138898700065e-01,-2.549063138898700065e-01
-2.314281007684346192e-01,-2.196889942077169255e-01,-2.079498876469992319e-01,-1.962107810862815382e-01,-1.844716745255638446e-01,-1.727325679648461509e-01,-1.609934614041284295e-01,-1.488351010376708361e-01,-1.370959944769531424e-01,-1.253568879162354210e-01,-1.136177813555177274e-01,-1.018786747948000060e-01,-9.013956823408234009e-02,-7.840046167336464644e-02,-6.666135511264692504e-02,-5.450299474618933160e-02,-4.276388818547163795e-02,-3.102478162475391654e-02,-1.928567506403622289e-02,-7.546568503318529242e-03,-2.257520492445708182e-03,-1.109410070573324525e-02,-2.915426464529891071e-02,-4.785943443984905232e-02,-6.591959837941480105e-02,-8.397976231898046651e-02,-1.020399262585461597e-01,-1.201000901981118529e-01,-1.381602541376775461e-01,-1.562204180772432116e-01,-1.742805820168089048e-01,-1.929857518113590742e-01,-2.110459157509247674e-01,-2.291060796904904606e-01,-2.471662436300561261e-01,-2.549063138898700065e-01,-2.549063138898700065e-01,-2.549063138898700065e-01,-2.549063138898700065e-01,-2.549063138898700065e-01,-2.549063138898700065e-01,-2.549063138898700065e-01,-2.549063138898700065e-01,-2.549063138898700065e-01,-2.549063138898700065e-01,-2.549063138898700065e-01,-2.549063138898700065e-01
-2.381361616602732934e-01,-2.259778012938156722e-01,-2.142386947330979785e-01,-2.024995881723802849e-01,-1.907604816116625912e-01,-1.790213750509448976e-01,-1.672822684902272039e-01,-1.555431619295095103e-01,-1.438040553687918166e-01,-1.316456950023341954e-01,-1.199065884416165018e-01,-1.081674818808987804e-01,-9.642837532018108671e-02,-8.468926875946342081e-02,-7.295016219874569940e-02,-6.121105563802803351e-02,-4.947194907731033986e-02,-3.773284251659261845e-02,-2.557448215013496950e-02,-1.383537558941730361e-02,-2.096269028699582204e-03,-5.192297132625145473e-03,-1.947917682053157407e-02,-3.753934076009726728e-02,-5.559950469966296049e-02,-7.365966863922862595e-02,-9.236483843377879532e-02,-1.104250023733445163e-01,-1.284851663129102095e-01,-1.465453302524758750e-01,-1.646054941920415682e-01,-1.826656581316072614e-01,-2.007258220711729546e-01,-2.187859860107386201e-01,-2.374911558052888172e-01,-2.549063138898700065e-01,-2.549063138898700065e-01,-2.549063138898700065e-01,-2.549063138898700065e-01,-2.549063138898700065e-01,-2.549063138898700065e-01,-2.549063138898700065e-01,-2.549063138898700065e-01,-2.549063138898700065e-01,-2.549063138898700065e-01,-2.549063138898700065e-01,-2.549063138898700065e-01
-2.444249687463720677e-01,-2.326858621856543741e-01,-2.209467556249366527e-01,-2.087883952584790592e-01,-1.970492886977613656e-01,-1.853101821370436442e-01,-1.735710755763259783e-01,-1.618319690156082569e-01,-1.500928624548905632e-01,-1.383537558941728696e-01,-1.266146493334551759e-01,-1.144562889669975547e-01,-1.027171824062798611e-01,-9.097807584556216742e-02,-7.923896928484447377e-02,-6.749986272412678012e-02,-5.576075616340908647e-02,-4.402164960269139282e-02,-3.228254304197369917e-02,-2.054343648125600552e-02,-8.385076114798384328e-03,-1.806016393956555444e-03,-9.804088995764237424e-03,-2.786425293532993064e-02,-4.592441687489562385e-02,-6.398458081446128931e-02,-8.204474475402701028e-02,-1.001049086935926757e-01,-1.188100784881428729e-01,-1.368702424277085661e-01,-1.549304063672742315e-01,-1.729905703068399248e-01,-1.910507342464056180e-01,-2.091108981859713112e-01,-2.271710621255369766e-01,-2.452312260651026699e-01,-2.549063138898700065e-01,-2.549063138898700065e-01,-2.549063138898700065e-01,-2.549063138898700065e-01,-2.549063138898700065e-01,-2.549063138898700065e-01,-2.549063138898700065e-01,-2.549063138898700065e-01,-2.549063138898700065e-01,-2.549063138898700065e-01,-2.549063138898700065e-01
-2.507137758324708421e-01,-2.389746692717531484e-01,-2.272355627110354270e-01,-2.154964561503177334e-01,-2.037573495896000397e-01,-1.920182430288823461e-01,-1.798598826624247249e-01,-1.681207761017070312e-01,-1.563816695409893376e-01,-1.446425629802716439e-01,-1.329034564195539225e-01,-1.211643498588362566e-01,-1.094252432981185630e-01,-9.768613673740084158e-02,-8.552777637094324814e-02,-7.378866981022555449e-02,-6.204956324950783308e-02,-5.031045668879016719e-02,-3.857135012807244578e-02,-2.683224356735475213e-02,-1.509313700663705848e-02,-3.354030445919309322e-03,-4.740793034136048245e-03,-1.818916511056262175e-02,-3.624932905012831497e-02,-5.430949298969400818e-02,-7.236965692925964588e-02,-9.042982086882533910e-02,-1.084899848083910601e-01,-1.265501487479567255e-01,-1.452553185425068949e-01,-1.633154824820725881e-01,-1.813756464216382813e-01,-1.994358103612039745e-01,-2.174959743007696678e-01,-2.355561382403353332e-01,-2.536163021799010542e-01,-2.549063138898700065e-01,-2.549063138898700065e-01,-2.549063138898700065e-01,-2.549063138898700065e-01,-2.549063138898700065e-01,-2.549063138898700065e-01,-2.549063138898700065e-01,-2.549063138898700065e-01,-2.549063138898700065e-01,-2.549063138898700065e-01
-2.549063138898700065e-01,-2.452634763578518950e-01,-2.335243697971342014e-01,-2.217852632364165077e-01,-2.100461566756988141e-01,-1.983070501149811204e-01,-1.865679435542634268e-01,-1.748288369935457331e-01,-1.626704766270881120e-01,-1.509313700663704183e-01,-1.391922635056527247e-01,-1.274531569449350310e-01,-1.157140503842173096e-01,-1.039749438234996159e-01,-9.223583726278195005e-02,-8.049673070206422865e-02,-6.833837033560660745e-02,-5.659926377488888605e-02,-4.486015721417119240e-02,-3.312105065345349875e-02,-2.138194409273580510e-02,-9.642837532018139202e-03,-1.128760246222881847e-03,-7.869071430810781198e-03,-2.657424122536095057e-02,-4.463440516492664378e-02,-6.269456910449230924e-02,-8.075473304405800246e-02,-9.881489698362372343e-02,-1.168750609231893889e-01,-1.349352248627550821e-01,-1.529953888023207753e-01,-1.717005585968709447e-01,-1.897607225364366379e-01,-2.078208864760023311e-01,-2.258810504155679966e-01,-2.439412143551336898e-01,-2.549063138898700065e-01,-2.549063138898700065e-01,-2.549063138898700065e-01,-2.549063138898700065e-01,-2.549063138898700065e-01,-2.549063138898700065e-01,-2.549063138898700065e-01,-2.549063138898700065e-01,-2.549063138898700065e-01,-2.549063138898700065e-01
-2.549063138898700065e-01,-2.519715372496905692e-01,-2.398131768832329758e-01,-2.280740703225152821e-01,-2.163349637617975607e-01,-2.045958572010798671e-01,-1.928567506403621734e-01,-1.811176440796444798e-01,-1.693785375189267861e-01,-1.576394309582090925e-01,-1.454810705917514713e-01,-1.337419640310337776e-01,-1.220028574703160840e-01,-1.102637509095983903e-01,-9.852464434888069666e-02,-8.678553778816300301e-02,-7.504643122744528161e-02,-6.330732466672758796e-02,-5.114896430026999452e-02,-3.940985773955230087e-02,-2.767075117883457946e-02,-1.593164461811685806e-02,-4.192538057399164408e-03,-4.063536886402319137e-03,-1.625414754560913777e-02,-3.431431148517483098e-02,-5.301948127972500036e-02,-7.107964521929066581e-02,-8.913980915885635903e-02,-1.071999730984220800e-01,-1.252601370379877732e-01,-1.433203009775534387e-01,-1.613804649171191319e-01,-1.794406288566848251e-01,-1.981457986512349945e-01,-2.162059625908006599e-01,-2.342661265303663531e-01,-2.523262904699320464e-01,-2.549063138898700065e-01,-2.549063138898700065e-01,-2.549063138898700065e-01,-2.549063138898700065e-01,-2.549063138898700065e-01,-2.549063138898700065e-01,-2.549063138898700065e-01,-2.549063138898700065e-01,-2.549063138898700065e-01
-2.549063138898700065e-01,-2.549063138898700065e-01,-2.465212377750716499e-01,-2.347821312143539563e-01,-2.226237708478963351e-01,-2.108846642871786414e-01,-1.991455577264609478e-01,-1.874064511657432541e-01,-1.756673446050255605e-01,-1.639282380443078391e-01,-1.521891314835901454e-01,-1.404500249228724518e-01,-1.282916645564148306e-01,-1.165525579956971369e-01,-1.048134514349794433e-01,-9.307434487426174963e-02,-8.133523831354408373e-02,-6.959613175282636233e-02,-5.785702519210866868e-02,-4.611791863139097503e-02,-3.395955826493335383e-02,-2.222045170421566018e-02,-1.048134514349796653e-02,-6.772561477337291080e-04,-6.998313526581728672e-03,-2.463922366040746659e-02,-4.269938759997315980e-02,-6.075955153953885302e-02,-7.946472133408905014e-02,-9.752488527365471560e-02,-1.155850492132204366e-01,-1.336452131527861020e-01,-1.517053770923517952e-01,-1.697655410319174885e-01,-1.878257049714831539e-01,-2.058858689110488749e-01,-2.245910387055990443e-01,-2.426512026451647097e-01,-2.549063138898700065e-01,-2.549063138898700065e-01,-2.549063138898700065e-01,-2.549063138898700065e-01,-2.549063138898700065e-01,-2.549063138898700065e-01,-2.549063138898700065e-01,-2.549063138898700065e-01,-2.549063138898700065e-01
-2.549063138898700065e-01,-2.549063138898700065e-01,-2.528100448611704243e-01,-2.410709383004527306e-01,-2.293318317397350370e-01,-2.175927251790173433e-01,-2.054343648125597221e-01,-1.936952582518420285e-01,-1.819561516911243348e-01,-1.702170451304066412e-01,-1.584779385696889198e-01,-1.467388320089712261e-01,-1.349997254482535602e-01,-1.232606188875358388e-01,-1.111022585210782176e-01,-9.936315196036055175e-02,-8.762404539964280259e-02,-7.588493883892510894e-02,-6.414583227820741529e-02,-5.240672571748974939e-02,-4.066761915677202799e-02,-2.892851259605433434e-02,-1.677015222959671314e-02,-5.031045668879019495e-03,-3.612032787913166398e-03,-1.496413583564015770e-02,-3.302429977520582316e-02,-5.108446371477154413e-02,-6.914462765433720959e-02,-8.720479159390293056e-02,-1.059099613884530722e-01,-1.239701253280187654e-01,-1.420302892675844586e-01,-1.600904532071501518e-01,-1.781506171467158450e-01,-1.962107810862815382e-01,-2.142709450258472037e-01,-2.323311089654128969e-01,-2.510362787599630940e-01,-2.549063138898700065e-01,-2.549063138898700065e-01,-2.549063138898700065e-01,-2.549063138898700065e-01,-2.549063138898700065e-01,-2.549063138898700065e-01,-2.549063138898700065e-01,-2.549063138898700065e-01
-2.549063138898700065e-01,-2.549063138898700065e-01,-2.549063138898700065e-01,-2.473597453865514773e-01,-2.356206388258337836e-01,-2.238815322651160900e-01,-2.121424257043983963e-01,-2.004033191436807027e-01,-1.882449587772230815e-01,-1.765058522165053878e-01,-1.647667456557876942e-01,-1.530276390950700005e-01,-1.412885325343523069e-01,-1.295494259736345855e-01,-1.178103194129168918e-01,-1.060712128521991704e-01,-9.391285248574160471e-02,-8.217374592502391106e-02,-7.043463936430618966e-02,-5.869553280358849601e-02,-4.695642624287083011e-02,-3.521731968215310871e-02,-2.347821312143538730e-02,-1.173910656071772141e-02,-2.257520492445763693e-04,-6.546809428092603689e-03,-2.334921195043851427e-02,-4.140937589000420749e-02,-5.946953982956987295e-02,-7.752970376913559392e-02,-9.558986770870125937e-02,-1.136500316482669803e-01,-1.323552014428171220e-01,-1.504153653823828152e-01,-1.684755293219484806e-01,-1.865356932615142016e-01,-2.045958572010798671e-01,-2.226560211406455603e-01,-2.407161850802112535e-01,-2.549063138898700065e-01,-2.549063138898700065e-01,-2.549063138898700065e-01,-2.549063138898700065e-01,-2.549063138898700065e-01,-2.549063138898700065e-01,-2.549063138898700065e-01,-2.549063138898700065e-01
-2.549063138898700065e-01,-2.549063138898700065e-01,-2.549063138898700065e-01,-2.536485524726502794e-01,-2.419094459119325580e-01,-2.301703393512148643e-01,-2.184312327904971707e-01,-2.066921262297794770e-01,-1.949530196690617556e-01,-1.832139131083440620e-01,-1.710555527418864685e-01,-1.593164461811687471e-01,-1.475773396204510535e-01,-1.358382330597333598e-01,-1.240991264990156662e-01,-1.123600199382979725e-01,-1.006209133775802789e-01,-8.888180681686258522e-02,-7.714270025614489157e-02,-6.498433988968724262e-02,-5.324523332896957672e-02,-4.150612676825188307e-02,-2.976702020753416167e-02,-1.802791364681644026e-02,-6.288807086098802124e-03,-2.934776640179437290e-03,-1.302911827068670148e-02,-3.173428806523687085e-02,-4.979445200480253630e-02,-6.785461594436822952e-02,-8.591477988393395049e-02,-1.039749438234996437e-01,-1.220351077630653092e-01,-1.400952717026310024e-01,-1.581554356421966678e-01,-1.768606054367468650e-01,-1.949207693763125304e-01,-2.129809333158782514e-01,-2.310410972554439168e-01,-2.491012611950096101e-01,-2.549063138898700065e-01,-2.549063138898700065e-01,-2.549063138898700065e-01,-2.549063138898700065e-01,-2.549063138898700065e-01,-2.549063138898700065e-01,-2.549063138898700065e-01
-2.549063138898700065e-01,-2.549063138898700065e-01,-2.549063138898700065e-01,-2.549063138898700065e-01,-2.481982529980313323e-01,-2.364591464373136387e-01,-2.247200398765959450e-01,-2.129809333158782236e-01,-2.012418267551605300e-01,-1.895027201944428363e-01,-1.777636136337251427e-01,-1.660245070730074490e-01,-1.538661467065498278e-01,-1.421270401458321342e-01,-1.303879335851144128e-01,-1.186488270243967469e-01,-1.069097204636790255e-01,-9.517061390296135959e-02,-8.343150734224363818e-02,-7.169240078152594453e-02,-5.995329422080825088e-02,-4.779493385435062969e-02,-3.605582729363293604e-02,-2.431672073291524239e-02,-1.257761417219752098e-02,-8.385076114798550861e-04,-5.869553280358874581e-03,-2.141419438548503029e-02,-3.947435832505075126e-02,-5.817952811960092063e-02,-7.623969205916658609e-02,-9.429985599873227931e-02,-1.123600199382979725e-01,-1.304201838778636657e-01,-1.484803478174293589e-01,-1.665405117569950244e-01,-1.846006756965607176e-01,-2.033058454911109147e-01,-2.213660094306765802e-01,-2.394261733702422734e-01,-2.549063138898700065e-01,-2.549063138898700065e-01,-2.549063138898700065e-01,-2.549063138898700065e-01,-2.549063138898700065e-01,-2.549063138898700065e-01,-2.549063138898700065e-01
-2.549063138898700065e-01,-2.549063138898700065e-01,-2.549063138898700065e-01,-2.549063138898700065e-01,-2.549063138898700065e-01,-2.431672073291523128e-01,-2.314281007684346192e-01,-2.192697404019769980e-01,-2.075306338412593044e-01,-1.957915272805416107e-01,-1.840524207198239171e-01,-1.723133141591062234e-01,-1.605742075983885020e-01,-1.488351010376708361e-01,-1.370959944769531147e-01,-1.249376341104955213e-01,-1.131985275497777998e-01,-1.014594209890601062e-01,-8.972031442834244030e-02,-7.798120786762469114e-02,-6.624210130690699749e-02,-5.450299474618933160e-02,-4.276388818547163795e-02,-3.060552781901401675e-02,-1.886642125829632310e-02,-7.127314697578601699e-03,-2.483272541690284552e-03,-1.173910656071772141e-02,-2.979927050028338686e-02,-4.785943443984910783e-02,-6.591959837941477329e-02,-8.462476817396494266e-02,-1.026849321135306359e-01,-1.207450960530963568e-01,-1.388052599926620223e-01,-1.568654239322277155e-01,-1.749255878717933810e-01,-1.929857518113590742e-01,-2.110459157509247674e-01,-2.297510855454749368e-01,-2.478112494850406300e-01,-2.549063138898700065e-01,-2.549063138898700065e-01,-2.549063138898700065e-01,-2.549063138898700065e-01,-2.549063138898700065e-01,-2.549063138898700065e-01
-2.549063138898700065e-01,-2.549063138898700065e-01,-2.549063138898700065e-01,-2.549063138898700065e-01,-2.549063138898700065e-01,-2.494560144152510872e-01,-2.377169078545333658e-01,-2.259778012938156722e-01,-2.142386947330979785e-01,-2.020803343666403573e-01,-1.903412278059226637e-01,-1.786021212452049700e-01,-1.668630146844872764e-01,-1.551239081237695827e-01,-1.433848015630518891e-01,-1.316456950023341954e-01,-1.199065884416164740e-01,-1.077482280751588528e-01,-9.600912151444118692e-02,-8.427001495372349327e-02,-7.253090839300579962e-02,-6.079180183228810597e-02,-4.905269527157038456e-02,-3.731358871085269091e-02,-2.557448215013499726e-02,-1.341612178367737607e-02,-1.677015222959654661e-03,-5.418049181869749598e-03,-2.012418267551605022e-02,-3.818434661508174344e-02,-5.624451055464746441e-02,-7.430467449421312987e-02,-9.236483843377879532e-02,-1.110700082283290202e-01,-1.291301721678946857e-01,-1.471903361074603789e-01,-1.652505000470260721e-01,-1.833106639865917376e-01,-2.013708279261574308e-01,-2.194309918657231240e-01,-2.374911558052888172e-01,-2.549063138898700065e-01,-2.549063138898700065e-01,-2.549063138898700065e-01,-2.549063138898700065e-01,-2.549063138898700065e-01,-2.549063138898700065e-01
-2.549063138898700065e-01,-2.549063138898700065e-01,-2.549063138898700065e-01,-2.549063138898700065e-01,-2.549063138898700065e-01,-2.549063138898700065e-01,-2.440057149406321402e-01,-2.322666083799144465e-01,-2.205275018191967529e-01,-2.087883952584790592e-01,-1.970492886977613378e-01,-1.848909283313037444e-01,-1.731518217705860507e-01,-1.614127152098683293e-01,-1.496736086491506357e-01,-1.379345020884329420e-01,-1.261953955277152484e-01,-1.144562889669975547e-01,-1.027171824062798611e-01,-9.055882203982223988e-02,-7.881971547910454623e-02,-6.708060891838685258e-02,-5.534150235766918668e-02,-4.360239579695149303e-02,-3.186328923623379938e-02,-2.012418267551607798e-02,-8.385076114798356572e-03,-2.031768443201131813e-03,-1.044909485074874134e-02,-2.850925879031440680e-02,-4.656942272988012776e-02,-6.462958666944579322e-02,-8.268975060901148644e-02,-1.007499145485771797e-01,-1.188100784881428729e-01,-1.375152482826930422e-01,-1.555754122222587355e-01,-1.736355761618244009e-01,-1.916957401013901219e-01,-2.097559040409557873e-01,-2.278160679805214806e-01,-2.458762319200871738e-01,-2.549063138898700065e-01,-2.549063138898700065e-01,-2.549063138898700065e-01,-2.549063138898700065e-01,-2.549063138898700065e-01
-2.549063138898700065e-01,-2.549063138898700065e-01,-2.549063138898700065e-01,-2.549063138898700065e-01,-2.549063138898700065e-01,-2.549063138898700065e-01,-2.502945220267309145e-01,-2.385554154660132209e-01,-2.268163089052955272e-01,-2.150772023445778336e-01,-2.033380957838601122e-01,-1.915989892231424463e-01,-1.798598826624247249e-01,-1.677015222959671314e-01,-1.559624157352494378e-01,-1.442233091745317164e-01,-1.324842026138140227e-01,-1.207450960530963291e-01,-1.090059894923786077e-01,-9.726688293166094179e-02,-8.552777637094322039e-02,-7.336941600448562695e-02,-6.163030944376793330e-02,-4.989120288305023965e-02,-3.815209632233254600e-02,-2.641298976161482459e-02,-1.467388320089713094e-02,-2.934776640179437290e-03,-4.740793034136048245e-03,-1.883417096554709791e-02,-3.689433490511279112e-02,-5.495449884467848434e-02,-7.301466278424414980e-02,-9.107482672380984301e-02,-1.091349906633755362e-01,-1.271951546029412294e-01,-1.452553185425068949e-01,-1.639604883370570920e-01,-1.820206522766227852e-01,-2.000808162161884507e-01,-2.181409801557541439e-01,-2.362011440953198371e-01,-2.542613080348855026e-01,-2.549063138898700065e-01,-2.549063138898700065e-01,-2.549063138898700065e-01,-2.549063138898700065e-01
-2.549063138898700065e-01,-2.549063138898700065e-01,-2.549063138898700065e-01,-2.549063138898700065e-01,-2.549063138898700065e-01,-2.549063138898700065e-01,-2.549063138898700065e-01,-2.448442225521119675e-01,-2.331051159913942739e-01,-2.213660094306765802e-01,-2.096269028699588866e-01,-1.978877963092411929e-01,-1.861486897485234993e-01,-1.744095831878058056e-01,-1.626704766270881120e-01,-1.505121162606304908e-01,-1.387730096999127971e-01,-1.270339031391951035e-01,-1.152947965784773821e-01,-1.035556900177596884e-01,-9.181658345704202251e-02,-8.007747689632432886e-02,-6.833837033560660745e-02,-5.618000996914901402e-02,-4.444090340843132036e-02,-3.270179684771362671e-02,-2.096269028699590531e-02,-9.223583726278183903e-03,-1.354512295467402705e-03,-8.514077285795285110e-03,-2.657424122536095057e-02,-4.527941101991111994e-02,-6.333957495947681315e-02,-8.139973889904250637e-02,-9.945990283860819958e-02,-1.175200667781738928e-01,-1.355802307177395583e-01,-1.536403946573052792e-01,-1.717005585968709447e-01,-1.904057283914211141e-01,-2.084658923309868073e-01,-2.265260562705525005e-01,-2.445862202101181937e-01,-2.549063138898700065e-01,-2.549063138898700065e-01,-2.549063138898700065e-01,-2.549063138898700065e-01
-2.549063138898700065e-01,-2.549063138898700065e-01,-2.549063138898700065e-01,-2.549063138898700065e-01,-2.549063138898700065e-01,-2.549063138898700065e-01,-2.549063138898700065e-01,-2.515522834439506417e-01,-2.398131768832329758e-01,-2.276548165167753546e-01,-2.159157099560576609e-01,-2.041766033953399673e-01,-1.924374968346222459e-01,-1.806983902739045522e-01,-1.689592837131868586e-01,-1.572201771524691649e-01,-1.454810705917514713e-01,-1.333227102252938501e-01,-1.215836036645761842e-01,-1.098444971038584905e-01,-9.810539054314076912e-02,-8.636628398242307547e-02,-7.462717742170538182e-02,-6.288807086098768817e-02,-5.114896430026999452e-02,-3.899060393381237333e-02,-2.725149737309465192e-02,-1.551239081237701378e-02,-3.773284251659292377e-03,-4.289288935646895506e-03,-1.689915340059364168e-02,-3.495931734015933490e-02,-5.301948127972500036e-02,-7.172465107427516973e-02,-8.978481501384086294e-02,-1.078449789534065839e-01,-1.259051428929722494e-01,-1.439653068325379426e-01,-1.620254707721036080e-01,-1.800856347116693013e-01,-1.981457986512349945e-01,-2.168509684457851638e-01,-2.349111323853508571e-01,-2.529712963249165503e-01,-2.549063138898700065e-01,-2.549063138898700065e-01,-2.549063138898700065e-01
-2.549063138898700065e-01,-2.549063138898700065e-01,-2.549063138898700065e-01,-2.549063138898700065e-01,-2.549063138898700065e-01,-2.549063138898700065e-01,-2.549063138898700065e-01,-2.549063138898700065e-01,-2.461019839693317224e-01,-2.343628774086140287e-01,-2.226237708478963351e-01,-2.104654104814387416e-01,-1.987263039207210480e-01,-1.869871973600033266e-01,-1.752480907992856607e-01,-1.635089842385679393e-01,-1.517698776778502456e-01,-1.400307711171325242e-01,-1.282916645564148306e-01,-1.165525579956971369e-01,-1.043941976292395157e-01,-9.265509106852184984e-02,-8.091598450780412843e-02,-6.917687794708643478e-02,-5.743777138636874113e-02,-4.569866482565107524e-02,-3.395955826493335383e-02,-2.222045170421566018e-02,-1.006209133775803899e-02,-9.030081969782499662e-04,-7.224065575826305041e-03,-2.528422951539197050e-02,-4.334439345495763596e-02,-6.140455739452332917e-02,-7.946472133408905014e-02,-9.752488527365471560e-02,-1.162300550682049405e-01,-1.342902190077706059e-01,-1.523503829473362714e-01,-1.704105468869019646e-01,-1.884707108264676578e-01,-2.065308747660333510e-01,-2.245910387055990443e-01,-2.426512026451647097e-01,-2.549063138898700065e-01,-2.549063138898700065e-01,-2.549063138898700065e-01
-2.549063138898700065e-01,-2.549063138898700065e-01,-2.549063138898700065e-01,-2.549063138898700065e-01,-2.549063138898700065e-01,-2.549063138898700065e-01,-2.549063138898700065e-01,-2.549063138898700065e-01,-2.523907910554304967e-01,-2.406516844947128031e-01,-2.289125779339951094e-01,-2.171734713732774158e-01,-2.054343648125597221e-01,-1.932760044461021010e-01,-1.815368978853844073e-01,-1.697977913246667137e-01,-1.580586847639489922e-01,-1.463195782032313264e-01,-1.345804716425136049e-01,-1.228413650817959113e-01,-1.111022585210782176e-01,-9.936315196036052400e-02,-8.720479159390293056e-02,-7.546568503318520915e-02,-6.372657847246751550e-02,-5.198747191174984961e-02,-4.024836535103212820e-02,-2.850925879031443455e-02,-1.677015222959671314e-02,-5.031045668879019495e-03,-3.837784837157687257e-03,-1.560914169062466161e-02,-3.366930563019032707e-02,-5.172946956975604804e-02,-6.978963350932168574e-02,-8.784979744888737896e-02,-1.059099613884530999e-01,-1.239701253280187654e-01,-1.426752951225689625e-01,-1.607354590621346557e-01,-1.787956230017003212e-01,-1.968557869412660144e-01,-2.199147462569615019e-01,-2.459971705178967682e-01,-2.549063138898700065e-01,-2.549063138898700065e-01,-2.549063138898700065e-01
-2.549063138898700065e-01,-2.549063138898700065e-01,-2.549063138898700065e-01,-2.549063138898700065e-01,-2.549063138898700065e-01,-2.549063138898700065e-01,-2.549063138898700065e-01,-2.549063138898700065e-01,-2.549063138898700065e-01,-2.469404915808115775e-01,-2.352013850200938838e-01,-2.234622784593761624e-01,-2.117231718986584688e-01,-1.999840653379407751e-01,-1.882449587772230815e-01,-1.765058522165053878e-01,-1.643474918500477666e-01,-1.526083852893300730e-01,-1.408692787286123793e-01,-1.291301721678946857e-01,-1.173910656071769920e-01,-1.056519590464592706e-01,-9.391285248574160471e-02,-8.217374592502391106e-02,-7.001538555856628987e-02,-5.827627899784856846e-02,-4.653717243713090257e-02,-3.479806587641320892e-02,-2.305895931569548751e-02,-1.131985275497776611e-02,-2.257520492445763693e-04,-6.546809428092575933e-03,-2.399421780542299043e-02,-4.205438174498871140e-02,-6.011454568455437686e-02,-7.817470962412004232e-02,-9.623487356368576329e-02,-1.142950375032514565e-01,-1.323552014428171497e-01,-1.504153653823828152e-01,-1.744821463464915623e-01,-2.231599319648522040e-01,-2.549063138898700065e-01,-2.549063138898700065e-01,-2.549063138898700065e-01,-2.549063138898700065e-01,-2.549063138898700065e-01
-2.549063138898700065e-01,-2.549063138898700065e-01,-2.549063138898700065e-01,-2.549063138898700065e-01,-2.549063138898700065e-01,-2.549063138898700065e-01,-2.549063138898700065e-01,-2.549063138898700065e-01,-2.549063138898700065e-01,-2.536485524726502794e-01,-2.414901921061926304e-01,-2.297510855454749368e-01,-2.180119789847572431e-01,-2.062728724240395495e-01,-1.945337658633218558e-01,-1.827946593026041622e-01,-1.710555527418864408e-01,-1.593164461811687471e-01,-1.471580858147111537e-01,-1.354189792539934323e-01,-1.236798726932757386e-01,-1.119407661325580450e-01,-1.002016595718403791e-01,-8.846255301112265768e-02,-7.672344645040496403e-02,-6.498433988968727038e-02,-5.282597952322967694e-02,-4.108687296251198329e-02,-2.934776640179423413e-02,-1.760865984107656823e-02,-5.869553280358846825e-03,-3.160528689424013660e-03,-1.367412412567120539e-02,-3.173428806523687085e-02,-5.043945785978706797e-02,-6.849962179935276119e-02,-8.655978573891845440e-02,-1.046199496784840921e-01,-1.226801136180498131e-01,-1.942556070883597885e-01,-2.488996968653269526e-01,-2.549063138898700065e-01,-2.549063138898700065e-01,-2.549063138898700065e-01,-2.549063138898700065e-01,-2.549063138898700065e-01,-2.549063138898700065e-01
-2.549063138898700065e-01,-2.549063138898700065e-01,-2.549063138898700065e-01,-2.549063138898700065e-01,-2.549063138898700065e-01,-2.549063138898700065e-01,-2.549063138898700065e-01,-2.549063138898700065e-01,-2.549063138898700065e-01,-2.549063138898700065e-01,-2.481982529980313323e-01,-2.364591464373136387e-01,-2.243007860708560175e-01,-2.125616795101383238e-01,-2.008225729494206302e-01,-1.890834663887029365e-01,-1.773443598279852429e-01,-1.656052532672675215e-01,-1.538661467065498278e-01,-1.421270401458321342e-01,-1.299686797793745130e-01,-1.182295732186568193e-01,-1.064904666579391257e-01,-9.475136009722140429e-02,-8.301225353650373839e-02,-7.127314697578604474e-02,-5.953404041506835109e-02,-4.779493385435065744e-02,-3.563657348789303625e-02,-2.389746692717531484e-02,-1.215836036645762119e-02,-4.192538057399275431e-04,-6.095305329603450950e-03,-2.205920024046953420e-02,-4.011936418003519966e-02,-5.817952811960092063e-02,-7.688469791415109000e-02,-1.549304063672742315e-01,-2.327342376247782119e-01,-2.549063138898700065e-01,-2.549063138898700065e-01,-2.549063138898700065e-01,-2.549063138898700065e-01,-2.549063138898700065e-01,-2.549063138898700065e-01,-2.549063138898700065e-01,-2.549063138898700065e-01
-2.549063138898700065e-01,-2.549063138898700065e-01,-2.549063138898700065e-01,-2.549063138898700065e-01,-2.549063138898700065e-01,-2.549063138898700065e-01,-2.549063138898700065e-01,-2.549063138898700065e-01,-2.549063138898700065e-01,-2.549063138898700065e-01,-2.544870600841300790e-01,-2.427479535234123853e-01,-2.310088469626946917e-01,-2.192697404019769980e-01,-2.071113800355193768e-01,-1.953722734748016832e-01,-1.836331669140839895e-01,-1.718940603533662959e-01,-1.601549537926486022e-01,-1.484158472319309086e-01,-1.366767406712132149e-01,-1.249376341104955213e-01,-1.127792737440378723e-01,-1.010401671833201787e-01,-8.930106062260251276e-02,-7.756195406188481911e-02,-6.582284750116709771e-02,-5.408374094044940406e-02,-4.234463437973173816e-02,-3.060552781901401675e-02,-1.844716745255639556e-02,-6.708060891838701911e-03,-2.709024590934860921e-03,-1.238411241570219756e-02,-3.044427635526789078e-02,-1.130050257932824764e-01,-2.137065649027357628e-01,-2.549063138898700065e-01,-2.549063138898700065e-01,-2.549063138898700065e-01,-2.549063138898700065e-01,-2.549063138898700065e-01,-2.549063138898700065e-01,-2.549063138898700065e-01,-2.549063138898700065e-01,-2.549063138898700065e-01,-2.549063138898700065e-01
-2.549063138898700065e-01,-2.549063138898700065e-01,-2.549063138898700065e-01,-2.549063138898700065e-01,-2.549063138898700065e-01,-2.549063138898700065e-01,-2.549063138898700065e-01,-2.549063138898700065e-01,-2.549063138898700065e-01,-2.549063138898700065e-01,-2.549063138898700065e-01,-2.490367606095111597e-01,-2.372976540487934660e-01,-2.255585474880757724e-01,-2.138194409273580787e-01,-2.020803343666403851e-01,-1.899219740001827639e-01,-1.781828674394650702e-01,-1.664437608787473488e-01,-1.547046543180296552e-01,-1.429655477573119615e-01,-1.312264411965942679e-01,-1.194873346358765742e-01,-1.077482280751588806e-01,-9.558986770870125937e-02,-8.385076114798356572e-02,-7.211165458726587207e-02,-6.037254802654817842e-02,-4.863344146583048477e-02,-3.689433490511279112e-02,-2.515522834439506972e-02,-1.341612178367737607e-02,-1.257761417219782629e-03,-6.016997587521710766e-02,-1.890552473825473645e-01,-2.549063138898700065e-01,-2.549063138898700065e-01,-2.549063138898700065e-01,-2.549063138898700065e-01,-2.549063138898700065e-01,-2.549063138898700065e-01,-2.549063138898700065e-01,-2.549063138898700065e-01,-2.549063138898700065e-01,-2.549063138898700065e-01,-2.549063138898700065e-01,-2.549063138898700065e-01
-2.549063138898700065e-01,-2.549063138898700065e-01,-2.549063138898700065e-01,-2.549063138898700065e-01,-2.549063138898700065e-01,-2.549063138898700065e-01,-2.549063138898700065e-01,-2.549063138898700065e-01,-2.549063138898700065e-01,-2.549063138898700065e-01,-2.549063138898700065e-01,-2.549063138898700065e-01,-2.435864611348922404e-01,-2.318473545741745190e-01,-2.201082480134568253e-01,-2.083691414527391594e-01,-1.966300348920214380e-01,-1.848909283313037444e-01,-1.727325679648461509e-01,-1.609934614041284295e-01,-1.492543548434107636e-01,-1.375152482826930145e-01,-1.257761417219753208e-01,-1.140370351612576272e-01,-1.022979286005399335e-01,-9.055882203982226764e-02,-7.840046167336464644e-02,-6.666135511264692504e-02,-5.492224855192925914e-02,-4.318314199121156549e-02,-3.144403543049387184e-02,-5.645514527916581371e-02,-1.623036295470656754e-01,-2.549063138898700065e-01,-2.549063138898700065e-01,-2.549063138898700065e-01,-2.549063138898700065e-01,-2.549063138898700065e-01,-2.549063138898700065e-01,-2.549063138898700065e-01,-2.549063138898700065e-01,-2.549063138898700065e-01,-2.549063138898700065e-01,-2.549063138898700065e-01,-2.549063138898700065e-01,-2.549063138898700065e-01,-2.549063138898700065e-01
-2.549063138898700065e-01,-2.549063138898700065e-01,-2.549063138898700065e-01,-2.549063138898700065e-01,-2.549063138898700065e-01,-2.549063138898700065e-01,-2.549063138898700065e-01,-2.549063138898700065e-01,-2.549063138898700065e-01,-2.549063138898700065e-01,-2.549063138898700065e-01,-2.549063138898700065e-01,-2.498752682209909870e-01,-2.381361616602732934e-01,-2.263970550995555997e-01,-2.146579485388379060e-01,-2.029188419781202124e-01,-1.911797354174025187e-01,-1.794406288566848251e-01,-1.677015222959671314e-01,-1.559624157352494100e-01,-1.438040553687917888e-01,-1.320649488080740952e-01,-1.203258422473564293e-01,-1.085867356866386801e-01,-9.684762912592101425e-02,-8.510852256520334835e-02,-7.336941600448562695e-02,-6.163030944376790554e-02,-6.231159687809531555e-02,-1.598929201640611475e-01,-2.549063138898700065e-01,-2.549063138898700065e-01,-2.549063138898700065e-01,-2.549063138898700065e-01,-2.549063138898700065e-01,-2.549063138898700065e-01,-2.549063138898700065e-01,-2.549063138898700065e-01,-2.549063138898700065e-01,-2.549063138898700065e-01,-2.549063138898700065e-01,-2.549063138898700065e-01,-2.549063138898700065e-01,-2.549063138898700065e-01,-2.549063138898700065e-01,-2.549063138898700065e-01
