0.000000000000000000e+00,0.000000000000000000e+00,0.000000000000000000e+00,0.000000000000000000e+00,0.000000000000000000e+00,0.000000000000000000e+00,0.000000000000000000e+00,0.000000000000000000e+00,0.000000000000000000e+00,0.000000000000000000e+00,0.000000000000000000e+00,0.000000000000000000e+00,0.000000000000000000e+00,0.000000000000000000e+00,0.000000000000000000e+00,0.000000000000000000e+00,0.000000000000000000e+00,-3.555287512897045872e-03,-1.351009254900877379e-02,-2.382042633641020743e-02,-3.413076012381163760e-02,-4.408556515992336639e-02,-5.439589894732479308e-02,-6.435070398343652187e-02,-6.826152024762327519e-02,-6.648387649117475096e-02,-6.316560814580417238e-02,-5.972883021667035885e-02,-5.641056187129978722e-02,-3.973033795662448547e-02,-1.551734862399856488e-02,0.000000000000000000e+00,0.000000000000000000e+00,0.000000000000000000e+00,0.000000000000000000e+00,0.000000000000000000e+00,0.000000000000000000e+00,0.000000000000000000e+00,0.000000000000000000e+00,0.000000000000000000e+00,0.000000000000000000e+00,0.000000000000000000e+00,0.000000000000000000e+00,0.000000000000000000e+00,0.000000000000000000e+00,0.000000000000000000e+00,0.000000000000000000e+00
0.000000000000000000e+00,0.000000000000000000e+00,0.000000000000000000e+00,0.000000000000000000e+00,0.000000000000000000e+00,0.000000000000000000e+00,0.000000000000000000e+00,0.000000000000000000e+00,0.000000000000000000e+00,0.000000000000000000e+00,0.000000000000000000e+00,0.000000000000000000e+00,0.000000000000000000e+00,0.000000000000000000e+00,0.000000000000000000e+00,0.000000000000000000e+00,0.000000000000000000e+00,-8.532690030952909399e-03,-1.884302381835434304e-02,-2.879782885446606835e-02,-3.910816264186750546e-02,-4.941849642926893216e-02,-5.937330146538066095e-02,-6.826152024762327519e-02,-6.826152024762327519e-02,-6.482474231848946167e-02,-6.150647397311889003e-02,-5.806969604398507651e-02,-5.463291811485126298e-02,-5.131464976948069134e-02,-4.787787184034688476e-02,-3.341970262123222790e-02,-1.285088298932577852e-02,0.000000000000000000e+00,0.000000000000000000e+00,0.000000000000000000e+00,0.000000000000000000e+00,0.000000000000000000e+00,0.000000000000000000e+00,0.000000000000000000e+00,0.000000000000000000e+00,0.000000000000000000e+00,0.000000000000000000e+00,0.000000000000000000e+00,0.000000000000000000e+00,0.000000000000000000e+00,0.000000000000000000e+00
0.000000000000000000e+00,0.000000000000000000e+00,0.000000000000000000e+00,0.000000000000000000e+00,0.000000000000000000e+00,0.000000000000000000e+00,0.000000000000000000e+00,0.000000000000000000e+00,0.000000000000000000e+00,-9.133043375683198850e-02,-9.133043375683198850e-02,-9.133043375683198850e-02,-9.133043375683198850e-02,-9.133043375683198850e-02,0.000000000000000000e+00,0.000000000000000000e+00,-3.555287512897045872e-03,-1.386562130029847864e-02,-2.382042633641020396e-02,-3.413076012381163760e-02,-4.408556515992337332e-02,-5.439589894732480002e-02,-6.435070398343652187e-02,-6.826152024762328907e-02,-6.648387649117475096e-02,-6.316560814580417238e-02,-5.972883021667036579e-02,-5.641056187129978722e-02,-5.297378394216598063e-02,-4.953700601303217405e-02,-4.621873766766159547e-02,-4.278195973852777501e-02,-3.946369139315721031e-02,-2.702018509801754759e-02,-1.018441735465299564e-02,0.000000000000000000e+00,0.000000000000000000e+00,0.000000000000000000e+00,0.000000000000000000e+00,0.000000000000000000e+00,0.000000000000000000e+00,0.000000000000000000e+00,0.000000000000000000e+00,0.000000000000000000e+00,0.000000000000000000e+00,0.000000000000000000e+00,0.000000000000000000e+00
0.000000000000000000e+00,0.000000000000000000e+00,0.000000000000000000e+00,0.000000000000000000e+00,0.000000000000000000e+00,0.000000000000000000e+00,0.000000000000000000e+00,0.000000000000000000e+00,0.000000000000000000e+00,-9.133043375683198850e-02,-9.133043375683198850e-02,-9.133043375683198850e-02,-9.133043375683198850e-02,-9.133043375683198850e-02,0.000000000000000000e+00,0.000000000000000000e+00,-8.532690030952909399e-03,-1.884302381835434304e-02,-2.915335760575577320e-02,-3.910816264186750546e-02,-4.941849642926893216e-02,-5.937330146538065401e-02,-6.826152024762327519e-02,-6.826152024762327519e-02,-6.482474231848946167e-02,-6.138796438935565508e-02,-5.806969604398506957e-02,-5.463291811485126298e-02,-5.131464976948069134e-02,-4.787787184034688476e-02,-4.444109391121306429e-02,-4.112282556584249266e-02,-3.768604763670868607e-02,-3.436777929133810749e-02,-3.093100136220429744e-02,-2.062066757480286380e-02,-6.799487368415600003e-03,0.000000000000000000e+00,0.000000000000000000e+00,0.000000000000000000e+00,0.000000000000000000e+00,0.000000000000000000e+00,0.000000000000000000e+00,0.000000000000000000e+00,0.000000000000000000e+00,0.000000000000000000e+00,0.000000000000000000e+00
0.000000000000000000e+00,0.000000000000000000e+00,0.000000000000000000e+00,0.000000000000000000e+00,0.000000000000000000e+00,0.000000000000000000e+00,0.000000000000000000e+00,0.000000000000000000e+00,0.000000000000000000e+00,-9.133043375683198850e-02,-9.133043375683198850e-02,-9.133043375683198850e-02,-9.133043375683198850e-02,-9.133043375683198850e-02,0.000000000000000000e+00,-3.555287512897045872e-03,-1.386562130029847864e-02,-2.382042633641020396e-02,-3.413076012381163760e-02,-4.408556515992335945e-02,-5.439589894732479308e-02,-6.470623273472622672e-02,-6.826152024762327519e-02,-6.648387649117475096e-02,-6.316560814580418626e-02,-5.972883021667035885e-02,-5.629205228753655227e-02,-5.297378394216598063e-02,-4.953700601303217405e-02,-4.621873766766159547e-02,-4.278195973852778194e-02,-3.934518180939397536e-02,-3.602691346402339678e-02,-3.259013553488958326e-02,-2.927186718951900468e-02,-2.583508926038519810e-02,-2.251682091501462299e-02,-1.431003223941060970e-02,-4.399668297210094017e-03,0.000000000000000000e+00,0.000000000000000000e+00,0.000000000000000000e+00,0.000000000000000000e+00,0.000000000000000000e+00,0.000000000000000000e+00,0.000000000000000000e+00,0.000000000000000000e+00
0.000000000000000000e+00,0.000000000000000000e+00,0.000000000000000000e+00,0.000000000000000000e+00,0.000000000000000000e+00,0.000000000000000000e+00,0.000000000000000000e+00,0.000000000000000000e+00,0.000000000000000000e+00,-9.133043375683198850e-02,-9.133043375683198850e-02,-9.133043375683198850e-02,-9.133043375683198850e-02,-9.133043375683198850e-02,0.000000000000000000e+00,-8.888218782242614247e-03,-1.884302381835434304e-02,-2.915335760575577320e-02,-3.910816264186749852e-02,-4.941849642926893216e-02,-5.937330146538065401e-02,-6.826152024762327519e-02,-6.814301066386004024e-02,-6.482474231848946167e-02,-6.138796438935565508e-02,-5.806969604398507651e-02,-5.463291811485126298e-02,-5.119614018571746333e-02,-4.787787184034688476e-02,-4.444109391121306429e-02,-4.112282556584249266e-02,-3.768604763670868607e-02,-3.424926970757486561e-02,-3.093100136220429744e-02,-2.749422343307048738e-02,-2.417595508769990881e-02,-2.073917715856610222e-02,-1.742090881319552365e-02,-1.398413088406171186e-02,-7.580909936354430015e-03,-2.033180046437997861e-03,0.000000000000000000e+00,0.000000000000000000e+00,0.000000000000000000e+00,0.000000000000000000e+00,0.000000000000000000e+00,0.000000000000000000e+00
0.000000000000000000e+00,0.000000000000000000e+00,0.000000000000000000e+00,0.000000000000000000e+00,0.000000000000000000e+00,0.000000000000000000e+00,0.000000000000000000e+00,0.000000000000000000e+00,0.000000000000000000e+00,-9.133043375683198850e-02,-9.133043375683198850e-02,-9.133043375683198850e-02,-9.133043375683198850e-02,-9.133043375683198850e-02,-3.555287512897045872e-03,-1.386562130029848038e-02,-2.382042633641020396e-02,-3.413076012381163760e-02,-4.444109391121307123e-02,-5.439589894732479308e-02,-6.470623273472622672e-02,-6.826152024762327519e-02,-6.648387649117475096e-02,-6.304709856204093743e-02,-5.972883021667036579e-02,-5.629205228753655921e-02,-5.297378394216598063e-02,-4.953700601303216711e-02,-4.610022808389836052e-02,-4.278195973852778194e-02,-3.934518180939397536e-02,-3.602691346402339678e-02,-3.259013553488958326e-02,-2.927186718951901162e-02,-2.583508926038519810e-02,-2.239831133125138804e-02,-1.908004298588081293e-02,-1.564326505674699941e-02,-1.232499671137642430e-02,-8.888218782242614247e-03,-5.451440853108803324e-03,-1.533217739936850853e-03,0.000000000000000000e+00,0.000000000000000000e+00,0.000000000000000000e+00,0.000000000000000000e+00,0.000000000000000000e+00
0.000000000000000000e+00,0.000000000000000000e+00,0.000000000000000000e+00,0.000000000000000000e+00,0.000000000000000000e+00,0.000000000000000000e+00,0.000000000000000000e+00,0.000000000000000000e+00,0.000000000000000000e+00,0.000000000000000000e+00,0.000000000000000000e+00,0.000000000000000000e+00,0.000000000000000000e+00,0.000000000000000000e+00,-8.888218782242614247e-03,-1.884302381835434304e-02,-2.915335760575576973e-02,-3.910816264186750546e-02,-4.941849642926893216e-02,-5.972883021667037273e-02,-6.826152024762327519e-02,-6.814301066386004024e-02,-6.482474231848947555e-02,-6.138796438935564814e-02,-5.795118646022184850e-02,-5.463291811485126992e-02,-5.119614018571746333e-02,-4.787787184034688476e-02,-4.444109391121307123e-02,-4.112282556584249266e-02,-3.768604763670868607e-02,-3.424926970757486561e-02,-3.093100136220429744e-02,-2.749422343307049085e-02,-2.417595508769990881e-02,-2.073917715856610222e-02,-1.730239922943228870e-02,-1.398413088406171359e-02,-1.054735295492790180e-02,-7.229084609557325826e-03,-3.792306680423515337e-03,-3.555287512897045222e-04,0.000000000000000000e+00,0.000000000000000000e+00,0.000000000000000000e+00,0.000000000000000000e+00,0.000000000000000000e+00
0.000000000000000000e+00,0.000000000000000000e+00,0.000000000000000000e+00,0.000000000000000000e+00,0.000000000000000000e+00,0.000000000000000000e+00,0.000000000000000000e+00,0.000000000000000000e+00,0.000000000000000000e+00,0.000000000000000000e+00,0.000000000000000000e+00,0.000000000000000000e+00,0.000000000000000000e+00,-3.555287512897045438e-03,-1.386562130029847864e-02,-2.417595508769990881e-02,-3.413076012381163760e-02,-4.444109391121307817e-02,-5.439589894732480002e-02,-6.470623273472622672e-02,-6.826152024762327519e-02,-6.648387649117475096e-02,-6.304709856204095131e-02,-5.972883021667036579e-02,-5.629205228753655921e-02,-5.285527435840274568e-02,-4.953700601303217405e-02,-4.610022808389836052e-02,-4.278195973852777501e-02,-3.934518180939396842e-02,-3.602691346402339678e-02,-3.259013553488958326e-02,-2.915335760575577667e-02,-2.583508926038519810e-02,-2.239831133125139151e-02,-1.908004298588081293e-02,-1.564326505674700288e-02,-1.220648712761318935e-02,-8.888218782242614247e-03,-5.451440853108803324e-03,-2.133172507738227350e-03,0.000000000000000000e+00,0.000000000000000000e+00,0.000000000000000000e+00,0.000000000000000000e+00,0.000000000000000000e+00,0.000000000000000000e+00
0.000000000000000000e+00,0.000000000000000000e+00,0.000000000000000000e+00,0.000000000000000000e+00,0.000000000000000000e+00,0.000000000000000000e+00,0.000000000000000000e+00,0.000000000000000000e+00,0.000000000000000000e+00,0.000000000000000000e+00,0.000000000000000000e+00,0.000000000000000000e+00,0.000000000000000000e+00,-8.888218782242614247e-03,-1.884302381835434304e-02,-2.915335760575577667e-02,-3.946369139315721031e-02,-4.941849642926893910e-02,-5.972883021667036579e-02,-6.826152024762327519e-02,-6.814301066386004024e-02,-6.470623273472621284e-02,-6.138796438935565508e-02,-5.795118646022184156e-02,-5.463291811485126992e-02,-5.119614018571745639e-02,-4.787787184034687782e-02,-4.444109391121307123e-02,-4.100431598207925771e-02,-3.768604763670868607e-02,-3.424926970757487255e-02,-3.093100136220429744e-02,-2.749422343307048738e-02,-2.405744550393667386e-02,-2.073917715856610222e-02,-1.730239922943228870e-02,-1.398413088406171359e-02,-1.054735295492790353e-02,-7.110575025794090877e-03,-3.792306680423515337e-03,-3.555287512897045764e-04,0.000000000000000000e+00,0.000000000000000000e+00,0.000000000000000000e+00,0.000000000000000000e+00,0.000000000000000000e+00,0.000000000000000000e+00
0.000000000000000000e+00,0.000000000000000000e+00,0.000000000000000000e+00,0.000000000000000000e+00,0.000000000000000000e+00,0.000000000000000000e+00,0.000000000000000000e+00,0.000000000000000000e+00,0.000000000000000000e+00,0.000000000000000000e+00,0.000000000000000000e+00,0.000000000000000000e+00,-3.910816264186749852e-03,-1.386562130029847864e-02,-2.417595508769990881e-02,-3.413076012381163760e-02,-4.444109391121307123e-02,-5.475142769861449793e-02,-6.470623273472622672e-02,-6.826152024762327519e-02,-6.648387649117475096e-02,-6.304709856204093743e-02,-5.972883021667037273e-02,-5.629205228753655227e-02,-5.285527435840274568e-02,-4.953700601303217405e-02,-4.610022808389836052e-02,-4.278195973852778194e-02,-3.934518180939397536e-02,-3.590840388026016183e-02,-3.259013553488958326e-02,-2.915335760575577320e-02,-2.583508926038519810e-02,-2.239831133125138804e-02,-1.896153340211757798e-02,-1.564326505674699941e-02,-1.220648712761318935e-02,-8.888218782242614247e-03,-5.451440853108803324e-03,-2.014662923974992401e-03,0.000000000000000000e+00,0.000000000000000000e+00,0.000000000000000000e+00,0.000000000000000000e+00,0.000000000000000000e+00,0.000000000000000000e+00,0.000000000000000000e+00
0.000000000000000000e+00,0.000000000000000000e+00,0.000000000000000000e+00,0.000000000000000000e+00,0.000000000000000000e+00,0.000000000000000000e+00,0.000000000000000000e+00,0.000000000000000000e+00,0.000000000000000000e+00,0.000000000000000000e+00,0.000000000000000000e+00,0.000000000000000000e+00,-8.888218782242614247e-03,-1.919855256964405135e-02,-2.915335760575577667e-02,-3.946369139315721031e-02,-4.941849642926893216e-02,-5.972883021667035885e-02,-6.826152024762327519e-02,-6.814301066386004024e-02,-6.470623273472622672e-02,-6.138796438935564814e-02,-5.795118646022184850e-02,-5.463291811485126992e-02,-5.119614018571745639e-02,-4.775936225658365675e-02,-4.444109391121307123e-02,-4.100431598207925771e-02,-3.768604763670868607e-02,-3.424926970757487255e-02,-3.081249177844106249e-02,-2.749422343307049085e-02,-2.405744550393667386e-02,-2.073917715856609875e-02,-1.730239922943228870e-02,-1.386562130029847864e-02,-1.054735295492790353e-02,-7.110575025794091744e-03,-3.792306680423514903e-03,-3.555287512897045222e-04,0.000000000000000000e+00,0.000000000000000000e+00,0.000000000000000000e+00,0.000000000000000000e+00,0.000000000000000000e+00,0.000000000000000000e+00,0.000000000000000000e+00
0.000000000000000000e+00,0.000000000000000000e+00,0.000000000000000000e+00,0.000000000000000000e+00,0.000000000000000000e+00,0.000000000000000000e+00,0.000000000000000000e+00,0.000000000000000000e+00,0.000000000000000000e+00,0.000000000000000000e+00,0.000000000000000000e+00,-3.910816264186749852e-03,-1.386562130029847864e-02,-2.417595508769990881e-02,-3.448628887510134244e-02,-4.444109391121307817e-02,-5.475142769861449793e-02,-6.470623273472622672e-02,-6.826152024762327519e-02,-6.648387649117475096e-02,-6.304709856204093743e-02,-5.961032063290713084e-02,-5.629205228753655227e-02,-5.285527435840274568e-02,-4.953700601303216711e-02,-4.610022808389836052e-02,-4.266345015476454700e-02,-3.934518180939396842e-02,-3.590840388026016183e-02,-3.259013553488958326e-02,-2.915335760575577320e-02,-2.571657967662196315e-02,-2.239831133125138804e-02,-1.896153340211757798e-02,-1.564326505674699941e-02,-1.220648712761319109e-02,-8.888218782242614247e-03,-5.451440853108803324e-03,-2.014662923974992401e-03,0.000000000000000000e+00,0.000000000000000000e+00,0.000000000000000000e+00,0.000000000000000000e+00,0.000000000000000000e+00,0.000000000000000000e+00,0.000000000000000000e+00,0.000000000000000000e+00
0.000000000000000000e+00,0.000000000000000000e+00,0.000000000000000000e+00,0.000000000000000000e+00,0.000000000000000000e+00,0.000000000000000000e+00,0.000000000000000000e+00,0.000000000000000000e+00,0.000000000000000000e+00,0.000000000000000000e+00,0.000000000000000000e+00,-8.888218782242614247e-03,-1.919855256964404788e-02,-2.915335760575577667e-02,-3.946369139315721031e-02,-4.977402518055863700e-02,-5.972883021667035885e-02,-6.826152024762327519e-02,-6.814301066386004024e-02,-6.470623273472622672e-02,-2.023092630126322178e-01,-1.988724850834984181e-01,-1.954357071543645907e-01,-5.119614018571745639e-02,-4.775936225658365675e-02,-4.444109391121307123e-02,-4.100431598207925771e-02,-3.756753805294545112e-02,-3.424926970757487255e-02,-3.081249177844106249e-02,-2.749422343307048738e-02,-2.405744550393667733e-02,-2.062066757480286380e-02,-1.730239922943228870e-02,-1.386562130029847691e-02,-1.054735295492790353e-02,-7.110575025794091744e-03,-3.792306680423515770e-03,-3.555287512897045222e-04,0.000000000000000000e+00,0.000000000000000000e+00,0.000000000000000000e+00,0.000000000000000000e+00,0.000000000000000000e+00,0.000000000000000000e+00,0.000000000000000000e+00,0.000000000000000000e+00
0.000000000000000000e+00,0.000000000000000000e+00,0.000000000000000000e+00,0.000000000000000000e+00,0.000000000000000000e+00,0.000000000000000000e+00,0.000000000000000000e+00,0.000000000000000000e+00,0.000000000000000000e+00,0.000000000000000000e+00,-3.910816264186749852e-03,-1.422115005158818349e-02,-2.417595508769990881e-02,-3.448628887510134244e-02,-4.444109391121307123e-02,-5.475142769861450487e-02,-6.470623273472622672e-02,-6.826152024762327519e-02,-6.636536690741151601e-02,-6.304709856204093743e-02,-2.005316192561836797e-01,-1.972133509108131288e-01,-1.937765729816793292e-01,-4.941849642926893910e-02,-4.610022808389836746e-02,-4.266345015476454700e-02,-3.934518180939397536e-02,-3.590840388026016183e-02,-3.247162595112634831e-02,-2.915335760575577320e-02,-2.571657967662196315e-02,-2.239831133125138804e-02,-1.896153340211757798e-02,-1.564326505674699941e-02,-1.220648712761319109e-02,-8.769709198479379297e-03,-5.451440853108804191e-03,-2.014662923974992401e-03,0.000000000000000000e+00,0.000000000000000000e+00,0.000000000000000000e+00,0.000000000000000000e+00,0.000000000000000000e+00,0.000000000000000000e+00,0.000000000000000000e+00,0.000000000000000000e+00,0.000000000000000000e+00
0.000000000000000000e+00,0.000000000000000000e+00,0.000000000000000000e+00,0.000000000000000000e+00,0.000000000000000000e+00,0.000000000000000000e+00,0.000000000000000000e+00,0.000000000000000000e+00,0.000000000000000000e+00,0.000000000000000000e+00,-8.888218782242614247e-03,-1.919855256964404788e-02,-2.915335760575577320e-02,-3.946369139315721031e-02,-4.977402518055863700e-02,-5.972883021667035885e-02,-6.826152024762327519e-02,-6.814301066386004024e-02,-6.470623273472624060e-02,-6.126945480559242013e-02,-1.988724850834984181e-01,-1.954357071543645907e-01,-1.921174388089940399e-01,-4.775936225658364981e-02,-4.432258432744983628e-02,-4.100431598207925771e-02,-3.756753805294545112e-02,-3.424926970757487255e-02,-3.081249177844106249e-02,-2.749422343307048738e-02,-2.405744550393667733e-02,-2.062066757480286727e-02,-1.730239922943228870e-02,-1.386562130029847864e-02,-1.054735295492790353e-02,-7.110575025794090877e-03,-3.673797096660280388e-03,-3.555287512897045222e-04,0.000000000000000000e+00,0.000000000000000000e+00,0.000000000000000000e+00,0.000000000000000000e+00,0.000000000000000000e+00,0.000000000000000000e+00,0.000000000000000000e+00,0.000000000000000000e+00,0.000000000000000000e+00
0.000000000000000000e+00,0.000000000000000000e+00,0.000000000000000000e+00,0.000000000000000000e+00,0.000000000000000000e+00,0.000000000000000000e+00,0.000000000000000000e+00,0.000000000000000000e+00,0.000000000000000000e+00,-3.910816264186749852e-03,-1.422115005158818349e-02,-2.417595508769990881e-02,-3.448628887510134244e-02,-4.444109391121306429e-02,-5.475142769861449793e-02,-6.506176148601593157e-02,-6.826152024762327519e-02,-6.636536690741151601e-02,-6.304709856204093743e-02,-5.961032063290712391e-02,-5.617354270377331732e-02,-5.285527435840274568e-02,-4.941849642926893910e-02,-4.610022808389836052e-02,-4.266345015476454700e-02,-3.922667222563074041e-02,-3.590840388026016183e-02,-3.247162595112634831e-02,-2.915335760575577667e-02,-2.571657967662196315e-02,-2.239831133125138804e-02,-1.896153340211757798e-02,-1.552475547298376619e-02,-1.220648712761319109e-02,-8.769709198479379297e-03,-5.451440853108803324e-03,-7.775264227058106825e-02,-7.573797934660607412e-02,-7.573797934660607412e-02,0.000000000000000000e+00,0.000000000000000000e+00,0.000000000000000000e+00,0.000000000000000000e+00,0.000000000000000000e+00,0.000000000000000000e+00,0.000000000000000000e+00,0.000000000000000000e+00
0.000000000000000000e+00,0.000000000000000000e+00,0.000000000000000000e+00,0.000000000000000000e+00,0.000000000000000000e+00,0.000000000000000000e+00,0.000000000000000000e+00,0.000000000000000000e+00,0.000000000000000000e+00,-8.888218782242614247e-03,-1.919855256964404441e-02,-2.950888635704547805e-02,-3.946369139315721031e-02,-4.977402518055863700e-02,-5.972883021667035885e-02,-6.826152024762327519e-02,-6.802450108009680529e-02,-6.470623273472624060e-02,-6.126945480559242013e-02,-5.795118646022184156e-02,-5.451440853108803497e-02,-5.107763060195422145e-02,-4.775936225658364981e-02,-4.432258432744983628e-02,-4.100431598207925771e-02,-3.756753805294545112e-02,-3.424926970757487255e-02,-3.081249177844106249e-02,-2.737571384930724896e-02,-2.405744550393667733e-02,-2.062066757480286727e-02,-1.730239922943229217e-02,-1.386562130029847864e-02,-1.042884337116466685e-02,-7.110575025794091744e-03,-3.673797096660280388e-03,-7.609350809789577896e-02,-7.573797934660607412e-02,-7.573797934660607412e-02,0.000000000000000000e+00,0.000000000000000000e+00,0.000000000000000000e+00,0.000000000000000000e+00,0.000000000000000000e+00,0.000000000000000000e+00,0.000000000000000000e+00,0.000000000000000000e+00
0.000000000000000000e+00,0.000000000000000000e+00,0.000000000000000000e+00,0.000000000000000000e+00,0.000000000000000000e+00,0.000000000000000000e+00,0.000000000000000000e+00,0.000000000000000000e+00,-3.910816264186749852e-03,-1.422115005158818349e-02,-2.417595508769990881e-02,-3.448628887510134244e-02,-4.479662266250278302e-02,-5.475142769861449793e-02,-6.506176148601593157e-02,-6.826152024762327519e-02,-6.636536690741151601e-02,-6.292858897827770248e-02,-5.961032063290713084e-02,-5.617354270377332426e-02,-5.285527435840274568e-02,-4.941849642926894604e-02,-4.610022808389836052e-02,-4.266345015476454006e-02,-3.922667222563074041e-02,-3.590840388026016183e-02,-3.247162595112634831e-02,-2.915335760575577320e-02,-2.571657967662196315e-02,-2.227980174748815309e-02,-1.896153340211757798e-02,-1.552475547298376619e-02,-1.220648712761318935e-02,-8.769709198479379297e-03,-5.332931269345568374e-03,-2.014662923974992401e-03,-7.573797934660607412e-02,-7.573797934660607412e-02,-7.573797934660607412e-02,0.000000000000000000e+00,0.000000000000000000e+00,0.000000000000000000e+00,0.000000000000000000e+00,0.000000000000000000e+00,0.000000000000000000e+00,0.000000000000000000e+00,0.000000000000000000e+00
0.000000000000000000e+00,0.000000000000000000e+00,0.000000000000000000e+00,0.000000000000000000e+00,0.000000000000000000e+00,0.000000000000000000e+00,0.000000000000000000e+00,0.000000000000000000e+00,-9.243747533532319094e-03,-1.919855256964404441e-02,-2.950888635704547805e-02,-3.946369139315721031e-02,-4.977402518055863700e-02,-6.008435896796007064e-02,-6.826152024762327519e-02,-6.802450108009680529e-02,-6.470623273472622672e-02,-6.126945480559242013e-02,-5.783267687645860661e-02,-5.451440853108802803e-02,-5.107763060195422145e-02,-4.775936225658364981e-02,-4.432258432744983628e-02,-4.100431598207925771e-02,-3.756753805294545112e-02,-3.413076012381163760e-02,-3.081249177844105902e-02,-2.737571384930724896e-02,-2.405744550393667733e-02,-2.062066757480286727e-02,-1.718388964566905375e-02,-1.386562130029847691e-02,-1.042884337116466859e-02,-7.110575025794090877e-03,-3.673797096660280388e-03,-2.370191675264697085e-04,0.000000000000000000e+00,0.000000000000000000e+00,0.000000000000000000e+00,0.000000000000000000e+00,0.000000000000000000e+00,0.000000000000000000e+00,0.000000000000000000e+00,0.000000000000000000e+00,0.000000000000000000e+00,0.000000000000000000e+00,0.000000000000000000e+00
0.000000000000000000e+00,0.000000000000000000e+00,0.000000000000000000e+00,0.000000000000000000e+00,0.000000000000000000e+00,0.000000000000000000e+00,0.000000000000000000e+00,-3.910816264186750719e-03,-1.422115005158818349e-02,-2.453148383898961366e-02,-3.448628887510134244e-02,-4.479662266250277608e-02,-5.475142769861449793e-02,-6.506176148601594544e-02,-6.826152024762327519e-02,-6.636536690741151601e-02,-6.292858897827771636e-02,-5.961032063290713084e-02,-5.617354270377332426e-02,-5.273676477463951073e-02,-4.941849642926894604e-02,-4.598171850013512557e-02,-4.266345015476454700e-02,-3.922667222563074041e-02,-3.590840388026016183e-02,-3.247162595112634831e-02,-2.903484802199254172e-02,-2.571657967662196315e-02,-2.227980174748815656e-02,-1.896153340211757798e-02,-1.552475547298376619e-02,-1.208797754384995614e-02,-8.769709198479379297e-03,-5.332931269345568374e-03,-2.014662923974992401e-03,0.000000000000000000e+00,0.000000000000000000e+00,0.000000000000000000e+00,0.000000000000000000e+00,0.000000000000000000e+00,0.000000000000000000e+00,0.000000000000000000e+00,0.000000000000000000e+00,0.000000000000000000e+00,0.000000000000000000e+00,0.000000000000000000e+00,0.000000000000000000e+00
0.000000000000000000e+00,0.000000000000000000e+00,0.000000000000000000e+00,0.000000000000000000e+00,0.000000000000000000e+00,0.000000000000000000e+00,0.000000000000000000e+00,-9.243747533532319094e-03,-1.919855256964404441e-02,-2.950888635704547805e-02,-3.981922014444691516e-02,-4.977402518055863700e-02,-6.008435896796007064e-02,-6.826152024762327519e-02,-6.802450108009680529e-02,-6.458772315096299177e-02,-6.126945480559242013e-02,-5.783267687645861355e-02,-5.451440853108802803e-02,-5.107763060195422145e-02,-4.775936225658364287e-02,-4.432258432744984322e-02,-4.088580639831602276e-02,-3.756753805294545112e-02,-3.413076012381163760e-02,-3.081249177844106249e-02,-2.737571384930725243e-02,-2.393893592017343891e-02,-2.062066757480286727e-02,-1.718388964566905375e-02,-1.386562130029847864e-02,-1.042884337116466859e-02,-6.992065442030855928e-03,-3.673797096660280388e-03,-2.370191675264697085e-04,0.000000000000000000e+00,0.000000000000000000e+00,0.000000000000000000e+00,0.000000000000000000e+00,0.000000000000000000e+00,0.000000000000000000e+00,0.000000000000000000e+00,0.000000000000000000e+00,0.000000000000000000e+00,0.000000000000000000e+00,0.000000000000000000e+00,0.000000000000000000e+00
0.000000000000000000e+00,0.000000000000000000e+00,0.000000000000000000e+00,0.000000000000000000e+00,0.000000000000000000e+00,0.000000000000000000e+00,-4.266345015476454700e-03,-1.422115005158818175e-02,-2.453148383898961712e-02,-3.448628887510134244e-02,-4.479662266250278302e-02,-5.510695644990420972e-02,-6.506176148601594544e-02,-6.826152024762327519e-02,-6.636536690741151601e-02,-6.292858897827770248e-02,-5.961032063290713084e-02,-5.617354270377332426e-02,-5.273676477463951767e-02,-4.941849642926893216e-02,-4.598171850013512557e-02,-4.266345015476454700e-02,-3.922667222563074041e-02,-3.578989429649693382e-02,-3.247162595112634831e-02,-2.903484802199254172e-02,-2.571657967662196315e-02,-2.227980174748815309e-02,-1.884302381835434304e-02,-1.552475547298376619e-02,-1.208797754384995614e-02,-8.769709198479379297e-03,-5.332931269345569242e-03,-1.896153340211757885e-03,0.000000000000000000e+00,0.000000000000000000e+00,0.000000000000000000e+00,0.000000000000000000e+00,0.000000000000000000e+00,0.000000000000000000e+00,0.000000000000000000e+00,0.000000000000000000e+00,0.000000000000000000e+00,0.000000000000000000e+00,0.000000000000000000e+00,0.000000000000000000e+00,0.000000000000000000e+00
0.000000000000000000e+00,0.000000000000000000e+00,0.000000000000000000e+00,0.000000000000000000e+00,0.000000000000000000e+00,0.000000000000000000e+00,-9.243747533532319094e-03,-1.955408132093375273e-02,-2.950888635704547458e-02,-3.981922014444690128e-02,-4.977402518055863700e-02,-6.008435896796007758e-02,-6.826152024762327519e-02,-6.802450108009680529e-02,-6.458772315096297789e-02,-6.126945480559241319e-02,-5.783267687645861355e-02,-5.451440853108803497e-02,-5.107763060195422145e-02,-4.764085267282040792e-02,-4.432258432744983628e-02,-4.088580639831602276e-02,-3.756753805294545112e-02,-3.413076012381163760e-02,-3.069398219467782754e-02,-2.737571384930724896e-02,-2.393893592017343891e-02,-2.062066757480286727e-02,-1.718388964566905375e-02,-1.374711171653524369e-02,-1.042884337116466859e-02,-6.992065442030856795e-03,-3.673797096660280388e-03,-2.370191675264697085e-04,0.000000000000000000e+00,0.000000000000000000e+00,0.000000000000000000e+00,0.000000000000000000e+00,0.000000000000000000e+00,0.000000000000000000e+00,0.000000000000000000e+00,0.000000000000000000e+00,0.000000000000000000e+00,0.000000000000000000e+00,0.000000000000000000e+00,0.000000000000000000e+00,0.000000000000000000e+00
0.000000000000000000e+00,0.000000000000000000e+00,0.000000000000000000e+00,0.000000000000000000e+00,0.000000000000000000e+00,-4.266345015476454700e-03,-1.422115005158818349e-02,-2.453148383898961712e-02,-3.484181762639104729e-02,-4.479662266250277608e-02,-5.510695644990420278e-02,-6.506176148601593157e-02,-6.826152024762327519e-02,-6.636536690741151601e-02,-6.292858897827771636e-02,-5.949181104914390283e-02,-5.617354270377331732e-02,-5.273676477463951073e-02,-4.941849642926893910e-02,-4.598171850013512557e-02,-4.254494057100131205e-02,-3.922667222563074041e-02,-3.578989429649692688e-02,-3.247162595112634831e-02,-2.903484802199254172e-02,-2.559807009285873167e-02,-2.227980174748815309e-02,-1.884302381835434304e-02,-1.552475547298376619e-02,-1.208797754384995614e-02,-8.769709198479379297e-03,-5.332931269345568374e-03,-1.896153340211757668e-03,0.000000000000000000e+00,0.000000000000000000e+00,0.000000000000000000e+00,0.000000000000000000e+00,0.000000000000000000e+00,0.000000000000000000e+00,0.000000000000000000e+00,0.000000000000000000e+00,0.000000000000000000e+00,0.000000000000000000e+00,0.000000000000000000e+00,0.000000000000000000e+00,0.000000000000000000e+00,0.000000000000000000e+00
0.000000000000000000e+00,0.000000000000000000e+00,0.000000000000000000e+00,0.000000000000000000e+00,0.000000000000000000e+00,-9.243747533532319094e-03,-1.955408132093374926e-02,-2.950888635704547805e-02,-3.981922014444691516e-02,-5.012955393184833491e-02,-6.008435896796006370e-02,-6.826152024762327519e-02,-6.802450108009680529e-02,-6.458772315096299177e-02,-6.126945480559241319e-02,-5.783267687645859967e-02,-5.439589894732480002e-02,-5.107763060195422145e-02,-4.764085267282041486e-02,-4.432258432744983628e-02,-4.088580639831602276e-02,-3.744902846918221617e-02,-3.413076012381163760e-02,-3.069398219467782754e-02,-2.737571384930725243e-02,-2.393893592017344238e-02,-2.050215799103963232e-02,-1.718388964566905375e-02,-1.374711171653524369e-02,-1.042884337116466859e-02,-6.992065442030856795e-03,-3.673797096660280388e-03,-2.370191675264697085e-04,0.000000000000000000e+00,0.000000000000000000e+00,0.000000000000000000e+00,0.000000000000000000e+00,0.000000000000000000e+00,0.000000000000000000e+00,0.000000000000000000e+00,0.000000000000000000e+00,0.000000000000000000e+00,0.000000000000000000e+00,0.000000000000000000e+00,0.000000000000000000e+00,0.000000000000000000e+00,0.000000000000000000e+00
0.000000000000000000e+00,0.000000000000000000e+00,0.000000000000000000e+00,0.000000000000000000e+00,-4.266345015476454700e-03,-1.457667880287788834e-02,-2.453148383898961366e-02,-3.484181762639104729e-02,-4.479662266250276914e-02,-5.510695644990420278e-02,-6.506176148601593157e-02,-6.826152024762327519e-02,-6.624685732364828106e-02,-6.292858897827770248e-02,-5.949181104914390283e-02,-5.617354270377331732e-02,-5.273676477463951073e-02,-4.929998684550570415e-02,-4.598171850013512557e-02,-4.254494057100131205e-02,-3.922667222563074041e-02,-3.578989429649692688e-02,-3.235311636736311336e-02,-2.903484802199254172e-02,-2.559807009285872820e-02,-2.227980174748815309e-02,-1.884302381835434304e-02,-1.552475547298376446e-02,-1.208797754384995440e-02,-8.651199614716144348e-03,-5.332931269345569242e-03,-1.896153340211757668e-03,0.000000000000000000e+00,0.000000000000000000e+00,0.000000000000000000e+00,0.000000000000000000e+00,0.000000000000000000e+00,0.000000000000000000e+00,0.000000000000000000e+00,0.000000000000000000e+00,0.000000000000000000e+00,0.000000000000000000e+00,0.000000000000000000e+00,0.000000000000000000e+00,0.000000000000000000e+00,0.000000000000000000e+00,0.000000000000000000e+00
0.000000000000000000e+00,0.000000000000000000e+00,0.000000000000000000e+00,0.000000000000000000e+00,-9.243747533532319094e-03,-1.955408132093375273e-02,-2.950888635704547805e-02,-3.981922014444691516e-02,-5.012955393184834185e-02,-6.008435896796007064e-02,-6.826152024762327519e-02,-6.802450108009680529e-02,-6.458772315096297789e-02,-6.115094522182918518e-02,-5.783267687645859967e-02,-5.439589894732480002e-02,-2.544890346836480854e-01,-2.510522567545142580e-01,-2.476154788253804584e-01,-2.442972104800098798e-01,-2.408604325508760802e-01,-3.413076012381163760e-02,-3.069398219467783101e-02,-2.737571384930724896e-02,-2.393893592017344238e-02,-2.050215799103963232e-02,-1.718388964566905375e-02,-1.374711171653524369e-02,-1.042884337116466685e-02,-6.992065442030856795e-03,-3.555287512897045438e-03,-2.370191675264697085e-04,0.000000000000000000e+00,0.000000000000000000e+00,0.000000000000000000e+00,0.000000000000000000e+00,0.000000000000000000e+00,0.000000000000000000e+00,0.000000000000000000e+00,0.000000000000000000e+00,0.000000000000000000e+00,0.000000000000000000e+00,0.000000000000000000e+00,0.000000000000000000e+00,0.000000000000000000e+00,0.000000000000000000e+00,0.000000000000000000e+00
0.000000000000000000e+00,0.000000000000000000e+00,0.000000000000000000e+00,-4.266345015476454700e-03,-1.457667880287788660e-02,-2.453148383898961366e-02,-3.484181762639104729e-02,-4.479662266250278302e-02,-5.510695644990420972e-02,-6.541729023730563641e-02,-6.826152024762327519e-02,-6.624685732364828106e-02,-6.292858897827770248e-02,-5.949181104914389590e-02,-5.605503312001008931e-02,-5.273676477463951767e-02,-2.527113909271995751e-01,-2.493931225818289965e-01,-2.459563446526951691e-01,-2.425195667235613695e-01,-2.392012983781907909e-01,-3.235311636736311336e-02,-2.903484802199254172e-02,-2.559807009285872820e-02,-2.227980174748815309e-02,-1.884302381835434304e-02,-1.540624588922052951e-02,-1.208797754384995614e-02,-8.651199614716144348e-03,-5.332931269345569242e-03,-1.896153340211757668e-03,0.000000000000000000e+00,0.000000000000000000e+00,0.000000000000000000e+00,0.000000000000000000e+00,0.000000000000000000e+00,0.000000000000000000e+00,0.000000000000000000e+00,0.000000000000000000e+00,0.000000000000000000e+00,0.000000000000000000e+00,0.000000000000000000e+00,0.000000000000000000e+00,0.000000000000000000e+00,0.000000000000000000e+00,0.000000000000000000e+00,0.000000000000000000e+00
0.000000000000000000e+00,0.000000000000000000e+00,0.000000000000000000e+00,-9.243747533532319094e-03,-1.955408132093375273e-02,-2.986441510833518290e-02,-3.981922014444691516e-02,-5.012955393184834185e-02,-6.008435896796007064e-02,-6.826152024762327519e-02,-6.790599149633357035e-02,-6.458772315096297789e-02,-6.115094522182918518e-02,-5.783267687645861355e-02,-5.439589894732480002e-02,-5.095912101819098650e-02,-2.510522567545142580e-01,-2.476154788253804584e-01,-2.442972104800098798e-01,-2.408604325508760802e-01,-2.375421642055055016e-01,-3.069398219467782754e-02,-2.725720426554402095e-02,-2.393893592017344238e-02,-2.050215799103963232e-02,-1.718388964566905722e-02,-1.374711171653524369e-02,-1.031033378740143364e-02,-6.992065442030855928e-03,-3.555287512897045872e-03,-2.370191675264697356e-04,0.000000000000000000e+00,0.000000000000000000e+00,0.000000000000000000e+00,0.000000000000000000e+00,0.000000000000000000e+00,0.000000000000000000e+00,0.000000000000000000e+00,0.000000000000000000e+00,0.000000000000000000e+00,0.000000000000000000e+00,0.000000000000000000e+00,0.000000000000000000e+00,0.000000000000000000e+00,0.000000000000000000e+00,0.000000000000000000e+00,0.000000000000000000e+00
0.000000000000000000e+00,0.000000000000000000e+00,-4.266345015476454700e-03,-1.457667880287788660e-02,-2.453148383898961366e-02,-3.484181762639104729e-02,-4.515215141379248093e-02,-5.510695644990420278e-02,-6.541729023730563641e-02,-6.826152024762327519e-02,-6.624685732364826718e-02,-6.281007939451446753e-02,-5.949181104914389590e-02,-5.605503312001008237e-02,-5.273676477463951073e-02,-4.929998684550570415e-02,-2.493931225818289965e-01,-2.459563446526951691e-01,-2.425195667235613695e-01,-2.392012983781907909e-01,-2.357645204490569912e-01,-2.903484802199253825e-02,-2.559807009285872820e-02,-2.216129216372491814e-02,-1.884302381835434304e-02,-1.540624588922053124e-02,-1.208797754384995614e-02,-8.651199614716144348e-03,-5.214421685582334293e-03,-1.896153340211757668e-03,0.000000000000000000e+00,0.000000000000000000e+00,0.000000000000000000e+00,0.000000000000000000e+00,0.000000000000000000e+00,0.000000000000000000e+00,0.000000000000000000e+00,0.000000000000000000e+00,0.000000000000000000e+00,0.000000000000000000e+00,0.000000000000000000e+00,0.000000000000000000e+00,0.000000000000000000e+00,0.000000000000000000e+00,0.000000000000000000e+00,0.000000000000000000e+00,0.000000000000000000e+00
0.000000000000000000e+00,0.000000000000000000e+00,-9.599276284822023941e-03,-1.955408132093374926e-02,-2.986441510833518290e-02,-3.981922014444691516e-02,-5.012955393184834185e-02,-6.043988771924976855e-02,-6.826152024762327519e-02,-6.790599149633357035e-02,-6.458772315096299177e-02,-6.115094522182918518e-02,-5.771416729269537166e-02,-5.439589894732479308e-02,-5.095912101819098650e-02,-4.764085267282041486e-02,-2.476154788253804584e-01,-2.442972104800098798e-01,-2.408604325508760802e-01,-2.374236546217422528e-01,-2.341053862763717019e-01,-2.725720426554401749e-02,-2.393893592017344238e-02,-2.050215799103963232e-02,-1.706538006190581880e-02,-1.374711171653524196e-02,-1.031033378740143364e-02,-6.992065442030855928e-03,-3.555287512897045438e-03,-1.185095837632348543e-04,0.000000000000000000e+00,0.000000000000000000e+00,0.000000000000000000e+00,0.000000000000000000e+00,0.000000000000000000e+00,0.000000000000000000e+00,0.000000000000000000e+00,0.000000000000000000e+00,0.000000000000000000e+00,0.000000000000000000e+00,0.000000000000000000e+00,0.000000000000000000e+00,0.000000000000000000e+00,0.000000000000000000e+00,0.000000000000000000e+00,0.000000000000000000e+00,0.000000000000000000e+00
0.000000000000000000e+00,-4.266345015476454700e-03,-1.457667880287788834e-02,-2.488701259027931850e-02,-3.484181762639104729e-02,-4.515215141379248093e-02,-5.510695644990420278e-02,-6.541729023730563641e-02,-6.826152024762327519e-02,-6.624685732364828106e-02,-6.281007939451446753e-02,-5.949181104914390283e-02,-5.605503312001008237e-02,-5.273676477463951073e-02,-4.929998684550569721e-02,-4.586320891637189062e-02,-4.254494057100130511e-02,-3.910816264186749852e-02,-3.578989429649692688e-02,-3.235311636736311336e-02,-2.891633843822930330e-02,-2.559807009285872820e-02,-2.216129216372492161e-02,-1.884302381835434304e-02,-1.540624588922053124e-02,-1.196946796008672119e-02,-8.651199614716144348e-03,-5.214421685582333425e-03,-1.896153340211757885e-03,0.000000000000000000e+00,0.000000000000000000e+00,0.000000000000000000e+00,0.000000000000000000e+00,0.000000000000000000e+00,0.000000000000000000e+00,0.000000000000000000e+00,0.000000000000000000e+00,0.000000000000000000e+00,0.000000000000000000e+00,0.000000000000000000e+00,0.000000000000000000e+00,0.000000000000000000e+00,0.000000000000000000e+00,0.000000000000000000e+00,0.000000000000000000e+00,0.000000000000000000e+00,0.000000000000000000e+00
0.000000000000000000e+00,-9.599276284822023941e-03,-1.955408132093375273e-02,-2.986441510833518290e-02,-4.017474889573660612e-02,-5.012955393184834185e-02,-6.043988771924976855e-02,-6.826152024762327519e-02,-6.790599149633357035e-02,-6.446921356719975682e-02,-6.115094522182918518e-02,-8.895033033067410722e-02,-8.563206198530354252e-02,-8.219528405616972899e-02,-7.887701571079916429e-02,-7.544023778166535077e-02,-4.076729681455278781e-02,-3.744902846918221617e-02,-3.401225054004840265e-02,-3.069398219467782407e-02,-2.725720426554401749e-02,-2.382042633641020396e-02,-2.050215799103962885e-02,-1.706538006190581880e-02,-1.374711171653524369e-02,-1.031033378740143364e-02,-6.873555858267621846e-03,-3.555287512897045438e-03,-1.185095837632348543e-04,0.000000000000000000e+00,0.000000000000000000e+00,0.000000000000000000e+00,0.000000000000000000e+00,0.000000000000000000e+00,0.000000000000000000e+00,0.000000000000000000e+00,0.000000000000000000e+00,0.000000000000000000e+00,0.000000000000000000e+00,0.000000000000000000e+00,0.000000000000000000e+00,0.000000000000000000e+00,0.000000000000000000e+00,0.000000000000000000e+00,0.000000000000000000e+00,0.000000000000000000e+00,0.000000000000000000e+00
-4.621873766766159547e-03,-1.457667880287788834e-02,-2.488701259027932197e-02,-3.484181762639104729e-02,-4.515215141379248093e-02,-5.546248520119390762e-02,-6.541729023730563641e-02,-6.826152024762327519e-02,-6.624685732364828106e-02,-6.281007939451446753e-02,-5.949181104914389590e-02,-8.729119615798883181e-02,-8.385441822885501828e-02,-8.053614988348445358e-02,-7.709937195435062618e-02,-7.378110360898006148e-02,-3.910816264186749852e-02,-3.567138471273369194e-02,-3.235311636736311336e-02,-2.891633843822930677e-02,-2.559807009285872820e-02,-2.216129216372491814e-02,-1.872451423459110809e-02,-1.540624588922053298e-02,-1.196946796008672119e-02,-8.651199614716144348e-03,-5.214421685582333425e-03,-1.896153340211757668e-03,0.000000000000000000e+00,0.000000000000000000e+00,0.000000000000000000e+00,0.000000000000000000e+00,0.000000000000000000e+00,0.000000000000000000e+00,0.000000000000000000e+00,0.000000000000000000e+00,0.000000000000000000e+00,0.000000000000000000e+00,0.000000000000000000e+00,0.000000000000000000e+00,0.000000000000000000e+00,0.000000000000000000e+00,0.000000000000000000e+00,0.000000000000000000e+00,0.000000000000000000e+00,0.000000000000000000e+00,0.000000000000000000e+00
-9.599276284822023941e-03,-1.990961007222345758e-02,-2.986441510833518290e-02,-4.017474889573662000e-02,-5.012955393184834185e-02,-6.043988771924977549e-02,-6.826152024762327519e-02,-6.790599149633357035e-02,-6.446921356719975682e-02,-6.115094522182918518e-02,-5.771416729269536472e-02,-8.563206198530354252e-02,-8.219528405616972899e-02,-7.875850612703592935e-02,-7.544023778166535077e-02,-7.200345985253153724e-02,-3.744902846918221617e-02,-3.401225054004840265e-02,-3.057547261091459606e-02,-2.725720426554401402e-02,-2.382042633641020396e-02,-2.050215799103963232e-02,-1.706538006190582227e-02,-1.374711171653524369e-02,-1.031033378740143364e-02,-6.873555858267621846e-03,-3.555287512897045872e-03,-1.185095837632348543e-04,0.000000000000000000e+00,0.000000000000000000e+00,0.000000000000000000e+00,0.000000000000000000e+00,0.000000000000000000e+00,0.000000000000000000e+00,0.000000000000000000e+00,0.000000000000000000e+00,0.000000000000000000e+00,0.000000000000000000e+00,0.000000000000000000e+00,0.000000000000000000e+00,0.000000000000000000e+00,0.000000000000000000e+00,0.000000000000000000e+00,0.000000000000000000e+00,0.000000000000000000e+00,0.000000000000000000e+00,0.000000000000000000e+00
-1.457667880287788834e-02,-2.488701259027931850e-02,-3.519734637768074520e-02,-4.515215141379248787e-02,-5.546248520119390762e-02,-6.541729023730563641e-02,-6.826152024762327519e-02,-6.624685732364828106e-02,-6.281007939451446753e-02,-5.937330146538066789e-02,-5.605503312001008237e-02,-8.385441822885501828e-02,-8.053614988348445358e-02,-7.709937195435064006e-02,-7.366259402521682653e-02,-7.034432567984624796e-02,-3.567138471273369194e-02,-3.235311636736311336e-02,-2.891633843822930677e-02,-2.547956050909549325e-02,-2.216129216372491814e-02,-1.872451423459110809e-02,-1.540624588922053124e-02,-1.196946796008672119e-02,-8.651199614716144348e-03,-5.214421685582333425e-03,-1.777643756448522719e-03,0.000000000000000000e+00,0.000000000000000000e+00,0.000000000000000000e+00,0.000000000000000000e+00,0.000000000000000000e+00,0.000000000000000000e+00,0.000000000000000000e+00,0.000000000000000000e+00,0.000000000000000000e+00,0.000000000000000000e+00,0.000000000000000000e+00,0.000000000000000000e+00,0.000000000000000000e+00,0.000000000000000000e+00,0.000000000000000000e+00,0.000000000000000000e+00,0.000000000000000000e+00,0.000000000000000000e+00,0.000000000000000000e+00,0.000000000000000000e+00
-1.990961007222345758e-02,-2.986441510833518290e-02,-4.017474889573662000e-02,-5.012955393184834185e-02,-6.043988771924977549e-02,-6.826152024762327519e-02,-6.790599149633357035e-02,-6.446921356719975682e-02,-6.115094522182918518e-02,-5.771416729269537166e-02,-5.427738936356156507e-02,-8.219528405616974287e-02,-7.875850612703592935e-02,-7.544023778166535077e-02,-7.200345985253153724e-02,-6.856668192339772372e-02,-3.401225054004840265e-02,-3.057547261091459259e-02,-2.725720426554401749e-02,-2.382042633641020743e-02,-2.050215799103963232e-02,-1.706538006190581880e-02,-1.362860213277200874e-02,-1.031033378740143190e-02,-6.873555858267621846e-03,-3.555287512897045872e-03,-1.185095837632348543e-04,0.000000000000000000e+00,0.000000000000000000e+00,0.000000000000000000e+00,0.000000000000000000e+00,0.000000000000000000e+00,0.000000000000000000e+00,0.000000000000000000e+00,0.000000000000000000e+00,0.000000000000000000e+00,0.000000000000000000e+00,0.000000000000000000e+00,0.000000000000000000e+00,0.000000000000000000e+00,0.000000000000000000e+00,0.000000000000000000e+00,0.000000000000000000e+00,0.000000000000000000e+00,0.000000000000000000e+00,0.000000000000000000e+00,0.000000000000000000e+00
-6.221753147569829626e-03,-2.529809270895803930e-02,-4.515215141379248093e-02,-5.546248520119391456e-02,-6.541729023730563641e-02,-6.826152024762327519e-02,-6.612834773988504611e-02,-6.281007939451446753e-02,-5.937330146538065401e-02,-5.605503312001008237e-02,-5.261825519087627578e-02,-4.918147726174247614e-02,-4.586320891637189062e-02,-4.242643098723807710e-02,-3.910816264186749852e-02,-3.567138471273369194e-02,-3.223460678359987841e-02,-2.891633843822930677e-02,-2.547956050909549325e-02,-2.216129216372491814e-02,-1.872451423459110809e-02,-1.540624588922053124e-02,-1.196946796008672119e-02,-8.532690030952909399e-03,-5.214421685582334293e-03,-1.777643756448522719e-03,0.000000000000000000e+00,0.000000000000000000e+00,0.000000000000000000e+00,0.000000000000000000e+00,0.000000000000000000e+00,0.000000000000000000e+00,0.000000000000000000e+00,0.000000000000000000e+00,0.000000000000000000e+00,0.000000000000000000e+00,0.000000000000000000e+00,0.000000000000000000e+00,0.000000000000000000e+00,0.000000000000000000e+00,0.000000000000000000e+00,0.000000000000000000e+00,0.000000000000000000e+00,0.000000000000000000e+00,0.000000000000000000e+00,0.000000000000000000e+00,0.000000000000000000e+00
0.000000000000000000e+00,0.000000000000000000e+00,-1.419892950463257607e-02,-4.344116929821077722e-02,-6.826152024762327519e-02,-6.790599149633357035e-02,-6.446921356719975682e-02,-6.103243563806595023e-02,-5.771416729269537166e-02,-5.427738936356156507e-02,-5.095912101819099344e-02,-4.752234308905718685e-02,-4.408556515992336639e-02,-4.076729681455278781e-02,-3.733051888541898122e-02,-3.401225054004840265e-02,-3.057547261091458912e-02,-2.725720426554401749e-02,-2.382042633641020396e-02,-2.038364840727639390e-02,-1.706538006190581880e-02,-1.362860213277200701e-02,-1.031033378740143364e-02,-6.873555858267621846e-03,-3.436777929133810923e-03,-1.185095837632348543e-04,0.000000000000000000e+00,0.000000000000000000e+00,0.000000000000000000e+00,0.000000000000000000e+00,0.000000000000000000e+00,0.000000000000000000e+00,0.000000000000000000e+00,0.000000000000000000e+00,0.000000000000000000e+00,0.000000000000000000e+00,0.000000000000000000e+00,0.000000000000000000e+00,0.000000000000000000e+00,0.000000000000000000e+00,0.000000000000000000e+00,0.000000000000000000e+00,0.000000000000000000e+00,0.000000000000000000e+00,0.000000000000000000e+00,0.000000000000000000e+00,0.000000000000000000e+00
0.000000000000000000e+00,0.000000000000000000e+00,0.000000000000000000e+00,0.000000000000000000e+00,-1.919855256964404788e-02,-4.752974993804237602e-02,-6.281007939451446753e-02,-5.937330146538065401e-02,-5.593652353624684742e-02,-5.261825519087627578e-02,-4.918147726174246920e-02,-4.586320891637189062e-02,-4.242643098723807710e-02,-3.898965305810427051e-02,-3.567138471273369194e-02,-3.223460678359987841e-02,-2.891633843822930677e-02,-2.547956050909549325e-02,-2.216129216372491814e-02,-1.872451423459110809e-02,-1.528773630545729803e-02,-1.196946796008672119e-02,-8.532690030952909399e-03,-5.214421685582334293e-03,-1.777643756448522719e-03,0.000000000000000000e+00,0.000000000000000000e+00,0.000000000000000000e+00,0.000000000000000000e+00,0.000000000000000000e+00,0.000000000000000000e+00,0.000000000000000000e+00,0.000000000000000000e+00,0.000000000000000000e+00,0.000000000000000000e+00,0.000000000000000000e+00,0.000000000000000000e+00,0.000000000000000000e+00,0.000000000000000000e+00,0.000000000000000000e+00,0.000000000000000000e+00,0.000000000000000000e+00,0.000000000000000000e+00,0.000000000000000000e+00,0.000000000000000000e+00,0.000000000000000000e+00,0.000000000000000000e+00
0.000000000000000000e+00,0.000000000000000000e+00,0.000000000000000000e+00,0.000000000000000000e+00,0.000000000000000000e+00,0.000000000000000000e+00,-1.716537252320604959e-02,-4.148205774162479903e-02,-5.427738936356156507e-02,-5.084061143442775155e-02,-4.752234308905717991e-02,-4.408556515992335945e-02,-4.076729681455278781e-02,-3.733051888541898122e-02,-3.401225054004840265e-02,-3.057547261091458912e-02,-2.713869468178077907e-02,-2.382042633641020396e-02,-2.038364840727639737e-02,-1.706538006190581880e-02,-1.362860213277200874e-02,-1.019182420363819869e-02,-6.873555858267621846e-03,-3.436777929133810489e-03,-1.185095837632348678e-04,0.000000000000000000e+00,0.000000000000000000e+00,0.000000000000000000e+00,0.000000000000000000e+00,0.000000000000000000e+00,0.000000000000000000e+00,0.000000000000000000e+00,0.000000000000000000e+00,0.000000000000000000e+00,0.000000000000000000e+00,0.000000000000000000e+00,0.000000000000000000e+00,0.000000000000000000e+00,0.000000000000000000e+00,0.000000000000000000e+00,0.000000000000000000e+00,0.000000000000000000e+00,0.000000000000000000e+00,0.000000000000000000e+00,0.000000000000000000e+00,0.000000000000000000e+00,0.000000000000000000e+00
0.000000000000000000e+00,0.000000000000000000e+00,0.000000000000000000e+00,0.000000000000000000e+00,0.000000000000000000e+00,-2.593593892967860914e-01,-2.593593892967860914e-01,-2.593593892967860914e-01,-1.479888427243395213e-02,-3.688610794630685363e-02,-4.586320891637189062e-02,-4.242643098723807710e-02,-3.898965305810427051e-02,-3.567138471273369194e-02,-3.223460678359987841e-02,-2.891633843822930677e-02,-2.547956050909549672e-02,-2.204278257996168319e-02,-1.872451423459110809e-02,-1.528773630545729803e-02,-1.196946796008672119e-02,-8.532690030952909399e-03,-5.095912101819099344e-03,-1.777643756448522936e-03,0.000000000000000000e+00,0.000000000000000000e+00,0.000000000000000000e+00,0.000000000000000000e+00,0.000000000000000000e+00,0.000000000000000000e+00,0.000000000000000000e+00,0.000000000000000000e+00,0.000000000000000000e+00,0.000000000000000000e+00,0.000000000000000000e+00,0.000000000000000000e+00,0.000000000000000000e+00,0.000000000000000000e+00,0.000000000000000000e+00,0.000000000000000000e+00,0.000000000000000000e+00,0.000000000000000000e+00,0.000000000000000000e+00,0.000000000000000000e+00,0.000000000000000000e+00,0.000000000000000000e+00,0.000000000000000000e+00
0.000000000000000000e+00,0.000000000000000000e+00,0.000000000000000000e+00,0.000000000000000000e+00,0.000000000000000000e+00,-2.593593892967860914e-01,-2.593593892967860914e-01,-2.593593892967860914e-01,0.000000000000000000e+00,0.000000000000000000e+00,-1.239906520122844615e-02,-3.057547261091458912e-02,-3.733051888541898122e-02,-3.389374095628516770e-02,-3.057547261091458912e-02,-2.713869468178078254e-02,-2.382042633641020396e-02,-2.038364840727639737e-02,-1.694687047814258385e-02,-1.362860213277200874e-02,-1.019182420363819869e-02,-6.873555858267621846e-03,-3.436777929133810923e-03,0.000000000000000000e+00,0.000000000000000000e+00,0.000000000000000000e+00,0.000000000000000000e+00,0.000000000000000000e+00,0.000000000000000000e+00,0.000000000000000000e+00,0.000000000000000000e+00,0.000000000000000000e+00,0.000000000000000000e+00,0.000000000000000000e+00,0.000000000000000000e+00,0.000000000000000000e+00,0.000000000000000000e+00,0.000000000000000000e+00,0.000000000000000000e+00,0.000000000000000000e+00,0.000000000000000000e+00,0.000000000000000000e+00,0.000000000000000000e+00,0.000000000000000000e+00,0.000000000000000000e+00,0.000000000000000000e+00,0.000000000000000000e+00
0.000000000000000000e+00,0.000000000000000000e+00,0.000000000000000000e+00,0.000000000000000000e+00,0.000000000000000000e+00,-2.593593892967860914e-01,-2.593593892967860914e-01,-2.593593892967860914e-01,0.000000000000000000e+00,0.000000000000000000e+00,0.000000000000000000e+00,0.000000000000000000e+00,-1.003257695045635042e-02,-2.417595508769990881e-02,-2.879782885446607182e-02,-2.547956050909549325e-02,-2.204278257996168666e-02,-1.872451423459110809e-02,-1.528773630545729630e-02,-1.185095837632348797e-02,-8.532690030952909399e-03,-5.095912101819099344e-03,-1.777643756448522936e-03,0.000000000000000000e+00,0.000000000000000000e+00,0.000000000000000000e+00,0.000000000000000000e+00,0.000000000000000000e+00,0.000000000000000000e+00,0.000000000000000000e+00,0.000000000000000000e+00,0.000000000000000000e+00,0.000000000000000000e+00,0.000000000000000000e+00,0.000000000000000000e+00,0.000000000000000000e+00,0.000000000000000000e+00,0.000000000000000000e+00,0.000000000000000000e+00,0.000000000000000000e+00,0.000000000000000000e+00,0.000000000000000000e+00,0.000000000000000000e+00,0.000000000000000000e+00,0.000000000000000000e+00,0.000000000000000000e+00,0.000000000000000000e+00
0.000000000000000000e+00,0.000000000000000000e+00,0.000000000000000000e+00,0.000000000000000000e+00,0.000000000000000000e+00,0.000000000000000000e+00,0.000000000000000000e+00,0.000000000000000000e+00,0.000000000000000000e+00,0.000000000000000000e+00,0.000000000000000000e+00,0.000000000000000000e+00,0.000000000000000000e+00,0.000000000000000000e+00,-8.480842088056494976e-03,-1.777643756448522849e-02,-2.038364840727639737e-02,-1.694687047814258385e-02,-1.362860213277200874e-02,-1.019182420363819869e-02,-6.755046274504386897e-03,-3.436777929133810923e-03,0.000000000000000000e+00,0.000000000000000000e+00,0.000000000000000000e+00,0.000000000000000000e+00,0.000000000000000000e+00,0.000000000000000000e+00,0.000000000000000000e+00,0.000000000000000000e+00,0.000000000000000000e+00,0.000000000000000000e+00,0.000000000000000000e+00,0.000000000000000000e+00,0.000000000000000000e+00,0.000000000000000000e+00,0.000000000000000000e+00,0.000000000000000000e+00,0.000000000000000000e+00,0.000000000000000000e+00,0.000000000000000000e+00,0.000000000000000000e+00,0.000000000000000000e+00,0.000000000000000000e+00,0.000000000000000000e+00,0.000000000000000000e+00,0.000000000000000000e+00
0.000000000000000000e+00,0.000000000000000000e+00,0.000000000000000000e+00,0.000000000000000000e+00,0.000000000000000000e+00,0.000000000000000000e+00,0.000000000000000000e+00,0.000000000000000000e+00,0.000000000000000000e+00,0.000000000000000000e+00,0.000000000000000000e+00,0.000000000000000000e+00,0.000000000000000000e+00,0.000000000000000000e+00,0.000000000000000000e+00,0.000000000000000000e+00,-5.814376453383710355e-03,-1.146580222909297266e-02,-1.185095837632348624e-02,-8.532690030952909399e-03,-5.095912101819099344e-03,-1.777643756448522719e-03,0.000000000000000000e+00,0.000000000000000000e+00,0.000000000000000000e+00,0.000000000000000000e+00,0.000000000000000000e+00,0.000000000000000000e+00,0.000000000000000000e+00,0.000000000000000000e+00,0.000000000000000000e+00,0.000000000000000000e+00,0.000000000000000000e+00,0.000000000000000000e+00,0.000000000000000000e+00,0.000000000000000000e+00,0.000000000000000000e+00,0.000000000000000000e+00,0.000000000000000000e+00,0.000000000000000000e+00,0.000000000000000000e+00,0.000000000000000000e+00,0.000000000000000000e+00,0.000000000000000000e+00,0.000000000000000000e+00,0.000000000000000000e+00,0.000000000000000000e+00
