0.000000000000000000e+00,0.000000000000000000e+00,0.000000000000000000e+00,0.000000000000000000e+00,0.000000000000000000e+00,0.000000000000000000e+00,0.000000000000000000e+00,0.000000000000000000e+00,0.000000000000000000e+00,0.000000000000000000e+00,0.000000000000000000e+00,0.000000000000000000e+00,0.000000000000000000e+00,0.000000000000000000e+00,-2.030605433152894625e-03,-7.832335242161165417e-03,-1.334397856071902269e-02,-1.885562187927687650e-02,-2.465735168828514512e-02,-3.016899500684300239e-02,-3.568063832540085967e-02,-4.119228164395872388e-02,-4.699401145296698556e-02,-5.250565477152483590e-02,-5.801729809008270011e-02,-6.381902789909098261e-02,-6.933067121764883989e-02,-7.484231453620668328e-02,-8.064404434521496579e-02,-8.615568766377280918e-02,-9.166733098233066646e-02,-9.746906079133894896e-02,-1.029807041098967924e-01,-1.084923474284546357e-01,-1.142940772374629044e-01,-6.739071781276169404e-02,0.000000000000000000e+00,0.000000000000000000e+00,0.000000000000000000e+00,0.000000000000000000e+00,0.000000000000000000e+00,0.000000000000000000e+00,0.000000000000000000e+00,0.000000000000000000e+00,0.000000000000000000e+00,0.000000000000000000e+00,0.000000000000000000e+00
0.000000000000000000e+00,0.000000000000000000e+00,0.000000000000000000e+00,0.000000000000000000e+00,0.000000000000000000e+00,0.000000000000000000e+00,0.000000000000000000e+00,0.000000000000000000e+00,0.000000000000000000e+00,0.000000000000000000e+00,0.000000000000000000e+00,0.000000000000000000e+00,0.000000000000000000e+00,-4.061210866305789251e-03,-9.572854184863645657e-03,-1.508449750342150120e-02,-2.059614082197935847e-02,-2.639787063098762709e-02,-3.190951394954548437e-02,-3.742115726810334164e-02,-4.322288707711161720e-02,-4.873453039566947448e-02,-5.424617371422731787e-02,-6.004790352323559344e-02,-6.555954684179346459e-02,-7.107119016035130799e-02,-7.687291996935957661e-02,-8.238456328791744776e-02,-8.789620660647529116e-02,-9.340784992503316231e-02,-9.920957973404141705e-02,-1.047212230525992882e-01,-1.102328663711571316e-01,-1.160345961801654002e-01,-1.215462394987232575e-01,-1.270578828172811148e-01,-4.567049184028697945e-02,0.000000000000000000e+00,0.000000000000000000e+00,0.000000000000000000e+00,0.000000000000000000e+00,0.000000000000000000e+00,0.000000000000000000e+00,0.000000000000000000e+00,0.000000000000000000e+00,0.000000000000000000e+00,0.000000000000000000e+00
0.000000000000000000e+00,0.000000000000000000e+00,0.000000000000000000e+00,0.000000000000000000e+00,0.000000000000000000e+00,0.000000000000000000e+00,0.000000000000000000e+00,0.000000000000000000e+00,0.000000000000000000e+00,0.000000000000000000e+00,0.000000000000000000e+00,0.000000000000000000e+00,-5.801729809008270358e-03,-1.131337312756612763e-02,-1.682501644612398317e-02,-2.262674625513225526e-02,-2.813838957369010907e-02,-3.365003289224796634e-02,-3.945176270125623497e-02,-4.496340601981409224e-02,-5.047504933837194951e-02,-5.627677914738021120e-02,-6.178842246593807541e-02,-6.730006578449593269e-02,-7.281170910305380384e-02,-7.861343891206207246e-02,-8.412508223061991586e-02,-8.963672554917778701e-02,-9.543845535818605563e-02,-1.009500986767438990e-01,-1.064617419953017563e-01,-1.122634718043100249e-01,-1.177751151228678683e-01,-1.232867584414257395e-01,-1.290884882504340081e-01,-1.346001315689918654e-01,-1.357332819223138198e-01,-2.275365909470430936e-02,0.000000000000000000e+00,0.000000000000000000e+00,0.000000000000000000e+00,0.000000000000000000e+00,0.000000000000000000e+00,0.000000000000000000e+00,0.000000000000000000e+00,0.000000000000000000e+00,0.000000000000000000e+00
0.000000000000000000e+00,0.000000000000000000e+00,0.000000000000000000e+00,0.000000000000000000e+00,0.000000000000000000e+00,0.000000000000000000e+00,0.000000000000000000e+00,0.000000000000000000e+00,0.000000000000000000e+00,0.000000000000000000e+00,-2.030605433152894625e-03,-7.542248751710751466e-03,-1.305389207026860961e-02,-1.885562187927687650e-02,-2.436726519783473377e-02,-2.987890851639259104e-02,-3.539055183495044832e-02,-4.119228164395872388e-02,-4.670392496251657422e-02,-5.221556828107442455e-02,-5.801729809008270011e-02,-6.352894140864055739e-02,-6.904058472719841466e-02,-7.484231453620668328e-02,-8.035395785476455444e-02,-8.586560117332239783e-02,-9.166733098233066646e-02,-9.717897430088853761e-02,-1.026906176194463810e-01,-1.084923474284546357e-01,-1.140039907470124930e-01,-1.195156340655703503e-01,-1.250272773841282214e-01,-1.308290071931365040e-01,-1.363406505116943612e-01,-1.418522938302522185e-01,-1.476540236392604732e-01,-1.196606773107955768e-01,0.000000000000000000e+00,0.000000000000000000e+00,0.000000000000000000e+00,0.000000000000000000e+00,0.000000000000000000e+00,0.000000000000000000e+00,0.000000000000000000e+00,0.000000000000000000e+00,0.000000000000000000e+00
0.000000000000000000e+00,0.000000000000000000e+00,0.000000000000000000e+00,0.000000000000000000e+00,0.000000000000000000e+00,0.000000000000000000e+00,0.000000000000000000e+00,0.000000000000000000e+00,0.000000000000000000e+00,-3.771124375855376167e-03,-9.282767694413232573e-03,-1.479441101297109158e-02,-2.059614082197935847e-02,-2.610778414053721574e-02,-3.161942745909507302e-02,-3.742115726810334164e-02,-4.293280058666119892e-02,-4.844444390521905619e-02,-5.424617371422731787e-02,-5.975781703278518209e-02,-6.526946035134303936e-02,-7.107119016035130799e-02,-7.658283347890916526e-02,-8.209447679746702253e-02,-8.760612011602489368e-02,-9.340784992503316231e-02,-9.891949324359101958e-02,-1.044311365621488630e-01,-1.102328663711571316e-01,-1.157445096897149750e-01,-1.212561530082728461e-01,-1.270578828172811148e-01,-1.325695261358389998e-01,-1.380811694543968571e-01,-1.438828992634051118e-01,-1.493945425819629413e-01,-1.549061859005207986e-01,-1.607079157095290811e-01,-9.349850195329890978e-02,0.000000000000000000e+00,0.000000000000000000e+00,0.000000000000000000e+00,0.000000000000000000e+00,0.000000000000000000e+00,0.000000000000000000e+00,0.000000000000000000e+00,0.000000000000000000e+00
0.000000000000000000e+00,0.000000000000000000e+00,0.000000000000000000e+00,0.000000000000000000e+00,0.000000000000000000e+00,0.000000000000000000e+00,0.000000000000000000e+00,0.000000000000000000e+00,-5.511643318557857274e-03,-1.102328663711571281e-02,-1.682501644612398317e-02,-2.233665976468184045e-02,-2.784830308323969078e-02,-3.365003289224796634e-02,-3.916167621080582362e-02,-4.467331952936368089e-02,-5.047504933837194951e-02,-5.598669265692980679e-02,-6.149833597548767100e-02,-6.700997929404552134e-02,-7.281170910305380384e-02,-7.832335242161164723e-02,-8.383499574016950451e-02,-8.963672554917778701e-02,-9.514836886773564428e-02,-1.006600121862934877e-01,-1.064617419953017563e-01,-1.119733853138595997e-01,-1.174850286324174570e-01,-1.232867584414257395e-01,-1.287984017599836106e-01,-1.343100450785414679e-01,-1.398216883970993529e-01,-1.456234182061075799e-01,-1.511350615246654372e-01,-1.566467048432232945e-01,-1.624484346522315770e-01,-1.679600779707894342e-01,-1.734717212893472915e-01,-6.722754416188334026e-02,0.000000000000000000e+00,0.000000000000000000e+00,0.000000000000000000e+00,0.000000000000000000e+00,0.000000000000000000e+00,0.000000000000000000e+00,0.000000000000000000e+00
0.000000000000000000e+00,0.000000000000000000e+00,0.000000000000000000e+00,0.000000000000000000e+00,0.000000000000000000e+00,0.000000000000000000e+00,-1.740518942702481107e-03,-7.252162261260337514e-03,-1.305389207026860961e-02,-1.856553538882646515e-02,-2.407717870738431895e-02,-2.958882202594217969e-02,-3.539055183495044832e-02,-4.090219515350830559e-02,-4.641383847206616287e-02,-5.221556828107442455e-02,-5.772721159963228876e-02,-6.323885491819014604e-02,-6.904058472719841466e-02,-7.455222804575627193e-02,-8.006387136431412921e-02,-8.586560117332239783e-02,-9.137724449188025511e-02,-9.688888781043811238e-02,-1.026906176194463810e-01,-1.082022609380042383e-01,-1.137139042565620817e-01,-1.192255475751199528e-01,-1.250272773841282214e-01,-1.305389207026860787e-01,-1.360505640212439638e-01,-1.418522938302522185e-01,-1.473639371488100480e-01,-1.528755804673679053e-01,-1.586773102763761600e-01,-1.641889535949340451e-01,-1.697005969134919301e-01,-1.755023267225001848e-01,-1.810139700410580421e-01,-1.806966879421278982e-01,-3.600698562715758111e-02,0.000000000000000000e+00,0.000000000000000000e+00,0.000000000000000000e+00,0.000000000000000000e+00,0.000000000000000000e+00,0.000000000000000000e+00
0.000000000000000000e+00,0.000000000000000000e+00,0.000000000000000000e+00,0.000000000000000000e+00,0.000000000000000000e+00,-3.481037885404962215e-03,-8.992681203962817754e-03,-1.479441101297109158e-02,-2.030605433152894712e-02,-2.581769765008679746e-02,-3.161942745909507302e-02,-3.713107077765293029e-02,-4.264271409621078757e-02,-4.844444390521905619e-02,-5.395608722377691346e-02,-5.946773054233477074e-02,-6.526946035134303936e-02,-7.078110366990089664e-02,-7.629274698845875391e-02,-8.180439030701661118e-02,-8.760612011602489368e-02,-9.311776343458273708e-02,-9.862940675314059435e-02,-1.044311365621488630e-01,-1.099427798807067064e-01,-1.154544231992645775e-01,-1.212561530082728461e-01,-1.267677963268306895e-01,-1.322794396453885746e-01,-1.380811694543968571e-01,-1.435928127729547144e-01,-1.491044560915125439e-01,-1.549061859005207986e-01,-1.604178292190786559e-01,-1.659294725376365409e-01,-1.714411158561943982e-01,-1.772428456652026529e-01,-1.827544889837605102e-01,-1.882661323023183675e-01,-1.940678621113266777e-01,-1.559214886170972592e-01,0.000000000000000000e+00,0.000000000000000000e+00,0.000000000000000000e+00,0.000000000000000000e+00,0.000000000000000000e+00,0.000000000000000000e+00
0.000000000000000000e+00,0.000000000000000000e+00,0.000000000000000000e+00,0.000000000000000000e+00,-5.221556828107443322e-03,-1.102328663711571281e-02,-1.653492995567356835e-02,-2.204657327423142563e-02,-2.784830308323969078e-02,-3.335994640179755499e-02,-3.887158972035541227e-02,-4.438323303891326954e-02,-5.018496284792153816e-02,-5.569660616647938850e-02,-6.120824948503725271e-02,-6.700997929404552134e-02,-7.252162261260339249e-02,-7.803326593116124976e-02,-8.383499574016950451e-02,-8.934663905872737566e-02,-9.485828237728521906e-02,-1.006600121862934877e-01,-1.061716555048513311e-01,-1.116832988234091883e-01,-1.174850286324174570e-01,-1.229966719509753281e-01,-1.285083152695331854e-01,-1.340199585880910427e-01,-1.398216883970993529e-01,-1.453333317156571824e-01,-1.508449750342150397e-01,-1.566467048432232945e-01,-1.621583481617811517e-01,-1.676699914803390090e-01,-1.734717212893472915e-01,-1.789833646079051488e-01,-1.844950079264630061e-01,-1.902967377354712886e-01,-1.958083810540291458e-01,-2.013200243725870031e-01,-2.071217541815952579e-01,-1.262510797657158956e-01,0.000000000000000000e+00,0.000000000000000000e+00,0.000000000000000000e+00,0.000000000000000000e+00,0.000000000000000000e+00
0.000000000000000000e+00,0.000000000000000000e+00,-1.450432452252067590e-03,-7.252162261260337514e-03,-1.276380557981819479e-02,-1.827544889837604686e-02,-2.378709221693390413e-02,-2.958882202594217969e-02,-3.510046534450003003e-02,-4.061210866305789424e-02,-4.641383847206616287e-02,-5.192548179062401320e-02,-5.743712510918187741e-02,-6.323885491819014604e-02,-6.875049823674800331e-02,-7.426214155530586059e-02,-8.006387136431412921e-02,-8.557551468287198648e-02,-9.108715800142982988e-02,-9.688888781043811238e-02,-1.024005311289959835e-01,-1.079121744475538269e-01,-1.134238177661116703e-01,-1.192255475751199528e-01,-1.247371908936778101e-01,-1.302488342122356813e-01,-1.360505640212439638e-01,-1.415622073398018210e-01,-1.470738506583596783e-01,-1.528755804673679053e-01,-1.583872237859257626e-01,-1.638988671044836476e-01,-1.697005969134919301e-01,-1.752122402320497874e-01,-1.807238835506076446e-01,-1.862355268691654742e-01,-1.920372566781737567e-01,-1.975488999967316417e-01,-2.030605433152894435e-01,-2.088622731242977260e-01,-2.143739164428555832e-01,-2.198855597614134405e-01,-9.168546138798382150e-02,0.000000000000000000e+00,0.000000000000000000e+00,0.000000000000000000e+00,0.000000000000000000e+00
0.000000000000000000e+00,-3.190951394954548697e-03,-8.992681203962817754e-03,-1.450432452252067503e-02,-2.001596784107853230e-02,-2.581769765008679746e-02,-3.132934096864466167e-02,-3.684098428720251200e-02,-4.264271409621078757e-02,-4.815435741476864484e-02,-5.366600073332649518e-02,-5.946773054233477074e-02,-6.497937386089262801e-02,-7.049101717945048529e-02,-7.600266049800834256e-02,-8.180439030701661118e-02,-8.731603362557446846e-02,-9.282767694413232573e-02,-9.862940675314059435e-02,-1.041410500716984516e-01,-1.096526933902562950e-01,-1.154544231992645775e-01,-1.209660665178224348e-01,-1.264777098363802921e-01,-1.322794396453885746e-01,-1.377910829639464318e-01,-1.433027262825042891e-01,-1.488143696010621186e-01,-1.546160994100703734e-01,-1.601277427286282307e-01,-1.656393860471861157e-01,-1.714411158561943982e-01,-1.769527591747522555e-01,-1.824644024933101127e-01,-1.882661323023183675e-01,-1.937777756208762248e-01,-1.992894189394340820e-01,-2.050911487484423645e-01,-2.106027920670001941e-01,-2.161144353855580513e-01,-2.219161651945663338e-01,-2.274278085131241911e-01,-2.329394518316820761e-01,-5.216117706411498023e-02,0.000000000000000000e+00,0.000000000000000000e+00,0.000000000000000000e+00
-5.221556828107443322e-03,-1.073320014666529973e-02,-1.624484346522315700e-02,-2.204657327423142563e-02,-2.755821659278927943e-02,-3.306985991134713671e-02,-3.887158972035541227e-02,-4.438323303891326954e-02,-4.989487635747111988e-02,-5.540651967602897715e-02,-6.120824948503725271e-02,-6.671989280359510999e-02,-7.223153612215296726e-02,-7.803326593116124976e-02,-8.354490924971909316e-02,-8.905655256827695043e-02,-9.485828237728521906e-02,-1.003699256958430763e-01,-1.058815690144009336e-01,-1.116832988234091883e-01,-1.171949421419670456e-01,-1.227065854605249307e-01,-1.282182287790827602e-01,-1.340199585880910427e-01,-1.395316019066489277e-01,-1.450432452252067572e-01,-1.508449750342150397e-01,-1.563566183527728692e-01,-1.618682616713307543e-01,-1.676699914803390090e-01,-1.731816347988968663e-01,-1.786932781174547236e-01,-1.844950079264630061e-01,-1.900066512450208633e-01,-1.955182945635787206e-01,-2.013200243725870031e-01,-2.068316676911448326e-01,-2.123433110097026622e-01,-2.178549543282605194e-01,-2.236566841372687742e-01,-2.291683274558266870e-01,-2.346799707743845442e-01,-2.404817005833928267e-01,-1.998695919203349325e-01,0.000000000000000000e+00,0.000000000000000000e+00,0.000000000000000000e+00
-1.247371908936778170e-02,-1.798536240792563551e-02,-2.378709221693390413e-02,-2.929873553549175794e-02,-3.481037885404962562e-02,-4.061210866305789424e-02,-4.612375198161574458e-02,-5.163539530017360185e-02,-5.743712510918187741e-02,-6.294876842773973469e-02,-6.846041174629757808e-02,-7.426214155530586059e-02,-7.977378487386371786e-02,-8.528542819242157513e-02,-9.108715800142982988e-02,-9.659880131998771491e-02,-1.021104446385455583e-01,-1.076220879571034156e-01,-1.134238177661116703e-01,-1.189354610846695276e-01,-1.244471044032273988e-01,-1.302488342122356813e-01,-1.357604775307935108e-01,-1.412721208493513680e-01,-1.470738506583596783e-01,-1.525854939769175078e-01,-1.580971372954753651e-01,-1.638988671044836476e-01,-1.694105104230415049e-01,-1.749221537415993621e-01,-1.804337970601572194e-01,-1.862355268691654742e-01,-1.917471701877233314e-01,-1.972588135062812165e-01,-2.030605433152894435e-01,-2.085721866338473007e-01,-2.140838299524051580e-01,-2.198855597614134405e-01,-2.253972030799712978e-01,-2.309088463985291551e-01,-2.367105762075374376e-01,-2.422222195260952948e-01,-2.477338628446531521e-01,-2.535355926536614346e-01,-1.619045224826370366e-01,0.000000000000000000e+00,0.000000000000000000e+00
-2.001596784107853230e-02,-2.552761115963638611e-02,-3.103925447819424338e-02,-3.684098428720251200e-02,-4.235262760576036928e-02,-4.786427092431822655e-02,-5.366600073332649518e-02,-5.917764405188435245e-02,-6.468928737044221666e-02,-7.020093068900007394e-02,-7.600266049800834256e-02,-8.151430381656619983e-02,-8.702594713512405711e-02,-9.282767694413232573e-02,-9.833932026269018301e-02,-1.038509635812480403e-01,-1.096526933902562950e-01,-1.151643367088141523e-01,-1.206759800273720235e-01,-1.264777098363802921e-01,-1.319893531549381493e-01,-1.375009964734960344e-01,-1.433027262825042891e-01,-1.488143696010621186e-01,-1.543260129196199759e-01,-1.598376562381778332e-01,-1.656393860471861157e-01,-1.711510293657440007e-01,-1.766626726843018580e-01,-1.824644024933101127e-01,-1.879760458118679700e-01,-1.934876891304258550e-01,-1.992894189394340820e-01,-2.048010622579919671e-01,-2.103127055765497966e-01,-2.161144353855580513e-01,-2.216260787041159086e-01,-2.271377220226737936e-01,-2.326493653412316509e-01,-2.384510951502399334e-01,-2.439627384687977907e-01,-2.494743817873556757e-01,-2.552761115963638749e-01,-2.599174954435705120e-01,-2.599174954435705120e-01,-1.077913050765328395e-01,0.000000000000000000e+00
-2.726813010233886808e-02,-3.306985991134713671e-02,-3.858150322990499398e-02,-4.409314654846285819e-02,-4.960478986702071547e-02,-5.540651967602897715e-02,-6.091816299458682749e-02,-6.642980631314469864e-02,-7.223153612215296726e-02,-7.774317944071082453e-02,-8.325482275926869569e-02,-8.905655256827695043e-02,-9.456819588683480771e-02,-1.000798392053926650e-01,-1.058815690144009336e-01,-1.113932123329587770e-01,-1.169048556515166482e-01,-1.224164989700745054e-01,-1.282182287790827602e-01,-1.337298720976406452e-01,-1.392415154161985025e-01,-1.450432452252067572e-01,-1.505548885437646145e-01,-1.560665318623224440e-01,-1.618682616713307543e-01,-1.673799049898886115e-01,-1.728915483084464688e-01,-1.786932781174547236e-01,-1.842049214360125808e-01,-1.897165647545704381e-01,-1.955182945635787206e-01,-2.010299378821365779e-01,-2.065415812006943796e-01,-2.120532245192522924e-01,-2.178549543282605194e-01,-2.233665976468183767e-01,-2.288782409653762617e-01,-2.346799707743845442e-01,-2.401916140929423737e-01,-2.457032574115002310e-01,-2.515049872205085135e-01,-2.570166305390663708e-01,-2.599174954435705120e-01,-2.599174954435705120e-01,-2.382577041566062981e-01,-2.125367020033362975e-01,-4.086593434220200938e-02
-3.481037885404962562e-02,-4.032202217260747595e-02,-4.583366549116534017e-02,-5.163539530017360185e-02,-5.714703861873145219e-02,-6.265868193728930946e-02,-6.846041174629757808e-02,-7.397205506485544924e-02,-7.948369838341330651e-02,-8.499534170197116378e-02,-9.079707151097943241e-02,-9.630871482953728968e-02,-1.018203581480951608e-01,-1.076220879571034156e-01,-1.131337312756612590e-01,-1.186453745942191301e-01,-1.244471044032273988e-01,-1.299587477217852560e-01,-1.354703910403431133e-01,-1.412721208493513680e-01,-1.467837641679092531e-01,-1.522954074864670826e-01,-1.580971372954753651e-01,-1.636087806140331946e-01,-1.691204239325910796e-01,-1.746320672511489647e-01,-1.804337970601572194e-01,-1.859454403787150489e-01,-1.914570836972729340e-01,-1.972588135062812165e-01,-2.027704568248390737e-01,-2.082821001433968755e-01,-2.140838299524051580e-01,-2.195954732709629875e-01,-2.251071165895208726e-01,-2.309088463985291551e-01,-2.364204897170870401e-01,-2.419321330356448696e-01,-2.477338628446531521e-01,-2.532455061632110094e-01,-2.587571494817688667e-01,-2.599174954435705120e-01,-2.558562845772647254e-01,-2.301352824239947525e-01,-2.044142802707247242e-01,-1.773395411620194428e-01,-1.279281422886323627e-01
-4.206254111530995793e-02,-4.786427092431822655e-02,-5.337591424287607689e-02,-5.888755756143393416e-02,-6.439920087999180531e-02,-7.020093068900007394e-02,-7.571257400755793121e-02,-8.122421732611578848e-02,-8.702594713512405711e-02,-9.253759045368190050e-02,-9.804923377223977166e-02,-1.038509635812480403e-01,-1.093626068998058837e-01,-1.148742502183637548e-01,-1.206759800273720235e-01,-1.261876233459298946e-01,-1.316992666644877241e-01,-1.375009964734960344e-01,-1.430126397920538639e-01,-1.485242831106117212e-01,-1.540359264291695507e-01,-1.598376562381778332e-01,-1.653492995567356905e-01,-1.708609428752935755e-01,-1.766626726843018580e-01,-1.821743160028597153e-01,-1.876859593214175448e-01,-1.934876891304258550e-01,-1.989993324489836846e-01,-2.045109757675415141e-01,-2.103127055765497966e-01,-2.158243488951076539e-01,-2.213359922136654834e-01,-2.268476355322233684e-01,-2.326493653412316509e-01,-2.381610086597895082e-01,-2.436726519783473655e-01,-2.494743817873556757e-01,-2.549860251059135052e-01,-2.599174954435705120e-01,-2.599174954435705120e-01,-2.477338628446531521e-01,-2.220128606913831515e-01,-1.949381215826778979e-01,-1.692171194294078973e-01,-1.434961172761378689e-01,-1.164213781674326431e-01
-4.960478986702071547e-02,-5.511643318557855886e-02,-6.062807650413642307e-02,-6.642980631314469864e-02,-7.194144963170255591e-02,-7.745309295026039931e-02,-8.325482275926869569e-02,-8.876646607782653908e-02,-9.427810939638439636e-02,-1.000798392053926650e-01,-1.055914825239505084e-01,-1.111031258425083657e-01,-1.166147691610662229e-01,-1.224164989700745054e-01,-1.279281422886323627e-01,-1.334397856071902200e-01,-1.392415154161985025e-01,-1.447531587347563597e-01,-1.502648020533141893e-01,-1.560665318623224440e-01,-1.615781751808803013e-01,-1.670898184994381863e-01,-1.728915483084464688e-01,-1.784031916270043261e-01,-1.839148349455621556e-01,-1.897165647545704381e-01,-1.952282080731283231e-01,-2.007398513916861527e-01,-2.062514947102440099e-01,-2.120532245192522924e-01,-2.175648678378101220e-01,-2.230765111563679515e-01,-2.288782409653762617e-01,-2.343898842839341468e-01,-2.399015276024920040e-01,-2.457032574115002310e-01,-2.512149007300581438e-01,-2.567265440486159456e-01,-2.599174954435705120e-01,-2.599174954435705120e-01,-2.396114411120415788e-01,-2.138904389587715782e-01,-1.868156998500663246e-01,-1.610946976967963240e-01,-1.353736955435262956e-01,-1.082989564348210421e-01,-8.257795428155105533e-02
-5.685695212828104084e-02,-6.265868193728930946e-02,-6.817032525584718061e-02,-7.368196857440502401e-02,-7.948369838341330651e-02,-8.499534170197116378e-02,-9.050698502052902106e-02,-9.601862833908687833e-02,-1.018203581480951608e-01,-1.073320014666529904e-01,-1.128436447852108337e-01,-1.186453745942191301e-01,-1.241570179127769735e-01,-1.296686612313348586e-01,-1.354703910403431133e-01,-1.409820343589009983e-01,-1.464936776774588278e-01,-1.522954074864670826e-01,-1.578070508050249399e-01,-1.633186941235828249e-01,-1.688303374421406544e-01,-1.746320672511489647e-01,-1.801437105697067942e-01,-1.856553538882646515e-01,-1.914570836972729340e-01,-1.969687270158307635e-01,-2.024803703343886208e-01,-2.082821001433968755e-01,-2.137937434619547605e-01,-2.193053867805126178e-01,-2.251071165895208726e-01,-2.306187599080787576e-01,-2.361304032266365871e-01,-2.419321330356448696e-01,-2.474437763542027269e-01,-2.529554196727605841e-01,-2.584670629913184414e-01,-2.599174954435705120e-01,-2.572100215327000061e-01,-2.314890193794300055e-01,-2.044142802707247242e-01,-1.786932781174547236e-01,-1.529722759641847230e-01,-1.258975368554794694e-01,-1.001765347022094688e-01,-7.445553254893946815e-02,-4.738079344023421458e-02
-6.439920087999180531e-02,-6.991084419854964871e-02,-7.542248751710750598e-02,-8.122421732611578848e-02,-8.673586064467364576e-02,-9.224750396323150303e-02,-9.804923377223977166e-02,-1.035608770907976151e-01,-1.090725204093554723e-01,-1.148742502183637548e-01,-1.203858935369215982e-01,-1.258975368554794694e-01,-1.314091801740373266e-01,-1.372109099830455814e-01,-1.427225533016034664e-01,-1.482341966201612682e-01,-1.540359264291695507e-01,-1.595475697477274357e-01,-1.650592130662852930e-01,-1.708609428752935755e-01,-1.763725861938514328e-01,-1.818842295124092623e-01,-1.876859593214175448e-01,-1.931976026399754298e-01,-1.987092459585332871e-01,-2.045109757675415141e-01,-2.100226190860993714e-01,-2.155342624046572286e-01,-2.210459057232150859e-01,-2.268476355322233684e-01,-2.323592788507812534e-01,-2.378709221693390552e-01,-2.436726519783473655e-01,-2.491842952969052227e-01,-2.546959386154630800e-01,-2.599174954435705120e-01,-2.599174954435705120e-01,-2.490875998000884051e-01,-2.220128606913831515e-01,-1.962918585381131509e-01,-1.705708563848431503e-01,-1.434961172761378689e-01,-1.177751151228678961e-01,-9.205411296959789547e-02,-6.633311081632789485e-02,-3.925837170762263434e-02,-1.353736955435263199e-02
-7.165136314125214456e-02,-7.745309295026039931e-02,-8.296473626881825658e-02,-8.847637958737611386e-02,-9.427810939638439636e-02,-9.978975271494223975e-02,-1.053013960335001109e-01,-1.108130393520579404e-01,-1.166147691610662229e-01,-1.221264124796240802e-01,-1.276380557981819375e-01,-1.334397856071902200e-01,-1.389514289257480772e-01,-1.444630722443059345e-01,-1.502648020533141893e-01,-1.557764453718720465e-01,-1.612880886904299316e-01,-1.670898184994381863e-01,-1.726014618179960713e-01,-1.781131051365539286e-01,-1.839148349455621556e-01,-1.894264782641200129e-01,-1.949381215826778979e-01,-2.004497649012357552e-01,-2.062514947102440099e-01,-2.117631380288018672e-01,-2.172747813473597245e-01,-2.230765111563679515e-01,-2.285881544749258643e-01,-2.340997977934837215e-01,-2.399015276024920040e-01,-2.454131709210498336e-01,-2.509248142396077186e-01,-2.567265440486159456e-01,-2.599174954435705120e-01,-2.599174954435705676e-01,-2.409651780674768318e-01,-2.138904389587715782e-01,-1.881694368055015776e-01,-1.624484346522315770e-01,-1.353736955435262956e-01,-1.096526933902563228e-01,-8.393169123698630829e-02,-5.685695212828104778e-02,-3.113594997501105410e-02,-5.414947821741052623e-03,0.000000000000000000e+00
-7.919361189296288128e-02,-8.470525521152075243e-02,-9.021689853007860971e-02,-9.601862833908687833e-02,-1.015302716576447217e-01,-1.070419149762025790e-01,-1.128436447852108337e-01,-1.183552881037687188e-01,-1.238669314223265761e-01,-1.296686612313348586e-01,-1.351803045498927158e-01,-1.406919478684505453e-01,-1.464936776774588278e-01,-1.520053209960166574e-01,-1.575169643145745424e-01,-1.630286076331323997e-01,-1.688303374421406544e-01,-1.743419807606985117e-01,-1.798536240792563967e-01,-1.856553538882646515e-01,-1.911669972068225087e-01,-1.966786405253803660e-01,-2.024803703343886208e-01,-2.079920136529464780e-01,-2.135036569715043353e-01,-2.193053867805126178e-01,-2.248170300990704473e-01,-2.303286734176283324e-01,-2.358403167361862174e-01,-2.416420465451944721e-01,-2.471536898637523294e-01,-2.526653331823102144e-01,-2.584670629913184414e-01,-2.599174954435705120e-01,-2.585637584881352313e-01,-2.314890193794300055e-01,-2.057680172261600049e-01,-1.800470150728900043e-01,-1.529722759641847230e-01,-1.272512738109147223e-01,-1.015302716576447495e-01,-7.445553254893946815e-02,-4.873453039566947448e-02,-2.301352824239947387e-02,0.000000000000000000e+00,0.000000000000000000e+00,0.000000000000000000e+00
-8.644577415422322053e-02,-9.224750396323150303e-02,-9.775914728178936031e-02,-1.032707906003472037e-01,-1.090725204093554723e-01,-1.145841637279133296e-01,-1.200958070464712008e-01,-1.258975368554794694e-01,-1.314091801740373266e-01,-1.369208234925951839e-01,-1.424324668111530412e-01,-1.482341966201612682e-01,-1.537458399387191532e-01,-1.592574832572770105e-01,-1.650592130662852930e-01,-1.705708563848431503e-01,-1.760824997034010353e-01,-1.818842295124092623e-01,-1.873958728309671473e-01,-1.929075161495250046e-01,-1.987092459585332871e-01,-2.042208892770911166e-01,-2.097325325956489739e-01,-2.152441759142068034e-01,-2.210459057232150859e-01,-2.265575490417729432e-01,-2.320691923603308282e-01,-2.378709221693390552e-01,-2.433825654878969402e-01,-2.488942088064547975e-01,-2.546959386154630800e-01,-2.599174954435705120e-01,-2.599174954435705120e-01,-2.490875998000884051e-01,-2.233665976468184045e-01,-1.976455954935484316e-01,-1.705708563848431503e-01,-1.448498542315731497e-01,-1.191288520783031490e-01,-9.340784992503316231e-02,-6.633311081632789485e-02,-4.061210866305789424e-02,-1.489110650978789363e-02,0.000000000000000000e+00,0.000000000000000000e+00,0.000000000000000000e+00,0.000000000000000000e+00
-9.398802290593398501e-02,-9.949966622449182840e-02,-1.050113095430496857e-01,-1.108130393520579404e-01,-1.163246826706158255e-01,-1.218363259891736827e-01,-1.276380557981819375e-01,-1.331496991167397947e-01,-1.386613424352976798e-01,-1.444630722443059345e-01,-1.499747155628637918e-01,-1.554863588814216491e-01,-1.612880886904299316e-01,-1.667997320089877888e-01,-1.723113753275456461e-01,-1.778230186461035034e-01,-1.836247484551117581e-01,-1.891363917736696154e-01,-1.946480350922275004e-01,-2.004497649012357552e-01,-2.059614082197935847e-01,-2.114730515383514420e-01,-2.172747813473597245e-01,-2.227864246659175540e-01,-2.282980679844754390e-01,-2.340997977934837215e-01,-2.396114411120415510e-01,-2.451230844305994361e-01,-2.509248142396077186e-01,-2.564364575581655203e-01,-2.599174954435705120e-01,-2.599174954435705120e-01,-2.409651780674768318e-01,-2.152441759142068312e-01,-1.895231737609368583e-01,-1.624484346522315770e-01,-1.367274324989615764e-01,-1.110064303456915757e-01,-8.393169123698630829e-02,-5.821068908371631462e-02,-3.248968693044632094e-02,-5.414947821741052623e-03,0.000000000000000000e+00,0.000000000000000000e+00,0.000000000000000000e+00,0.000000000000000000e+00,0.000000000000000000e+00
-1.012401851671943104e-01,-1.070419149762025790e-01,-1.125535582947604224e-01,-1.180652016133182935e-01,-1.238669314223265761e-01,-1.293785747408844333e-01,-1.348902180594423184e-01,-1.406919478684505453e-01,-1.462035911870084304e-01,-1.517152345055662876e-01,-1.572268778241241172e-01,-1.630286076331323997e-01,-1.685402509516902569e-01,-1.740518942702481142e-01,-1.798536240792563967e-01,-1.853652673978142262e-01,-1.908769107163721113e-01,-1.966786405253803660e-01,-2.021902838439382233e-01,-2.077019271624960806e-01,-2.135036569715043353e-01,-2.190153002900621926e-01,-2.245269436086200221e-01,-2.303286734176283324e-01,-2.358403167361862174e-01,-2.413519600547440469e-01,-2.468636033733019319e-01,-2.526653331823102144e-01,-2.581769765008680162e-01,-2.599174954435704565e-01,-2.585637584881352313e-01,-2.328427563348652862e-01,-2.071217541815952856e-01,-1.800470150728900043e-01,-1.543260129196200037e-01,-1.286050107663500031e-01,-1.015302716576447495e-01,-7.580926950437474887e-02,-5.008826735110473438e-02,-2.436726519783473724e-02,0.000000000000000000e+00,0.000000000000000000e+00,0.000000000000000000e+00,0.000000000000000000e+00,0.000000000000000000e+00,0.000000000000000000e+00,0.000000000000000000e+00
-1.087824339189050471e-01,-1.142940772374629321e-01,-1.198057205560207755e-01,-1.256074503650290441e-01,-1.311190936835869292e-01,-1.366307370021447865e-01,-1.424324668111530412e-01,-1.479441101297109262e-01,-1.534557534482687280e-01,-1.592574832572770105e-01,-1.647691265758348955e-01,-1.702807698943927528e-01,-1.760824997034010353e-01,-1.815941430219588648e-01,-1.871057863405167221e-01,-1.929075161495250046e-01,-1.984191594680828619e-01,-2.039308027866406914e-01,-2.094424461051985487e-01,-2.152441759142068034e-01,-2.207558192327646607e-01,-2.262674625513225457e-01,-2.320691923603308282e-01,-2.375808356788886855e-01,-2.430924789974465428e-01,-2.488942088064547975e-01,-2.544058521250126548e-01,-2.599174954435705120e-01,-2.599174954435705120e-01,-2.504413367555236580e-01,-2.247203346022536852e-01,-1.989993324489837123e-01,-1.719245933402784310e-01,-1.462035911870084026e-01,-1.204825890337384298e-01,-9.340784992503316231e-02,-6.768684777176314782e-02,-4.196584561849316108e-02,-1.489110650978789363e-02,0.000000000000000000e+00,0.000000000000000000e+00,0.000000000000000000e+00,0.000000000000000000e+00,0.000000000000000000e+00,0.000000000000000000e+00,0.000000000000000000e+00,0.000000000000000000e+00
-1.160345961801654141e-01,-1.218363259891736827e-01,-1.273479693077315400e-01,-1.328596126262893973e-01,-1.386613424352976798e-01,-1.441729857538555093e-01,-1.496846290724133666e-01,-1.554863588814216491e-01,-1.609980021999795063e-01,-1.665096455185373359e-01,-1.720212888370951931e-01,-1.778230186461035034e-01,-1.833346619646613607e-01,-1.888463052832192179e-01,-1.946480350922275004e-01,-2.001596784107853022e-01,-2.056713217293431595e-01,-2.114730515383514420e-01,-2.169846948569092993e-01,-2.224963381754671288e-01,-2.282980679844754390e-01,-2.338097113030332963e-01,-2.393213546215911536e-01,-2.451230844305994361e-01,-2.506347277491572934e-01,-2.561463710677151506e-01,-2.599174954435705120e-01,-2.599174954435705120e-01,-2.423189150229120847e-01,-2.165979128696421119e-01,-1.895231737609368583e-01,-1.638021716076668299e-01,-1.380811694543968571e-01,-1.110064303456915757e-01,-8.528542819242158901e-02,-5.956442603915158146e-02,-3.248968693044632094e-02,-6.768684777176315996e-03,0.000000000000000000e+00,0.000000000000000000e+00,0.000000000000000000e+00,0.000000000000000000e+00,0.000000000000000000e+00,0.000000000000000000e+00,0.000000000000000000e+00,0.000000000000000000e+00,0.000000000000000000e+00
-1.235768449318761647e-01,-1.290884882504340081e-01,-1.348902180594423184e-01,-1.404018613780001479e-01,-1.459135046965580051e-01,-1.514251480151158624e-01,-1.572268778241241172e-01,-1.627385211426819744e-01,-1.682501644612398317e-01,-1.740518942702481142e-01,-1.795635375888059715e-01,-1.850751809073638288e-01,-1.908769107163721113e-01,-1.963885540349299685e-01,-2.019001973534877981e-01,-2.077019271624960806e-01,-2.132135704810539378e-01,-2.187252137996117674e-01,-2.245269436086200221e-01,-2.300385869271779071e-01,-2.355502302457357922e-01,-2.410618735642936217e-01,-2.468636033733019319e-01,-2.523752466918597892e-01,-2.578868900104175910e-01,-2.599174954435704565e-01,-2.599174954435705120e-01,-2.341964932903005392e-01,-2.071217541815952856e-01,-1.814007520283252572e-01,-1.556797498750552566e-01,-1.286050107663500031e-01,-1.028840086130800024e-01,-7.716300645981000184e-02,-5.144200430654000122e-02,-2.436726519783473724e-02,0.000000000000000000e+00,0.000000000000000000e+00,0.000000000000000000e+00,0.000000000000000000e+00,0.000000000000000000e+00,0.000000000000000000e+00,0.000000000000000000e+00,0.000000000000000000e+00,0.000000000000000000e+00,0.000000000000000000e+00,0.000000000000000000e+00
-1.308290071931365040e-01,-1.366307370021447865e-01,-1.421423803207026437e-01,-1.476540236392604732e-01,-1.534557534482687280e-01,-1.589673967668265853e-01,-1.644790400853844425e-01,-1.702807698943927528e-01,-1.757924132129506101e-01,-1.813040565315084673e-01,-1.871057863405167221e-01,-1.926174296590746071e-01,-1.981290729776324366e-01,-2.036407162961902939e-01,-2.094424461051985487e-01,-2.149540894237564337e-01,-2.204657327423142354e-01,-2.262674625513225457e-01,-2.317791058698804307e-01,-2.372907491884382603e-01,-2.430924789974465428e-01,-2.486041223160044278e-01,-2.541157656345622851e-01,-2.599174954435705120e-01,-2.599174954435705676e-01,-2.517950737109589388e-01,-2.260740715576889381e-01,-1.989993324489836846e-01,-1.732783302957136840e-01,-1.475573281424436833e-01,-1.204825890337384298e-01,-9.476158688046841527e-02,-6.904058472719842854e-02,-4.196584561849316108e-02,-1.624484346522315700e-02,0.000000000000000000e+00,0.000000000000000000e+00,0.000000000000000000e+00,0.000000000000000000e+00,0.000000000000000000e+00,0.000000000000000000e+00,0.000000000000000000e+00,0.000000000000000000e+00,0.000000000000000000e+00,0.000000000000000000e+00,0.000000000000000000e+00,0.000000000000000000e+00
-1.383712559448472545e-01,-1.438828992634051118e-01,-1.496846290724133666e-01,-1.551962723909712238e-01,-1.607079157095290811e-01,-1.665096455185373359e-01,-1.720212888370951931e-01,-1.775329321556530782e-01,-1.830445754742109354e-01,-1.888463052832192179e-01,-1.943579486017770752e-01,-1.998695919203349325e-01,-2.056713217293431595e-01,-2.111829650479010168e-01,-2.166946083664588740e-01,-2.224963381754671288e-01,-2.280079814940249860e-01,-2.335196248125828711e-01,-2.393213546215911536e-01,-2.448329979401490109e-01,-2.503446412587068681e-01,-2.558562845772647254e-01,-2.599174954435705120e-01,-2.599174954435705120e-01,-2.436726519783473655e-01,-2.165979128696421119e-01,-1.908769107163721113e-01,-1.651559085631021107e-01,-1.380811694543968571e-01,-1.123601673011268287e-01,-8.663916514785684198e-02,-5.956442603915158146e-02,-3.384342388588158085e-02,-8.122421732611578502e-03,0.000000000000000000e+00,0.000000000000000000e+00,0.000000000000000000e+00,0.000000000000000000e+00,0.000000000000000000e+00,0.000000000000000000e+00,0.000000000000000000e+00,0.000000000000000000e+00,0.000000000000000000e+00,0.000000000000000000e+00,0.000000000000000000e+00,0.000000000000000000e+00,0.000000000000000000e+00
-1.456234182061075799e-01,-1.514251480151158624e-01,-1.569367913336736642e-01,-1.624484346522315770e-01,-1.682501644612398317e-01,-1.737618077797976890e-01,-1.792734510983555740e-01,-1.850751809073638288e-01,-1.905868242259216860e-01,-1.960984675444795433e-01,-2.019001973534877981e-01,-2.074118406720456553e-01,-2.129234839906034849e-01,-2.184351273091613421e-01,-2.242368571181696246e-01,-2.297485004367275374e-01,-2.352601437552853669e-01,-2.410618735642936217e-01,-2.465735168828514789e-01,-2.520851602014093640e-01,-2.578868900104175910e-01,-2.599174954435705120e-01,-2.599174954435705120e-01,-2.341964932903005392e-01,-2.084754911370305386e-01,-1.827544889837605380e-01,-1.556797498750552566e-01,-1.299587477217852560e-01,-1.042377455685152693e-01,-7.851674341524526868e-02,-5.144200430654000122e-02,-2.572100215327000061e-02,0.000000000000000000e+00,0.000000000000000000e+00,0.000000000000000000e+00,0.000000000000000000e+00,0.000000000000000000e+00,0.000000000000000000e+00,0.000000000000000000e+00,0.000000000000000000e+00,0.000000000000000000e+00,0.000000000000000000e+00,0.000000000000000000e+00,0.000000000000000000e+00,0.000000000000000000e+00,0.000000000000000000e+00,0.000000000000000000e+00
-1.292335314956592207e-01,-1.586773102763761878e-01,-1.644790400853844425e-01,-1.699906834039422998e-01,-1.755023267225001848e-01,-1.813040565315084673e-01,-1.868156998500662969e-01,-1.923273431686241541e-01,-1.978389864871820114e-01,-2.036407162961902939e-01,-2.091523596147481512e-01,-2.146640029333059807e-01,-2.204657327423142354e-01,-2.259773760608720927e-01,-2.314890193794300055e-01,-2.372907491884382603e-01,-2.428023925069960898e-01,-2.483140358255539748e-01,-2.541157656345622851e-01,-2.596274089531201423e-01,-2.599174954435705120e-01,-2.517950737109589388e-01,-2.260740715576889381e-01,-2.003530694044189375e-01,-1.746320672511489647e-01,-1.475573281424436833e-01,-1.218363259891736827e-01,-9.611532383590368211e-02,-6.904058472719842854e-02,-4.331958257392842099e-02,-1.759858042065842038e-02,0.000000000000000000e+00,0.000000000000000000e+00,0.000000000000000000e+00,0.000000000000000000e+00,0.000000000000000000e+00,0.000000000000000000e+00,0.000000000000000000e+00,0.000000000000000000e+00,0.000000000000000000e+00,0.000000000000000000e+00,0.000000000000000000e+00,0.000000000000000000e+00,0.000000000000000000e+00,0.000000000000000000e+00,0.000000000000000000e+00,0.000000000000000000e+00
-3.509140014167345945e-02,-1.662195590280869661e-01,-1.717312023466448234e-01,-1.772428456652026807e-01,-1.830445754742109354e-01,-1.885562187927687927e-01,-1.940678621113266777e-01,-1.998695919203349325e-01,-2.053812352388927620e-01,-2.108928785574505915e-01,-2.166946083664588740e-01,-2.222062516850167313e-01,-2.277178950035746163e-01,-2.335196248125828711e-01,-2.390312681311407284e-01,-2.445429114496985856e-01,-2.500545547682564984e-01,-2.558562845772647254e-01,-2.599174954435705120e-01,-2.599174954435704565e-01,-2.436726519783473655e-01,-2.179516498250773648e-01,-1.922306476718073642e-01,-1.651559085631021107e-01,-1.394349064098320823e-01,-1.137139042565621094e-01,-8.663916514785684198e-02,-6.091816299458684136e-02,-3.519716084131684075e-02,-9.476158688046841874e-03,0.000000000000000000e+00,0.000000000000000000e+00,0.000000000000000000e+00,0.000000000000000000e+00,0.000000000000000000e+00,0.000000000000000000e+00,0.000000000000000000e+00,0.000000000000000000e+00,0.000000000000000000e+00,0.000000000000000000e+00,0.000000000000000000e+00,0.000000000000000000e+00,0.000000000000000000e+00,0.000000000000000000e+00,0.000000000000000000e+00,0.000000000000000000e+00,0.000000000000000000e+00
0.000000000000000000e+00,-7.589387806408944004e-02,-1.792734510983555740e-01,-1.847850944169134035e-01,-1.902967377354712886e-01,-1.960984675444795433e-01,-2.016101108630374283e-01,-2.071217541815952301e-01,-2.129234839906034849e-01,-2.184351273091613421e-01,-2.239467706277192272e-01,-2.294584139462770844e-01,-2.352601437552853669e-01,-2.407717870738432242e-01,-2.462834303924010537e-01,-2.520851602014093640e-01,-2.575968035199671657e-01,-2.599174954435705120e-01,-2.599174954435705120e-01,-2.355502302457357922e-01,-2.098292280924657915e-01,-1.827544889837605380e-01,-1.570334868304905374e-01,-1.313124846772205367e-01,-1.055914825239505223e-01,-7.851674341524526868e-02,-5.279574126197526807e-02,-2.707473910870526398e-02,0.000000000000000000e+00,0.000000000000000000e+00,0.000000000000000000e+00,0.000000000000000000e+00,0.000000000000000000e+00,0.000000000000000000e+00,0.000000000000000000e+00,0.000000000000000000e+00,0.000000000000000000e+00,0.000000000000000000e+00,0.000000000000000000e+00,0.000000000000000000e+00,0.000000000000000000e+00,0.000000000000000000e+00,0.000000000000000000e+00,0.000000000000000000e+00,0.000000000000000000e+00,0.000000000000000000e+00,0.000000000000000000e+00
0.000000000000000000e+00,0.000000000000000000e+00,-1.165785083497599267e-01,-1.920372566781737844e-01,-1.978389864871820114e-01,-2.033506298057398687e-01,-2.088622731242977260e-01,-2.146640029333059807e-01,-2.201756462518638380e-01,-2.256872895704217230e-01,-2.314890193794300055e-01,-2.370006626979878350e-01,-2.425123060165457201e-01,-2.483140358255539748e-01,-2.538256791441118598e-01,-2.593373224626696616e-01,-2.599174954435705120e-01,-2.531488106663941640e-01,-2.274278085131241911e-01,-2.017068063598542182e-01,-1.746320672511489647e-01,-1.489110650978789363e-01,-1.231900629446089357e-01,-9.611532383590368211e-02,-7.039432168263368150e-02,-4.467331952936368783e-02,-1.759858042065842038e-02,0.000000000000000000e+00,0.000000000000000000e+00,0.000000000000000000e+00,0.000000000000000000e+00,0.000000000000000000e+00,0.000000000000000000e+00,0.000000000000000000e+00,0.000000000000000000e+00,0.000000000000000000e+00,0.000000000000000000e+00,0.000000000000000000e+00,0.000000000000000000e+00,0.000000000000000000e+00,0.000000000000000000e+00,0.000000000000000000e+00,0.000000000000000000e+00,0.000000000000000000e+00,0.000000000000000000e+00,0.000000000000000000e+00,0.000000000000000000e+00
0.000000000000000000e+00,0.000000000000000000e+00,0.000000000000000000e+00,-1.621583481617811517e-01,-2.050911487484423645e-01,-2.108928785574505915e-01,-2.164045218760084488e-01,-2.219161651945663061e-01,-2.277178950035746163e-01,-2.332295383221325014e-01,-2.387411816406903309e-01,-2.442528249592481882e-01,-2.500545547682564984e-01,-2.555661980868143557e-01,-2.599174954435705120e-01,-2.599174954435704565e-01,-2.450263889337826184e-01,-2.193053867805126456e-01,-1.922306476718073642e-01,-1.665096455185373636e-01,-1.407886433652673630e-01,-1.137139042565621094e-01,-8.799290210329210882e-02,-6.227189995002210821e-02,-3.519716084131684075e-02,-9.476158688046841874e-03,0.000000000000000000e+00,0.000000000000000000e+00,0.000000000000000000e+00,0.000000000000000000e+00,0.000000000000000000e+00,0.000000000000000000e+00,0.000000000000000000e+00,0.000000000000000000e+00,0.000000000000000000e+00,0.000000000000000000e+00,0.000000000000000000e+00,0.000000000000000000e+00,0.000000000000000000e+00,0.000000000000000000e+00,0.000000000000000000e+00,0.000000000000000000e+00,0.000000000000000000e+00,0.000000000000000000e+00,0.000000000000000000e+00,0.000000000000000000e+00,0.000000000000000000e+00
0.000000000000000000e+00,0.000000000000000000e+00,0.000000000000000000e+00,-4.524442730743793301e-02,-2.126333975001530874e-01,-2.181450408187109447e-01,-2.236566841372688019e-01,-2.294584139462770844e-01,-2.349700572648349695e-01,-2.404817005833927990e-01,-2.462834303924010537e-01,-2.517950737109589388e-01,-2.573067170295167960e-01,-2.599174954435705120e-01,-2.599174954435705120e-01,-2.369039672011710729e-01,-2.098292280924657915e-01,-1.841082259391957909e-01,-1.583872237859257903e-01,-1.326662216326557897e-01,-1.055914825239505223e-01,-7.987048037068052164e-02,-5.414947821741052103e-02,-2.707473910870526398e-02,-1.353736955435263156e-03,0.000000000000000000e+00,0.000000000000000000e+00,0.000000000000000000e+00,0.000000000000000000e+00,0.000000000000000000e+00,0.000000000000000000e+00,0.000000000000000000e+00,0.000000000000000000e+00,0.000000000000000000e+00,0.000000000000000000e+00,0.000000000000000000e+00,0.000000000000000000e+00,0.000000000000000000e+00,0.000000000000000000e+00,0.000000000000000000e+00,0.000000000000000000e+00,0.000000000000000000e+00,0.000000000000000000e+00,0.000000000000000000e+00,0.000000000000000000e+00,0.000000000000000000e+00,0.000000000000000000e+00
0.000000000000000000e+00,0.000000000000000000e+00,0.000000000000000000e+00,0.000000000000000000e+00,-8.932850865307420674e-02,-2.256872895704217230e-01,-2.311989328889795803e-01,-2.367105762075374376e-01,-2.425123060165457201e-01,-2.480239493351035773e-01,-2.535355926536614346e-01,-2.590472359722192919e-01,-2.599174954435705120e-01,-2.545025476218294447e-01,-2.287815454685594441e-01,-2.017068063598542182e-01,-1.759858042065842176e-01,-1.502648020533142170e-01,-1.231900629446089357e-01,-9.746906079133894896e-02,-7.174805863806894835e-02,-4.467331952936368783e-02,-1.895231737609368375e-02,0.000000000000000000e+00,0.000000000000000000e+00,0.000000000000000000e+00,0.000000000000000000e+00,0.000000000000000000e+00,0.000000000000000000e+00,0.000000000000000000e+00,0.000000000000000000e+00,0.000000000000000000e+00,0.000000000000000000e+00,0.000000000000000000e+00,0.000000000000000000e+00,0.000000000000000000e+00,0.000000000000000000e+00,0.000000000000000000e+00,0.000000000000000000e+00,0.000000000000000000e+00,0.000000000000000000e+00,0.000000000000000000e+00,0.000000000000000000e+00,0.000000000000000000e+00,0.000000000000000000e+00,0.000000000000000000e+00,0.000000000000000000e+00
0.000000000000000000e+00,0.000000000000000000e+00,0.000000000000000000e+00,0.000000000000000000e+00,0.000000000000000000e+00,-1.383077995250612258e-01,-2.384510951502398779e-01,-2.442528249592481882e-01,-2.497644682778060454e-01,-2.552761115963639305e-01,-2.599174954435705120e-01,-2.599174954435705120e-01,-2.463801258892178991e-01,-2.193053867805126456e-01,-1.935843846272426449e-01,-1.678633824739726443e-01,-1.407886433652673630e-01,-1.150676412119973624e-01,-8.934663905872737566e-02,-6.362563690545736117e-02,-3.655089779675210759e-02,-1.082989564348210525e-02,0.000000000000000000e+00,0.000000000000000000e+00,0.000000000000000000e+00,0.000000000000000000e+00,0.000000000000000000e+00,0.000000000000000000e+00,0.000000000000000000e+00,0.000000000000000000e+00,0.000000000000000000e+00,0.000000000000000000e+00,0.000000000000000000e+00,0.000000000000000000e+00,0.000000000000000000e+00,0.000000000000000000e+00,0.000000000000000000e+00,0.000000000000000000e+00,0.000000000000000000e+00,0.000000000000000000e+00,0.000000000000000000e+00,0.000000000000000000e+00,0.000000000000000000e+00,0.000000000000000000e+00,0.000000000000000000e+00,0.000000000000000000e+00,0.000000000000000000e+00
0.000000000000000000e+00,0.000000000000000000e+00,0.000000000000000000e+00,0.000000000000000000e+00,0.000000000000000000e+00,0.000000000000000000e+00,-1.921822999233989693e-01,-2.515049872205085690e-01,-2.573067170295167960e-01,-2.599174954435705120e-01,-2.599174954435705120e-01,-2.369039672011710729e-01,-2.111829650479010723e-01,-1.854619628946310439e-01,-1.597409607413610433e-01,-1.326662216326557897e-01,-1.069452194793857891e-01,-8.122421732611578848e-02,-5.414947821741052103e-02,-2.842847606414052736e-02,-2.707473910870526312e-03,0.000000000000000000e+00,0.000000000000000000e+00,0.000000000000000000e+00,0.000000000000000000e+00,0.000000000000000000e+00,0.000000000000000000e+00,0.000000000000000000e+00,0.000000000000000000e+00,0.000000000000000000e+00,0.000000000000000000e+00,0.000000000000000000e+00,0.000000000000000000e+00,0.000000000000000000e+00,0.000000000000000000e+00,0.000000000000000000e+00,0.000000000000000000e+00,0.000000000000000000e+00,0.000000000000000000e+00,0.000000000000000000e+00,0.000000000000000000e+00,0.000000000000000000e+00,0.000000000000000000e+00,0.000000000000000000e+00,0.000000000000000000e+00,0.000000000000000000e+00,0.000000000000000000e+00
0.000000000000000000e+00,0.000000000000000000e+00,0.000000000000000000e+00,0.000000000000000000e+00,0.000000000000000000e+00,0.000000000000000000e+00,-4.748353240560206079e-02,-2.509520098480874095e-01,-2.599174954435705120e-01,-2.558562845772647254e-01,-2.287815454685594441e-01,-2.030605433152894990e-01,-1.773395411620194984e-01,-1.502648020533142170e-01,-1.245437999000442164e-01,-9.882279774677421580e-02,-7.174805863806894835e-02,-4.602705648479894773e-02,-2.030605433152894712e-02,0.000000000000000000e+00,0.000000000000000000e+00,0.000000000000000000e+00,0.000000000000000000e+00,0.000000000000000000e+00,0.000000000000000000e+00,0.000000000000000000e+00,0.000000000000000000e+00,0.000000000000000000e+00,0.000000000000000000e+00,0.000000000000000000e+00,0.000000000000000000e+00,0.000000000000000000e+00,0.000000000000000000e+00,0.000000000000000000e+00,0.000000000000000000e+00,0.000000000000000000e+00,0.000000000000000000e+00,0.000000000000000000e+00,0.000000000000000000e+00,0.000000000000000000e+00,0.000000000000000000e+00,0.000000000000000000e+00,0.000000000000000000e+00,0.000000000000000000e+00,0.000000000000000000e+00,0.000000000000000000e+00,0.000000000000000000e+00
0.000000000000000000e+00,0.000000000000000000e+00,0.000000000000000000e+00,0.000000000000000000e+00,0.000000000000000000e+00,0.000000000000000000e+00,0.000000000000000000e+00,-9.746906079133893508e-02,-2.463801258892178991e-01,-2.206591237359478985e-01,-1.949381215826778979e-01,-1.678633824739726443e-01,-1.421423803207026160e-01,-1.164213781674326154e-01,-9.070037601416264250e-02,-6.362563690545736117e-02,-3.790463475218736750e-02,-1.218363259891736688e-02,0.000000000000000000e+00,0.000000000000000000e+00,0.000000000000000000e+00,0.000000000000000000e+00,0.000000000000000000e+00,0.000000000000000000e+00,0.000000000000000000e+00,0.000000000000000000e+00,0.000000000000000000e+00,0.000000000000000000e+00,0.000000000000000000e+00,0.000000000000000000e+00,0.000000000000000000e+00,0.000000000000000000e+00,0.000000000000000000e+00,0.000000000000000000e+00,0.000000000000000000e+00,0.000000000000000000e+00,0.000000000000000000e+00,0.000000000000000000e+00,0.000000000000000000e+00,0.000000000000000000e+00,0.000000000000000000e+00,0.000000000000000000e+00,0.000000000000000000e+00,0.000000000000000000e+00,0.000000000000000000e+00,0.000000000000000000e+00,0.000000000000000000e+00
0.000000000000000000e+00,0.000000000000000000e+00,0.000000000000000000e+00,0.000000000000000000e+00,0.000000000000000000e+00,0.000000000000000000e+00,0.000000000000000000e+00,0.000000000000000000e+00,-1.195518948768766743e-01,-1.868156998500662969e-01,-1.597409607413610433e-01,-1.340199585880910704e-01,-1.082989564348210559e-01,-8.122421732611578848e-02,-5.550321517284578787e-02,-2.978221301957578726e-02,-2.707473910870526312e-03,0.000000000000000000e+00,0.000000000000000000e+00,0.000000000000000000e+00,0.000000000000000000e+00,0.000000000000000000e+00,0.000000000000000000e+00,0.000000000000000000e+00,0.000000000000000000e+00,0.000000000000000000e+00,0.000000000000000000e+00,0.000000000000000000e+00,0.000000000000000000e+00,0.000000000000000000e+00,0.000000000000000000e+00,0.000000000000000000e+00,0.000000000000000000e+00,0.000000000000000000e+00,0.000000000000000000e+00,0.000000000000000000e+00,0.000000000000000000e+00,0.000000000000000000e+00,0.000000000000000000e+00,0.000000000000000000e+00,0.000000000000000000e+00,0.000000000000000000e+00,0.000000000000000000e+00,0.000000000000000000e+00,0.000000000000000000e+00,0.000000000000000000e+00,0.000000000000000000e+00
0.000000000000000000e+00,0.000000000000000000e+00,0.000000000000000000e+00,0.000000000000000000e+00,0.000000000000000000e+00,0.000000000000000000e+00,0.000000000000000000e+00,0.000000000000000000e+00,0.000000000000000000e+00,-1.184519836005855364e-01,-1.258975368554794694e-01,-9.882279774677421580e-02,-7.310179559350421519e-02,-4.738079344023421458e-02,-2.030605433152894712e-02,0.000000000000000000e+00,0.000000000000000000e+00,0.000000000000000000e+00,0.000000000000000000e+00,0.000000000000000000e+00,0.000000000000000000e+00,0.000000000000000000e+00,0.000000000000000000e+00,0.000000000000000000e+00,0.000000000000000000e+00,0.000000000000000000e+00,0.000000000000000000e+00,0.000000000000000000e+00,0.000000000000000000e+00,0.000000000000000000e+00,0.000000000000000000e+00,0.000000000000000000e+00,0.000000000000000000e+00,0.000000000000000000e+00,0.000000000000000000e+00,0.000000000000000000e+00,0.000000000000000000e+00,0.000000000000000000e+00,0.000000000000000000e+00,0.000000000000000000e+00,0.000000000000000000e+00,0.000000000000000000e+00,0.000000000000000000e+00,0.000000000000000000e+00,0.000000000000000000e+00,0.000000000000000000e+00,0.000000000000000000e+00
0.000000000000000000e+00,0.000000000000000000e+00,0.000000000000000000e+00,0.000000000000000000e+00,0.000000000000000000e+00,0.000000000000000000e+00,0.000000000000000000e+00,0.000000000000000000e+00,0.000000000000000000e+00,-1.840236173794810789e-02,-8.786598926372005125e-02,-6.497937386089262801e-02,-3.925837170762262740e-02,-1.218363259891736688e-02,0.000000000000000000e+00,0.000000000000000000e+00,0.000000000000000000e+00,0.000000000000000000e+00,0.000000000000000000e+00,0.000000000000000000e+00,0.000000000000000000e+00,0.000000000000000000e+00,0.000000000000000000e+00,0.000000000000000000e+00,0.000000000000000000e+00,0.000000000000000000e+00,0.000000000000000000e+00,0.000000000000000000e+00,0.000000000000000000e+00,0.000000000000000000e+00,0.000000000000000000e+00,0.000000000000000000e+00,0.000000000000000000e+00,0.000000000000000000e+00,0.000000000000000000e+00,0.000000000000000000e+00,0.000000000000000000e+00,0.000000000000000000e+00,0.000000000000000000e+00,0.000000000000000000e+00,0.000000000000000000e+00,0.000000000000000000e+00,0.000000000000000000e+00,0.000000000000000000e+00,0.000000000000000000e+00,0.000000000000000000e+00,0.000000000000000000e+00
0.000000000000000000e+00,0.000000000000000000e+00,0.000000000000000000e+00,0.000000000000000000e+00,0.000000000000000000e+00,0.000000000000000000e+00,0.000000000000000000e+00,0.000000000000000000e+00,0.000000000000000000e+00,0.000000000000000000e+00,-1.954457729409660866e-02,-2.978221301957578726e-02,-4.061210866305789251e-03,0.000000000000000000e+00,0.000000000000000000e+00,0.000000000000000000e+00,0.000000000000000000e+00,0.000000000000000000e+00,0.000000000000000000e+00,0.000000000000000000e+00,0.000000000000000000e+00,0.000000000000000000e+00,0.000000000000000000e+00,0.000000000000000000e+00,0.000000000000000000e+00,0.000000000000000000e+00,0.000000000000000000e+00,0.000000000000000000e+00,0.000000000000000000e+00,0.000000000000000000e+00,0.000000000000000000e+00,0.000000000000000000e+00,0.000000000000000000e+00,0.000000000000000000e+00,0.000000000000000000e+00,0.000000000000000000e+00,0.000000000000000000e+00,0.000000000000000000e+00,0.000000000000000000e+00,0.000000000000000000e+00,0.000000000000000000e+00,0.000000000000000000e+00,0.000000000000000000e+00,0.000000000000000000e+00,0.000000000000000000e+00,0.000000000000000000e+00,0.000000000000000000e+00
0.000000000000000000e+00,0.000000000000000000e+00,0.000000000000000000e+00,0.000000000000000000e+00,0.000000000000000000e+00,0.000000000000000000e+00,0.000000000000000000e+00,0.000000000000000000e+00,0.000000000000000000e+00,0.000000000000000000e+00,0.000000000000000000e+00,0.000000000000000000e+00,0.000000000000000000e+00,0.000000000000000000e+00,0.000000000000000000e+00,0.000000000000000000e+00,0.000000000000000000e+00,0.000000000000000000e+00,0.000000000000000000e+00,0.000000000000000000e+00,0.000000000000000000e+00,0.000000000000000000e+00,0.000000000000000000e+00,0.000000000000000000e+00,0.000000000000000000e+00,0.000000000000000000e+00,0.000000000000000000e+00,0.000000000000000000e+00,0.000000000000000000e+00,0.000000000000000000e+00,0.000000000000000000e+00,0.000000000000000000e+00,0.000000000000000000e+00,0.000000000000000000e+00,0.000000000000000000e+00,0.000000000000000000e+00,0.000000000000000000e+00,0.000000000000000000e+00,0.000000000000000000e+00,0.000000000000000000e+00,0.000000000000000000e+00,0.000000000000000000e+00,0.000000000000000000e+00,0.000000000000000000e+00,0.000000000000000000e+00,0.000000000000000000e+00,0.000000000000000000e+00
