-1.468036776561978118e-01,-1.468036776561978118e-01,-1.468036776561978118e-01,-1.468036776561978118e-01,-1.468036776561978118e-01,-1.468036776561978118e-01,-1.468036776561978118e-01,-1.468036776561978118e-01,-1.468036776561978118e-01,-1.468036776561978118e-01,-1.468036776561978118e-01,-1.468036776561978118e-01,-1.468036776561978118e-01,-1.468036776561978118e-01,-1.468036776561978118e-01,-1.468036776561978118e-01,-1.468036776561978118e-01,-1.468036776561978118e-01,-1.468036776561978118e-01,-1.468036776561978118e-01,-1.468036776561978118e-01,-1.468036776561978118e-01,-1.468036776561978118e-01,-1.468036776561978118e-01,-1.468036776561978118e-01,-1.468036776561978118e-01,-1.468036776561978118e-01,-1.468036776561978118e-01,-1.468036776561978118e-01,-1.468036776561978118e-01,-1.468036776561978118e-01,-1.468036776561978118e-01,-1.468036776561978118e-01,-1.468036776561978118e-01,-1.468036776561978118e-01,-1.468036776561978118e-01,-1.440511087001440926e-01,-1.406103975050769783e-01,-1.446962420492191870e-01,-1.468036776561978118e-01,-1.468036776561978118e-01,-1.468036776561978118e-01,-1.468036776561978118e-01,-1.468036776561978118e-01,-1.468036776561978118e-01,-1.468036776561978118e-01,-1.468036776561978118e-01
-1.468036776561978118e-01,-1.468036776561978118e-01,-1.468036776561978118e-01,-1.468036776561978118e-01,-1.468036776561978118e-01,-1.468036776561978118e-01,-1.468036776561978118e-01,-1.468036776561978118e-01,-1.468036776561978118e-01,-1.468036776561978118e-01,-1.468036776561978118e-01,-1.468036776561978118e-01,-1.468036776561978118e-01,-1.468036776561978118e-01,-1.468036776561978118e-01,-1.468036776561978118e-01,-1.468036776561978118e-01,-1.468036776561978118e-01,-1.468036776561978118e-01,-1.468036776561978118e-01,-1.468036776561978118e-01,-1.468036776561978118e-01,-1.468036776561978118e-01,-1.468036776561978118e-01,-1.468036776561978118e-01,-1.468036776561978118e-01,-1.468036776561978118e-01,-1.468036776561978118e-01,-1.468036776561978118e-01,-1.468036776561978118e-01,-1.468036776561978118e-01,-1.468036776561978118e-01,-1.468036776561978118e-01,-1.468036776561978118e-01,-1.440511087001440926e-01,-1.406103975050769783e-01,-1.373990670563476346e-01,-1.339583558612804925e-01,-1.362664996213047153e-01,-1.468036776561978118e-01,-1.468036776561978118e-01,-1.468036776561978118e-01,-1.468036776561978118e-01,-1.468036776561978118e-01,-1.468036776561978118e-01,-1.468036776561978118e-01,-1.468036776561978118e-01
-1.468036776561978118e-01,-1.468036776561978118e-01,-1.468036776561978118e-01,-1.468036776561978118e-01,-1.468036776561978118e-01,-1.468036776561978118e-01,-1.468036776561978118e-01,-1.468036776561978118e-01,-1.468036776561978118e-01,-1.468036776561978118e-01,-1.468036776561978118e-01,-1.468036776561978118e-01,-1.468036776561978118e-01,-1.468036776561978118e-01,-1.468036776561978118e-01,-1.468036776561978118e-01,-1.468036776561978118e-01,-1.468036776561978118e-01,-1.468036776561978118e-01,-1.468036776561978118e-01,-1.468036776561978118e-01,-1.468036776561978118e-01,-1.468036776561978118e-01,-1.468036776561978118e-01,-1.468036776561978118e-01,-1.468036776561978118e-01,-1.468036776561978118e-01,-1.468036776561978118e-01,-1.468036776561978118e-01,-1.468036776561978118e-01,-1.468036776561978118e-01,-1.468036776561978118e-01,-1.440511087001440926e-01,-1.408397782514147767e-01,-1.373990670563476346e-01,-1.341877366076183187e-01,-1.307470254125511766e-01,-1.275356949638218607e-01,-1.240949837687547186e-01,-1.411336723326600817e-01,-1.468036776561978118e-01,-1.468036776561978118e-01,-1.468036776561978118e-01,-1.468036776561978118e-01,-1.468036776561978118e-01,-1.468036776561978118e-01,-1.468036776561978118e-01
-1.468036776561978118e-01,-1.468036776561978118e-01,-1.809291267827621286e-01,-1.809291267827621286e-01,-1.809291267827621286e-01,-1.468036776561978118e-01,-1.468036776561978118e-01,-1.468036776561978118e-01,-1.468036776561978118e-01,-1.468036776561978118e-01,-1.468036776561978118e-01,-1.468036776561978118e-01,-1.468036776561978118e-01,-1.468036776561978118e-01,-1.468036776561978118e-01,-1.468036776561978118e-01,-1.468036776561978118e-01,-1.468036776561978118e-01,-1.468036776561978118e-01,-1.468036776561978118e-01,-1.468036776561978118e-01,-1.468036776561978118e-01,-1.468036776561978118e-01,-1.468036776561978118e-01,-1.468036776561978118e-01,-1.468036776561978118e-01,-1.468036776561978118e-01,-1.468036776561978118e-01,-1.468036776561978118e-01,-1.468036776561978118e-01,-1.442804894464819188e-01,-1.408397782514147767e-01,-1.376284478026854607e-01,-1.341877366076183187e-01,-1.309764061588890027e-01,-1.275356949638218607e-01,-1.243243645150925308e-01,-1.208836533200253888e-01,-1.176723228712960589e-01,-1.244103822949692018e-01,-1.468036776561978118e-01,-1.468036776561978118e-01,-1.468036776561978118e-01,-1.468036776561978118e-01,-1.468036776561978118e-01,-1.468036776561978118e-01,-1.468036776561978118e-01
-1.468036776561978118e-01,-1.468036776561978118e-01,-1.809291267827621286e-01,-1.809291267827621286e-01,-1.809291267827621286e-01,-1.468036776561978118e-01,-1.468036776561978118e-01,-1.468036776561978118e-01,-1.468036776561978118e-01,-1.468036776561978118e-01,-1.468036776561978118e-01,-1.468036776561978118e-01,-1.468036776561978118e-01,-1.468036776561978118e-01,-1.468036776561978118e-01,-1.468036776561978118e-01,-1.468036776561978118e-01,-1.468036776561978118e-01,-1.468036776561978118e-01,-1.468036776561978118e-01,-1.468036776561978118e-01,-1.468036776561978118e-01,-1.468036776561978118e-01,-1.468036776561978118e-01,-1.468036776561978118e-01,-1.468036776561978118e-01,-1.468036776561978118e-01,-1.468036776561978118e-01,-1.442804894464819188e-01,-1.410691589977525751e-01,-1.376284478026854607e-01,-1.344171173539561170e-01,-1.309764061588890027e-01,-1.277650757101596590e-01,-1.243243645150925308e-01,-1.211130340663632010e-01,-1.176723228712960589e-01,-1.144609924225667430e-01,-1.110202812274996009e-01,-1.078089507787702850e-01,-1.361948181380741585e-01,-1.468036776561978118e-01,-1.468036776561978118e-01,-1.468036776561978118e-01,-1.468036776561978118e-01,-1.468036776561978118e-01,-1.468036776561978118e-01
-1.468036776561978118e-01,-1.468036776561978118e-01,-1.809291267827621286e-01,-1.809291267827621286e-01,-1.809291267827621286e-01,-1.468036776561978118e-01,-1.468036776561978118e-01,-1.468036776561978118e-01,-1.468036776561978118e-01,-1.468036776561978118e-01,-1.468036776561978118e-01,-1.468036776561978118e-01,-1.468036776561978118e-01,-1.468036776561978118e-01,-1.468036776561978118e-01,-1.468036776561978118e-01,-1.468036776561978118e-01,-1.468036776561978118e-01,-1.468036776561978118e-01,-1.468036776561978118e-01,-1.468036776561978118e-01,-1.468036776561978118e-01,-1.468036776561978118e-01,-1.468036776561978118e-01,-1.468036776561978118e-01,-1.468036776561978118e-01,-1.445098701928197171e-01,-1.410691589977525751e-01,-1.378578285490232591e-01,-1.344171173539561170e-01,-1.312057869052268011e-01,-1.277650757101596590e-01,-1.245537452614303431e-01,-1.211130340663632010e-01,-1.179017036176338712e-01,-1.144609924225667430e-01,-1.112496619738373993e-01,-1.078089507787702850e-01,-1.045976203300409413e-01,-1.011569091349738131e-01,-1.132137346143549106e-01,-1.468036776561978118e-01,-1.468036776561978118e-01,-1.468036776561978118e-01,-1.468036776561978118e-01,-1.468036776561978118e-01,-1.468036776561978118e-01
-1.468036776561978118e-01,-1.468036776561978118e-01,-1.468036776561978118e-01,-1.468036776561978118e-01,-1.468036776561978118e-01,-1.468036776561978118e-01,-1.468036776561978118e-01,-1.468036776561978118e-01,-1.468036776561978118e-01,-1.468036776561978118e-01,-1.468036776561978118e-01,-1.468036776561978118e-01,-1.468036776561978118e-01,-1.468036776561978118e-01,-1.468036776561978118e-01,-1.468036776561978118e-01,-1.468036776561978118e-01,-1.468036776561978118e-01,-1.468036776561978118e-01,-1.468036776561978118e-01,-1.468036776561978118e-01,-1.468036776561978118e-01,-1.468036776561978118e-01,-1.468036776561978118e-01,-1.445098701928197171e-01,-1.412985397440904012e-01,-1.378578285490232591e-01,-1.346464981002939432e-01,-1.312057869052268011e-01,-1.279944564564974852e-01,-1.245537452614303431e-01,-1.213424148127009994e-01,-1.179017036176338712e-01,-1.146903731689045414e-01,-1.112496619738374132e-01,-1.080383315251080834e-01,-1.045976203300409552e-01,-1.013862898813116253e-01,-9.794557868624449715e-02,-9.473424823751516732e-02,-9.129353704244802525e-02,-1.321233098905780223e-01,-1.468036776561978118e-01,-1.468036776561978118e-01,-1.468036776561978118e-01,-1.468036776561978118e-01,-1.468036776561978118e-01
-1.468036776561978118e-01,-1.468036776561978118e-01,-1.468036776561978118e-01,-1.468036776561978118e-01,-1.468036776561978118e-01,-1.468036776561978118e-01,-1.468036776561978118e-01,-1.468036776561978118e-01,-1.468036776561978118e-01,-1.468036776561978118e-01,-1.468036776561978118e-01,-1.468036776561978118e-01,-1.468036776561978118e-01,-1.468036776561978118e-01,-1.468036776561978118e-01,-1.468036776561978118e-01,-1.468036776561978118e-01,-1.468036776561978118e-01,-1.468036776561978118e-01,-1.468036776561978118e-01,-1.468036776561978118e-01,-1.468036776561978118e-01,-1.447392509391575433e-01,-1.412985397440904012e-01,-1.380872092953610575e-01,-1.346464981002939432e-01,-1.314351676515645995e-01,-1.279944564564974852e-01,-1.247831260077681415e-01,-1.213424148127010133e-01,-1.181310843639716834e-01,-1.146903731689045414e-01,-1.114790427201752254e-01,-1.080383315251080834e-01,-1.048270010763787674e-01,-1.013862898813116253e-01,-9.817495943258230939e-02,-9.473424823751516732e-02,-9.152291778878582362e-02,-8.808220659371869543e-02,-8.487087614498936561e-02,-9.981646539856223188e-02,-1.468036776561978118e-01,-1.468036776561978118e-01,-1.468036776561978118e-01,-1.468036776561978118e-01,-1.468036776561978118e-01
-1.468036776561978118e-01,-1.468036776561978118e-01,-1.468036776561978118e-01,-1.468036776561978118e-01,-1.468036776561978118e-01,-1.468036776561978118e-01,-1.468036776561978118e-01,-1.468036776561978118e-01,-1.468036776561978118e-01,-1.468036776561978118e-01,-1.468036776561978118e-01,-1.468036776561978118e-01,-1.468036776561978118e-01,-1.468036776561978118e-01,-1.468036776561978118e-01,-1.468036776561978118e-01,-1.468036776561978118e-01,-1.468036776561978118e-01,-1.468036776561978118e-01,-1.468036776561978118e-01,-1.447392509391575433e-01,-1.415279204904281996e-01,-1.380872092953610575e-01,-1.348758788466317415e-01,-1.314351676515645995e-01,-1.282238372028352835e-01,-1.247831260077681415e-01,-1.215717955590388255e-01,-1.181310843639716834e-01,-1.149197539152423536e-01,-1.114790427201752254e-01,-1.082677122714458817e-01,-1.048270010763787674e-01,-1.016156706276494237e-01,-9.817495943258229552e-02,-9.496362898385297957e-02,-9.152291778878583750e-02,-8.831158734005650768e-02,-8.487087614498936561e-02,-8.165954569626003579e-02,-7.821883450119290759e-02,-7.500750405246357777e-02,-1.279944564564974852e-01,-1.468036776561978118e-01,-1.468036776561978118e-01,-1.468036776561978118e-01,-1.468036776561978118e-01
-1.468036776561978118e-01,-1.468036776561978118e-01,-1.468036776561978118e-01,-1.468036776561978118e-01,-1.468036776561978118e-01,-1.468036776561978118e-01,-1.468036776561978118e-01,-1.468036776561978118e-01,-1.468036776561978118e-01,-1.468036776561978118e-01,-1.468036776561978118e-01,-1.468036776561978118e-01,-1.468036776561978118e-01,-1.468036776561978118e-01,-1.468036776561978118e-01,-1.468036776561978118e-01,-1.468036776561978118e-01,-1.468036776561978118e-01,-1.449686316854953416e-01,-1.415279204904281996e-01,-1.383165900416988836e-01,-1.348758788466317415e-01,-1.316645483979024256e-01,-1.282238372028352835e-01,-1.250125067541059398e-01,-1.215717955590388255e-01,-1.183604651103094818e-01,-1.149197539152423536e-01,-1.117084234665130238e-01,-1.082677122714458817e-01,-1.050563818227165658e-01,-1.016156706276494237e-01,-9.840434017892010776e-02,-9.496362898385296569e-02,-9.175229853512364975e-02,-8.831158734005650768e-02,-8.510025689132716398e-02,-8.165954569626003579e-02,-7.844821524753070596e-02,-7.500750405246359165e-02,-7.179617360373426183e-02,-6.835546240866713363e-02,-8.811087918701093757e-02,-1.468036776561978118e-01,-1.468036776561978118e-01,-1.468036776561978118e-01,-1.468036776561978118e-01
-1.468036776561978118e-01,-1.468036776561978118e-01,-1.468036776561978118e-01,-1.468036776561978118e-01,-1.468036776561978118e-01,-1.468036776561978118e-01,-1.468036776561978118e-01,-1.468036776561978118e-01,-1.468036776561978118e-01,-1.468036776561978118e-01,-1.468036776561978118e-01,-1.468036776561978118e-01,-1.468036776561978118e-01,-1.468036776561978118e-01,-1.468036776561978118e-01,-1.468036776561978118e-01,-1.449686316854953416e-01,-1.417573012367660257e-01,-1.383165900416988836e-01,-1.351052595929695399e-01,-1.316645483979024256e-01,-1.284532179491730819e-01,-1.250125067541059676e-01,-1.218011763053766239e-01,-1.183604651103094957e-01,-1.151491346615801659e-01,-1.117084234665130238e-01,-1.084970930177837078e-01,-1.050563818227165658e-01,-1.018450513739872498e-01,-9.840434017892010776e-02,-9.519300973019077794e-02,-9.175229853512364975e-02,-8.854096808639430605e-02,-8.510025689132716398e-02,-8.188892644259784803e-02,-7.844821524753070596e-02,-7.523688479880137614e-02,-7.179617360373426183e-02,-6.858484315500493200e-02,-6.514413195993780381e-02,-6.193280151120847399e-02,-5.849209031614133192e-02,-1.210628570281017946e-01,-1.468036776561978118e-01,-1.468036776561978118e-01,-1.468036776561978118e-01
-1.468036776561978118e-01,-1.468036776561978118e-01,-1.468036776561978118e-01,-1.468036776561978118e-01,-1.468036776561978118e-01,-1.468036776561978118e-01,-1.468036776561978118e-01,-1.468036776561978118e-01,-1.468036776561978118e-01,-1.468036776561978118e-01,-1.468036776561978118e-01,-1.468036776561978118e-01,-1.468036776561978118e-01,-1.468036776561978118e-01,-1.451980124318331400e-01,-1.417573012367660257e-01,-1.385459707880366820e-01,-1.351052595929695399e-01,-1.318939291442402240e-01,-1.284532179491730819e-01,-1.252418875004437659e-01,-1.218011763053766239e-01,-1.185898458566473079e-01,-1.151491346615801659e-01,-1.119378042128508360e-01,-1.084970930177837078e-01,-1.052857625690543780e-01,-1.018450513739872498e-01,-9.863372092525790613e-02,-9.519300973019079182e-02,-9.198167928146144812e-02,-8.854096808639430605e-02,-8.532963763766499010e-02,-8.188892644259784803e-02,-7.867759599386853209e-02,-7.523688479880139002e-02,-7.202555435007207407e-02,-6.858484315500493200e-02,-6.537351270627561606e-02,-6.193280151120846011e-02,-5.872147106247914417e-02,-5.528075986741201597e-02,-5.206942941868268615e-02,-7.624042556402930992e-02,-1.468036776561978118e-01,-1.468036776561978118e-01,-1.468036776561978118e-01
-1.468036776561978118e-01,-1.468036776561978118e-01,-1.468036776561978118e-01,-1.468036776561978118e-01,-1.468036776561978118e-01,-1.468036776561978118e-01,-1.468036776561978118e-01,-1.468036776561978118e-01,-1.468036776561978118e-01,-1.468036776561978118e-01,-1.468036776561978118e-01,-1.468036776561978118e-01,-1.451980124318331400e-01,-1.419866819831038240e-01,-1.385459707880366820e-01,-1.353346403393073660e-01,-1.318939291442402240e-01,-1.286825986955109080e-01,-1.252418875004437659e-01,-1.220305570517144361e-01,-1.185898458566472941e-01,-1.153785154079179642e-01,-1.119378042128508360e-01,-1.087264737641215062e-01,-1.052857625690543780e-01,-1.020744321203250482e-01,-9.863372092525792001e-02,-9.542239047652859019e-02,-9.198167928146144812e-02,-8.877034883273213217e-02,-8.532963763766499010e-02,-8.211830718893566028e-02,-3.274456712820326132e-01,-3.242343408333033805e-01,-3.207936296382362107e-01,-3.175822991895068670e-01,-3.141415879944397527e-01,-6.216218225754627236e-02,-5.872147106247914417e-02,-5.551014061374981434e-02,-5.206942941868268615e-02,-4.885809896995335633e-02,-4.541738777488621426e-02,-4.220605732615689831e-02,-1.164178969147611764e-01,-1.468036776561978118e-01,-1.468036776561978118e-01
-1.468036776561978118e-01,-1.468036776561978118e-01,-1.468036776561978118e-01,-1.468036776561978118e-01,-1.468036776561978118e-01,-1.468036776561978118e-01,-1.468036776561978118e-01,-1.468036776561978118e-01,-1.468036776561978118e-01,-1.468036776561978118e-01,-1.454273931781709661e-01,-1.419866819831038240e-01,-1.387753515343744803e-01,-1.353346403393073660e-01,-1.321233098905780223e-01,-1.286825986955109080e-01,-1.254712682467815643e-01,-1.220305570517144361e-01,-1.188192266029851063e-01,-1.153785154079179642e-01,-1.121671849591886483e-01,-1.087264737641215062e-01,-1.055151433153921903e-01,-1.020744321203250482e-01,-9.886310167159573226e-02,-9.542239047652859019e-02,-9.221106002779926036e-02,-8.877034883273211829e-02,-8.555901838400278847e-02,-8.211830718893564640e-02,-7.890697674020633046e-02,-7.546626554513920226e-02,-3.210230103845740368e-01,-3.175822991895068670e-01,-3.143709687407775233e-01,-3.109302575457104645e-01,-3.077189270969811208e-01,-5.551014061374981434e-02,-5.229881016502049840e-02,-4.885809896995335633e-02,-4.564676852122402650e-02,-4.220605732615688443e-02,-3.899472687742756849e-02,-3.555401568236041254e-02,-6.095793333927276847e-02,-1.468036776561978118e-01,-1.468036776561978118e-01
-1.468036776561978118e-01,-1.468036776561978118e-01,-1.468036776561978118e-01,-1.468036776561978118e-01,-1.468036776561978118e-01,-1.468036776561978118e-01,-1.468036776561978118e-01,-1.468036776561978118e-01,-1.454273931781709661e-01,-1.422160627294416224e-01,-1.387753515343745081e-01,-1.355640210856451644e-01,-1.321233098905780223e-01,-1.289119794418487064e-01,-1.254712682467815643e-01,-1.222599377980522484e-01,-1.188192266029851063e-01,-1.156078961542557904e-01,-1.121671849591886483e-01,-1.089558545104593185e-01,-1.055151433153921903e-01,-1.023038128666628604e-01,-9.886310167159573226e-02,-9.565177122286638856e-02,-9.221106002779926036e-02,-8.899972957906993054e-02,-8.555901838400278847e-02,-8.234768793527347253e-02,-7.890697674020633046e-02,-7.569564629147701451e-02,-7.225493509640987244e-02,-6.904360464768055650e-02,-3.143709687407775233e-01,-3.111596382920482351e-01,-3.077189270969811208e-01,-3.045075966482517771e-01,-3.010668854531846073e-01,-4.908747971629115470e-02,-4.564676852122402650e-02,-4.243543807249469668e-02,-3.899472687742756849e-02,-3.578339642869822479e-02,-3.234268523363109660e-02,-2.913135478490176677e-02,-2.569064358983463858e-02,-1.079523137452314124e-01,-1.468036776561978118e-01
-1.468036776561978118e-01,-1.468036776561978118e-01,-1.468036776561978118e-01,-1.468036776561978118e-01,-1.468036776561978118e-01,-1.468036776561978118e-01,-1.456567739245087645e-01,-1.422160627294416224e-01,-1.390047322807123065e-01,-1.355640210856451644e-01,-1.323526906369158485e-01,-1.289119794418487064e-01,-1.257006489931193904e-01,-1.222599377980522484e-01,-1.190486073493229185e-01,-1.156078961542557765e-01,-1.123965657055264605e-01,-1.089558545104593185e-01,-1.057445240617299886e-01,-1.023038128666628604e-01,-9.909248241793353063e-02,-9.565177122286638856e-02,-9.244044077413707261e-02,-8.899972957906993054e-02,-8.578839913034060072e-02,-8.234768793527345865e-02,-7.913635748654414270e-02,-7.569564629147701451e-02,-7.248431584274768469e-02,-6.904360464768055650e-02,-6.583227419895124055e-02,-6.239156300388408460e-02,-3.079483078433189469e-01,-3.045075966482517771e-01,-3.012962661995224334e-01,-2.978555550044552636e-01,-2.946442245557259754e-01,-4.243543807249469668e-02,-3.922410762376536686e-02,-3.578339642869823867e-02,-5.930298339059361656e-02,-5.586227219552650225e-02,-5.265094174679715855e-02,-2.247931314110530876e-02,-1.926798269237597894e-02,-4.857137303703107367e-02,-1.468036776561978118e-01
-1.468036776561978118e-01,-1.468036776561978118e-01,-1.468036776561978118e-01,-1.468036776561978118e-01,-1.456567739245087645e-01,-1.424454434757794485e-01,-1.390047322807123065e-01,-1.357934018319829905e-01,-1.323526906369158485e-01,-1.291413601881865048e-01,-1.257006489931193904e-01,-1.224893185443900606e-01,-1.190486073493229185e-01,-1.158372769005935887e-01,-1.123965657055264605e-01,-1.091852352567971307e-01,-1.057445240617299886e-01,-1.025331936130006727e-01,-9.909248241793353063e-02,-9.588115196920421468e-02,-9.244044077413707261e-02,-8.922911032540774279e-02,-8.578839913034060072e-02,-8.257706868161127090e-02,-7.913635748654414270e-02,-7.592502703781481288e-02,-7.248431584274768469e-02,-6.927298539401835487e-02,-6.583227419895124055e-02,-6.262094375022189685e-02,-5.918023255515476866e-02,-5.596890210642543884e-02,-3.012962661995224334e-01,-2.980849357507930897e-01,-2.946442245557259754e-01,-2.914328941069966317e-01,-2.879921829119295174e-01,-3.601277717503603704e-02,-3.257206597996889497e-02,-2.936073553123957902e-02,-5.265094174679715855e-02,-4.943961129806784260e-02,-4.599890010300070053e-02,-1.605665224364663524e-02,-1.261594104857949317e-02,-9.404610599850177222e-03,-1.027912469526306993e-01
-1.468036776561978118e-01,-1.468036776561978118e-01,-1.458861546708465629e-01,-1.424454434757794485e-01,-1.392341130270501048e-01,-1.357934018319829628e-01,-1.325820713832536468e-01,-1.291413601881865048e-01,-1.259300297394571888e-01,-1.224893185443900467e-01,-1.192779880956607308e-01,-1.158372769005935887e-01,-1.126259464518642728e-01,-1.091852352567971307e-01,-1.059739048080678009e-01,-1.025331936130006727e-01,-9.932186316427134287e-02,-9.588115196920421468e-02,-9.266982152047487098e-02,-8.922911032540774279e-02,-8.601777987667841296e-02,-8.257706868161127090e-02,-7.936573823288194107e-02,-7.592502703781482676e-02,-7.271369658908549694e-02,-6.927298539401835487e-02,-6.606165494528903892e-02,-6.262094375022189685e-02,-5.940961330149256703e-02,-5.596890210642543884e-02,-5.275757165769610901e-02,-4.931686046262896694e-02,-4.610553001389965100e-02,-4.266481881883250893e-02,-3.945348837010317911e-02,-3.601277717503603704e-02,-3.280144672630670721e-02,-2.936073553123957902e-02,-2.614940508251024920e-02,-2.270869388744312101e-02,-4.622828084933852666e-02,-4.278756965427135683e-02,-3.957623920554204089e-02,-9.404610599850204977e-03,-6.193280151120861277e-03,-2.752568956053719207e-03,-3.211330448729329823e-02
-1.458861546708465629e-01,-1.426748242221172469e-01,-1.392341130270501048e-01,-1.360227825783207889e-01,-1.325820713832536468e-01,-1.293707409345243309e-01,-1.259300297394571888e-01,-1.227186992907278590e-01,-1.192779880956607308e-01,-1.160666576469314010e-01,-1.126259464518642728e-01,-1.094146160031349430e-01,-1.059739048080678009e-01,-1.027625743593384711e-01,-9.932186316427134287e-02,-9.611053271554201305e-02,-9.266982152047488486e-02,-8.945849107174555503e-02,-8.601777987667841296e-02,-8.280644942794908314e-02,-7.936573823288195495e-02,-7.615440778415261125e-02,-7.271369658908549694e-02,-6.950236614035616711e-02,-6.606165494528903892e-02,-6.285032449655970910e-02,-5.940961330149258091e-02,-5.619828285276323721e-02,-5.275757165769610901e-02,-4.954624120896677919e-02,-4.610553001389965100e-02,-4.289419956517032118e-02,-3.945348837010317911e-02,-3.624215792137383541e-02,-3.280144672630672109e-02,-2.959011627757737739e-02,-2.614940508251024920e-02,-2.293807463378093325e-02,-1.949736343871380506e-02,-1.628603298998446136e-02,-1.284532179491731929e-02,-9.633991346188003346e-03,-6.193280151120861277e-03,-2.981949702391545332e-03,-2.775557561562891351e-17,-5.551115123125782702e-17,-5.551115123125782702e-17
-1.394634937733879310e-01,-1.360227825783207889e-01,-1.328114521295914452e-01,-1.293707409345243309e-01,-1.261594104857949872e-01,-1.227186992907278590e-01,-1.195073688419985292e-01,-1.160666576469314010e-01,-1.128553271982020711e-01,-1.094146160031349430e-01,-1.062032855544056131e-01,-1.027625743593384711e-01,-9.955124391060915512e-02,-9.611053271554201305e-02,-9.289920226681268323e-02,-8.945849107174555503e-02,-8.624716062301622521e-02,-8.280644942794908314e-02,-7.959511897921975332e-02,-7.615440778415261125e-02,-7.294307733542329530e-02,-6.950236614035618099e-02,-6.629103569162685117e-02,-6.285032449655972298e-02,-5.963899404783037927e-02,-5.619828285276323721e-02,-5.298695240403392126e-02,-4.954624120896677919e-02,-4.633491076023746325e-02,-4.289419956517032118e-02,-3.968286911644097747e-02,-3.624215792137384928e-02,-3.303082747264451946e-02,-2.959011627757739127e-02,-2.637878582884806145e-02,-2.293807463378091938e-02,-1.972674418505160343e-02,-1.628603298998446136e-02,-1.307470254125511766e-02,-9.633991346188003346e-03,-6.422660897458659646e-03,-2.981949702391545332e-03,-2.775557561562891351e-17,-2.775557561562891351e-17,-2.775557561562891351e-17,-2.775557561562891351e-17,-2.775557561562891351e-17
-1.328114521295914729e-01,-1.296001216808621292e-01,-1.261594104857949872e-01,-1.229480800370656712e-01,-1.195073688419985292e-01,-1.162960383932692132e-01,-1.128553271982020711e-01,-1.096439967494727552e-01,-1.062032855544056131e-01,-1.029919551056762972e-01,-9.955124391060915512e-02,-9.633991346187982530e-02,-9.289920226681268323e-02,-8.968787181808335340e-02,-8.624716062301622521e-02,-8.303583017428688151e-02,-7.959511897921975332e-02,-7.638378853049043737e-02,-7.294307733542330918e-02,-6.973174688669397936e-02,-6.629103569162683729e-02,-6.307970524289752134e-02,-5.963899404783037927e-02,-5.642766359910104945e-02,-5.298695240403392126e-02,-4.977562195530459144e-02,-4.633491076023746325e-02,-4.312358031150813342e-02,-3.968286911644097747e-02,-3.647153866771164765e-02,-3.303082747264451946e-02,-2.981949702391518964e-02,-2.637878582884806145e-02,-2.316745538011875938e-02,-1.972674418505160343e-02,-1.651541373632225973e-02,-1.307470254125511766e-02,-9.863372092525829471e-03,-6.422660897458659646e-03,-3.211330448729343701e-03,-2.775557561562891351e-17,-2.775557561562891351e-17,-5.551115123125782702e-17,-2.775557561562891351e-17,-2.775557561562891351e-17,-2.775557561562891351e-17,-2.775557561562891351e-17
-1.263887912321328133e-01,-1.229480800370656712e-01,-1.197367495883363414e-01,-1.162960383932692132e-01,-1.130847079445398834e-01,-1.096439967494727552e-01,-1.064326663007434115e-01,-1.029919551056762833e-01,-9.978062465694695349e-02,-9.633991346187982530e-02,-9.312858301315049547e-02,-8.968787181808335340e-02,-8.647654136935403746e-02,-8.303583017428689539e-02,-7.982449972555756557e-02,-7.638378853049043737e-02,-7.317245808176110755e-02,-6.973174688669397936e-02,-6.652041643796466341e-02,-6.307970524289752134e-02,-5.986837479416817764e-02,-5.642766359910104945e-02,-5.321633315037171963e-02,-4.977562195530459144e-02,-4.656429150657526161e-02,-4.312358031150813342e-02,-3.991224986277880360e-02,-3.647153866771164765e-02,-3.326020821898231783e-02,-2.981949702391520352e-02,-2.660816657518585981e-02,-2.316745538011873162e-02,-1.995612493138940180e-02,-1.651541373632225973e-02,-1.330408328759291603e-02,-9.863372092525801715e-03,-6.652041643796485770e-03,-3.211330448729343701e-03,-2.775557561562891351e-17,-2.775557561562891351e-17,-2.775557561562891351e-17,-2.775557561562891351e-17,-5.551115123125782702e-17,-2.775557561562891351e-17,0.000000000000000000e+00,-2.775557561562891351e-17,-2.775557561562891351e-17
-1.197367495883363414e-01,-1.165254191396070116e-01,-1.130847079445398834e-01,-1.098733774958105536e-01,-1.064326663007434115e-01,-1.032213358520140956e-01,-9.978062465694695349e-02,-9.656929420821763754e-02,-9.312858301315049547e-02,-8.991725256442117953e-02,-8.647654136935403746e-02,-8.326521092062469376e-02,-7.982449972555757944e-02,-7.661316927682824962e-02,-7.317245808176110755e-02,-6.996112763303179161e-02,-6.652041643796464954e-02,-6.330908598923533359e-02,-5.986837479416819152e-02,-5.665704434543886170e-02,-5.321633315037171963e-02,-5.000500270164240368e-02,-4.656429150657526161e-02,-4.335296105784594567e-02,-3.991224986277880360e-02,-3.670091941404945990e-02,-3.326020821898233171e-02,-3.004887777025300188e-02,-2.660816657518587369e-02,-2.339683612645654387e-02,-1.995612493138940180e-02,-1.651541373632225973e-02,-1.330408328759294379e-02,-9.863372092525801715e-03,-6.652041643796485770e-03,-3.211330448729343701e-03,-2.775557561562891351e-17,0.000000000000000000e+00,-2.775557561562891351e-17,-2.775557561562891351e-17,-2.775557561562891351e-17,-2.775557561562891351e-17,-2.775557561562891351e-17,-2.775557561562891351e-17,-2.775557561562891351e-17,-2.775557561562891351e-17,-5.551115123125782702e-17
-1.133140886908776956e-01,-1.098733774958105536e-01,-1.066620470470812376e-01,-1.032213358520140956e-01,-1.000100054032847657e-01,-9.656929420821763754e-02,-9.335796375948830772e-02,-8.991725256442116565e-02,-8.670592211569183583e-02,-8.326521092062470764e-02,-8.005388047189537781e-02,-7.661316927682823574e-02,-7.340183882809891980e-02,-6.996112763303177773e-02,-6.674979718430247566e-02,-6.330908598923533359e-02,-6.009775554050598989e-02,-5.665704434543886170e-02,-5.344571389670953188e-02,-5.000500270164240368e-02,-4.679367225291307386e-02,-4.335296105784594567e-02,-4.014163060911660197e-02,-3.670091941404945990e-02,-3.326020821898233171e-02,-3.004887777025301576e-02,-2.660816657518587369e-02,-2.339683612645654387e-02,-1.995612493138940180e-02,-1.674479448266008585e-02,-1.330408328759294379e-02,-1.009275283886362784e-02,-6.652041643796485770e-03,-3.440711195067169825e-03,-2.775557561562891351e-17,-2.775557561562891351e-17,-2.775557561562891351e-17,-2.775557561562891351e-17,-2.775557561562891351e-17,-2.775557561562891351e-17,-2.775557561562891351e-17,-2.775557561562891351e-17,-2.775557561562891351e-17,-2.775557561562891351e-17,-2.775557561562891351e-17,-2.775557561562891351e-17,-2.775557561562891351e-17
-1.066620470470812376e-01,-1.034507165983519078e-01,-1.000100054032847657e-01,-9.679867495455544979e-02,-9.335796375948830772e-02,-9.014663331075897790e-02,-8.670592211569183583e-02,-8.349459166696250600e-02,-8.005388047189537781e-02,-7.684255002316604799e-02,-7.340183882809891980e-02,-7.019050837936960385e-02,-6.674979718430246178e-02,-6.353846673557313196e-02,-6.009775554050598989e-02,-5.688642509177666007e-02,-5.344571389670954575e-02,-5.023438344798020205e-02,-4.679367225291307386e-02,-4.358234180418374404e-02,-4.014163060911660197e-02,-3.693030016038727215e-02,-3.348958896532014395e-02,-3.027825851659082801e-02,-2.683754732152368594e-02,-2.339683612645654387e-02,-2.018550567772722792e-02,-1.674479448266008585e-02,-1.353346403393074215e-02,-1.009275283886360008e-02,-6.881422390134284139e-03,-3.440711195067169825e-03,-2.293807463378538802e-04,-2.775557561562891351e-17,0.000000000000000000e+00,-2.775557561562891351e-17,-2.775557561562891351e-17,-2.775557561562891351e-17,-2.775557561562891351e-17,-2.775557561562891351e-17,-2.775557561562891351e-17,-2.775557561562891351e-17,-2.775557561562891351e-17,-5.551115123125782702e-17,-2.775557561562891351e-17,-5.551115123125782702e-17,-2.775557561562891351e-17
-1.002393861496225780e-01,-9.679867495455543591e-02,-9.358734450582611997e-02,-9.014663331075897790e-02,-8.693530286202964807e-02,-1.931896083310171708e-01,-1.899782778822878271e-01,-1.865375666872206573e-01,-7.363121957443673204e-02,-7.019050837936960385e-02,-6.697917793064028791e-02,-6.353846673557314584e-02,-6.032713628684381602e-02,-5.688642509177666007e-02,-5.367509464304734412e-02,-5.023438344798020205e-02,-4.702305299925088611e-02,-4.358234180418374404e-02,-4.014163060911660197e-02,-3.693030016038727215e-02,-3.348958896532014395e-02,-3.027825851659082801e-02,-2.683754732152368594e-02,-2.362621687279436999e-02,-2.018550567772722792e-02,-1.697417522899788422e-02,-1.353346403393074215e-02,-1.032213358520142621e-02,-6.881422390134284139e-03,-3.670091941404968194e-03,-2.293807463378538802e-04,-2.775557561562891351e-17,-2.775557561562891351e-17,-2.775557561562891351e-17,-2.775557561562891351e-17,-2.775557561562891351e-17,-2.775557561562891351e-17,-2.775557561562891351e-17,-2.775557561562891351e-17,-2.775557561562891351e-17,-2.775557561562891351e-17,-2.775557561562891351e-17,-2.775557561562891351e-17,-2.775557561562891351e-17,-2.775557561562891351e-17,-2.775557561562891351e-17,-2.775557561562891351e-17
-9.358734450582611997e-02,-9.037601405709679014e-02,-8.693530286202964807e-02,-8.372397241330031825e-02,-8.028326121823317618e-02,-1.867669474335584834e-01,-1.833262362384913691e-01,-1.801149057897620254e-01,-6.697917793064027403e-02,-6.376784748191094421e-02,-6.032713628684380214e-02,-5.688642509177666007e-02,-5.367509464304734412e-02,-5.023438344798020205e-02,-4.702305299925088611e-02,-4.358234180418375792e-02,-4.037101135545441422e-02,-3.693030016038725827e-02,-3.371896971165794232e-02,-3.027825851659081413e-02,-2.706692806786151206e-02,-2.362621687279435612e-02,-2.041488642406502629e-02,-1.697417522899788422e-02,-1.376284478026854052e-02,-1.032213358520142621e-02,-7.110803136472082508e-03,-3.670091941404968194e-03,-4.587614926756522493e-04,-2.775557561562891351e-17,-2.775557561562891351e-17,-2.775557561562891351e-17,-2.775557561562891351e-17,-2.775557561562891351e-17,-2.775557561562891351e-17,-2.775557561562891351e-17,-2.775557561562891351e-17,-2.775557561562891351e-17,-2.775557561562891351e-17,0.000000000000000000e+00,-2.775557561562891351e-17,-2.775557561562891351e-17,-2.775557561562891351e-17,-2.775557561562891351e-17,-2.775557561562891351e-17,-2.775557561562891351e-17,-2.775557561562891351e-17
-8.716468360836746032e-02,-8.372397241330031825e-02,-8.051264196457098843e-02,-7.707193076950386024e-02,-7.363121957443673204e-02,-1.801149057897620254e-01,-1.766741945946949111e-01,-1.734628641459655674e-01,-6.032713628684380214e-02,-5.711580583811448619e-02,-5.367509464304734412e-02,-5.046376419431801430e-02,-4.702305299925088611e-02,-4.381172255052155629e-02,-4.037101135545441422e-02,-3.715968090672508439e-02,-3.371896971165795620e-02,-3.050763926292862638e-02,-2.706692806786149819e-02,-2.385559761913215449e-02,-2.041488642406502629e-02,-1.720355597533571035e-02,-1.376284478026854052e-02,-1.055151433153922458e-02,-7.110803136472082508e-03,-3.899472687742766563e-03,-4.587614926756244937e-04,-2.775557561562891351e-17,0.000000000000000000e+00,-2.775557561562891351e-17,-2.775557561562891351e-17,-2.775557561562891351e-17,-2.775557561562891351e-17,-2.775557561562891351e-17,-2.775557561562891351e-17,-2.775557561562891351e-17,-2.775557561562891351e-17,-2.775557561562891351e-17,-2.775557561562891351e-17,-2.775557561562891351e-17,-2.775557561562891351e-17,-2.775557561562891351e-17,-2.775557561562891351e-17,-2.775557561562891351e-17,-2.775557561562891351e-17,0.000000000000000000e+00,-2.775557561562891351e-17
-8.051264196457098843e-02,-7.730131151584165861e-02,-7.386060032077453041e-02,-7.064926987204521447e-02,-6.720855867697808628e-02,-6.376784748191094421e-02,-6.055651703318160051e-02,-5.711580583811448619e-02,-5.390447538938514249e-02,-5.046376419431801430e-02,-4.725243374558868448e-02,-4.381172255052155629e-02,-4.060039210179222646e-02,-3.715968090672507051e-02,-3.394835045799576845e-02,-3.050763926292862638e-02,-2.729630881419931043e-02,-2.385559761913216836e-02,-2.064426717040282466e-02,-1.720355597533571035e-02,-1.399222552660636665e-02,-1.055151433153922458e-02,-7.340183882809908633e-03,-3.899472687742794319e-03,-6.881422390134506184e-04,-2.775557561562891351e-17,-2.775557561562891351e-17,-2.775557561562891351e-17,-2.775557561562891351e-17,-2.775557561562891351e-17,-2.775557561562891351e-17,-2.775557561562891351e-17,-2.775557561562891351e-17,-2.775557561562891351e-17,-2.775557561562891351e-17,-2.775557561562891351e-17,-2.775557561562891351e-17,-2.775557561562891351e-17,-2.775557561562891351e-17,-2.775557561562891351e-17,-2.775557561562891351e-17,-2.775557561562891351e-17,-2.775557561562891351e-17,-2.775557561562891351e-17,-2.775557561562891351e-17,-2.775557561562891351e-17,-2.775557561562891351e-17
-8.981689848789838060e-02,-7.064926987204521447e-02,-6.720855867697808628e-02,-6.399722822824875645e-02,-6.055651703318161438e-02,-5.734518658445228456e-02,-5.390447538938514249e-02,-5.069314494065582655e-02,-4.725243374558868448e-02,-4.404110329685936853e-02,-4.060039210179222646e-02,-3.738906165306288276e-02,-3.394835045799575457e-02,-3.073702000926643862e-02,-2.729630881419931043e-02,-2.408497836546999449e-02,-2.064426717040282466e-02,-1.743293672167350872e-02,-1.399222552660636665e-02,-1.078089507787702295e-02,-7.340183882809908633e-03,-4.128853434080592688e-03,-6.881422390134506184e-04,-2.775557561562891351e-17,-2.775557561562891351e-17,-2.775557561562891351e-17,-2.775557561562891351e-17,-2.775557561562891351e-17,-2.775557561562891351e-17,-2.775557561562891351e-17,-2.775557561562891351e-17,-2.775557561562891351e-17,-2.775557561562891351e-17,-2.775557561562891351e-17,-2.775557561562891351e-17,-2.775557561562891351e-17,-2.775557561562891351e-17,-2.775557561562891351e-17,-2.775557561562891351e-17,-2.775557561562891351e-17,-2.775557561562891351e-17,-2.775557561562891351e-17,-5.551115123125782702e-17,-2.775557561562891351e-17,-2.775557561562891351e-17,-2.775557561562891351e-17,-2.775557561562891351e-17
-1.220018844584222079e-01,-6.399722822824875645e-02,-6.078589777951942663e-02,-5.734518658445228456e-02,-5.413385613572295474e-02,-5.069314494065582655e-02,-4.748181449192649672e-02,-4.404110329685936853e-02,-4.082977284813003871e-02,-3.738906165306288276e-02,-3.417773120433356682e-02,-3.073702000926643862e-02,-2.752568956053710880e-02,-2.408497836546998061e-02,-2.087364791674065079e-02,-1.743293672167348096e-02,-1.422160627294416502e-02,-1.078089507787705070e-02,-7.569564629147707002e-03,-4.128853434080592688e-03,-9.175229853512489875e-04,-2.775557561562891351e-17,-2.775557561562891351e-17,0.000000000000000000e+00,-2.775557561562891351e-17,-2.775557561562891351e-17,-2.775557561562891351e-17,-2.775557561562891351e-17,-2.775557561562891351e-17,-2.775557561562891351e-17,-2.775557561562891351e-17,-5.551115123125782702e-17,-2.775557561562891351e-17,-5.551115123125782702e-17,-2.775557561562891351e-17,-2.775557561562891351e-17,-2.775557561562891351e-17,-2.775557561562891351e-17,-2.775557561562891351e-17,-2.775557561562891351e-17,-5.551115123125782702e-17,0.000000000000000000e+00,-2.775557561562891351e-17,-2.775557561562891351e-17,-2.775557561562891351e-17,-2.775557561562891351e-17,-2.775557561562891351e-17
-1.468036776561978118e-01,-7.988184491214203597e-02,-5.413385613572295474e-02,-5.092252568699362492e-02,-4.748181449192649672e-02,-4.427048404319718078e-02,-4.082977284813002483e-02,-3.761844239940069501e-02,-3.417773120433356682e-02,-3.096640075560423699e-02,-2.752568956053709492e-02,-2.431435911180776510e-02,-2.087364791674065079e-02,-1.766231746801130709e-02,-1.422160627294419277e-02,-1.101027582421484907e-02,-7.569564629147707002e-03,-4.358234180418391057e-03,-9.175229853512489875e-04,-2.775557561562891351e-17,-2.775557561562891351e-17,-2.775557561562891351e-17,-2.775557561562891351e-17,-2.775557561562891351e-17,-2.775557561562891351e-17,-2.775557561562891351e-17,-2.775557561562891351e-17,-2.775557561562891351e-17,-2.775557561562891351e-17,-2.775557561562891351e-17,-2.775557561562891351e-17,-2.775557561562891351e-17,-2.775557561562891351e-17,-2.775557561562891351e-17,-2.775557561562891351e-17,-2.775557561562891351e-17,-2.775557561562891351e-17,-2.775557561562891351e-17,0.000000000000000000e+00,-2.775557561562891351e-17,-2.775557561562891351e-17,-2.775557561562891351e-17,-2.775557561562891351e-17,-2.775557561562891351e-17,-2.775557561562891351e-17,-2.775557561562891351e-17,-2.775557561562891351e-17
-1.468036776561978118e-01,-1.168408176658215086e-01,-4.771119523826430897e-02,-4.427048404319718078e-02,-4.105915359446783708e-02,-2.592406756838468440e-01,-2.560293452351175558e-01,-2.525886340400503860e-01,-2.493773035913210978e-01,-2.459365923962539280e-01,-2.110302866307847691e-02,-1.766231746801130709e-02,-1.445098701928196339e-02,-1.101027582421484907e-02,-7.798945375485533127e-03,-4.358234180418391057e-03,-1.146903731689075112e-03,-2.775557561562891351e-17,-2.775557561562891351e-17,-2.775557561562891351e-17,-2.775557561562891351e-17,-2.775557561562891351e-17,-2.775557561562891351e-17,-2.775557561562891351e-17,0.000000000000000000e+00,-5.551115123125782702e-17,-2.775557561562891351e-17,-2.775557561562891351e-17,-2.775557561562891351e-17,-2.775557561562891351e-17,-2.775557561562891351e-17,-2.775557561562891351e-17,0.000000000000000000e+00,-2.775557561562891351e-17,-2.775557561562891351e-17,-2.775557561562891351e-17,0.000000000000000000e+00,-2.775557561562891351e-17,-2.775557561562891351e-17,-2.775557561562891351e-17,-2.775557561562891351e-17,-2.775557561562891351e-17,-2.775557561562891351e-17,-2.775557561562891351e-17,-2.775557561562891351e-17,-2.775557561562891351e-17,-2.775557561562891351e-17
-1.468036776561978118e-01,-1.468036776561978118e-01,-6.749528460990034118e-02,-3.784782314573850726e-02,-3.440711195067137906e-02,-2.528180147863882121e-01,-2.493773035913210701e-01,-2.461659731425917541e-01,-2.427252619475246120e-01,-2.395139314987952961e-01,-1.445098701928196339e-02,-1.123965657055267520e-02,-7.798945375485533127e-03,-4.587614926756189426e-03,-1.146903731689075112e-03,-2.775557561562891351e-17,-2.775557561562891351e-17,-2.775557561562891351e-17,-2.775557561562891351e-17,-2.775557561562891351e-17,-2.775557561562891351e-17,-2.775557561562891351e-17,-2.775557561562891351e-17,-2.775557561562891351e-17,-2.775557561562891351e-17,0.000000000000000000e+00,-2.775557561562891351e-17,-2.775557561562891351e-17,-2.775557561562891351e-17,-2.775557561562891351e-17,-2.775557561562891351e-17,-2.775557561562891351e-17,-2.775557561562891351e-17,-2.775557561562891351e-17,-2.775557561562891351e-17,-2.775557561562891351e-17,-2.775557561562891351e-17,-2.775557561562891351e-17,-2.775557561562891351e-17,-2.775557561562891351e-17,0.000000000000000000e+00,-2.775557561562891351e-17,-2.775557561562891351e-17,-2.775557561562891351e-17,-2.775557561562891351e-17,-2.775557561562891351e-17,-2.775557561562891351e-17
-1.468036776561978118e-01,-1.468036776561978118e-01,-1.152566568864260010e-01,-3.119578150194204924e-02,-2.798445105321273330e-02,-2.461659731425917541e-01,-2.429546426938624104e-01,-2.395139314987952961e-01,-2.363026010500659524e-01,-2.328618898549988381e-01,-8.028326121823359252e-03,-4.587614926756189426e-03,-1.376284478026873481e-03,-2.775557561562891351e-17,-2.775557561562891351e-17,-2.775557561562891351e-17,-2.775557561562891351e-17,-2.775557561562891351e-17,-2.775557561562891351e-17,-2.775557561562891351e-17,-2.775557561562891351e-17,-2.775557561562891351e-17,-2.775557561562891351e-17,-2.775557561562891351e-17,-2.775557561562891351e-17,0.000000000000000000e+00,-2.775557561562891351e-17,-2.775557561562891351e-17,-2.775557561562891351e-17,-2.775557561562891351e-17,-2.775557561562891351e-17,-2.775557561562891351e-17,-5.551115123125782702e-17,-2.775557561562891351e-17,-2.775557561562891351e-17,-2.775557561562891351e-17,-2.775557561562891351e-17,-2.775557561562891351e-17,-2.775557561562891351e-17,-2.775557561562891351e-17,-2.775557561562891351e-17,-5.551115123125782702e-17,-5.551115123125782702e-17,-5.551115123125782702e-17,-2.775557561562891351e-17,-2.775557561562891351e-17,-8.028326121823331496e-03
-1.468036776561978118e-01,-1.468036776561978118e-01,-1.468036776561978118e-01,-5.909421477527808386e-02,-2.133240940941624753e-02,-2.397433122451330945e-01,-2.363026010500659524e-01,-2.330912706013366364e-01,-2.296505594062694944e-01,-2.264392289575401784e-01,-1.376284478026873481e-03,-2.775557561562891351e-17,-2.775557561562891351e-17,-2.775557561562891351e-17,-2.775557561562891351e-17,-2.775557561562891351e-17,-2.775557561562891351e-17,-5.551115123125782702e-17,-2.775557561562891351e-17,-2.775557561562891351e-17,-2.775557561562891351e-17,-2.775557561562891351e-17,-2.775557561562891351e-17,-2.775557561562891351e-17,-2.775557561562891351e-17,-2.775557561562891351e-17,-2.775557561562891351e-17,-2.775557561562891351e-17,-2.775557561562891351e-17,-2.775557561562891351e-17,-2.775557561562891351e-17,-2.775557561562891351e-17,-2.775557561562891351e-17,-2.775557561562891351e-17,-2.775557561562891351e-17,-2.775557561562891351e-17,-2.775557561562891351e-17,-2.775557561562891351e-17,-2.775557561562891351e-17,-2.775557561562891351e-17,-2.775557561562891351e-17,-2.775557561562891351e-17,-2.775557561562891351e-17,-2.775557561562891351e-17,-8.028326121823331496e-03,-2.408497836546996673e-02,-4.128853434080564933e-02
-1.468036776561978118e-01,-1.468036776561978118e-01,-1.468036776561978118e-01,-1.106116967730853828e-01,-1.490974851195758788e-02,-2.330912706013366087e-01,-2.298799401526072927e-01,-2.264392289575401784e-01,-2.232278985088108347e-01,-2.216222332844461906e-01,-2.775557561562891351e-17,-2.775557561562891351e-17,-2.775557561562891351e-17,-2.775557561562891351e-17,-2.775557561562891351e-17,-2.775557561562891351e-17,0.000000000000000000e+00,-2.775557561562891351e-17,-2.775557561562891351e-17,-2.775557561562891351e-17,-2.775557561562891351e-17,-2.775557561562891351e-17,-2.775557561562891351e-17,-2.775557561562891351e-17,-2.775557561562891351e-17,-5.551115123125782702e-17,0.000000000000000000e+00,-2.775557561562891351e-17,-2.775557561562891351e-17,-2.775557561562891351e-17,-2.775557561562891351e-17,-2.775557561562891351e-17,-2.775557561562891351e-17,-2.775557561562891351e-17,-2.775557561562891351e-17,-2.775557561562891351e-17,-2.775557561562891351e-17,-5.551115123125782702e-17,-2.775557561562891351e-17,-2.775557561562891351e-17,-2.775557561562891351e-17,-2.775557561562891351e-17,-6.881422390134284139e-03,-2.408497836546998061e-02,-4.014163060911660197e-02,-5.734518658445228456e-02,-7.340183882809891980e-02
-1.468036776561978118e-01,-1.468036776561978118e-01,-1.468036776561978118e-01,-1.468036776561978118e-01,-4.722376115229645621e-02,-5.046376419431813920e-03,-1.605665224364699606e-03,-2.775557561562891351e-17,-2.775557561562891351e-17,-2.775557561562891351e-17,-2.775557561562891351e-17,-2.775557561562891351e-17,-2.775557561562891351e-17,0.000000000000000000e+00,-2.775557561562891351e-17,-2.775557561562891351e-17,-2.775557561562891351e-17,-2.775557561562891351e-17,-2.775557561562891351e-17,-2.775557561562891351e-17,-2.775557561562891351e-17,-2.775557561562891351e-17,-2.775557561562891351e-17,-2.775557561562891351e-17,-2.775557561562891351e-17,-2.775557561562891351e-17,-2.775557561562891351e-17,-2.775557561562891351e-17,-2.775557561562891351e-17,-2.775557561562891351e-17,-5.551115123125782702e-17,-2.775557561562891351e-17,-2.775557561562891351e-17,-2.775557561562891351e-17,-2.775557561562891351e-17,-2.775557561562891351e-17,-2.775557561562891351e-17,-2.775557561562891351e-17,-2.775557561562891351e-17,0.000000000000000000e+00,-6.881422390134311895e-03,-2.293807463378093325e-02,-4.014163060911660197e-02,-5.619828285276323721e-02,-7.340183882809891980e-02,-8.945849107174555503e-02,-1.066620470470812376e-01
-1.468036776561978118e-01,-1.468036776561978118e-01,-1.468036776561978118e-01,-1.468036776561978118e-01,-1.105615197348239764e-01,-2.775557561562891351e-17,-2.775557561562891351e-17,-2.775557561562891351e-17,-2.775557561562891351e-17,-2.775557561562891351e-17,-2.775557561562891351e-17,0.000000000000000000e+00,-2.775557561562891351e-17,-2.775557561562891351e-17,-2.775557561562891351e-17,-2.775557561562891351e-17,-2.775557561562891351e-17,-2.775557561562891351e-17,-2.775557561562891351e-17,-2.775557561562891351e-17,-2.775557561562891351e-17,-2.775557561562891351e-17,-2.775557561562891351e-17,-2.775557561562891351e-17,-2.775557561562891351e-17,-2.775557561562891351e-17,-2.775557561562891351e-17,-2.775557561562891351e-17,-2.775557561562891351e-17,-2.775557561562891351e-17,-2.775557561562891351e-17,-2.775557561562891351e-17,-2.775557561562891351e-17,-2.775557561562891351e-17,-2.775557561562891351e-17,-2.775557561562891351e-17,-2.775557561562891351e-17,-2.775557561562891351e-17,-5.734518658445236783e-03,-2.293807463378093325e-02,-3.899472687742756849e-02,-5.619828285276325108e-02,-7.225493509640987244e-02,-8.945849107174555503e-02,-1.055151433153921903e-01,-1.227186992907278590e-01,-1.387753515343745081e-01
-1.468036776561978118e-01,-1.468036776561978118e-01,-1.468036776561978118e-01,-1.468036776561978118e-01,-1.468036776561978118e-01,-4.587614926756183875e-02,-2.775557561562891351e-17,-2.775557561562891351e-17,-2.775557561562891351e-17,-2.775557561562891351e-17,-2.775557561562891351e-17,-2.775557561562891351e-17,-2.775557561562891351e-17,-2.775557561562891351e-17,-2.775557561562891351e-17,0.000000000000000000e+00,-2.775557561562891351e-17,-2.775557561562891351e-17,-2.775557561562891351e-17,-2.775557561562891351e-17,-2.775557561562891351e-17,-2.775557561562891351e-17,-2.775557561562891351e-17,-2.775557561562891351e-17,-2.775557561562891351e-17,-2.775557561562891351e-17,-2.775557561562891351e-17,-2.775557561562891351e-17,-2.775557561562891351e-17,-2.775557561562891351e-17,-2.775557561562891351e-17,-2.775557561562891351e-17,-2.775557561562891351e-17,-5.551115123125782702e-17,-2.775557561562891351e-17,-2.775557561562891351e-17,-5.734518658445236783e-03,-2.179117090209189977e-02,-3.899472687742756849e-02,-5.505137912107418985e-02,-7.225493509640987244e-02,-8.831158734005650768e-02,-1.055151433153921903e-01,-1.215717955590388255e-01,-1.387753515343744803e-01,-1.468036776561978118e-01,-1.468036776561978118e-01
-1.468036776561978118e-01,-1.468036776561978118e-01,-1.468036776561978118e-01,-1.468036776561978118e-01,-1.468036776561978118e-01,-1.101027582421483658e-01,-2.775557561562891351e-17,-2.775557561562891351e-17,-2.775557561562891351e-17,-2.775557561562891351e-17,-2.775557561562891351e-17,-2.775557561562891351e-17,-2.775557561562891351e-17,-2.775557561562891351e-17,-2.775557561562891351e-17,-2.775557561562891351e-17,-5.551115123125782702e-17,-2.775557561562891351e-17,-5.551115123125782702e-17,-2.775557561562891351e-17,-2.775557561562891351e-17,-2.775557561562891351e-17,-2.775557561562891351e-17,-2.775557561562891351e-17,-2.775557561562891351e-17,-2.775557561562891351e-17,-2.775557561562891351e-17,-5.551115123125782702e-17,-2.775557561562891351e-17,0.000000000000000000e+00,-2.775557561562891351e-17,-2.775557561562891351e-17,-2.775557561562891351e-17,-2.775557561562891351e-17,-4.587614926756217182e-03,-2.179117090209189977e-02,-3.784782314573852113e-02,-5.505137912107420373e-02,-7.110803136472083896e-02,-8.831158734005650768e-02,-1.043682395837031429e-01,-1.215717955590388255e-01,-1.376284478026854607e-01,-1.468036776561978118e-01,-1.468036776561978118e-01,-1.468036776561978118e-01,-1.468036776561978118e-01
-1.468036776561978118e-01,-1.468036776561978118e-01,-1.468036776561978118e-01,-1.468036776561978118e-01,-1.468036776561978118e-01,-1.468036776561978118e-01,-4.587614926756183875e-02,-2.775557561562891351e-17,-2.775557561562891351e-17,-2.775557561562891351e-17,-2.775557561562891351e-17,-2.775557561562891351e-17,-2.775557561562891351e-17,-2.775557561562891351e-17,-2.775557561562891351e-17,-2.775557561562891351e-17,0.000000000000000000e+00,-2.775557561562891351e-17,-2.775557561562891351e-17,-2.775557561562891351e-17,-2.775557561562891351e-17,-2.775557561562891351e-17,-2.775557561562891351e-17,-2.775557561562891351e-17,0.000000000000000000e+00,-2.775557561562891351e-17,-2.775557561562891351e-17,-2.775557561562891351e-17,-2.775557561562891351e-17,-2.775557561562891351e-17,-2.775557561562891351e-17,-2.775557561562891351e-17,-4.587614926756189426e-03,-2.064426717040285242e-02,-3.784782314573850726e-02,-5.390447538938515637e-02,-7.110803136472083896e-02,-8.716468360836746032e-02,-1.043682395837031429e-01,-1.204248918273497782e-01,-1.376284478026854607e-01,-1.468036776561978118e-01,-1.468036776561978118e-01,-1.468036776561978118e-01,-1.468036776561978118e-01,-1.468036776561978118e-01,-1.468036776561978118e-01
-1.468036776561978118e-01,-1.468036776561978118e-01,-1.468036776561978118e-01,-1.468036776561978118e-01,-1.468036776561978118e-01,-1.468036776561978118e-01,-1.101027582421483658e-01,-2.775557561562891351e-17,-2.775557561562891351e-17,-2.775557561562891351e-17,-2.775557561562891351e-17,-2.775557561562891351e-17,-5.551115123125782702e-17,-2.775557561562891351e-17,-2.775557561562891351e-17,-2.775557561562891351e-17,-2.775557561562891351e-17,-2.775557561562891351e-17,-2.775557561562891351e-17,-2.775557561562891351e-17,-2.775557561562891351e-17,-2.775557561562891351e-17,-2.775557561562891351e-17,-2.775557561562891351e-17,-2.775557561562891351e-17,-2.775557561562891351e-17,-2.775557561562891351e-17,-2.775557561562891351e-17,-2.775557561562891351e-17,-2.775557561562891351e-17,-3.440711195067142070e-03,-2.064426717040282466e-02,-3.670091941404947378e-02,-5.390447538938515637e-02,-6.996112763303177773e-02,-8.716468360836746032e-02,-1.032213358520140956e-01,-1.204248918273497782e-01,-1.376284478026854607e-01,-1.468036776561978118e-01,-1.468036776561978118e-01,-1.468036776561978118e-01,-1.468036776561978118e-01,-1.468036776561978118e-01,-1.468036776561978118e-01,-1.468036776561978118e-01,-1.468036776561978118e-01
-1.468036776561978118e-01,-1.468036776561978118e-01,-1.468036776561978118e-01,-1.468036776561978118e-01,-1.468036776561978118e-01,-1.468036776561978118e-01,-1.468036776561978118e-01,-5.046376419431801430e-02,-2.775557561562891351e-17,-2.775557561562891351e-17,-2.775557561562891351e-17,-2.775557561562891351e-17,-2.775557561562891351e-17,-2.775557561562891351e-17,-2.775557561562891351e-17,-2.775557561562891351e-17,-2.775557561562891351e-17,-2.775557561562891351e-17,-2.775557561562891351e-17,-2.775557561562891351e-17,-2.775557561562891351e-17,-2.775557561562891351e-17,-2.775557561562891351e-17,-2.775557561562891351e-17,-2.775557561562891351e-17,-2.775557561562891351e-17,-2.775557561562891351e-17,-2.775557561562891351e-17,-3.440711195067169825e-03,-1.949736343871380506e-02,-3.670091941404947378e-02,-5.390447538938514249e-02,-6.996112763303177773e-02,-8.716468360836746032e-02,-1.032213358520140956e-01,-1.204248918273497782e-01,-1.364815440709964134e-01,-1.468036776561978118e-01,-1.468036776561978118e-01,-1.468036776561978118e-01,-1.468036776561978118e-01,-1.468036776561978118e-01,-1.468036776561978118e-01,-1.468036776561978118e-01,-1.468036776561978118e-01,-1.468036776561978118e-01,-1.468036776561978118e-01
-1.468036776561978118e-01,-1.468036776561978118e-01,-1.468036776561978118e-01,-1.468036776561978118e-01,-1.468036776561978118e-01,-1.468036776561978118e-01,-1.468036776561978118e-01,-1.146903731689045414e-01,-2.775557561562891351e-17,-2.775557561562891351e-17,-2.775557561562891351e-17,-2.775557561562891351e-17,-2.775557561562891351e-17,-2.775557561562891351e-17,-2.775557561562891351e-17,-2.775557561562891351e-17,-2.775557561562891351e-17,-2.775557561562891351e-17,-2.775557561562891351e-17,-2.775557561562891351e-17,-2.775557561562891351e-17,-2.775557561562891351e-17,-2.775557561562891351e-17,-2.775557561562891351e-17,-2.775557561562891351e-17,-2.775557561562891351e-17,-3.440711195067169825e-03,-1.949736343871380506e-02,-3.670091941404947378e-02,-5.275757165769610901e-02,-6.996112763303177773e-02,-8.601777987667841296e-02,-1.032213358520140956e-01,-1.192779880956607308e-01,-1.364815440709964134e-01,-1.468036776561978118e-01,-1.468036776561978118e-01,-1.468036776561978118e-01,-1.468036776561978118e-01,-1.468036776561978118e-01,-1.468036776561978118e-01,-1.468036776561978118e-01,-1.468036776561978118e-01,-1.468036776561978118e-01,-1.468036776561978118e-01,-1.468036776561978118e-01,-1.468036776561978118e-01
-1.468036776561978118e-01,-1.468036776561978118e-01,-1.468036776561978118e-01,-1.468036776561978118e-01,-1.468036776561978118e-01,-1.468036776561978118e-01,-1.468036776561978118e-01,-1.468036776561978118e-01,-5.046376419431801430e-02,-2.775557561562891351e-17,-2.775557561562891351e-17,-2.775557561562891351e-17,-2.775557561562891351e-17,-2.775557561562891351e-17,-2.775557561562891351e-17,-2.775557561562891351e-17,-2.775557561562891351e-17,-2.775557561562891351e-17,-2.775557561562891351e-17,-2.775557561562891351e-17,-2.775557561562891351e-17,-2.775557561562891351e-17,-2.775557561562891351e-17,-2.775557561562891351e-17,-2.293807463378122469e-03,-1.949736343871380506e-02,-3.555401568236044030e-02,-5.275757165769609514e-02,-6.881422390134273037e-02,-8.601777987667841296e-02,-1.020744321203250482e-01,-1.192779880956607308e-01,-1.353346403393073660e-01,-1.468036776561978118e-01,-1.468036776561978118e-01,-1.468036776561978118e-01,-1.468036776561978118e-01,-1.468036776561978118e-01,-1.468036776561978118e-01,-1.468036776561978118e-01,-1.468036776561978118e-01,-1.468036776561978118e-01,-1.468036776561978118e-01,-1.468036776561978118e-01,-1.468036776561978118e-01,-1.468036776561978118e-01,-1.468036776561978118e-01
-1.468036776561978118e-01,-1.468036776561978118e-01,-1.468036776561978118e-01,-1.468036776561978118e-01,-1.468036776561978118e-01,-1.468036776561978118e-01,-1.468036776561978118e-01,-1.468036776561978118e-01,-1.146903731689045414e-01,-2.775557561562891351e-17,-2.775557561562891351e-17,-2.775557561562891351e-17,-2.775557561562891351e-17,-2.775557561562891351e-17,-2.775557561562891351e-17,-5.551115123125782702e-17,-2.775557561562891351e-17,-2.775557561562891351e-17,-2.775557561562891351e-17,-2.775557561562891351e-17,-2.775557561562891351e-17,-2.775557561562891351e-17,-2.293807463378122469e-03,-1.835045970702475771e-02,-3.555401568236042642e-02,-5.161066792600706166e-02,-6.881422390134273037e-02,-8.487087614498936561e-02,-1.020744321203250482e-01,-1.181310843639716834e-01,-1.353346403393073660e-01,-1.468036776561978118e-01,-1.468036776561978118e-01,-1.468036776561978118e-01,-1.468036776561978118e-01,-1.468036776561978118e-01,-1.468036776561978118e-01,-1.468036776561978118e-01,-1.468036776561978118e-01,-1.468036776561978118e-01,-1.468036776561978118e-01,-1.468036776561978118e-01,-1.468036776561978118e-01,-1.468036776561978118e-01,-1.468036776561978118e-01,-1.468036776561978118e-01,-1.468036776561978118e-01
