-1.834100757807643756e-01,-1.834100757807643756e-01,-1.834100757807643756e-01,-1.834100757807643756e-01,-1.834100757807643756e-01,-1.834100757807643756e-01,-1.834100757807643756e-01,-1.834100757807643756e-01,-1.834100757807643756e-01,-1.834100757807643756e-01,-1.834100757807643756e-01,-1.834100757807643756e-01,-1.834100757807643756e-01,-1.834100757807643756e-01,-1.834100757807643756e-01,-1.834100757807643756e-01,-1.834100757807643756e-01,-1.834100757807643756e-01,-1.834100757807643756e-01,-1.834100757807643756e-01,-1.834100757807643756e-01,-1.834100757807643756e-01,-1.834100757807643756e-01,-1.834100757807643756e-01,-1.834100757807643756e-01,-1.834100757807643756e-01,-1.834100757807643756e-01,-1.834100757807643756e-01,-1.834100757807643756e-01,-1.834100757807643756e-01,-1.834100757807643756e-01,-1.834100757807643756e-01,-1.834100757807643756e-01,-1.834100757807643756e-01,-1.834100757807643756e-01,-1.834100757807643756e-01,-1.834100757807643756e-01,-1.834100757807643756e-01,-1.834100757807643756e-01,-1.834100757807643756e-01,-1.834100757807643756e-01,-1.834100757807643756e-01,-1.834100757807643756e-01,-1.834100757807643756e-01,-1.834100757807643756e-01,-1.834100757807643756e-01,-1.834100757807643756e-01
-1.834100757807643756e-01,-1.834100757807643756e-01,-1.834100757807643756e-01,-1.834100757807643756e-01,-1.834100757807643756e-01,-1.834100757807643756e-01,-1.834100757807643756e-01,-1.834100757807643756e-01,-1.834100757807643756e-01,-1.834100757807643756e-01,-1.834100757807643756e-01,-1.834100757807643756e-01,-1.834100757807643756e-01,-1.834100757807643756e-01,-1.834100757807643756e-01,-1.834100757807643756e-01,-1.834100757807643756e-01,-1.834100757807643756e-01,-1.834100757807643756e-01,-1.834100757807643756e-01,-1.834100757807643756e-01,-1.834100757807643756e-01,-1.834100757807643756e-01,-1.834100757807643756e-01,-1.834100757807643756e-01,-1.834100757807643756e-01,-1.834100757807643756e-01,-1.834100757807643756e-01,-1.834100757807643756e-01,-1.834100757807643756e-01,-1.834100757807643756e-01,-1.834100757807643756e-01,-1.834100757807643756e-01,-1.834100757807643756e-01,-1.834100757807643756e-01,-1.834100757807643756e-01,-1.834100757807643756e-01,-1.834100757807643756e-01,-1.834100757807643756e-01,-1.834100757807643756e-01,-1.834100757807643756e-01,-1.834100757807643756e-01,-1.834100757807643756e-01,-1.834100757807643756e-01,-1.834100757807643756e-01,-1.834100757807643756e-01,-1.834100757807643756e-01
-1.834100757807643756e-01,-1.834100757807643756e-01,-1.834100757807643756e-01,-1.834100757807643756e-01,-1.834100757807643756e-01,-1.834100757807643756e-01,-1.834100757807643756e-01,-1.834100757807643756e-01,-1.834100757807643756e-01,-1.834100757807643756e-01,-1.834100757807643756e-01,-1.834100757807643756e-01,-1.834100757807643756e-01,-1.834100757807643756e-01,-1.834100757807643756e-01,-1.834100757807643756e-01,-1.834100757807643756e-01,-1.834100757807643756e-01,-1.834100757807643756e-01,-1.834100757807643756e-01,-1.834100757807643756e-01,-1.834100757807643756e-01,-1.834100757807643756e-01,-1.834100757807643756e-01,-1.834100757807643756e-01,-1.834100757807643756e-01,-1.834100757807643756e-01,-1.834100757807643756e-01,-1.834100757807643756e-01,-1.834100757807643756e-01,-1.834100757807643756e-01,-1.834100757807643756e-01,-1.834100757807643756e-01,-1.834100757807643756e-01,-1.834100757807643756e-01,-1.834100757807643756e-01,-1.834100757807643756e-01,-1.834100757807643756e-01,-1.834100757807643756e-01,-1.834100757807643756e-01,-1.834100757807643756e-01,-1.834100757807643756e-01,-1.834100757807643756e-01,-1.834100757807643756e-01,-1.834100757807643756e-01,-1.834100757807643756e-01,-1.834100757807643756e-01
-1.834100757807643756e-01,-1.834100757807643756e-01,-1.834100757807643756e-01,-1.834100757807643756e-01,-1.834100757807643756e-01,-1.834100757807643756e-01,-1.834100757807643756e-01,-1.834100757807643756e-01,-1.834100757807643756e-01,-1.834100757807643756e-01,-1.834100757807643756e-01,-1.834100757807643756e-01,-1.834100757807643756e-01,-1.834100757807643756e-01,-1.834100757807643756e-01,-1.834100757807643756e-01,-1.834100757807643756e-01,-1.834100757807643756e-01,-1.834100757807643756e-01,-1.834100757807643756e-01,-1.834100757807643756e-01,-1.834100757807643756e-01,-1.834100757807643756e-01,-1.834100757807643756e-01,-1.834100757807643756e-01,-1.834100757807643756e-01,-1.834100757807643756e-01,-1.834100757807643756e-01,-1.834100757807643756e-01,-1.834100757807643756e-01,-1.834100757807643756e-01,-1.834100757807643756e-01,-1.834100757807643756e-01,-1.834100757807643756e-01,-1.834100757807643756e-01,-1.834100757807643756e-01,-1.834100757807643756e-01,-1.834100757807643756e-01,-1.834100757807643756e-01,-1.834100757807643756e-01,-1.834100757807643756e-01,-1.834100757807643756e-01,-1.834100757807643756e-01,-1.834100757807643756e-01,-1.834100757807643756e-01,-1.834100757807643756e-01,-1.834100757807643756e-01
-1.834100757807643756e-01,-1.834100757807643756e-01,-1.834100757807643756e-01,-1.834100757807643756e-01,-1.834100757807643756e-01,-1.834100757807643756e-01,-1.834100757807643756e-01,-1.834100757807643756e-01,-1.834100757807643756e-01,-1.834100757807643756e-01,-1.834100757807643756e-01,-1.834100757807643756e-01,-1.834100757807643756e-01,-1.834100757807643756e-01,-1.834100757807643756e-01,-1.834100757807643756e-01,-1.834100757807643756e-01,-1.834100757807643756e-01,-1.834100757807643756e-01,-1.834100757807643756e-01,-1.834100757807643756e-01,-1.834100757807643756e-01,-1.834100757807643756e-01,-1.834100757807643756e-01,-1.834100757807643756e-01,-1.834100757807643756e-01,-1.834100757807643756e-01,-1.834100757807643756e-01,-1.834100757807643756e-01,-1.834100757807643756e-01,-1.834100757807643756e-01,-1.834100757807643756e-01,-1.834100757807643756e-01,-1.834100757807643756e-01,-1.834100757807643756e-01,-1.834100757807643756e-01,-1.834100757807643756e-01,-1.834100757807643756e-01,-1.834100757807643756e-01,-1.834100757807643756e-01,-1.796103553212995974e-01,-1.834100757807643756e-01,-1.834100757807643756e-01,-1.834100757807643756e-01,-1.834100757807643756e-01,-1.834100757807643756e-01,-1.834100757807643756e-01
-1.834100757807643756e-01,-1.834100757807643756e-01,-1.834100757807643756e-01,-1.834100757807643756e-01,-1.834100757807643756e-01,-1.834100757807643756e-01,-1.834100757807643756e-01,-1.834100757807643756e-01,-1.834100757807643756e-01,-1.834100757807643756e-01,-1.834100757807643756e-01,-1.834100757807643756e-01,-1.834100757807643756e-01,-1.834100757807643756e-01,-1.834100757807643756e-01,-1.834100757807643756e-01,-1.834100757807643756e-01,-1.834100757807643756e-01,-1.834100757807643756e-01,-1.834100757807643756e-01,-1.834100757807643756e-01,-1.834100757807643756e-01,-1.834100757807643756e-01,-1.834100757807643756e-01,-1.834100757807643756e-01,-1.834100757807643756e-01,-1.834100757807643756e-01,-1.834100757807643756e-01,-1.834100757807643756e-01,-1.834100757807643756e-01,-1.834100757807643756e-01,-1.834100757807643756e-01,-1.834100757807643756e-01,-1.834100757807643756e-01,-1.834100757807643756e-01,-1.834100757807643756e-01,-1.834100757807643756e-01,-1.825912807996002418e-01,-1.772691134220334142e-01,-1.719469460444666142e-01,-1.670341761574818396e-01,-1.766294298429989529e-01,-1.834100757807643756e-01,-1.834100757807643756e-01,-1.834100757807643756e-01,-1.834100757807643756e-01,-1.834100757807643756e-01
-1.834100757807643756e-01,-1.834100757807643756e-01,-1.834100757807643756e-01,-1.834100757807643756e-01,-1.834100757807643756e-01,-1.834100757807643756e-01,-1.834100757807643756e-01,-1.834100757807643756e-01,-1.834100757807643756e-01,-1.834100757807643756e-01,-1.834100757807643756e-01,-1.834100757807643756e-01,-1.834100757807643756e-01,-1.834100757807643756e-01,-1.834100757807643756e-01,-1.834100757807643756e-01,-1.834100757807643756e-01,-1.834100757807643756e-01,-1.834100757807643756e-01,-1.834100757807643756e-01,-1.834100757807643756e-01,-1.834100757807643756e-01,-1.834100757807643756e-01,-1.834100757807643756e-01,-1.834100757807643756e-01,-1.834100757807643756e-01,-1.834100757807643756e-01,-1.834100757807643756e-01,-1.834100757807643756e-01,-1.834100757807643756e-01,-1.834100757807643756e-01,-1.834100757807643756e-01,-1.834100757807643756e-01,-1.834100757807643756e-01,-1.834100757807643756e-01,-1.809536908372720021e-01,-1.756315234597051744e-01,-1.707187535727204275e-01,-1.653965861951535998e-01,-1.600744188175867722e-01,-1.547522514400199445e-01,-1.592812111795840202e-01,-1.834100757807643756e-01,-1.834100757807643756e-01,-1.834100757807643756e-01,-1.834100757807643756e-01,-1.834100757807643756e-01
-1.834100757807643756e-01,-1.834100757807643756e-01,-1.834100757807643756e-01,-1.834100757807643756e-01,-1.834100757807643756e-01,-1.834100757807643756e-01,-1.834100757807643756e-01,-1.834100757807643756e-01,-1.834100757807643756e-01,-1.834100757807643756e-01,-1.834100757807643756e-01,-1.834100757807643756e-01,-1.834100757807643756e-01,-1.834100757807643756e-01,-1.834100757807643756e-01,-1.834100757807643756e-01,-1.834100757807643756e-01,-1.834100757807643756e-01,-1.834100757807643756e-01,-1.834100757807643756e-01,-1.834100757807643756e-01,-1.834100757807643756e-01,-1.834100757807643756e-01,-1.834100757807643756e-01,-1.834100757807643756e-01,-1.834100757807643756e-01,-1.834100757807643756e-01,-1.834100757807643756e-01,-1.834100757807643756e-01,-1.834100757807643756e-01,-1.834100757807643756e-01,-1.834100757807643756e-01,-1.834100757807643756e-01,-1.793161008749437346e-01,-1.744033309879589877e-01,-1.690811636103921600e-01,-1.637589962328253324e-01,-1.584368288552585047e-01,-1.535240589682737578e-01,-1.482018915907069301e-01,-1.428797242131401024e-01,-1.375575568355733025e-01,-1.738915841247314076e-01,-1.834100757807643756e-01,-1.834100757807643756e-01,-1.834100757807643756e-01,-1.834100757807643756e-01
-1.834100757807643756e-01,-1.834100757807643756e-01,-1.834100757807643756e-01,-1.834100757807643756e-01,-1.834100757807643756e-01,-1.834100757807643756e-01,-1.834100757807643756e-01,-1.834100757807643756e-01,-1.834100757807643756e-01,-1.834100757807643756e-01,-1.834100757807643756e-01,-1.834100757807643756e-01,-1.834100757807643756e-01,-1.834100757807643756e-01,-1.834100757807643756e-01,-1.834100757807643756e-01,-1.834100757807643756e-01,-1.834100757807643756e-01,-1.834100757807643756e-01,-1.834100757807643756e-01,-1.834100757807643756e-01,-1.834100757807643756e-01,-1.834100757807643756e-01,-1.834100757807643756e-01,-1.834100757807643756e-01,-1.834100757807643756e-01,-1.834100757807643756e-01,-1.834100757807643756e-01,-1.834100757807643756e-01,-1.834100757807643756e-01,-1.830006782901823226e-01,-1.776785109126154949e-01,-1.727657410256307202e-01,-1.674435736480638925e-01,-1.621214062704970926e-01,-1.567992388929302650e-01,-1.518864690059454903e-01,-1.465643016283786904e-01,-1.412421342508118627e-01,-1.359199668732450350e-01,-1.310071969862602881e-01,-1.256850296086934604e-01,-1.459757927356669649e-01,-1.834100757807643756e-01,-1.834100757807643756e-01,-1.834100757807643756e-01,-1.834100757807643756e-01
-1.834100757807643756e-01,-1.834100757807643756e-01,-1.834100757807643756e-01,-1.834100757807643756e-01,-1.834100757807643756e-01,-1.834100757807643756e-01,-1.834100757807643756e-01,-1.834100757807643756e-01,-1.834100757807643756e-01,-1.834100757807643756e-01,-1.834100757807643756e-01,-1.834100757807643756e-01,-1.834100757807643756e-01,-1.834100757807643756e-01,-1.834100757807643756e-01,-1.834100757807643756e-01,-1.834100757807643756e-01,-1.834100757807643756e-01,-1.834100757807643756e-01,-1.834100757807643756e-01,-1.834100757807643756e-01,-1.834100757807643756e-01,-1.834100757807643756e-01,-1.834100757807643756e-01,-1.834100757807643756e-01,-1.834100757807643756e-01,-1.834100757807643756e-01,-1.834100757807643756e-01,-1.813630883278540551e-01,-1.760409209502872274e-01,-1.711281510633024805e-01,-1.658059836857356528e-01,-1.604838163081688251e-01,-1.555710464211840782e-01,-1.502488790436172506e-01,-1.449267116660504229e-01,-1.396045442884835952e-01,-1.346917744014988483e-01,-1.293696070239320206e-01,-1.240474396463651929e-01,-1.187252722687983653e-01,-1.138125023818136045e-01,-1.084903350042467907e-01,-1.758873968913189645e-01,-1.834100757807643756e-01,-1.834100757807643756e-01,-1.834100757807643756e-01
-1.834100757807643756e-01,-1.834100757807643756e-01,-1.834100757807643756e-01,-1.834100757807643756e-01,-1.834100757807643756e-01,-1.834100757807643756e-01,-1.834100757807643756e-01,-1.834100757807643756e-01,-1.834100757807643756e-01,-1.834100757807643756e-01,-1.834100757807643756e-01,-1.834100757807643756e-01,-1.834100757807643756e-01,-1.834100757807643756e-01,-1.834100757807643756e-01,-1.834100757807643756e-01,-1.834100757807643756e-01,-1.834100757807643756e-01,-1.834100757807643756e-01,-1.834100757807643756e-01,-1.834100757807643756e-01,-1.834100757807643756e-01,-1.834100757807643756e-01,-1.834100757807643756e-01,-1.834100757807643756e-01,-1.834100757807643756e-01,-1.797254983655258154e-01,-1.748127284785410407e-01,-1.694905611009742130e-01,-1.641683937234074131e-01,-1.588462263458405854e-01,-1.539334564588558107e-01,-1.486112890812890108e-01,-1.432891217037221832e-01,-1.379669543261553555e-01,-1.330541844391706086e-01,-1.277320170616037531e-01,-1.224098496840369255e-01,-1.170876823064701255e-01,-1.121749124194853647e-01,-1.068527450419185509e-01,-1.015305776643517233e-01,-9.661780777736696246e-02,-1.402314341959373933e-01,-1.834100757807643756e-01,-1.834100757807643756e-01,-1.834100757807643756e-01
-1.834100757807643756e-01,-1.834100757807643756e-01,-1.834100757807643756e-01,-1.834100757807643756e-01,-1.834100757807643756e-01,-1.834100757807643756e-01,-1.834100757807643756e-01,-1.834100757807643756e-01,-1.834100757807643756e-01,-1.834100757807643756e-01,-1.834100757807643756e-01,-1.834100757807643756e-01,-1.834100757807643756e-01,-1.834100757807643756e-01,-1.834100757807643756e-01,-1.834100757807643756e-01,-1.834100757807643756e-01,-1.834100757807643756e-01,-1.834100757807643756e-01,-1.834100757807643756e-01,-1.834100757807643756e-01,-1.834100757807643756e-01,-1.834100757807643756e-01,-1.834100757807643756e-01,-1.780879084031975479e-01,-1.731751385162128010e-01,-1.678529711386459733e-01,-1.625308037610791456e-01,-1.576180338740943987e-01,-1.522958664965275710e-01,-1.469736991189607433e-01,-1.416515317413939434e-01,-1.367387618544091688e-01,-1.314165944768423411e-01,-1.260944270992755134e-01,-1.207722597217086857e-01,-1.158594898347239249e-01,-1.105373224571571111e-01,-1.052151550795902973e-01,-9.989298770202345579e-02,-9.498021781503869498e-02,-8.965805043747189507e-02,-8.433588305990506739e-02,-9.206326069464150497e-02,-1.834100757807643756e-01,-1.834100757807643756e-01,-1.834100757807643756e-01
-1.834100757807643756e-01,-1.834100757807643756e-01,-1.834100757807643756e-01,-1.834100757807643756e-01,-1.834100757807643756e-01,-1.834100757807643756e-01,-1.834100757807643756e-01,-1.834100757807643756e-01,-1.834100757807643756e-01,-1.834100757807643756e-01,-1.834100757807643756e-01,-1.834100757807643756e-01,-1.834100757807643756e-01,-1.834100757807643756e-01,-1.834100757807643756e-01,-1.834100757807643756e-01,-1.834100757807643756e-01,-1.834100757807643756e-01,-1.834100757807643756e-01,-1.834100757807643756e-01,-1.834100757807643756e-01,-1.817724858184361358e-01,-1.768597159314513612e-01,-1.715375485538845335e-01,-1.662153811763177336e-01,-1.608932137987509059e-01,-1.559804439117661312e-01,-1.506582765341993313e-01,-1.453361091566325036e-01,-1.400139417790656760e-01,-1.351011718920809013e-01,-1.297790045145140736e-01,-1.244568371369472598e-01,-1.191346697593804321e-01,-1.142218998723956713e-01,-1.088997324948288714e-01,-1.035775651172620299e-01,-9.825539773969521606e-02,-9.334262785271045526e-02,-8.802046047514364147e-02,-8.269829309757679991e-02,-7.778552321059205299e-02,-7.246335583302522532e-02,-6.714118845545839764e-02,-1.416131507266518430e-01,-1.834100757807643756e-01,-1.834100757807643756e-01
-1.834100757807643756e-01,-1.834100757807643756e-01,-1.834100757807643756e-01,-1.834100757807643756e-01,-1.834100757807643756e-01,-1.834100757807643756e-01,-1.834100757807643756e-01,-1.834100757807643756e-01,-1.834100757807643756e-01,-1.834100757807643756e-01,-1.834100757807643756e-01,-1.834100757807643756e-01,-1.834100757807643756e-01,-1.834100757807643756e-01,-1.834100757807643756e-01,-1.834100757807643756e-01,-1.834100757807643756e-01,-1.834100757807643756e-01,-1.834100757807643756e-01,-1.801348958561078684e-01,-1.752221259691231214e-01,-1.698999585915562938e-01,-1.645777912139894661e-01,-1.596650213270047192e-01,-1.543428539494378915e-01,-1.490206865718710638e-01,-1.436985191943042361e-01,-1.387857493073194892e-01,-1.334635819297526615e-01,-1.281414145521858339e-01,-1.228192471746190062e-01,-1.179064772876342454e-01,-1.125843099100674316e-01,-1.072621425325006039e-01,-2.044028581180442616e-01,-1.994900882310595147e-01,-1.941679208534926593e-01,-8.638287051281537399e-02,-8.106070313524854631e-02,-7.614793324826378551e-02,-7.082576587069697172e-02,-6.550359849313014404e-02,-6.018143111556331637e-02,-5.526866122857856944e-02,-8.331238933344989328e-02,-1.834100757807643756e-01,-1.834100757807643756e-01
-1.834100757807643756e-01,-1.834100757807643756e-01,-1.834100757807643756e-01,-1.834100757807643756e-01,-1.834100757807643756e-01,-1.834100757807643756e-01,-1.834100757807643756e-01,-1.834100757807643756e-01,-1.834100757807643756e-01,-1.834100757807643756e-01,-1.834100757807643756e-01,-1.834100757807643756e-01,-1.834100757807643756e-01,-1.834100757807643756e-01,-1.834100757807643756e-01,-1.834100757807643756e-01,-1.834100757807643756e-01,-1.789067033843616816e-01,-1.735845360067948540e-01,-1.682623686292280263e-01,-1.629402012516611986e-01,-1.580274313646764517e-01,-1.527052639871096240e-01,-1.473830966095427963e-01,-1.420609292319759964e-01,-1.371481593449912217e-01,-1.318259919674243941e-01,-1.265038245898575942e-01,-1.211816572122907526e-01,-1.162688873253059918e-01,-1.109467199477391780e-01,-1.056245525701723503e-01,-1.003023851926055365e-01,-9.538961530562076185e-02,-1.925303308911644196e-01,-1.872081635135975919e-01,-1.822953936266128450e-01,-7.451034328593554579e-02,-6.918817590836871811e-02,-6.386600853080190432e-02,-5.895323864381712964e-02,-5.363107126625030197e-02,-4.830890388868350205e-02,-4.298673651111667438e-02,-3.807396662413189969e-02,-1.457455066472145566e-01,-1.834100757807643756e-01
-1.834100757807643756e-01,-1.834100757807643756e-01,-1.834100757807643756e-01,-1.834100757807643756e-01,-1.834100757807643756e-01,-1.834100757807643756e-01,-1.834100757807643756e-01,-1.834100757807643756e-01,-1.834100757807643756e-01,-1.834100757807643756e-01,-1.834100757807643756e-01,-1.834100757807643756e-01,-1.834100757807643756e-01,-1.834100757807643756e-01,-1.821818833090181888e-01,-1.772691134220334142e-01,-1.719469460444666142e-01,-1.666247786668997866e-01,-1.617120087799150119e-01,-1.563898414023482120e-01,-1.510676740247813843e-01,-1.457455066472145566e-01,-1.408327367602297819e-01,-1.355105693826629820e-01,-1.301884020050961543e-01,-1.248662346275293267e-01,-1.199534647405445659e-01,-1.146312973629777382e-01,-1.093091299854109244e-01,-1.039869626078440967e-01,-9.907419272085934980e-02,-9.375202534329250825e-02,-8.842985796572569446e-02,-8.310769058815886678e-02,-1.806578036642845775e-01,-1.753356362867177498e-01,-1.700134689091509221e-01,-6.222841856847363684e-02,-5.731564868148888992e-02,-5.199348130392206224e-02,-4.667131392635523457e-02,-4.134914654878843465e-02,-3.643637666180368773e-02,-3.111420928423686005e-02,-2.579204190667000463e-02,-8.182832343008993037e-02,-1.834100757807643756e-01
-1.834100757807643756e-01,-1.834100757807643756e-01,-1.834100757807643756e-01,-1.834100757807643756e-01,-1.834100757807643756e-01,-1.834100757807643756e-01,-1.834100757807643756e-01,-1.834100757807643756e-01,-1.834100757807643756e-01,-1.834100757807643756e-01,-1.834100757807643756e-01,-1.834100757807643756e-01,-1.809536908372720021e-01,-1.756315234597051744e-01,-1.703093560821383468e-01,-1.649871887045715191e-01,-1.600744188175867722e-01,-1.547522514400199445e-01,-1.494300840624531168e-01,-1.441079166848863169e-01,-1.391951467979015422e-01,-1.338729794203347145e-01,-1.285508120427678869e-01,-1.232286446652010731e-01,-1.183158747782163123e-01,-1.129937074006494846e-01,-1.076715400230826708e-01,-1.027587701360979100e-01,-9.743660275853108232e-02,-9.211443538096426853e-02,-8.679226800339742698e-02,-8.187949811641268005e-02,-7.655733073884586626e-02,-7.123516336127902471e-02,-6.591299598371221091e-02,-6.100022609672745011e-02,-5.567805871916062244e-02,-5.035589134159379476e-02,-4.503372396402696709e-02,-4.012095407704222016e-02,-3.479878669947544800e-02,-2.947661932190859257e-02,-2.415445194434176490e-02,-1.924168205735699022e-02,-1.391951467979019030e-02,-8.597347302223362631e-03,-1.608932137987509059e-01
-1.834100757807643756e-01,-1.834100757807643756e-01,-1.834100757807643756e-01,-1.834100757807643756e-01,-1.834100757807643756e-01,-1.834100757807643756e-01,-1.834100757807643756e-01,-1.834100757807643756e-01,-1.834100757807643756e-01,-1.834100757807643756e-01,-1.793161008749437346e-01,-1.739939334973769069e-01,-1.686717661198101070e-01,-1.637589962328253324e-01,-1.584368288552585047e-01,-1.531146614776917048e-01,-1.477924941001248771e-01,-1.428797242131401024e-01,-1.375575568355733025e-01,-1.322353894580064471e-01,-1.269132220804396471e-01,-1.220004521934548725e-01,-1.166782848158880448e-01,-1.113561174383212310e-01,-1.060339500607544172e-01,-1.011211801737696564e-01,-9.579901279620282872e-02,-9.047684541863600105e-02,-8.515467804106918726e-02,-8.024190815408441257e-02,-7.491974077651758490e-02,-6.959757339895078498e-02,-6.427540602138395731e-02,-5.936263613439918263e-02,-5.404046875683238271e-02,-4.871830137926555504e-02,-4.339613400169872737e-02,-3.848336411471400820e-02,-3.316119673714715277e-02,-2.783902935958035285e-02,-2.292625947259557817e-02,-1.760409209502875050e-02,-1.228192471746192282e-02,-6.959757339895095152e-03,-2.046987452910348226e-03,-5.551115123125782702e-17,-9.170503789038220166e-02
-1.834100757807643756e-01,-1.834100757807643756e-01,-1.834100757807643756e-01,-1.834100757807643756e-01,-1.834100757807643756e-01,-1.834100757807643756e-01,-1.834100757807643756e-01,-1.830006782901823226e-01,-1.776785109126154949e-01,-1.723563435350486672e-01,-1.670341761574818396e-01,-1.621214062704970926e-01,-1.567992388929302650e-01,-1.514770715153634373e-01,-1.461549041377966096e-01,-1.412421342508118627e-01,-1.359199668732450350e-01,-1.305977994956782073e-01,-1.252756321181113797e-01,-1.203628622311266189e-01,-1.150406948535598051e-01,-1.097185274759929774e-01,-1.043963600984261636e-01,-9.948359021144140280e-02,-9.416142283387458900e-02,-8.883925545630774745e-02,-8.392648556932300052e-02,-7.860431819175617285e-02,-7.328215081418934518e-02,-6.795998343662253138e-02,-6.304721354963775670e-02,-5.772504617207094291e-02,-5.240287879450411523e-02,-4.708071141693728756e-02,-4.216794152995254064e-02,-3.684577415238574072e-02,-3.152360677481891305e-02,-2.620143939725208537e-02,-2.128866951026731069e-02,-1.596650213270048302e-02,-1.064433475513368310e-02,-5.322167377566855428e-03,-4.093974905820807475e-04,-2.775557561562891351e-17,-2.775557561562891351e-17,-2.775557561562891351e-17,-1.719469460444669751e-02
-1.834100757807643756e-01,-1.834100757807643756e-01,-1.834100757807643756e-01,-1.834100757807643756e-01,-1.834100757807643756e-01,-1.813630883278540551e-01,-1.760409209502872274e-01,-1.707187535727204275e-01,-1.658059836857356528e-01,-1.604838163081688251e-01,-1.551616489306020252e-01,-1.498394815530351698e-01,-1.449267116660504229e-01,-1.396045442884836230e-01,-1.342823769109167675e-01,-1.289602095333499676e-01,-1.240474396463651929e-01,-1.187252722687983653e-01,-1.134031048912315515e-01,-1.080809375136647377e-01,-1.031681676266799769e-01,-9.784600024911316307e-02,-9.252383287154633540e-02,-8.720166549397950773e-02,-8.228889560699473305e-02,-7.696672822942791925e-02,-7.164456085186109158e-02,-6.632239347429427778e-02,-6.140962358730951698e-02,-5.608745620974267543e-02,-5.076528883217587551e-02,-4.544312145460907559e-02,-4.053035156762430091e-02,-3.520818419005750100e-02,-2.988601681249067332e-02,-2.497324692550592640e-02,-1.965107954793907097e-02,-1.432891217037224330e-02,-9.006744792805415623e-03,-4.093974905820640942e-03,-5.551115123125782702e-17,-2.775557561562891351e-17,-2.775557561562891351e-17,-2.775557561562891351e-17,-2.775557561562891351e-17,-2.775557561562891351e-17,-2.775557561562891351e-17
-1.834100757807643756e-01,-1.834100757807643756e-01,-1.834100757807643756e-01,-1.797254983655258154e-01,-1.744033309879589877e-01,-1.690811636103921600e-01,-1.641683937234074131e-01,-1.588462263458405854e-01,-1.535240589682737578e-01,-1.482018915907069301e-01,-1.432891217037221832e-01,-1.379669543261553555e-01,-1.326447869485885278e-01,-1.273226195710217001e-01,-1.224098496840369532e-01,-1.170876823064701255e-01,-1.117655149289032979e-01,-1.068527450419185509e-01,-1.015305776643517233e-01,-9.620841028678489559e-02,-9.088624290921806792e-02,-8.597347302223330712e-02,-8.065130564466649332e-02,-7.532913826709966565e-02,-7.000697088953285185e-02,-6.509420100254807717e-02,-5.977203362498126338e-02,-5.444986624741443570e-02,-4.912769886984763579e-02,-4.421492898286286111e-02,-3.889276160529603343e-02,-3.357059422772923352e-02,-2.824842685016240584e-02,-2.333565696317765892e-02,-1.801348958561080349e-02,-1.269132220804400357e-02,-7.369154830477148144e-03,-2.456384943492428974e-03,-2.775557561562891351e-17,-2.775557561562891351e-17,-2.775557561562891351e-17,-2.775557561562891351e-17,-2.775557561562891351e-17,-2.775557561562891351e-17,-2.775557561562891351e-17,-2.775557561562891351e-17,-2.775557561562891351e-17
-1.834100757807643756e-01,-1.780879084031975479e-01,-1.727657410256307202e-01,-1.678529711386459733e-01,-1.625308037610791456e-01,-1.572086363835123179e-01,-1.518864690059454903e-01,-1.469736991189607433e-01,-1.416515317413939157e-01,-1.363293643638270880e-01,-1.310071969862602881e-01,-1.260944270992755134e-01,-1.207722597217086857e-01,-1.154500923441418581e-01,-1.101279249665750581e-01,-1.052151550795902973e-01,-9.989298770202346966e-02,-9.457082032445665587e-02,-8.924865294688981432e-02,-8.433588305990506739e-02,-7.901371568233823972e-02,-7.369154830477141205e-02,-6.836938092720458438e-02,-6.345661104021983745e-02,-5.813444366265299590e-02,-5.281227628508619598e-02,-4.749010890751936831e-02,-4.257733902053462138e-02,-3.725517164296779371e-02,-3.193300426540096604e-02,-2.661083688783416612e-02,-2.169806700084939144e-02,-1.637589962328256377e-02,-1.105373224571573609e-02,-6.140962358730989168e-03,-8.187949811641337394e-04,-2.775557561562891351e-17,-2.775557561562891351e-17,-2.775557561562891351e-17,-2.775557561562891351e-17,-2.775557561562891351e-17,-2.775557561562891351e-17,-5.551115123125782702e-17,-2.775557561562891351e-17,-2.775557561562891351e-17,-2.775557561562891351e-17,-2.775557561562891351e-17
-1.711281510633024805e-01,-1.662153811763177336e-01,-1.608932137987509059e-01,-1.555710464211840782e-01,-1.502488790436172506e-01,-1.453361091566324759e-01,-1.400139417790656760e-01,-1.346917744014988483e-01,-1.293696070239320206e-01,-1.244568371369472598e-01,-1.191346697593804321e-01,-1.138125023818136183e-01,-1.084903350042467907e-01,-1.035775651172620299e-01,-9.825539773969521606e-02,-9.293323036212838839e-02,-8.802046047514361371e-02,-8.269829309757681379e-02,-7.737612572000998612e-02,-7.205395834244315845e-02,-6.714118845545839764e-02,-6.181902107789156997e-02,-5.649685370032475618e-02,-5.117468632275792850e-02,-4.626191643577318158e-02,-4.093974905820635390e-02,-3.561758168063952623e-02,-3.029541430307272631e-02,-2.538264441608795163e-02,-2.006047703852112396e-02,-1.473830966095432404e-02,-9.416142283387496370e-03,-4.503372396402721689e-03,-2.775557561562891351e-17,-2.775557561562891351e-17,-2.775557561562891351e-17,-5.551115123125782702e-17,-2.775557561562891351e-17,0.000000000000000000e+00,-2.775557561562891351e-17,-2.775557561562891351e-17,-2.775557561562891351e-17,-2.775557561562891351e-17,-2.775557561562891351e-17,-2.775557561562891351e-17,-2.775557561562891351e-17,-2.775557561562891351e-17
-1.592556238364226384e-01,-1.539334564588558107e-01,-1.490206865718710638e-01,-1.436985191943042361e-01,-1.383763518167374085e-01,-1.330541844391706086e-01,-1.281414145521858339e-01,-1.228192471746190062e-01,-1.174970797970521924e-01,-1.121749124194853647e-01,-1.072621425325006178e-01,-1.019399751549337901e-01,-9.661780777736696246e-02,-9.129564039980014867e-02,-8.638287051281537399e-02,-8.106070313524854631e-02,-7.573853575768173252e-02,-7.041636838011490485e-02,-6.550359849313014404e-02,-6.018143111556331637e-02,-5.485926373799648870e-02,-4.953709636042968878e-02,-4.462432647344491410e-02,-3.930215909587811418e-02,-3.397999171831131426e-02,-2.906722183132651183e-02,-2.374505445375971191e-02,-1.842288707619288424e-02,-1.310071969862605656e-02,-8.187949811641309639e-03,-2.865782434074481966e-03,-2.775557561562891351e-17,-2.775557561562891351e-17,-2.775557561562891351e-17,-2.775557561562891351e-17,-2.775557561562891351e-17,-2.775557561562891351e-17,-2.775557561562891351e-17,-2.775557561562891351e-17,-2.775557561562891351e-17,-2.775557561562891351e-17,-2.775557561562891351e-17,-2.775557561562891351e-17,-2.775557561562891351e-17,-2.775557561562891351e-17,-5.551115123125782702e-17,-2.775557561562891351e-17
-1.473830966095427963e-01,-1.420609292319759964e-01,-1.367387618544091688e-01,-1.314165944768423411e-01,-1.265038245898575664e-01,-1.211816572122907387e-01,-1.158594898347239249e-01,-1.105373224571571111e-01,-1.056245525701723503e-01,-1.003023851926055365e-01,-9.498021781503870886e-02,-9.006744792805394806e-02,-8.474528055048713426e-02,-7.942311317292030659e-02,-7.410094579535346504e-02,-6.918817590836870424e-02,-6.386600853080189044e-02,-5.854384115323507665e-02,-5.322167377566822122e-02,-4.830890388868350205e-02,-4.298673651111667438e-02,-3.766456913354984670e-02,-3.234240175598304678e-02,-2.742963186899829986e-02,-2.210746449143144443e-02,-1.678529711386461676e-02,-1.146312973629781684e-02,-6.550359849313069915e-03,-1.228192471746242243e-03,-2.775557561562891351e-17,-2.775557561562891351e-17,0.000000000000000000e+00,-2.775557561562891351e-17,-2.775557561562891351e-17,-2.775557561562891351e-17,-2.775557561562891351e-17,-2.775557561562891351e-17,-2.775557561562891351e-17,-2.775557561562891351e-17,-2.775557561562891351e-17,-2.775557561562891351e-17,-5.551115123125782702e-17,-2.775557561562891351e-17,-2.775557561562891351e-17,-5.551115123125782702e-17,-2.775557561562891351e-17,0.000000000000000000e+00
-1.351011718920809290e-01,-1.301884020050961266e-01,-1.248662346275293267e-01,-1.195440672499624990e-01,-1.142218998723956713e-01,-1.093091299854109244e-01,-1.039869626078440967e-01,-9.866479523027728293e-02,-9.334262785271046914e-02,-8.842985796572568058e-02,-8.310769058815886678e-02,-7.778552321059205299e-02,-7.246335583302522532e-02,-6.755058594604046451e-02,-6.222841856847363684e-02,-5.690625119090680917e-02,-5.158408381334000925e-02,-4.667131392635523457e-02,-4.134914654878843465e-02,-3.602697917122160698e-02,-3.111420928423683230e-02,-2.579204190667000463e-02,-2.046987452910317695e-02,-1.514770715153637703e-02,-1.023493726455163011e-02,-4.912769886984774681e-03,-2.775557561562891351e-17,-2.775557561562891351e-17,-2.775557561562891351e-17,-2.775557561562891351e-17,-2.775557561562891351e-17,-2.775557561562891351e-17,-2.775557561562891351e-17,-2.775557561562891351e-17,-2.775557561562891351e-17,-2.775557561562891351e-17,-2.775557561562891351e-17,-2.775557561562891351e-17,-2.775557561562891351e-17,-2.775557561562891351e-17,-2.775557561562891351e-17,-2.775557561562891351e-17,-2.775557561562891351e-17,-2.775557561562891351e-17,-2.775557561562891351e-17,-2.775557561562891351e-17,-2.775557561562891351e-17
-1.232286446652010731e-01,-1.179064772876342454e-01,-1.129937074006494985e-01,-1.076715400230826708e-01,-1.023493726455158431e-01,-9.702720526794902933e-02,-9.211443538096426853e-02,-8.679226800339744086e-02,-8.147010062583061318e-02,-7.614793324826377163e-02,-7.123516336127902471e-02,-6.591299598371219703e-02,-6.059082860614538324e-02,-5.526866122857856944e-02,-5.035589134159379476e-02,-4.503372396402699485e-02,-3.971155658646016717e-02,-3.438938920889333950e-02,-2.947661932190859257e-02,-2.415445194434176490e-02,-1.883228456677496498e-02,-1.351011718920810956e-02,-8.597347302223362631e-03,-3.275179924656534958e-03,-2.775557561562891351e-17,-2.775557561562891351e-17,-2.775557561562891351e-17,-2.775557561562891351e-17,-2.775557561562891351e-17,-2.775557561562891351e-17,-5.551115123125782702e-17,-2.775557561562891351e-17,-2.775557561562891351e-17,-2.775557561562891351e-17,-5.551115123125782702e-17,-2.775557561562891351e-17,-2.775557561562891351e-17,-2.775557561562891351e-17,-2.775557561562891351e-17,-5.551115123125782702e-17,-2.775557561562891351e-17,-5.551115123125782702e-17,-2.775557561562891351e-17,-2.775557561562891351e-17,-2.775557561562891351e-17,-2.775557561562891351e-17,-2.775557561562891351e-17
-1.113561174383212449e-01,-1.060339500607544172e-01,-1.007117826831875895e-01,-9.538961530562077573e-02,-9.047684541863601493e-02,-8.515467804106918726e-02,-7.983251066350235958e-02,-7.451034328593554579e-02,-6.959757339895077111e-02,-6.427540602138395731e-02,-5.895323864381712964e-02,-5.363107126625030197e-02,-4.871830137926555504e-02,-4.339613400169875512e-02,-3.807396662413192745e-02,-3.275179924656509978e-02,-2.783902935958035285e-02,-2.251686198201352518e-02,-1.719469460444669751e-02,-1.228192471746192282e-02,-6.959757339895095152e-03,-1.637589962328295234e-03,-5.551115123125782702e-17,-2.775557561562891351e-17,0.000000000000000000e+00,-2.775557561562891351e-17,-2.775557561562891351e-17,0.000000000000000000e+00,-2.775557561562891351e-17,0.000000000000000000e+00,-2.775557561562891351e-17,-2.775557561562891351e-17,-5.551115123125782702e-17,-2.775557561562891351e-17,-2.775557561562891351e-17,-2.775557561562891351e-17,-2.775557561562891351e-17,-5.551115123125782702e-17,-2.775557561562891351e-17,-2.775557561562891351e-17,-2.775557561562891351e-17,-2.775557561562891351e-17,-2.775557561562891351e-17,-2.775557561562891351e-17,-2.775557561562891351e-17,-2.775557561562891351e-17,-2.775557561562891351e-17
-1.069806817577254321e-01,-9.416142283387457512e-02,-8.883925545630776133e-02,-8.351708807874093365e-02,-7.819492070117410598e-02,-7.328215081418934518e-02,-6.795998343662251751e-02,-6.263781605905568983e-02,-5.731564868148886216e-02,-5.240287879450411523e-02,-4.708071141693731532e-02,-4.175854403937048764e-02,-3.643637666180368773e-02,-3.152360677481891305e-02,-2.620143939725208537e-02,-2.087927201968525770e-02,-1.555710464211843003e-02,-1.064433475513368310e-02,-5.322167377566855428e-03,-2.775557561562891351e-17,-2.775557561562891351e-17,-2.775557561562891351e-17,-5.551115123125782702e-17,-2.775557561562891351e-17,-2.775557561562891351e-17,-2.775557561562891351e-17,-2.775557561562891351e-17,-2.775557561562891351e-17,-2.775557561562891351e-17,-2.775557561562891351e-17,-2.775557561562891351e-17,-2.775557561562891351e-17,-2.775557561562891351e-17,-2.775557561562891351e-17,-2.775557561562891351e-17,-2.775557561562891351e-17,-2.775557561562891351e-17,-2.775557561562891351e-17,-2.775557561562891351e-17,-2.775557561562891351e-17,-2.775557561562891351e-17,-2.775557561562891351e-17,-2.775557561562891351e-17,0.000000000000000000e+00,-2.775557561562891351e-17,-2.775557561562891351e-17,0.000000000000000000e+00
-1.353058706373719278e-01,-8.187949811641268005e-02,-7.655733073884585238e-02,-7.164456085186107770e-02,-6.632239347429426390e-02,-6.100022609672745011e-02,-5.567805871916062244e-02,-5.076528883217587551e-02,-4.544312145460907559e-02,-4.012095407704224792e-02,-3.520818419005747324e-02,-2.988601681249064557e-02,-2.456384943492384565e-02,-1.924168205735701798e-02,-1.432891217037224330e-02,-9.006744792805415623e-03,-3.684577415238587950e-03,-5.551115123125782702e-17,0.000000000000000000e+00,-2.775557561562891351e-17,-2.775557561562891351e-17,-2.775557561562891351e-17,-2.775557561562891351e-17,-2.775557561562891351e-17,-2.775557561562891351e-17,-2.775557561562891351e-17,-2.775557561562891351e-17,-2.775557561562891351e-17,-2.775557561562891351e-17,-5.551115123125782702e-17,0.000000000000000000e+00,-2.775557561562891351e-17,-5.551115123125782702e-17,-2.775557561562891351e-17,-2.775557561562891351e-17,-2.775557561562891351e-17,-2.775557561562891351e-17,-2.775557561562891351e-17,-2.775557561562891351e-17,-2.775557561562891351e-17,-5.551115123125782702e-17,-2.775557561562891351e-17,0.000000000000000000e+00,-2.775557561562891351e-17,-2.775557561562891351e-17,-2.775557561562891351e-17,-2.775557561562891351e-17
-1.698999585915562938e-01,-7.000697088953282410e-02,-6.468480351196601030e-02,-5.936263613439918263e-02,-5.444986624741443570e-02,-4.912769886984760803e-02,-4.380553149228080811e-02,-3.848336411471398044e-02,-3.357059422772923352e-02,-2.824842685016240584e-02,-2.292625947259557817e-02,-1.760409209502872274e-02,-1.269132220804400357e-02,-7.369154830477175899e-03,-2.046987452910348226e-03,-5.551115123125782702e-17,-2.775557561562891351e-17,0.000000000000000000e+00,-2.775557561562891351e-17,-2.775557561562891351e-17,-2.775557561562891351e-17,0.000000000000000000e+00,0.000000000000000000e+00,-2.775557561562891351e-17,-2.775557561562891351e-17,-5.551115123125782702e-17,-2.775557561562891351e-17,-2.775557561562891351e-17,-2.775557561562891351e-17,-2.775557561562891351e-17,-2.775557561562891351e-17,-2.775557561562891351e-17,-2.775557561562891351e-17,-2.775557561562891351e-17,-2.775557561562891351e-17,-2.775557561562891351e-17,-2.775557561562891351e-17,-2.775557561562891351e-17,-2.775557561562891351e-17,-2.775557561562891351e-17,-2.775557561562891351e-17,-2.775557561562891351e-17,-2.775557561562891351e-17,-2.775557561562891351e-17,-2.775557561562891351e-17,-2.775557561562891351e-17,-2.775557561562891351e-17
-1.834100757807643756e-01,-1.048569322753309802e-01,-5.281227628508619598e-02,-4.749010890751936831e-02,-4.216794152995256839e-02,-3.684577415238574072e-02,-3.193300426540096604e-02,-2.661083688783416612e-02,-2.128866951026733845e-02,-1.637589962328256377e-02,-1.105373224571573609e-02,-5.731564868148908420e-03,-4.093974905820807475e-04,-2.775557561562891351e-17,-2.775557561562891351e-17,-2.775557561562891351e-17,-2.775557561562891351e-17,-2.775557561562891351e-17,-2.775557561562891351e-17,-2.775557561562891351e-17,-2.775557561562891351e-17,-2.775557561562891351e-17,-2.775557561562891351e-17,-2.775557561562891351e-17,-2.775557561562891351e-17,0.000000000000000000e+00,-2.775557561562891351e-17,-2.775557561562891351e-17,-2.775557561562891351e-17,-2.775557561562891351e-17,-5.551115123125782702e-17,-2.775557561562891351e-17,-5.551115123125782702e-17,-2.775557561562891351e-17,-2.775557561562891351e-17,-2.775557561562891351e-17,-2.775557561562891351e-17,-2.775557561562891351e-17,-2.775557561562891351e-17,-2.775557561562891351e-17,-5.551115123125782702e-17,-2.775557561562891351e-17,-2.775557561562891351e-17,-2.775557561562891351e-17,-2.775557561562891351e-17,-2.775557561562891351e-17,-2.775557561562891351e-17
-1.834100757807643756e-01,-1.490206865718710638e-01,-4.053035156762430091e-02,-3.561758168063955399e-02,-3.029541430307272631e-02,-2.497324692550589864e-02,-1.965107954793907097e-02,-1.473830966095432404e-02,-9.416142283387496370e-03,-4.093974905820668697e-03,-2.775557561562891351e-17,-2.775557561562891351e-17,-2.775557561562891351e-17,-2.775557561562891351e-17,-2.775557561562891351e-17,0.000000000000000000e+00,-2.775557561562891351e-17,-2.775557561562891351e-17,-2.775557561562891351e-17,-2.775557561562891351e-17,-2.775557561562891351e-17,-2.775557561562891351e-17,-2.775557561562891351e-17,-2.775557561562891351e-17,-5.551115123125782702e-17,0.000000000000000000e+00,-2.775557561562891351e-17,-2.775557561562891351e-17,-2.775557561562891351e-17,-2.775557561562891351e-17,-5.551115123125782702e-17,-2.775557561562891351e-17,-2.775557561562891351e-17,-2.775557561562891351e-17,-2.775557561562891351e-17,-5.551115123125782702e-17,-2.775557561562891351e-17,-2.775557561562891351e-17,-2.775557561562891351e-17,-2.775557561562891351e-17,-2.775557561562891351e-17,-2.775557561562891351e-17,-2.775557561562891351e-17,-2.775557561562891351e-17,-2.775557561562891351e-17,-2.775557561562891351e-17,-2.775557561562891351e-17
-1.834100757807643756e-01,-1.834100757807643756e-01,-6.734588720074943802e-02,-2.333565696317763116e-02,-1.842288707619288424e-02,-1.310071969862605656e-02,-7.778552321059228891e-03,-2.456384943492401218e-03,-2.775557561562891351e-17,0.000000000000000000e+00,-2.775557561562891351e-17,-2.775557561562891351e-17,-2.775557561562891351e-17,-2.775557561562891351e-17,-2.775557561562891351e-17,-2.775557561562891351e-17,-2.775557561562891351e-17,-2.775557561562891351e-17,-2.775557561562891351e-17,-2.775557561562891351e-17,-2.775557561562891351e-17,0.000000000000000000e+00,-2.775557561562891351e-17,-2.775557561562891351e-17,-2.775557561562891351e-17,-2.775557561562891351e-17,-2.775557561562891351e-17,-2.775557561562891351e-17,-2.775557561562891351e-17,-2.775557561562891351e-17,-2.775557561562891351e-17,-2.775557561562891351e-17,-2.775557561562891351e-17,-2.775557561562891351e-17,-2.775557561562891351e-17,-2.775557561562891351e-17,-2.775557561562891351e-17,-2.775557561562891351e-17,-2.775557561562891351e-17,-2.775557561562891351e-17,-2.775557561562891351e-17,-2.775557561562891351e-17,-2.775557561562891351e-17,0.000000000000000000e+00,0.000000000000000000e+00,-2.775557561562891351e-17,0.000000000000000000e+00
-1.834100757807643756e-01,-1.834100757807643756e-01,-1.261328081140175861e-01,-1.146312973629781684e-02,-6.140962358730961412e-03,-8.187949811641337394e-04,-2.775557561562891351e-17,-2.775557561562891351e-17,-2.775557561562891351e-17,-2.775557561562891351e-17,-2.775557561562891351e-17,-2.775557561562891351e-17,-2.775557561562891351e-17,-2.775557561562891351e-17,-2.775557561562891351e-17,-2.775557561562891351e-17,-2.775557561562891351e-17,-2.775557561562891351e-17,-2.775557561562891351e-17,-2.775557561562891351e-17,-2.775557561562891351e-17,-2.775557561562891351e-17,-2.775557561562891351e-17,-5.551115123125782702e-17,-2.775557561562891351e-17,-2.775557561562891351e-17,-2.775557561562891351e-17,0.000000000000000000e+00,-2.775557561562891351e-17,-5.551115123125782702e-17,-2.775557561562891351e-17,0.000000000000000000e+00,-2.775557561562891351e-17,-5.551115123125782702e-17,-2.775557561562891351e-17,-2.775557561562891351e-17,0.000000000000000000e+00,-2.775557561562891351e-17,0.000000000000000000e+00,-2.775557561562891351e-17,-2.775557561562891351e-17,-5.551115123125782702e-17,-2.775557561562891351e-17,0.000000000000000000e+00,-2.775557561562891351e-17,-2.775557561562891351e-17,-2.775557561562891351e-17
-1.834100757807643756e-01,-1.834100757807643756e-01,-1.834100757807643756e-01,-2.292625947259557817e-02,-2.775557561562891351e-17,-2.775557561562891351e-17,-2.775557561562891351e-17,-2.775557561562891351e-17,-2.775557561562891351e-17,-2.775557561562891351e-17,-2.775557561562891351e-17,-2.775557561562891351e-17,-2.775557561562891351e-17,0.000000000000000000e+00,-2.775557561562891351e-17,-2.775557561562891351e-17,-2.775557561562891351e-17,-2.775557561562891351e-17,-2.775557561562891351e-17,-2.775557561562891351e-17,-2.775557561562891351e-17,-2.775557561562891351e-17,-2.775557561562891351e-17,-2.775557561562891351e-17,-2.775557561562891351e-17,-2.775557561562891351e-17,-2.775557561562891351e-17,-2.775557561562891351e-17,-2.775557561562891351e-17,-2.775557561562891351e-17,-2.775557561562891351e-17,-2.775557561562891351e-17,-2.775557561562891351e-17,-2.775557561562891351e-17,-2.775557561562891351e-17,-2.775557561562891351e-17,0.000000000000000000e+00,-2.775557561562891351e-17,-2.775557561562891351e-17,-2.775557561562891351e-17,-2.775557561562891351e-17,-2.775557561562891351e-17,-2.775557561562891351e-17,-2.775557561562891351e-17,-2.775557561562891351e-17,-2.775557561562891351e-17,-2.775557561562891351e-17
-1.834100757807643756e-01,-1.834100757807643756e-01,-1.834100757807643756e-01,-9.743660275853108232e-02,0.000000000000000000e+00,-2.775557561562891351e-17,-2.775557561562891351e-17,-2.775557561562891351e-17,-2.775557561562891351e-17,-2.775557561562891351e-17,-2.775557561562891351e-17,-2.775557561562891351e-17,-2.775557561562891351e-17,-2.775557561562891351e-17,-2.775557561562891351e-17,-2.775557561562891351e-17,-2.775557561562891351e-17,0.000000000000000000e+00,-2.775557561562891351e-17,-2.775557561562891351e-17,-2.775557561562891351e-17,-2.775557561562891351e-17,-2.775557561562891351e-17,-2.775557561562891351e-17,-2.775557561562891351e-17,-2.775557561562891351e-17,-2.775557561562891351e-17,-2.775557561562891351e-17,-2.775557561562891351e-17,-2.775557561562891351e-17,-2.775557561562891351e-17,-2.775557561562891351e-17,-2.775557561562891351e-17,-2.775557561562891351e-17,-2.775557561562891351e-17,-2.775557561562891351e-17,-2.775557561562891351e-17,-2.775557561562891351e-17,-2.775557561562891351e-17,-5.551115123125782702e-17,-2.775557561562891351e-17,-5.551115123125782702e-17,-2.775557561562891351e-17,-2.775557561562891351e-17,-2.775557561562891351e-17,-2.775557561562891351e-17,-5.731564868148908420e-03
-1.834100757807643756e-01,-1.834100757807643756e-01,-1.834100757807643756e-01,-1.662153811763177336e-01,-2.775557561562891351e-17,-2.775557561562891351e-17,-2.775557561562891351e-17,-2.775557561562891351e-17,-2.775557561562891351e-17,-2.775557561562891351e-17,-2.775557561562891351e-17,-2.775557561562891351e-17,-2.775557561562891351e-17,-2.775557561562891351e-17,-2.775557561562891351e-17,-2.775557561562891351e-17,-2.775557561562891351e-17,-2.775557561562891351e-17,-2.775557561562891351e-17,-5.551115123125782702e-17,-2.775557561562891351e-17,-5.551115123125782702e-17,-2.775557561562891351e-17,-2.775557561562891351e-17,-5.551115123125782702e-17,-2.775557561562891351e-17,-5.551115123125782702e-17,-2.775557561562891351e-17,-2.775557561562891351e-17,-5.551115123125782702e-17,-2.775557561562891351e-17,-2.775557561562891351e-17,-2.775557561562891351e-17,-2.775557561562891351e-17,-2.775557561562891351e-17,-2.775557561562891351e-17,-2.775557561562891351e-17,-2.775557561562891351e-17,-2.775557561562891351e-17,-2.775557561562891351e-17,-2.775557561562891351e-17,-2.775557561562891351e-17,-2.775557561562891351e-17,-2.775557561562891351e-17,-1.337365135901411040e-02,-3.629991083160963306e-02,-6.113669192692147702e-02
-1.834100757807643756e-01,-1.834100757807643756e-01,-1.834100757807643756e-01,-1.834100757807643756e-01,-7.451034328593553191e-02,-2.775557561562891351e-17,-2.775557561562891351e-17,-2.775557561562891351e-17,-2.775557561562891351e-17,-2.775557561562891351e-17,-5.551115123125782702e-17,-2.775557561562891351e-17,-2.775557561562891351e-17,-2.775557561562891351e-17,-2.775557561562891351e-17,-2.775557561562891351e-17,-2.775557561562891351e-17,-2.775557561562891351e-17,-2.775557561562891351e-17,-2.775557561562891351e-17,-2.775557561562891351e-17,-2.775557561562891351e-17,-2.775557561562891351e-17,0.000000000000000000e+00,-2.775557561562891351e-17,-2.775557561562891351e-17,-2.775557561562891351e-17,-2.775557561562891351e-17,-2.775557561562891351e-17,-2.775557561562891351e-17,-2.775557561562891351e-17,-2.775557561562891351e-17,-2.775557561562891351e-17,-5.551115123125782702e-17,-2.775557561562891351e-17,-2.775557561562891351e-17,-2.775557561562891351e-17,-2.775557561562891351e-17,-2.775557561562891351e-17,-5.551115123125782702e-17,-2.775557561562891351e-17,-2.775557561562891351e-17,-1.910521622716299106e-02,-4.394199732247480727e-02,-6.877877841778663737e-02,-9.361555951309849521e-02,-1.165418189856940456e-01
-1.834100757807643756e-01,-1.834100757807643756e-01,-1.834100757807643756e-01,-1.834100757807643756e-01,-1.490206865718710638e-01,-2.775557561562891351e-17,-2.775557561562891351e-17,-2.775557561562891351e-17,-2.775557561562891351e-17,-2.775557561562891351e-17,-2.775557561562891351e-17,-2.775557561562891351e-17,-2.775557561562891351e-17,-2.775557561562891351e-17,-5.551115123125782702e-17,-5.551115123125782702e-17,-2.775557561562891351e-17,-5.551115123125782702e-17,-2.775557561562891351e-17,-2.775557561562891351e-17,-2.775557561562891351e-17,-2.775557561562891351e-17,-2.775557561562891351e-17,-2.775557561562891351e-17,-2.775557561562891351e-17,-2.775557561562891351e-17,-2.775557561562891351e-17,0.000000000000000000e+00,-5.551115123125782702e-17,-2.775557561562891351e-17,-2.775557561562891351e-17,-2.775557561562891351e-17,-5.551115123125782702e-17,-2.775557561562891351e-17,-2.775557561562891351e-17,-2.775557561562891351e-17,-2.775557561562891351e-17,-2.775557561562891351e-17,-2.775557561562891351e-17,-3.821043245432614865e-03,-2.674730271802816528e-02,-5.158408381334000925e-02,-7.642086490865183934e-02,-1.012576460039636833e-01,-1.241839054765592198e-01,-1.490206865718710638e-01,-1.738574676671829078e-01
-1.834100757807643756e-01,-1.834100757807643756e-01,-1.834100757807643756e-01,-1.834100757807643756e-01,-1.834100757807643756e-01,-5.158408381333998149e-02,-2.775557561562891351e-17,-2.775557561562891351e-17,-2.775557561562891351e-17,-2.775557561562891351e-17,-5.551115123125782702e-17,-2.775557561562891351e-17,-2.775557561562891351e-17,-2.775557561562891351e-17,-2.775557561562891351e-17,-2.775557561562891351e-17,-2.775557561562891351e-17,-2.775557561562891351e-17,-2.775557561562891351e-17,-2.775557561562891351e-17,-2.775557561562891351e-17,-2.775557561562891351e-17,-2.775557561562891351e-17,-2.775557561562891351e-17,-2.775557561562891351e-17,-5.551115123125782702e-17,-2.775557561562891351e-17,-5.551115123125782702e-17,-2.775557561562891351e-17,-2.775557561562891351e-17,-2.775557561562891351e-17,-2.775557561562891351e-17,-2.775557561562891351e-17,-2.775557561562891351e-17,-2.775557561562891351e-17,-2.775557561562891351e-17,-2.775557561562891351e-17,-9.552608113581495530e-03,-3.438938920889336726e-02,-5.922617030420518347e-02,-8.406295139951701356e-02,-1.069892108721125640e-01,-1.318259919674243941e-01,-1.566627730627362380e-01,-1.814995541580480820e-01,-1.834100757807643756e-01,-1.834100757807643756e-01
-1.834100757807643756e-01,-1.834100757807643756e-01,-1.834100757807643756e-01,-1.834100757807643756e-01,-1.834100757807643756e-01,-1.260944270992755134e-01,-2.775557561562891351e-17,-2.775557561562891351e-17,-2.775557561562891351e-17,-2.775557561562891351e-17,-2.775557561562891351e-17,-2.775557561562891351e-17,-2.775557561562891351e-17,-2.775557561562891351e-17,-2.775557561562891351e-17,-2.775557561562891351e-17,-2.775557561562891351e-17,0.000000000000000000e+00,-2.775557561562891351e-17,0.000000000000000000e+00,-2.775557561562891351e-17,-2.775557561562891351e-17,-5.551115123125782702e-17,-2.775557561562891351e-17,-2.775557561562891351e-17,-2.775557561562891351e-17,-2.775557561562891351e-17,-2.775557561562891351e-17,-2.775557561562891351e-17,-2.775557561562891351e-17,-2.775557561562891351e-17,-2.775557561562891351e-17,-2.775557561562891351e-17,-2.775557561562891351e-17,-2.775557561562891351e-17,-1.719469460444664199e-02,-4.203147569975851372e-02,-6.686825679507035769e-02,-8.979451626766590810e-02,-1.146312973629777382e-01,-1.394680784582895683e-01,-1.643048595536014123e-01,-1.834100757807643756e-01,-1.834100757807643756e-01,-1.834100757807643756e-01,-1.834100757807643756e-01,-1.834100757807643756e-01
-1.834100757807643756e-01,-1.834100757807643756e-01,-1.834100757807643756e-01,-1.834100757807643756e-01,-1.834100757807643756e-01,-1.834100757807643756e-01,-2.865782434074445884e-02,0.000000000000000000e+00,-2.775557561562891351e-17,-2.775557561562891351e-17,-2.775557561562891351e-17,-2.775557561562891351e-17,-2.775557561562891351e-17,-2.775557561562891351e-17,-2.775557561562891351e-17,0.000000000000000000e+00,-2.775557561562891351e-17,0.000000000000000000e+00,-2.775557561562891351e-17,-2.775557561562891351e-17,-2.775557561562891351e-17,-2.775557561562891351e-17,-2.775557561562891351e-17,-5.551115123125782702e-17,-2.775557561562891351e-17,-2.775557561562891351e-17,-2.775557561562891351e-17,-2.775557561562891351e-17,-2.775557561562891351e-17,-2.775557561562891351e-17,-2.775557561562891351e-17,-2.775557561562891351e-17,-2.775557561562891351e-17,-2.483678109531187173e-02,-4.967356219062371570e-02,-7.451034328593554579e-02,-9.743660275853108232e-02,-1.222733838538429263e-01,-1.471101649491547703e-01,-1.719469460444666142e-01,-1.834100757807643756e-01,-1.834100757807643756e-01,-1.834100757807643756e-01,-1.834100757807643756e-01,-1.834100757807643756e-01,-1.834100757807643756e-01,-1.834100757807643756e-01
-1.834100757807643756e-01,-1.834100757807643756e-01,-1.834100757807643756e-01,-1.834100757807643756e-01,-1.834100757807643756e-01,-1.834100757807643756e-01,-1.031681676266799769e-01,-2.775557561562891351e-17,-2.775557561562891351e-17,-2.775557561562891351e-17,-2.775557561562891351e-17,-5.551115123125782702e-17,-2.775557561562891351e-17,-2.775557561562891351e-17,-2.775557561562891351e-17,-2.775557561562891351e-17,-2.775557561562891351e-17,-2.775557561562891351e-17,-2.775557561562891351e-17,0.000000000000000000e+00,-2.775557561562891351e-17,-2.775557561562891351e-17,-2.775557561562891351e-17,-2.775557561562891351e-17,-2.775557561562891351e-17,-2.775557561562891351e-17,-2.775557561562891351e-17,-2.775557561562891351e-17,-2.775557561562891351e-17,-2.775557561562891351e-17,-7.642086490865201975e-03,-3.247886758617704595e-02,-5.731564868148888992e-02,-8.215242977680072001e-02,-1.050786892493962565e-01,-1.299154703447081005e-01,-1.547522514400199445e-01,-1.776785109126154949e-01,-1.834100757807643756e-01,-1.834100757807643756e-01,-1.834100757807643756e-01,-1.834100757807643756e-01,-1.834100757807643756e-01,-1.834100757807643756e-01,-1.834100757807643756e-01,-1.834100757807643756e-01,-1.834100757807643756e-01
-1.834100757807643756e-01,-1.834100757807643756e-01,-1.834100757807643756e-01,-1.834100757807643756e-01,-1.834100757807643756e-01,-1.834100757807643756e-01,-1.776785109126154949e-01,-5.731564868148908420e-03,-5.551115123125782702e-17,-2.775557561562891351e-17,-2.775557561562891351e-17,-2.775557561562891351e-17,-2.775557561562891351e-17,0.000000000000000000e+00,-2.775557561562891351e-17,-2.775557561562891351e-17,-5.551115123125782702e-17,-2.775557561562891351e-17,-5.551115123125782702e-17,-2.775557561562891351e-17,-2.775557561562891351e-17,-2.775557561562891351e-17,-2.775557561562891351e-17,-2.775557561562891351e-17,-2.775557561562891351e-17,0.000000000000000000e+00,-2.775557561562891351e-17,-2.775557561562891351e-17,-1.528417298173037620e-02,-4.012095407704222016e-02,-6.495773517235405026e-02,-8.788399464494960067e-02,-1.127207757402614446e-01,-1.375575568355733025e-01,-1.623943379308851187e-01,-1.834100757807643756e-01,-1.834100757807643756e-01,-1.834100757807643756e-01,-1.834100757807643756e-01,-1.834100757807643756e-01,-1.834100757807643756e-01,-1.834100757807643756e-01,-1.834100757807643756e-01,-1.834100757807643756e-01,-1.834100757807643756e-01,-1.834100757807643756e-01,-1.834100757807643756e-01
-1.834100757807643756e-01,-1.834100757807643756e-01,-1.834100757807643756e-01,-1.834100757807643756e-01,-1.834100757807643756e-01,-1.834100757807643756e-01,-1.834100757807643756e-01,-8.024190815408442645e-02,-2.775557561562891351e-17,-2.775557561562891351e-17,-2.775557561562891351e-17,-2.775557561562891351e-17,-2.775557561562891351e-17,-2.775557561562891351e-17,-2.775557561562891351e-17,-2.775557561562891351e-17,-2.775557561562891351e-17,-2.775557561562891351e-17,-2.775557561562891351e-17,-2.775557561562891351e-17,-2.775557561562891351e-17,0.000000000000000000e+00,-2.775557561562891351e-17,-2.775557561562891351e-17,-2.775557561562891351e-17,-2.775557561562891351e-17,-2.292625947259555041e-02,-4.776304056790739438e-02,-7.259982166321923835e-02,-9.552608113581478877e-02,-1.203628622311266327e-01,-1.451996433264384767e-01,-1.681259027990339994e-01,-1.834100757807643756e-01,-1.834100757807643756e-01,-1.834100757807643756e-01,-1.834100757807643756e-01,-1.834100757807643756e-01,-1.834100757807643756e-01,-1.834100757807643756e-01,-1.834100757807643756e-01,-1.834100757807643756e-01,-1.834100757807643756e-01,-1.834100757807643756e-01,-1.834100757807643756e-01,-1.834100757807643756e-01,-1.834100757807643756e-01
-1.834100757807643756e-01,-1.834100757807643756e-01,-1.834100757807643756e-01,-1.834100757807643756e-01,-1.834100757807643756e-01,-1.834100757807643756e-01,-1.834100757807643756e-01,-1.547522514400199445e-01,-5.551115123125782702e-17,-2.775557561562891351e-17,-2.775557561562891351e-17,-2.775557561562891351e-17,-2.775557561562891351e-17,0.000000000000000000e+00,-2.775557561562891351e-17,-2.775557561562891351e-17,-5.551115123125782702e-17,-2.775557561562891351e-17,-2.775557561562891351e-17,-2.775557561562891351e-17,-2.775557561562891351e-17,-2.775557561562891351e-17,-2.775557561562891351e-17,-5.731564868148880665e-03,-3.056834596346075239e-02,-5.540512705877259636e-02,-7.833138653136813290e-02,-1.031681676266799630e-01,-1.280049487219918070e-01,-1.528417298173036509e-01,-1.757679892898992013e-01,-1.834100757807643756e-01,-1.834100757807643756e-01,-1.834100757807643756e-01,-1.834100757807643756e-01,-1.834100757807643756e-01,-1.834100757807643756e-01,-1.834100757807643756e-01,-1.834100757807643756e-01,-1.834100757807643756e-01,-1.834100757807643756e-01,-1.834100757807643756e-01,-1.834100757807643756e-01,-1.834100757807643756e-01,-1.834100757807643756e-01,-1.834100757807643756e-01,-1.834100757807643756e-01
