-6.208147384526514073e-02,-6.208147384526514073e-02,-6.208147384526514073e-02,-6.208147384526514073e-02,-6.208147384526514073e-02,-6.208147384526514073e-02,-6.208147384526514073e-02,-6.208147384526514073e-02,-6.208147384526514073e-02,-6.208147384526514073e-02,-6.208147384526514073e-02,-6.208147384526514073e-02,-6.208147384526514073e-02,-6.208147384526514073e-02,-6.208147384526514073e-02,-6.208147384526514073e-02,-6.208147384526514073e-02,-6.208147384526514073e-02,-6.208147384526514073e-02,-6.208147384526514073e-02,-6.208147384526514073e-02,-6.208147384526514073e-02,-5.787804072032531194e-02,-5.270458456655321977e-02,-4.769279891758650136e-02,-4.268101326861978295e-02,-4.134723160397541647e-02,-4.266585665879428502e-02,-4.578811828284814339e-02,-5.089589579404305009e-02,-5.786793631377497998e-02,-6.208147384526514073e-02,-6.208147384526514073e-02,-6.208147384526514073e-02,-6.208147384526514073e-02,-6.208147384526514073e-02,-6.208147384526514073e-02,-6.208147384526514073e-02,-6.208147384526514073e-02,-6.208147384526514073e-02,-6.208147384526514073e-02,-6.208147384526514073e-02,-6.208147384526514073e-02,-6.208147384526514073e-02,-6.208147384526514073e-02,-6.208147384526514073e-02,-6.208147384526514073e-02
-6.208147384526514073e-02,-6.208147384526514073e-02,-6.208147384526514073e-02,-6.208147384526514073e-02,-6.208147384526514073e-02,-6.208147384526514073e-02,-6.208147384526514073e-02,-6.208147384526514073e-02,-6.208147384526514073e-02,-6.208147384526514073e-02,-6.208147384526514073e-02,-6.208147384526514073e-02,-6.208147384526514073e-02,-6.208147384526514073e-02,-6.208147384526514073e-02,-6.208147384526514073e-02,-6.208147384526514073e-02,-6.208147384526514073e-02,-6.208147384526514073e-02,-6.208147384526514073e-02,-6.208147384526514073e-02,-6.208147384526514073e-02,-5.690801769149304856e-02,-5.189623204252633015e-02,-4.672277588875423798e-02,-4.171099023978751957e-02,-3.653753408601542740e-02,-3.152574843704870899e-02,-2.635229228327661682e-02,-2.134050663430989148e-02,-1.616705048053780625e-02,-1.592959692660490117e-02,-2.175983950614884810e-02,-2.961601559903517811e-02,-3.880092115329071556e-02,-5.044119749927793162e-02,-6.208147384526514073e-02,-6.208147384526514073e-02,-6.208147384526514073e-02,-6.208147384526514073e-02,-6.208147384526514073e-02,-6.208147384526514073e-02,-6.208147384526514073e-02,-6.208147384526514073e-02,-6.208147384526514073e-02,-6.208147384526514073e-02,-6.208147384526514073e-02
-6.208147384526514073e-02,-6.208147384526514073e-02,-6.208147384526514073e-02,-6.208147384526514073e-02,-6.208147384526514073e-02,-6.208147384526514073e-02,-6.208147384526514073e-02,-6.208147384526514073e-02,-6.208147384526514073e-02,-6.208147384526514073e-02,-6.208147384526514073e-02,-6.208147384526514073e-02,-6.208147384526514073e-02,-6.208147384526514073e-02,-6.208147384526514073e-02,-6.208147384526514073e-02,-6.208147384526514073e-02,-6.208147384526514073e-02,-6.208147384526514073e-02,-6.208147384526514073e-02,-6.208147384526514073e-02,-6.111145081643287041e-02,-5.593799466266077824e-02,-5.092620901369405984e-02,-4.575275285992196767e-02,-4.074096721095524926e-02,-3.556751105718315709e-02,-3.055572540821643868e-02,-2.538226925444434651e-02,-2.037048360547762810e-02,-1.535869795651092357e-02,-1.018524180273881752e-02,-5.173456153772099109e-03,-6.938893903907228378e-18,0.000000000000000000e+00,-6.938893903907228378e-18,-5.463957842094260831e-03,-1.945350871103462137e-02,-3.032837626083387944e-02,-4.155184583661972186e-02,-5.128996764950616294e-02,-5.962610305353346213e-02,-6.208147384526514073e-02,-6.208147384526514073e-02,-6.208147384526514073e-02,-6.208147384526514073e-02,-6.208147384526514073e-02
-6.208147384526514073e-02,-6.208147384526514073e-02,-6.208147384526514073e-02,-6.208147384526514073e-02,-6.208147384526514073e-02,-6.208147384526514073e-02,-6.208147384526514073e-02,-6.208147384526514073e-02,-6.208147384526514073e-02,-6.208147384526514073e-02,-6.208147384526514073e-02,-6.208147384526514073e-02,-6.208147384526514073e-02,-6.208147384526514073e-02,-6.208147384526514073e-02,-6.208147384526514073e-02,-6.208147384526514073e-02,-6.208147384526514073e-02,-6.208147384526514073e-02,-6.208147384526514073e-02,-6.208147384526514073e-02,-6.014142778760060704e-02,-5.496797163382850793e-02,-4.995618598486178952e-02,-4.478272983108970429e-02,-3.977094418212298588e-02,-3.475915853315626747e-02,-2.958570237938417530e-02,-2.457391673041745689e-02,-1.940046057664536472e-02,-1.438867492767865325e-02,-9.215218773906547201e-03,-4.203433124939828791e-03,-6.938893903907228378e-18,-6.938893903907228378e-18,-6.062643930201741527e-04,-4.365103629745209490e-03,-8.245195745074283822e-03,-1.200403498179932610e-02,-1.576287421852435450e-02,-1.964296633385342883e-02,-2.340180557057846417e-02,-3.163184470582723617e-02,-4.074096721095524926e-02,-4.850115144161339098e-02,-5.476840960445937545e-02,-5.964125966335896700e-02
-6.208147384526514073e-02,-6.208147384526514073e-02,-6.208147384526514073e-02,-6.208147384526514073e-02,-6.208147384526514073e-02,-6.208147384526514073e-02,-6.208147384526514073e-02,-6.208147384526514073e-02,-6.208147384526514073e-02,-6.208147384526514073e-02,-6.208147384526514073e-02,-6.208147384526514073e-02,-6.208147384526514073e-02,-6.208147384526514073e-02,-6.208147384526514073e-02,-6.208147384526514073e-02,-6.208147384526514073e-02,-6.208147384526514073e-02,-6.208147384526514073e-02,-6.208147384526514073e-02,-6.208147384526514073e-02,-5.917140475876833672e-02,-5.415961910980161831e-02,-4.898616295602952614e-02,-4.397437730706281467e-02,-3.880092115329071556e-02,-3.378913550432399715e-02,-2.861567935055190498e-02,-2.360389370158518657e-02,-1.843043754781309440e-02,-1.341865189884638293e-02,-8.245195745074283822e-03,-3.233410096107565412e-03,-6.938893903907228378e-18,-6.938893903907228378e-18,-1.212528786040334428e-03,-5.092620901369408759e-03,-8.851460138094451036e-03,-1.273155225342352537e-02,-1.649039149014855377e-02,-2.037048360547762810e-02,-2.412932284220267037e-02,-2.800941495753173777e-02,-3.176825419425677310e-02,-3.564834630958584050e-02,-3.940718554631088277e-02,-4.328727766163995017e-02
-6.208147384526514073e-02,-6.208147384526514073e-02,-6.208147384526514073e-02,-6.208147384526514073e-02,-6.208147384526514073e-02,-6.208147384526514073e-02,-6.208147384526514073e-02,-6.208147384526514073e-02,-6.208147384526514073e-02,-6.208147384526514073e-02,-6.208147384526514073e-02,-6.208147384526514073e-02,-6.208147384526514073e-02,-6.208147384526514073e-02,-6.208147384526514073e-02,-6.208147384526514073e-02,-6.208147384526514073e-02,-6.208147384526514073e-02,-6.208147384526514073e-02,-6.208147384526514073e-02,-6.208147384526514073e-02,-5.820138172993606640e-02,-5.318959608096935493e-02,-4.801613992719726276e-02,-4.300435427823054435e-02,-3.783089812445844524e-02,-3.281911247549173377e-02,-2.764565632171963466e-02,-2.263387067275291625e-02,-1.746041451898083102e-02,-1.244862887001411955e-02,-7.436843221047394203e-03,-2.263387067275308973e-03,-6.938893903907228378e-18,-6.938893903907228378e-18,-1.940046057664547574e-03,-5.820138172993614967e-03,-9.578977409718650304e-03,-1.345906952504772464e-02,-1.721790876177275303e-02,-2.109800087710182043e-02,-2.485684011382686964e-02,-2.873693222915594397e-02,-3.249577146588097931e-02,-3.625461070260601465e-02,-4.013470281793508204e-02,-4.389354205466011738e-02
-6.208147384526514073e-02,-6.208147384526514073e-02,-6.208147384526514073e-02,-6.208147384526514073e-02,-6.208147384526514073e-02,-6.208147384526514073e-02,-6.208147384526514073e-02,-6.208147384526514073e-02,-6.208147384526514073e-02,-6.208147384526514073e-02,-6.208147384526514073e-02,-6.208147384526514073e-02,-6.208147384526514073e-02,-6.208147384526514073e-02,-6.208147384526514073e-02,-6.208147384526514073e-02,-6.208147384526514073e-02,-6.208147384526514073e-02,-6.208147384526514073e-02,-6.208147384526514073e-02,-6.208147384526514073e-02,-5.723135870110380302e-02,-5.221957305213708461e-02,-4.704611689836499244e-02,-4.203433124939827403e-02,-3.686087509562618186e-02,-3.184908944665946345e-02,-2.683730379769274504e-02,-2.166384764392065287e-02,-1.665206199495394140e-02,-1.147860584118184230e-02,-6.466820192215123886e-03,-1.293364038443031716e-03,-1.387778780781445676e-17,-6.938893903907228378e-18,-2.667563329288739904e-03,-6.547655444617807297e-03,-1.030649468134285651e-02,-1.418658679667193084e-02,-1.794542603339695924e-02,-2.170426527012200152e-02,-2.558435738545106891e-02,-2.934319662217611119e-02,-3.322328873750517858e-02,-3.698212797423021392e-02,-4.086222008955928131e-02,-4.462105932628432359e-02
-6.208147384526514073e-02,-6.208147384526514073e-02,-6.208147384526514073e-02,-6.208147384526514073e-02,-6.208147384526514073e-02,-6.208147384526514073e-02,-6.208147384526514073e-02,-6.208147384526514073e-02,-6.208147384526514073e-02,-6.208147384526514073e-02,-6.208147384526514073e-02,-6.208147384526514073e-02,-6.208147384526514073e-02,-6.208147384526514073e-02,-6.208147384526514073e-02,-6.208147384526514073e-02,-6.208147384526514073e-02,-6.208147384526514073e-02,-6.208147384526514073e-02,-6.208147384526514073e-02,-6.143479182604363181e-02,-5.626133567227153270e-02,-5.124955002330482123e-02,-4.623776437433810282e-02,-4.106430822056600372e-02,-3.605252257159929224e-02,-3.087906641782719314e-02,-2.586728076886048167e-02,-2.069382461508838256e-02,-1.568203896612168496e-02,-1.050858281234957892e-02,-5.496797163382860507e-03,-3.233410096107613985e-04,-1.387778780781445676e-17,-1.387778780781445676e-17,-3.395080600912939173e-03,-7.153919837637981449e-03,-1.103401195296705578e-02,-1.479285118969209112e-02,-1.867294330502116545e-02,-2.243178254174620079e-02,-2.631187465707527512e-02,-3.007071389380031046e-02,-3.395080600912937785e-02,-3.770964524585442013e-02,-4.158973736118348752e-02,-4.534857659790852286e-02
-6.208147384526514073e-02,-6.208147384526514073e-02,-6.208147384526514073e-02,-6.208147384526514073e-02,-6.208147384526514073e-02,-6.208147384526514073e-02,-6.208147384526514073e-02,-6.208147384526514073e-02,-6.208147384526514073e-02,-6.208147384526514073e-02,-6.208147384526514073e-02,-6.208147384526514073e-02,-6.208147384526514073e-02,-6.208147384526514073e-02,-6.208147384526514073e-02,-6.208147384526514073e-02,-6.208147384526514073e-02,-6.208147384526514073e-02,-6.208147384526514073e-02,-6.208147384526514073e-02,-6.046476879721136150e-02,-5.545298314824464309e-02,-5.027952699447255092e-02,-4.526774134550583251e-02,-4.009428519173374034e-02,-3.508249954276702193e-02,-2.990904338899492976e-02,-2.489725774002821135e-02,-1.972380158625611918e-02,-1.471201593728941465e-02,-9.538559783517308599e-03,-4.526774134550590190e-03,-6.938893903907228378e-18,-6.938893903907228378e-18,-2.425057572080710488e-04,-4.122597872537138441e-03,-7.881437109262180718e-03,-1.176152922459126199e-02,-1.552036846131629039e-02,-1.940046057664535778e-02,-2.315929981337040006e-02,-2.703939192869947439e-02,-3.079823116542450973e-02,-3.467832328075357018e-02,-3.843716251747861246e-02,-4.219600175420365473e-02,-4.607609386953272212e-02
-6.208147384526514073e-02,-6.208147384526514073e-02,-6.208147384526514073e-02,-6.208147384526514073e-02,-6.208147384526514073e-02,-6.208147384526514073e-02,-6.208147384526514073e-02,-6.208147384526514073e-02,-6.208147384526514073e-02,-6.208147384526514073e-02,-6.208147384526514073e-02,-6.208147384526514073e-02,-6.208147384526514073e-02,-6.208147384526514073e-02,-6.208147384526514073e-02,-6.208147384526514073e-02,-6.208147384526514073e-02,-6.208147384526514073e-02,-6.208147384526514073e-02,-6.208147384526514073e-02,-5.949474576837909118e-02,-5.448296011941237277e-02,-4.930950396564028060e-02,-4.429771831667356219e-02,-3.912426216290147696e-02,-3.411247651393475855e-02,-2.893902036016265944e-02,-2.392723471119594797e-02,-1.891544906222922956e-02,-1.374199290845713739e-02,-8.730207259490412042e-03,-3.556751105718319872e-03,-6.938893903907228378e-18,-6.938893903907228378e-18,-9.700230288322703176e-04,-4.850115144161344649e-03,-8.608954380886386926e-03,-1.248904649621545432e-02,-1.624788573294049659e-02,-2.012797784826955705e-02,-2.388681708499459933e-02,-2.764565632171963466e-02,-3.152574843704870899e-02,-3.528458767377374433e-02,-3.916467978910281866e-02,-4.292351902582785400e-02,-4.680361114115692833e-02
-6.208147384526514073e-02,-6.208147384526514073e-02,-6.208147384526514073e-02,-6.208147384526514073e-02,-6.208147384526514073e-02,-6.208147384526514073e-02,-6.208147384526514073e-02,-6.208147384526514073e-02,-6.208147384526514073e-02,-6.208147384526514073e-02,-6.208147384526514073e-02,-6.208147384526514073e-02,-6.208147384526514073e-02,-6.208147384526514073e-02,-6.208147384526514073e-02,-6.208147384526514073e-02,-6.208147384526514073e-02,-6.208147384526514073e-02,-6.208147384526514073e-02,-6.208147384526514073e-02,-5.852472273954682780e-02,-5.351293709058010939e-02,-4.833948093680801722e-02,-4.332769528784129881e-02,-3.831590963887458734e-02,-3.314245348510248823e-02,-2.813066783613576982e-02,-2.295721168236367765e-02,-1.794542603339695924e-02,-1.277196987962487401e-02,-7.760184230658148663e-03,-2.586728076886049554e-03,-6.938893903907228378e-18,-6.938893903907228378e-18,-1.697540300456469586e-03,-5.577632415785550857e-03,-9.336471652510586194e-03,-1.309531088923562153e-02,-1.697540300456468892e-02,-2.073424224128973120e-02,-2.461433435661880553e-02,-2.837317359334384087e-02,-3.225326570867290826e-02,-3.601210494539794360e-02,-3.989219706072701793e-02,-4.365103629745205327e-02,-4.753112841278112066e-02
-6.208147384526514073e-02,-6.208147384526514073e-02,-6.208147384526514073e-02,-6.208147384526514073e-02,-6.208147384526514073e-02,-6.208147384526514073e-02,-6.208147384526514073e-02,-6.208147384526514073e-02,-6.208147384526514073e-02,-6.208147384526514073e-02,-6.208147384526514073e-02,-6.208147384526514073e-02,-6.208147384526514073e-02,-6.208147384526514073e-02,-6.208147384526514073e-02,-6.208147384526514073e-02,-6.208147384526514073e-02,-6.208147384526514073e-02,-6.208147384526514073e-02,-6.208147384526514073e-02,-5.771637021551993818e-02,-5.254291406174783907e-02,-4.753112841278112760e-02,-4.235767225900902849e-02,-3.734588661004231702e-02,-3.217243045627021791e-02,-2.716064480730350644e-02,-2.198718865353140733e-02,-1.697540300456468892e-02,-1.180194685079259675e-02,-6.790161201825885284e-03,-1.616705048053786176e-03,-6.938893903907228378e-18,-6.938893903907228378e-18,-2.425057572080682733e-03,-6.183896808805711132e-03,-1.006398892413478546e-02,-1.382282816085982080e-02,-1.770292027618888819e-02,-2.146175951291393047e-02,-2.534185162824300480e-02,-2.910069086496804014e-02,-3.298078298029710753e-02,-3.673962221702214981e-02,-4.061971433235121720e-02,-4.437855356907625948e-02,-4.813739280580128788e-02
-6.208147384526514073e-02,-6.208147384526514073e-02,-6.208147384526514073e-02,-6.208147384526514073e-02,-6.208147384526514073e-02,-6.208147384526514073e-02,-6.208147384526514073e-02,-6.208147384526514073e-02,-6.208147384526514073e-02,-6.208147384526514073e-02,-6.208147384526514073e-02,-6.208147384526514073e-02,-6.208147384526514073e-02,-6.208147384526514073e-02,-6.208147384526514073e-02,-6.208147384526514073e-02,-6.208147384526514073e-02,-6.208147384526514073e-02,-6.208147384526514073e-02,-6.175813283565438627e-02,-5.674634718668766786e-02,-5.157289103291557569e-02,-4.656110538394885728e-02,-4.138764923017676511e-02,-3.637586358121004670e-02,-3.120240742743795107e-02,-2.619062177847123613e-02,-2.101716562469914396e-02,-1.600537997573242555e-02,-1.099359432676571408e-02,-5.820138172993614967e-03,-8.083525240268896184e-04,-6.938893903907228378e-18,-6.938893903907228378e-18,-3.152574843704868124e-03,-6.911414080429910400e-03,-1.079150619575899167e-02,-1.455034543248402701e-02,-1.843043754781308746e-02,-2.218927678453812974e-02,-2.606936889986719713e-02,-2.982820813659223941e-02,-3.358704737331727475e-02,-3.746713948864634908e-02,-4.122597872537138441e-02,-4.510607084070045181e-02,-4.886491007742549408e-02
-6.208147384526514073e-02,-6.208147384526514073e-02,-6.208147384526514073e-02,-6.208147384526514073e-02,-6.208147384526514073e-02,-6.208147384526514073e-02,-6.208147384526514073e-02,-6.208147384526514073e-02,-6.208147384526514073e-02,-6.208147384526514073e-02,-6.208147384526514073e-02,-6.208147384526514073e-02,-6.208147384526514073e-02,-6.208147384526514073e-02,-6.208147384526514073e-02,-6.208147384526514073e-02,-6.208147384526514073e-02,-6.208147384526514073e-02,-6.208147384526514073e-02,-6.078810980682211595e-02,-5.577632415785539755e-02,-5.060286800408330538e-02,-4.559108235511659390e-02,-4.041762620134449480e-02,-3.540584055237777639e-02,-3.039405490341106492e-02,-2.522059874963896581e-02,-2.020881310067224740e-02,-1.503535694690016217e-02,-1.002357129793344376e-02,-4.850115144161344649e-03,-6.938893903907228378e-18,-6.938893903907228378e-18,-6.938893903907228378e-18,-3.880092115329074332e-03,-7.638931352054116608e-03,-1.151902346738319094e-02,-1.527786270410822628e-02,-1.903670194083326161e-02,-2.291679405616233595e-02,-2.667563329288737128e-02,-3.055572540821643868e-02,-3.431456464494148095e-02,-3.819465676027054835e-02,-4.195349599699559062e-02,-4.583358811232465801e-02,-4.959242734904969335e-02
-6.208147384526514073e-02,-6.208147384526514073e-02,-6.208147384526514073e-02,-6.208147384526514073e-02,-6.208147384526514073e-02,-6.208147384526514073e-02,-6.208147384526514073e-02,-6.208147384526514073e-02,-6.208147384526514073e-02,-6.208147384526514073e-02,-6.208147384526514073e-02,-6.208147384526514073e-02,-6.208147384526514073e-02,-6.208147384526514073e-02,-6.208147384526514073e-02,-6.208147384526514073e-02,-6.208147384526514073e-02,-6.208147384526514073e-02,-6.208147384526514073e-02,-5.981808677798984564e-02,-5.480630112902313417e-02,-4.979451548005641576e-02,-4.462105932628432359e-02,-3.960927367731760518e-02,-3.443581752354551301e-02,-2.942403187457879460e-02,-2.425057572080670243e-02,-1.923879007183998402e-02,-1.406533391806789185e-02,-9.053548269101173440e-03,-3.880092115329074332e-03,-6.938893903907228378e-18,-6.938893903907228378e-18,-7.275172716242131465e-04,-4.486356508349248484e-03,-8.366448623678315877e-03,-1.212528786040335815e-02,-1.600537997573242555e-02,-1.976421921245746088e-02,-2.364431132778652828e-02,-2.740315056451157055e-02,-3.128324267984064488e-02,-3.504208191656568022e-02,-3.892217403189474761e-02,-4.268101326861978295e-02,-4.656110538394885728e-02,-5.031994462067389262e-02
-6.208147384526514073e-02,-6.208147384526514073e-02,-6.208147384526514073e-02,-6.208147384526514073e-02,-6.208147384526514073e-02,-6.208147384526514073e-02,-6.208147384526514073e-02,-6.208147384526514073e-02,-6.208147384526514073e-02,-6.208147384526514073e-02,-6.208147384526514073e-02,-6.208147384526514073e-02,-6.208147384526514073e-02,-6.208147384526514073e-02,-6.208147384526514073e-02,-6.208147384526514073e-02,-6.208147384526514073e-02,-6.208147384526514073e-02,-6.208147384526514073e-02,-5.900973425396295602e-02,-5.383627810019086385e-02,-4.882449245122415238e-02,-4.365103629745205327e-02,-3.863925064848533486e-02,-3.346579449471324269e-02,-2.845400884574653122e-02,-2.328055269197443211e-02,-1.826876704300771370e-02,-1.309531088923562847e-02,-8.083525240268903123e-03,-3.071739591302184713e-03,-6.938893903907228378e-18,-6.938893903907228378e-18,-1.455034543248405476e-03,-5.213873779973440814e-03,-9.093965895302515146e-03,-1.285280513202755742e-02,-1.673289724735662481e-02,-2.049173648408166015e-02,-2.437182859941073448e-02,-2.813066783613576982e-02,-3.201075995146483721e-02,-3.576959918818987949e-02,-3.952843842491491483e-02,-4.340853054024398916e-02,-4.716736977696902450e-02,-5.104746189229809883e-02
-6.208147384526514073e-02,-6.208147384526514073e-02,-6.208147384526514073e-02,-6.208147384526514073e-02,-6.208147384526514073e-02,-6.208147384526514073e-02,-6.208147384526514073e-02,-6.208147384526514073e-02,-6.208147384526514073e-02,-6.208147384526514073e-02,-6.208147384526514073e-02,-6.208147384526514073e-02,-6.208147384526514073e-02,-6.208147384526514073e-02,-6.208147384526514073e-02,-6.208147384526514073e-02,-6.208147384526514073e-02,-6.208147384526514073e-02,-6.208147384526514073e-02,-5.803971122513069264e-02,-5.286625507135860047e-02,-4.785446942239188206e-02,-4.268101326861978295e-02,-3.766922761965307148e-02,-3.249577146588097931e-02,-2.748398581691426090e-02,-2.247220016794753555e-02,-1.729874401417545032e-02,-1.228695836520873191e-02,-7.113502211436632805e-03,-2.101716562469914396e-03,-6.938893903907228378e-18,-1.387778780781445676e-17,-2.182551814872611684e-03,-5.941391051597647022e-03,-9.821483166926721353e-03,-1.358032240365175669e-02,-1.746041451898082408e-02,-2.121925375570586636e-02,-2.497809299243090170e-02,-2.885818510775997603e-02,-3.261702434448501137e-02,-3.649711645981407876e-02,-4.025595569653911410e-02,-4.413604781186818843e-02,-4.789488704859322377e-02,-5.177497916392229810e-02
-6.208147384526514073e-02,-6.208147384526514073e-02,-6.208147384526514073e-02,-6.208147384526514073e-02,-6.208147384526514073e-02,-6.208147384526514073e-02,-6.208147384526514073e-02,-6.208147384526514073e-02,-6.208147384526514073e-02,-6.208147384526514073e-02,-6.208147384526514073e-02,-6.208147384526514073e-02,-6.208147384526514073e-02,-6.208147384526514073e-02,-6.208147384526514073e-02,-6.208147384526514073e-02,-6.208147384526514073e-02,-6.208147384526514073e-02,-6.208147384526514073e-02,-5.706968819629842232e-02,-5.189623204252633015e-02,-4.688444639355961174e-02,-4.187266074459289333e-02,-3.669920459082080116e-02,-3.168741894185408969e-02,-2.651396278808199058e-02,-2.150217713911527218e-02,-1.632872098534318694e-02,-1.131693533637646853e-02,-6.143479182604369426e-03,-1.131693533637651017e-03,-6.938893903907228378e-18,-6.938893903907228378e-18,-2.910069086496804014e-03,-6.668908323221846290e-03,-1.042774755994688163e-02,-1.430783967527595596e-02,-1.806667891200099130e-02,-2.194677102733005869e-02,-2.570561026405510791e-02,-2.958570237938417530e-02,-3.334454161610921064e-02,-3.722463373143827803e-02,-4.098347296816332030e-02,-4.486356508349238770e-02,-4.862240432021742997e-02,-5.250249643554649737e-02
-6.208147384526514073e-02,-6.208147384526514073e-02,-6.208147384526514073e-02,-6.208147384526514073e-02,-6.208147384526514073e-02,-6.208147384526514073e-02,-6.208147384526514073e-02,-6.208147384526514073e-02,-6.208147384526514073e-02,-6.208147384526514073e-02,-6.208147384526514073e-02,-6.208147384526514073e-02,-6.208147384526514073e-02,-6.208147384526514073e-02,-6.208147384526514073e-02,-6.208147384526514073e-02,-6.208147384526514073e-02,-6.208147384526514073e-02,-6.127312132123825111e-02,-5.609966516746615894e-02,-5.108787951849944053e-02,-4.591442336472734143e-02,-4.090263771576062302e-02,-3.572918156198853779e-02,-3.071739591302181938e-02,-2.554393975924972721e-02,-2.053215411028300880e-02,-1.535869795651091663e-02,-1.034691230754419822e-02,-5.173456153772099109e-03,-1.616705048053806992e-04,-6.938893903907228378e-18,0.000000000000000000e+00,-3.516333479516978167e-03,-7.396425594846045559e-03,-1.115526483157108090e-02,-1.503535694690016217e-02,-1.879419618362518363e-02,-2.267428829895426490e-02,-2.643312753567930024e-02,-3.031321965100837457e-02,-3.407205888773340990e-02,-3.795215100306248424e-02,-4.171099023978751957e-02,-4.546982947651255491e-02,-4.934992159184162924e-02,-5.310876082856666458e-02
-6.208147384526514073e-02,-6.208147384526514073e-02,-6.208147384526514073e-02,-6.208147384526514073e-02,-6.208147384526514073e-02,-6.208147384526514073e-02,-6.208147384526514073e-02,-6.208147384526514073e-02,-6.208147384526514073e-02,-6.208147384526514073e-02,-6.208147384526514073e-02,-6.208147384526514073e-02,-6.208147384526514073e-02,-6.208147384526514073e-02,-6.208147384526514073e-02,-6.208147384526514073e-02,-6.208147384526514073e-02,-6.208147384526514073e-02,-6.030309829240598080e-02,-5.512964213863388863e-02,-5.011785648966717022e-02,-4.494440033589507805e-02,-3.993261468692835964e-02,-3.475915853315626747e-02,-2.974737288418955600e-02,-2.457391673041745689e-02,-1.956213108145073848e-02,-1.455034543248402701e-02,-9.376889278711927900e-03,-4.365103629745202551e-03,-6.938893903907228378e-18,-6.938893903907228378e-18,-4.850115144161420977e-04,-4.243850751141177435e-03,-8.123942866470244828e-03,-1.188278210319528710e-02,-1.576287421852435450e-02,-1.952171345524938983e-02,-2.340180557057846417e-02,-2.716064480730350644e-02,-3.091948404402853831e-02,-3.479957615935760917e-02,-3.855841539608265145e-02,-4.243850751141171884e-02,-4.619734674813676112e-02,-5.007743886346582851e-02,-5.383627810019086385e-02
-6.208147384526514073e-02,-6.208147384526514073e-02,-6.208147384526514073e-02,-6.208147384526514073e-02,-6.208147384526514073e-02,-6.208147384526514073e-02,-6.208147384526514073e-02,-6.208147384526514073e-02,-6.208147384526514073e-02,-6.208147384526514073e-02,-6.208147384526514073e-02,-6.208147384526514073e-02,-6.208147384526514073e-02,-6.208147384526514073e-02,-6.208147384526514073e-02,-6.208147384526514073e-02,-6.208147384526514073e-02,-6.208147384526514073e-02,-5.933307526357371742e-02,-5.415961910980161831e-02,-4.914783346083489990e-02,-4.397437730706280773e-02,-3.896259165809609626e-02,-3.395080600912937785e-02,-2.877734985535728568e-02,-2.376556420639056727e-02,-1.859210805261846816e-02,-1.358032240365176363e-02,-8.406866249879664521e-03,-3.395080600912946112e-03,-6.938893903907228378e-18,-6.938893903907228378e-18,-1.212528786040341366e-03,-4.971368022765376704e-03,-8.851460138094457974e-03,-1.261029937481949331e-02,-1.636913861154452171e-02,-2.024923072687358910e-02,-2.400806996359863138e-02,-2.788816207892770571e-02,-3.164700131565274105e-02,-3.552709343098181538e-02,-3.928593266770685072e-02,-4.316602478303592505e-02,-4.692486401976096039e-02,-5.080495613509002778e-02,-5.456379537181506312e-02
-6.208147384526514073e-02,-6.208147384526514073e-02,-6.208147384526514073e-02,-6.208147384526514073e-02,-6.208147384526514073e-02,-6.208147384526514073e-02,-6.208147384526514073e-02,-6.208147384526514073e-02,-6.208147384526514073e-02,-6.208147384526514073e-02,-6.208147384526514073e-02,-6.208147384526514073e-02,-6.208147384526514073e-02,-6.208147384526514073e-02,-6.208147384526514073e-02,-6.208147384526514073e-02,-6.208147384526514073e-02,-6.208147384526514073e-02,-5.836305223474144710e-02,-5.335126658577472869e-02,-4.817781043200263652e-02,-4.316602478303591811e-02,-3.799256862926382594e-02,-3.298078298029710753e-02,-2.780732682652501536e-02,-2.279554117755829695e-02,-1.762208502378621172e-02,-1.261029937481948637e-02,-7.436843221047394203e-03,-2.425057572080675794e-03,-6.938893903907228378e-18,-6.938893903907228378e-18,-1.818793179060501641e-03,-5.698885294389575973e-03,-9.457724531114611310e-03,-1.333781664644368564e-02,-1.709665588316872792e-02,-2.097674799849779531e-02,-2.473558723522283759e-02,-2.861567935055190498e-02,-3.237451858727694032e-02,-3.625461070260600771e-02,-4.001344993933104999e-02,-4.389354205466011738e-02,-4.765238129138515966e-02,-5.141122052811019499e-02,-5.529131264343926933e-02
-6.208147384526514073e-02,-6.208147384526514073e-02,-6.208147384526514073e-02,-6.208147384526514073e-02,-6.208147384526514073e-02,-6.208147384526514073e-02,-6.208147384526514073e-02,-6.208147384526514073e-02,-6.208147384526514073e-02,-6.208147384526514073e-02,-6.208147384526514073e-02,-6.208147384526514073e-02,-6.208147384526514073e-02,-6.208147384526514073e-02,-6.208147384526514073e-02,-6.208147384526514073e-02,-6.208147384526514073e-02,-6.208147384526514073e-02,-5.739302920590917678e-02,-5.238124355694246531e-02,-4.720778740317036620e-02,-4.219600175420365473e-02,-3.702254560043155562e-02,-3.201075995146483721e-02,-2.683730379769275198e-02,-2.182551814872602663e-02,-1.665206199495394140e-02,-1.164027634598722299e-02,-6.628490697020504585e-03,-1.455034543248412415e-03,-6.938893903907228378e-18,-6.938893903907228378e-18,-2.546310450684700910e-03,-6.426402566013775242e-03,-1.018524180273882446e-02,-1.406533391806789185e-02,-1.782417315479292025e-02,-2.170426527012200152e-02,-2.546310450684703686e-02,-2.934319662217611119e-02,-3.310203585890114653e-02,-3.686087509562618186e-02,-4.074096721095524926e-02,-4.449980644768028459e-02,-4.837989856300935892e-02,-5.213873779973439426e-02,-5.601882991506346859e-02
-6.208147384526514073e-02,-6.208147384526514073e-02,-6.208147384526514073e-02,-6.208147384526514073e-02,-6.208147384526514073e-02,-6.208147384526514073e-02,-6.208147384526514073e-02,-6.208147384526514073e-02,-6.208147384526514073e-02,-6.208147384526514073e-02,-6.208147384526514073e-02,-6.208147384526514073e-02,-6.208147384526514073e-02,-6.208147384526514073e-02,-6.208147384526514073e-02,-6.208147384526514073e-02,-6.208147384526514073e-02,-6.159646233084900557e-02,-5.642300617707691340e-02,-5.141122052811019499e-02,-4.623776437433810282e-02,-4.122597872537138441e-02,-3.605252257159929224e-02,-3.104073692263257384e-02,-2.602895127366585543e-02,-2.085549511989376326e-02,-1.584370947092705872e-02,-1.067025331715495268e-02,-5.658467668188234267e-03,-4.850115144161420977e-04,-1.387778780781445676e-17,-6.938893903907228378e-18,-3.273827722308907118e-03,-7.153919837637988388e-03,-1.091275907436302373e-02,-1.479285118969209806e-02,-1.855169042641711952e-02,-2.231052966314216179e-02,-2.619062177847123613e-02,-2.994946101519627840e-02,-3.382955313052534579e-02,-3.758839236725038113e-02,-4.146848448257944852e-02,-4.522732371930449080e-02,-4.910741583463355819e-02,-5.286625507135860047e-02,-5.674634718668766786e-02
-6.208147384526514073e-02,-6.208147384526514073e-02,-6.208147384526514073e-02,-6.208147384526514073e-02,-6.208147384526514073e-02,-6.208147384526514073e-02,-6.208147384526514073e-02,-6.208147384526514073e-02,-6.208147384526514073e-02,-1.917777941469458736e-01,-1.917777941469458736e-01,-1.917777941469458736e-01,-6.208147384526514073e-02,-6.208147384526514073e-02,-6.208147384526514073e-02,-6.208147384526514073e-02,-6.208147384526514073e-02,-6.062643930201674219e-02,-5.545298314824464309e-02,-5.044119749927793162e-02,-4.542941185031121321e-02,-4.025595569653911410e-02,-3.524417004757240263e-02,-3.007071389380030352e-02,-2.505892824483359205e-02,-1.988547209106149988e-02,-1.487368644209478147e-02,-9.700230288322682359e-03,-4.688444639355963950e-03,-6.938893903907228378e-18,-6.938893903907228378e-18,-2.425057572080710488e-04,-4.001344993933106386e-03,-7.760184230658148663e-03,-1.164027634598722299e-02,-1.539911558271225833e-02,-1.927920769804133266e-02,-2.303804693476636800e-02,-2.691813905009544233e-02,-3.067697828682047073e-02,-3.455707040214954506e-02,-3.831590963887458734e-02,-4.219600175420365473e-02,-4.595484099092869007e-02,-4.983493310625776440e-02,-5.359377234298279974e-02,-5.735261157970783508e-02
-6.208147384526514073e-02,-6.208147384526514073e-02,-6.208147384526514073e-02,-6.208147384526514073e-02,-6.208147384526514073e-02,-6.208147384526514073e-02,-6.208147384526514073e-02,-6.208147384526514073e-02,-6.208147384526514073e-02,-1.917777941469458736e-01,-1.917777941469458736e-01,-1.917777941469458736e-01,-6.208147384526514073e-02,-6.208147384526514073e-02,-6.208147384526514073e-02,-6.208147384526514073e-02,-6.208147384526514073e-02,-5.965641627318447188e-02,-5.464463062421775347e-02,-4.947117447044566130e-02,-4.445938882147894289e-02,-3.928593266770685072e-02,-3.427414701874013231e-02,-2.910069086496804014e-02,-2.408890521600132173e-02,-1.891544906222922956e-02,-1.390366341326251809e-02,-8.730207259490418981e-03,-3.718421610523693632e-03,-6.938893903907228378e-18,-6.938893903907228378e-18,-8.487701502282382626e-04,-4.728862265557312594e-03,-8.487701502282347932e-03,-6.912912902239387591e-02,-7.288796825911891819e-02,-7.676806037444798558e-02,-8.052689961117302786e-02,-8.440699172650209525e-02,-3.140449555844467000e-02,-3.528458767377374433e-02,-3.904342691049877967e-02,-4.280226614722382195e-02,-4.668235826255288934e-02,-5.044119749927793162e-02,-5.432128961460699901e-02,-5.808012885133203435e-02
-6.208147384526514073e-02,-6.208147384526514073e-02,-6.208147384526514073e-02,-6.208147384526514073e-02,-6.208147384526514073e-02,-6.208147384526514073e-02,-6.208147384526514073e-02,-6.208147384526514073e-02,-6.208147384526514073e-02,-1.917777941469458736e-01,-1.917777941469458736e-01,-1.917777941469458736e-01,-6.208147384526514073e-02,-6.208147384526514073e-02,-6.208147384526514073e-02,-6.208147384526514073e-02,-6.208147384526514073e-02,-5.868639324435220156e-02,-5.367460759538549009e-02,-4.850115144161339098e-02,-4.348936579264667257e-02,-3.831590963887458040e-02,-3.330412398990786893e-02,-2.813066783613576982e-02,-2.311888218716905835e-02,-1.810709653820233994e-02,-1.293364038443024777e-02,-7.921854735463529362e-03,-2.748398581691437192e-03,-6.938893903907228378e-18,-6.938893903907228378e-18,-1.576287421852437531e-03,-5.456379537181511863e-03,-9.215218773906554139e-03,-6.985664629401808212e-02,-7.361548553074312440e-02,-7.749557764607219179e-02,-8.125441688279722019e-02,-8.501325611952226247e-02,-3.213201283006887621e-02,-3.589085206679391155e-02,-3.977094418212298588e-02,-4.352978341884802121e-02,-4.740987553417709555e-02,-5.116871477090213088e-02,-5.504880688623119828e-02,-5.880764612295623361e-02
-6.208147384526514073e-02,-6.208147384526514073e-02,-6.208147384526514073e-02,-6.208147384526514073e-02,-6.208147384526514073e-02,-6.208147384526514073e-02,-6.208147384526514073e-02,-6.208147384526514073e-02,-6.208147384526514073e-02,-6.208147384526514073e-02,-6.208147384526514073e-02,-6.208147384526514073e-02,-6.208147384526514073e-02,-6.208147384526514073e-02,-6.208147384526514073e-02,-6.208147384526514073e-02,-6.208147384526514073e-02,-5.771637021551993818e-02,-5.270458456655321977e-02,-4.753112841278112760e-02,-4.251934276381440919e-02,-3.750755711484769078e-02,-3.233410096107559861e-02,-2.732231531210888020e-02,-2.214885915833678109e-02,-1.713707350937007656e-02,-1.196361735559797745e-02,-6.951831706631259045e-03,-1.778375552859159936e-03,-6.938893903907228378e-18,-6.938893903907228378e-18,-2.303804693476636800e-03,-6.183896808805711132e-03,-9.942736045530753408e-03,-7.046291068703824934e-02,-7.434300280236731673e-02,-7.810184203909235900e-02,-8.198193415442142640e-02,-8.574077339114646867e-02,-3.285953010169307548e-02,-3.661836933841811081e-02,-4.049846145374718515e-02,-4.425730069047222048e-02,-4.813739280580128788e-02,-5.189623204252633015e-02,-5.577632415785539755e-02,-5.953516339458043982e-02
-6.208147384526514073e-02,-6.208147384526514073e-02,-6.208147384526514073e-02,-6.208147384526514073e-02,-6.208147384526514073e-02,-6.208147384526514073e-02,-6.208147384526514073e-02,-6.208147384526514073e-02,-6.208147384526514073e-02,-6.208147384526514073e-02,-6.208147384526514073e-02,-6.208147384526514073e-02,-6.208147384526514073e-02,-6.208147384526514073e-02,-6.208147384526514073e-02,-6.208147384526514073e-02,-6.191980334045976003e-02,-5.690801769149304856e-02,-5.173456153772094945e-02,-4.672277588875423798e-02,-4.154931973498213887e-02,-3.653753408601542740e-02,-3.136407793224332829e-02,-2.635229228327661682e-02,-2.117883612950451772e-02,-1.616705048053780625e-02,-1.099359432676570714e-02,-5.981808677798988727e-03,-8.083525240268965573e-04,0.000000000000000000e+00,-6.938893903907228378e-18,-3.031321965100836069e-03,-6.790161201825885284e-03,-1.067025331715495268e-02,-7.119042795866245554e-02,-7.507052007399150906e-02,-7.882935931071655133e-02,-8.270945142604563260e-02,-8.646829066277067488e-02,-3.358704737331727475e-02,-3.734588661004231702e-02,-4.122597872537138441e-02,-4.498481796209641975e-02,-4.874365719882146203e-02,-5.262374931415052942e-02,-5.638258855087556476e-02,-6.026268066620463909e-02
-6.208147384526514073e-02,-6.208147384526514073e-02,-6.208147384526514073e-02,-6.208147384526514073e-02,-6.208147384526514073e-02,-6.208147384526514073e-02,-6.208147384526514073e-02,-6.208147384526514073e-02,-6.208147384526514073e-02,-6.208147384526514073e-02,-6.208147384526514073e-02,-6.208147384526514073e-02,-6.208147384526514073e-02,-6.208147384526514073e-02,-6.208147384526514073e-02,-6.208147384526514073e-02,-6.094978031162749665e-02,-5.593799466266077824e-02,-5.076453850888867914e-02,-4.575275285992196767e-02,-4.057929670614987550e-02,-3.556751105718315709e-02,-3.039405490341106492e-02,-2.538226925444434651e-02,-2.020881310067224740e-02,-1.519702745170554287e-02,-1.018524180273881058e-02,-5.011785648966718409e-03,-6.938893903907228378e-18,-6.938893903907228378e-18,-6.938893903907228378e-18,-3.758839236725042277e-03,-7.517678473450084553e-03,-1.139777058877915195e-02,-7.191794523028666175e-02,-7.579803734561571527e-02,-7.955687658234075754e-02,-8.343696869766983881e-02,-8.719580793439486721e-02,-3.419331176633744196e-02,-3.807340388166650935e-02,-4.183224311839155163e-02,-4.571233523372061902e-02,-4.947117447044566130e-02,-5.335126658577472869e-02,-5.711010582249977097e-02,-6.099019793782883836e-02
-6.208147384526514073e-02,-6.208147384526514073e-02,-2.528393424633729181e-01,-2.528393424633729181e-01,-2.528393424633729181e-01,-2.528393424633729181e-01,-2.528393424633729181e-01,-6.208147384526514073e-02,-6.208147384526514073e-02,-6.208147384526514073e-02,-6.208147384526514073e-02,-6.208147384526514073e-02,-6.208147384526514073e-02,-6.208147384526514073e-02,-6.208147384526514073e-02,-6.208147384526514073e-02,-5.997975728279522634e-02,-5.496797163382850793e-02,-4.979451548005641576e-02,-4.478272983108970429e-02,-3.960927367731760518e-02,-3.459748802835088677e-02,-2.958570237938417530e-02,-2.441224622561207619e-02,-1.940046057664535778e-02,-1.422700442287327255e-02,-9.215218773906554139e-03,-4.041762620134448092e-03,-6.938893903907228378e-18,-6.938893903907228378e-18,-6.062643930201741527e-04,-4.486356508349241545e-03,-8.245195745074283822e-03,-1.212528786040335121e-02,-1.588412709712839349e-02,-1.964296633385342189e-02,-2.352305844918250316e-02,-2.728189768590753850e-02,-3.116198980123660589e-02,-3.492082903796164817e-02,-3.880092115329071556e-02,-4.255976039001575784e-02,-4.643985250534482523e-02,-5.019869174206986057e-02,-5.407878385739893490e-02,-5.783762309412397024e-02,-6.171771520945303763e-02
-6.208147384526514073e-02,-6.208147384526514073e-02,-2.528393424633729181e-01,-2.528393424633729181e-01,-2.528393424633729181e-01,-2.528393424633729181e-01,-2.528393424633729181e-01,-6.208147384526514073e-02,-6.208147384526514073e-02,-6.208147384526514073e-02,-6.208147384526514073e-02,-6.208147384526514073e-02,-6.208147384526514073e-02,-6.208147384526514073e-02,-6.208147384526514073e-02,-6.208147384526514073e-02,-5.900973425396295602e-02,-5.399794860499624455e-02,-4.898616295602952614e-02,-4.381270680225743397e-02,-3.880092115329071556e-02,-3.362746499951862339e-02,-2.861567935055190498e-02,-2.344222319677980587e-02,-1.843043754781309440e-02,-1.325698139404100223e-02,-8.245195745074283822e-03,-3.071739591302191652e-03,-6.938893903907228378e-18,-6.938893903907228378e-18,-1.333781664644373421e-03,-5.092620901369408759e-03,-8.972713016698483091e-03,-1.273155225342351843e-02,-1.661164436875258582e-02,-2.037048360547762810e-02,-2.425057572080669549e-02,-2.800941495753173777e-02,-3.188950707286081210e-02,-3.564834630958584744e-02,-3.952843842491491483e-02,-4.328727766163995017e-02,-4.716736977696902450e-02,-5.092620901369405984e-02,-5.468504825041910211e-02,-5.856514036574816950e-02,-6.208147384526514073e-02
-6.208147384526514073e-02,-6.208147384526514073e-02,-2.528393424633729181e-01,-2.528393424633729181e-01,-2.528393424633729181e-01,-2.528393424633729181e-01,-2.528393424633729181e-01,-6.208147384526514073e-02,-6.208147384526514073e-02,-6.208147384526514073e-02,-6.208147384526514073e-02,-6.208147384526514073e-02,-6.208147384526514073e-02,-6.208147384526514073e-02,-6.208147384526514073e-02,-6.208147384526514073e-02,-5.820138172993606640e-02,-5.302792557616397423e-02,-4.801613992719725582e-02,-4.284268377342516365e-02,-3.783089812445844524e-02,-3.265744197068635307e-02,-2.764565632171963466e-02,-2.247220016794754249e-02,-1.746041451898083102e-02,-1.228695836520873191e-02,-7.275172716242020443e-03,-2.263387067275302034e-03,-6.938893903907228378e-18,-6.938893903907228378e-18,-2.061298936268572690e-03,-5.820138172993614967e-03,-9.700230288322689298e-03,-1.345906952504772464e-02,-1.733916164037679203e-02,-2.109800087710182737e-02,-2.497809299243090170e-02,-2.873693222915593704e-02,-3.261702434448501137e-02,-3.637586358121004670e-02,-4.013470281793508204e-02,-4.401479493326415637e-02,-4.777363416998919171e-02,-5.165372628531826604e-02,-5.541256552204330138e-02,-5.929265763737236877e-02,-6.208147384526514073e-02
-6.208147384526514073e-02,-6.208147384526514073e-02,-2.528393424633729181e-01,-2.528393424633729181e-01,-3.525207268094689983e-01,-3.525207268094689983e-01,-3.525207268094689983e-01,-6.208147384526514073e-02,-6.208147384526514073e-02,-6.208147384526514073e-02,-6.208147384526514073e-02,-6.208147384526514073e-02,-6.208147384526514073e-02,-6.208147384526514073e-02,-6.208147384526514073e-02,-6.208147384526514073e-02,-5.723135870110380302e-02,-5.205790254733171085e-02,-4.704611689836499244e-02,-4.187266074459289333e-02,-3.686087509562618186e-02,-3.168741894185408969e-02,-2.667563329288737128e-02,-2.166384764392065287e-02,-1.649039149014855377e-02,-1.147860584118184230e-02,-6.305149687409743187e-03,-1.293364038443031716e-03,-6.938893903907228378e-18,-6.938893903907228378e-18,-2.788816207892765020e-03,-6.547655444617814235e-03,-1.042774755994688857e-02,-1.418658679667192390e-02,-1.806667891200099824e-02,-2.182551814872602663e-02,-2.558435738545106891e-02,-2.946444950078013630e-02,-3.322328873750517858e-02,-3.710338085283424597e-02,-4.086222008955928131e-02,-4.474231220488835564e-02,-4.850115144161339098e-02,-5.238124355694246531e-02,-5.614008279366750065e-02,-6.002017490899657498e-02,-6.208147384526514073e-02
-6.208147384526514073e-02,-6.208147384526514073e-02,-2.528393424633729181e-01,-2.528393424633729181e-01,-3.525207268094689983e-01,-3.525207268094689983e-01,-3.525207268094689983e-01,-6.208147384526514073e-02,-6.208147384526514073e-02,-6.208147384526514073e-02,-6.208147384526514073e-02,-6.208147384526514073e-02,-6.208147384526514073e-02,-6.208147384526514073e-02,-6.208147384526514073e-02,-6.127312132123825111e-02,-5.626133567227153270e-02,-5.108787951849944053e-02,-4.607609386953272212e-02,-4.106430822056600372e-02,-3.589085206679391155e-02,-3.087906641782719661e-02,-2.570561026405510097e-02,-2.069382461508838256e-02,-1.552036846131629733e-02,-1.050858281234957198e-02,-5.335126658577479808e-03,-3.233410096107683374e-04,-6.938893903907228378e-18,-6.938893903907228378e-18,-3.516333479516971228e-03,-7.275172716242006565e-03,-1.103401195296705578e-02,-1.491410406829612317e-02,-1.867294330502116545e-02,-2.255303542035023284e-02,-2.631187465707526818e-02,-3.019196677240434251e-02,-3.395080600912937785e-02,-3.783089812445844524e-02,-4.158973736118348752e-02,-4.546982947651255491e-02,-4.922866871323759719e-02,-5.310876082856666458e-02,-5.686760006529169992e-02,-6.062643930201674219e-02,-6.208147384526514073e-02
-6.208147384526514073e-02,-6.208147384526514073e-02,-6.208147384526514073e-02,-6.208147384526514073e-02,-1.617628581913612418e-01,-1.617628581913612418e-01,-1.617628581913612418e-01,-6.208147384526514073e-02,-6.208147384526514073e-02,-6.208147384526514073e-02,-6.208147384526514073e-02,-6.208147384526514073e-02,-6.208147384526514073e-02,-6.208147384526514073e-02,-6.208147384526514073e-02,-6.046476879721136150e-02,-5.529131264343926933e-02,-5.027952699447255092e-02,-4.510607084070045875e-02,-4.009428519173373340e-02,-3.492082903796164817e-02,-2.990904338899492976e-02,-2.473558723522283759e-02,-1.972380158625611918e-02,-1.455034543248402701e-02,-9.538559783517301660e-03,-4.365103629745209490e-03,-6.938893903907228378e-18,-6.938893903907228378e-18,-3.637586358121031038e-04,-4.122597872537145380e-03,-8.002689987866219712e-03,-1.176152922459126199e-02,-1.564162133992032244e-02,-1.940046057664535778e-02,-2.328055269197443211e-02,-2.703939192869946745e-02,-3.091948404402854178e-02,-3.467832328075358406e-02,-3.855841539608265145e-02,-4.231725463280768679e-02,-4.607609386953272212e-02,-4.995618598486179646e-02,-5.371502522158683179e-02,-5.759511733691589919e-02,-6.135395657364094146e-02,-6.208147384526514073e-02
-6.208147384526514073e-02,-6.208147384526514073e-02,-6.208147384526514073e-02,-6.208147384526514073e-02,-6.208147384526514073e-02,-6.208147384526514073e-02,-6.208147384526514073e-02,-6.208147384526514073e-02,-6.208147384526514073e-02,-6.208147384526514073e-02,-6.208147384526514073e-02,-6.208147384526514073e-02,-6.208147384526514073e-02,-6.208147384526514073e-02,-6.208147384526514073e-02,-5.949474576837909118e-02,-5.432128961460699901e-02,-4.930950396564028060e-02,-4.413604781186818843e-02,-3.912426216290147002e-02,-3.395080600912937785e-02,-2.893902036016265944e-02,-2.376556420639056727e-02,-1.875377855742384886e-02,-1.374199290845713045e-02,-8.568536754685038281e-03,-3.556751105718326811e-03,-6.938893903907228378e-18,-6.938893903907228378e-18,-1.091275907436302373e-03,-4.850115144161337710e-03,-8.730207259490418981e-03,-1.248904649621545432e-02,-1.636913861154452865e-02,-2.012797784826955705e-02,-2.400806996359863138e-02,-2.776690920032367366e-02,-3.152574843704870899e-02,-3.540584055237777639e-02,-3.916467978910281866e-02,-4.304477190443188606e-02,-4.680361114115692139e-02,-5.068370325648599573e-02,-5.444254249321103106e-02,-5.832263460854010539e-02,-6.208147384526514073e-02,-6.208147384526514073e-02
-6.208147384526514073e-02,-6.208147384526514073e-02,-6.208147384526514073e-02,-6.208147384526514073e-02,-6.208147384526514073e-02,-6.208147384526514073e-02,-6.208147384526514073e-02,-6.208147384526514073e-02,-6.208147384526514073e-02,-6.208147384526514073e-02,-6.208147384526514073e-02,-6.208147384526514073e-02,-6.208147384526514073e-02,-6.208147384526514073e-02,-6.208147384526514073e-02,-5.852472273954682780e-02,-5.335126658577472869e-02,-4.833948093680801028e-02,-4.316602478303591811e-02,-3.815423913406920664e-02,-3.314245348510248823e-02,-2.796899733133039606e-02,-2.295721168236367765e-02,-1.778375552859158548e-02,-1.277196987962486013e-02,-7.598513725852774903e-03,-2.586728076886056493e-03,-6.938893903907228378e-18,-6.938893903907228378e-18,-1.818793179060508580e-03,-5.577632415785550857e-03,-9.457724531114618249e-03,-1.321656376783966053e-02,-1.697540300456468892e-02,-2.085549511989375632e-02,-2.461433435661879859e-02,-2.849442647194786599e-02,-3.225326570867290132e-02,-3.613335782400198259e-02,-3.989219706072701793e-02,-4.377228917605609226e-02,-4.753112841278112066e-02,-5.141122052811019499e-02,-5.517005976483523033e-02,-5.905015188016430466e-02,-6.208147384526514073e-02,-6.208147384526514073e-02
-6.208147384526514073e-02,-6.208147384526514073e-02,-6.208147384526514073e-02,-6.208147384526514073e-02,-6.208147384526514073e-02,-6.208147384526514073e-02,-6.208147384526514073e-02,-6.208147384526514073e-02,-6.208147384526514073e-02,-6.208147384526514073e-02,-6.208147384526514073e-02,-6.208147384526514073e-02,-6.208147384526514073e-02,-6.208147384526514073e-02,-6.208147384526514073e-02,-5.755469971071455748e-02,-5.254291406174783907e-02,-4.736945790797574690e-02,-4.235767225900902849e-02,-3.718421610523693632e-02,-3.217243045627021791e-02,-2.699897430249812574e-02,-2.198718865353140733e-02,-1.681373249975931516e-02,-1.180194685079260369e-02,-6.628490697020504585e-03,-1.616705048053786176e-03,-6.938893903907228378e-18,-6.938893903907228378e-18,-2.425057572080661916e-03,-6.305149687409743187e-03,-1.006398892413478546e-02,-1.394408103946385286e-02,-1.770292027618888819e-02,-2.158301239151796252e-02,-2.534185162824299786e-02,-2.922194374357207219e-02,-3.298078298029710753e-02,-3.686087509562618186e-02,-4.061971433235121720e-02,-4.449980644768028459e-02,-4.825864568440532687e-02,-5.201748492113036221e-02,-5.589757703645943654e-02,-5.965641627318447188e-02,-6.208147384526514073e-02,-6.208147384526514073e-02
-6.208147384526514073e-02,-6.208147384526514073e-02,-6.208147384526514073e-02,-6.208147384526514073e-02,-6.208147384526514073e-02,-6.208147384526514073e-02,-6.208147384526514073e-02,-6.208147384526514073e-02,-6.208147384526514073e-02,-6.208147384526514073e-02,-6.208147384526514073e-02,-6.208147384526514073e-02,-6.208147384526514073e-02,-6.208147384526514073e-02,-6.175813283565438627e-02,-5.658467668188228716e-02,-5.157289103291557569e-02,-4.639943487914348352e-02,-4.138764923017676511e-02,-3.621419307640466601e-02,-3.120240742743795107e-02,-2.602895127366586930e-02,-2.101716562469913702e-02,-1.584370947092705872e-02,-1.083192382196033338e-02,-5.820138172993614967e-03,-6.466820192215227969e-04,-6.938893903907228378e-18,-6.938893903907228378e-18,-3.152574843704875063e-03,-7.032666959033942455e-03,-1.079150619575898473e-02,-1.467159831108805906e-02,-1.843043754781308746e-02,-2.231052966314216179e-02,-2.606936889986720407e-02,-2.994946101519627146e-02,-3.370830025192131374e-02,-3.746713948864634908e-02,-4.134723160397541647e-02,-4.510607084070045181e-02,-4.898616295602952614e-02,-5.274500219275456148e-02,-5.662509430808363581e-02,-6.038393354480867115e-02,-6.208147384526514073e-02,-6.208147384526514073e-02
-6.208147384526514073e-02,-6.208147384526514073e-02,-6.208147384526514073e-02,-6.208147384526514073e-02,-6.208147384526514073e-02,-6.208147384526514073e-02,-6.208147384526514073e-02,-6.208147384526514073e-02,-6.208147384526514073e-02,-6.208147384526514073e-02,-6.208147384526514073e-02,-6.208147384526514073e-02,-6.208147384526514073e-02,-6.208147384526514073e-02,-6.078810980682211595e-02,-5.561465365305002378e-02,-5.060286800408330538e-02,-4.542941185031121321e-02,-4.041762620134449480e-02,-3.524417004757240263e-02,-3.023238439860568422e-02,-2.522059874963897275e-02,-2.004714259586687364e-02,-1.503535694690016217e-02,-9.861900793128063059e-03,-4.850115144161344649e-03,-6.938893903907228378e-18,-6.938893903907228378e-18,-1.212528786040389939e-04,-3.880092115329074332e-03,-7.760184230658148663e-03,-1.151902346738319094e-02,-1.539911558271225139e-02,-1.915795481943729367e-02,-2.291679405616233595e-02,-2.679688617149140334e-02,-3.055572540821643868e-02,-3.443581752354551301e-02,-3.819465676027054835e-02,-4.207474887559961574e-02,-4.583358811232465801e-02,-4.971368022765372541e-02,-5.347251946437876768e-02,-5.735261157970783508e-02,-6.111145081643287041e-02,-6.208147384526514073e-02,-6.208147384526514073e-02
-6.208147384526514073e-02,-6.208147384526514073e-02,-6.208147384526514073e-02,-6.208147384526514073e-02,-6.208147384526514073e-02,-6.208147384526514073e-02,-6.208147384526514073e-02,-6.208147384526514073e-02,-6.208147384526514073e-02,-6.208147384526514073e-02,-6.208147384526514073e-02,-6.208147384526514073e-02,-6.208147384526514073e-02,-6.208147384526514073e-02,-5.981808677798984564e-02,-5.464463062421775347e-02,-4.963284497525104200e-02,-4.462105932628432359e-02,-3.944760317251222448e-02,-3.443581752354551301e-02,-2.926236136977341390e-02,-2.425057572080670243e-02,-1.907711956703461026e-02,-1.406533391806789185e-02,-8.891877764295792741e-03,-3.880092115329074332e-03,-6.938893903907228378e-18,-6.938893903907228378e-18,-8.487701502282382626e-04,-4.607609386953280539e-03,-8.366448623678315877e-03,-1.224654073900739021e-02,-1.600537997573242555e-02,-1.988547209106148600e-02,-2.364431132778653522e-02,-2.752440344311560261e-02,-3.128324267984063795e-02,-3.516333479516971228e-02,-3.892217403189474761e-02,-4.280226614722382195e-02,-4.656110538394885728e-02,-5.044119749927793162e-02,-5.420003673600296695e-02,-5.795887597272800229e-02,-6.183896808805707662e-02,-6.208147384526514073e-02,-6.208147384526514073e-02
-6.208147384526514073e-02,-6.208147384526514073e-02,-6.208147384526514073e-02,-6.208147384526514073e-02,-6.208147384526514073e-02,-6.208147384526514073e-02,-6.208147384526514073e-02,-6.208147384526514073e-02,-6.208147384526514073e-02,-6.208147384526514073e-02,-6.208147384526514073e-02,-6.208147384526514073e-02,-6.208147384526514073e-02,-6.208147384526514073e-02,-5.884806374915758226e-02,-5.383627810019086385e-02,-4.866282194641877168e-02,-4.365103629745205327e-02,-3.847758014367995416e-02,-3.346579449471324269e-02,-2.829233834094115052e-02,-2.328055269197442517e-02,-1.810709653820233994e-02,-1.309531088923562153e-02,-7.921854735463529362e-03,-2.910069086496804014e-03,-6.938893903907228378e-18,-6.938893903907228378e-18,-1.455034543248405476e-03,-5.335126658577479808e-03,-9.093965895302522084e-03,-1.297405801063158254e-02,-1.673289724735663175e-02,-2.061298936268569221e-02,-2.437182859941073448e-02,-2.825192071473980882e-02,-3.201075995146483721e-02,-3.589085206679391155e-02,-3.964969130351894688e-02,-2.981681924636817027e-01,-3.020482845790107285e-01,-3.058071238157357707e-01,-5.492755400762716622e-02,-5.868639324435220156e-02,-6.208147384526514073e-02,-6.208147384526514073e-02,-6.208147384526514073e-02
-6.208147384526514073e-02,-6.208147384526514073e-02,-6.208147384526514073e-02,-6.208147384526514073e-02,-6.208147384526514073e-02,-6.208147384526514073e-02,-6.208147384526514073e-02,-6.208147384526514073e-02,-6.208147384526514073e-02,-6.208147384526514073e-02,-6.208147384526514073e-02,-6.208147384526514073e-02,-6.208147384526514073e-02,-6.208147384526514073e-02,-5.787804072032531194e-02,-5.286625507135860047e-02,-4.769279891758650136e-02,-4.268101326861978295e-02,-3.750755711484769078e-02,-3.249577146588097931e-02,-2.748398581691426090e-02,-2.231052966314216179e-02,-1.729874401417545032e-02,-1.212528786040335121e-02,-7.113502211436639744e-03,-1.940046057664540635e-03,-6.938893903907228378e-18,-6.938893903907228378e-18,-2.182551814872611684e-03,-6.062643930201679077e-03,-9.821483166926714414e-03,-1.370157528225578875e-02,-1.746041451898082408e-02,-2.121925375570585942e-02,-2.509934587103494069e-02,-2.885818510775997603e-02,-3.273827722308904342e-02,-3.649711645981407182e-02,-4.037720857514315309e-02,-2.988957097353058812e-01,-3.027758018506349624e-01,-3.065346410873600047e-01,-5.565507127925136549e-02,-5.941391051597640083e-02,-6.208147384526514073e-02,-6.208147384526514073e-02,-6.208147384526514073e-02
-6.208147384526514073e-02,-6.208147384526514073e-02,-6.208147384526514073e-02,-6.208147384526514073e-02,-6.208147384526514073e-02,-6.208147384526514073e-02,-6.208147384526514073e-02,-6.208147384526514073e-02,-6.208147384526514073e-02,-6.208147384526514073e-02,-6.208147384526514073e-02,-6.208147384526514073e-02,-6.208147384526514073e-02,-6.208147384526514073e-02,-5.690801769149304856e-02,-5.189623204252633015e-02,-4.688444639355961174e-02,-4.171099023978751957e-02,-3.669920459082080116e-02,-3.152574843704870899e-02,-2.651396278808199752e-02,-2.134050663430989148e-02,-1.632872098534319388e-02,-1.115526483157108090e-02,-6.143479182604369426e-03,-9.700230288322703176e-04,-6.938893903907228378e-18,-6.938893903907228378e-18,-2.910069086496804014e-03,-6.668908323221846290e-03,-1.054900043855092062e-02,-1.430783967527594902e-02,-1.818793179060502335e-02,-2.194677102733006563e-02,-2.582686314265913996e-02,-2.958570237938417530e-02,-3.346579449471324269e-02,-3.722463373143827803e-02,-4.110472584676734542e-02,-2.996232270069300596e-01,-3.035033191222591409e-01,-3.072621583589841832e-01,-5.626133567227153270e-02,-6.014142778760060704e-02,-6.208147384526514073e-02,-6.208147384526514073e-02,-6.208147384526514073e-02
-6.208147384526514073e-02,-6.208147384526514073e-02,-6.208147384526514073e-02,-6.208147384526514073e-02,-6.208147384526514073e-02,-6.208147384526514073e-02,-6.208147384526514073e-02,-6.208147384526514073e-02,-6.208147384526514073e-02,-6.208147384526514073e-02,-6.208147384526514073e-02,-6.208147384526514073e-02,-6.208147384526514073e-02,-6.156614911119799582e-02,-5.778204885809712366e-02,-5.197201509165384758e-02,-4.591442336472734836e-02,-4.074096721095524926e-02,-3.572918156198853779e-02,-3.055572540821643868e-02,-2.554393975924972721e-02,-2.037048360547762810e-02,-1.535869795651092357e-02,-1.018524180273881752e-02,-5.173456153772099109e-03,-1.616705048053876381e-04,-6.938893903907228378e-18,-6.938893903907228378e-18,-3.637586358121003283e-03,-7.396425594846052498e-03,-1.127651771017511295e-02,-1.503535694690016217e-02,-1.891544906222922262e-02,-2.267428829895426490e-02,-2.655438041428333923e-02,-3.031321965100837457e-02,-3.419331176633744196e-02,-3.795215100306248424e-02,-4.171099023978751957e-02,-4.559108235511659390e-02,-4.934992159184162924e-02,-5.323001370717069664e-02,-5.698885294389573197e-02,-6.086894505922480630e-02,-6.208147384526514073e-02,-6.208147384526514073e-02,-6.208147384526514073e-02
-6.208147384526514073e-02,-6.208147384526514073e-02,-6.208147384526514073e-02,-6.208147384526514073e-02,-6.208147384526514073e-02,-6.208147384526514073e-02,-6.208147384526514073e-02,-6.208147384526514073e-02,-6.208147384526514073e-02,-6.208147384526514073e-02,-6.208147384526514073e-02,-6.208147384526514073e-02,-6.208147384526514073e-02,-6.208147384526514073e-02,-6.208147384526514073e-02,-6.208147384526514073e-02,-6.047487320376170039e-02,-5.580663737750640729e-02,-4.927413854271410487e-02,-4.075612382078075413e-02,-3.043447252961240662e-02,-1.956213108145073848e-02,-1.438867492767865325e-02,-9.376889278711927900e-03,-4.203433124939835730e-03,-6.938893903907228378e-18,-6.938893903907228378e-18,-4.850115144161351588e-04,-4.365103629745209490e-03,-8.123942866470244828e-03,-1.200403498179931916e-02,-1.576287421852436144e-02,-1.964296633385342883e-02,-2.340180557057846417e-02,-2.716064480730350644e-02,-3.104073692263257384e-02,-3.479957615935760917e-02,-3.867966827468667657e-02,-4.243850751141171884e-02,-4.631859962674078623e-02,-5.007743886346582851e-02,-5.395753097879489590e-02,-5.771637021551993818e-02,-6.159646233084900557e-02,-6.208147384526514073e-02,-6.208147384526514073e-02,-6.208147384526514073e-02
