-1.672991183494890455e-01,-1.672991183494890455e-01,-1.672991183494890455e-01,-1.672991183494890455e-01,-1.672991183494890455e-01,-1.672991183494890455e-01,-1.672991183494890455e-01,-1.672991183494890455e-01,-1.672991183494890455e-01,-1.672991183494890455e-01,-1.672991183494890455e-01,-1.672991183494890455e-01,-1.672991183494890455e-01,-1.672991183494890455e-01,-1.672991183494890455e-01,-1.672991183494890455e-01,-1.045619489684306569e-01,-2.614048724210768504e-02,-2.775557561562891351e-17,-1.206484026558818368e-03,-1.246700160777444721e-02,-2.412968053117633960e-02,-3.539019811239194069e-02,-4.705287703579380532e-02,-5.831339461700943416e-02,-6.957391219822503525e-02,-8.123659112162689988e-02,-9.249710870284250097e-02,-1.037576262840581298e-01,-1.154203052074599944e-01,-1.266808227886755955e-01,-1.383435017120774879e-01,-1.496040192932930890e-01,-1.608645368745086901e-01,-1.672991183494890455e-01,-1.672991183494890455e-01,-1.672991183494890455e-01,-1.672991183494890455e-01,-1.672991183494890455e-01,-1.672991183494890455e-01,-1.672991183494890455e-01,-1.672991183494890455e-01,-1.672991183494890455e-01,-1.672991183494890455e-01,-1.672991183494890455e-01,-1.672991183494890455e-01,-1.672991183494890455e-01
-1.672991183494890455e-01,-1.672991183494890455e-01,-1.672991183494890455e-01,-1.672991183494890455e-01,-1.672991183494890455e-01,-1.672991183494890455e-01,-1.672991183494890455e-01,-1.672991183494890455e-01,-1.672991183494890455e-01,-1.672991183494890455e-01,-1.672991183494890455e-01,-1.672991183494890455e-01,-1.672991183494890455e-01,-1.672991183494890455e-01,-1.097900464168521939e-01,-3.659668213895075906e-02,-2.775557561562891351e-17,-2.775557561562891351e-17,-2.775557561562891351e-17,-2.775557561562891351e-17,-6.836742817166646669e-03,-1.809726039838224776e-02,-2.935777797959784885e-02,-4.102045690299974123e-02,-5.228097448421535620e-02,-6.394365340761722083e-02,-7.520417098883282192e-02,-8.646468857004843689e-02,-9.812736749345031539e-02,-1.093878850746659304e-01,-1.206484026558815315e-01,-1.323110815792833961e-01,-1.435715991604990249e-01,-1.548321167417146260e-01,-1.664947956651164906e-01,-1.672991183494890455e-01,-1.672991183494890455e-01,-1.672991183494890455e-01,-1.672991183494890455e-01,-1.672991183494890455e-01,-1.672991183494890455e-01,-1.672991183494890455e-01,-1.672991183494890455e-01,-1.672991183494890455e-01,-1.672991183494890455e-01,-1.672991183494890455e-01,-1.672991183494890455e-01
-1.672991183494890455e-01,-1.672991183494890455e-01,-1.672991183494890455e-01,-1.672991183494890455e-01,-1.672991183494890455e-01,-1.672991183494890455e-01,-1.672991183494890455e-01,-1.672991183494890455e-01,-1.672991183494890455e-01,-1.672991183494890455e-01,-1.672991183494890455e-01,-1.672991183494890455e-01,-1.202462413136952540e-01,-4.182477958737226831e-02,-2.775557561562891351e-17,-2.775557561562891351e-17,-2.775557561562891351e-17,-2.775557561562891351e-17,-2.775557561562891351e-17,-2.775557561562891351e-17,-8.043226843725825859e-04,-1.206484026558815592e-02,-2.372751918899004830e-02,-3.498803677020564940e-02,-4.624855435142127824e-02,-5.791123327482314287e-02,-6.917175085603874396e-02,-8.043226843725435893e-02,-9.209494736065622356e-02,-1.033554649418718524e-01,-1.150181438652737309e-01,-1.262786614464893320e-01,-1.375391790277049331e-01,-1.492018579511068255e-01,-1.604623755323224266e-01,-1.672991183494890455e-01,-1.672991183494890455e-01,-1.672991183494890455e-01,-1.672991183494890455e-01,-1.672991183494890455e-01,-1.672991183494890455e-01,-1.672991183494890455e-01,-1.672991183494890455e-01,-1.672991183494890455e-01,-1.672991183494890455e-01,-1.672991183494890455e-01,-1.672991183494890455e-01
-1.672991183494890455e-01,-1.672991183494890455e-01,-1.672991183494890455e-01,-1.672991183494890455e-01,-1.672991183494890455e-01,-1.672991183494890455e-01,-1.672991183494890455e-01,-1.672991183494890455e-01,-1.672991183494890455e-01,-1.672991183494890455e-01,-1.254743387621167772e-01,-4.705287703579380532e-02,-2.775557561562891351e-17,-2.775557561562891351e-17,-2.775557561562891351e-17,-2.775557561562891351e-17,-2.775557561562891351e-17,-2.775557561562891351e-17,-2.775557561562891351e-17,-2.775557561562891351e-17,-2.775557561562891351e-17,-6.032420132794091838e-03,-1.769509905619595647e-02,-2.895561663741158531e-02,-4.061829556081344994e-02,-5.187881314202906491e-02,-6.313933072324469375e-02,-7.480200964664655838e-02,-8.606252722786215947e-02,-9.732304480907777444e-02,-1.089857237324796529e-01,-1.202462413136952540e-01,-1.315067588949108690e-01,-1.431694378183127614e-01,-1.544299553995283625e-01,-1.660926343229302271e-01,-1.672991183494890455e-01,-1.672991183494890455e-01,-1.672991183494890455e-01,-1.672991183494890455e-01,-1.672991183494890455e-01,-1.672991183494890455e-01,-1.672991183494890455e-01,-1.672991183494890455e-01,-1.672991183494890455e-01,-1.672991183494890455e-01,-1.672991183494890455e-01
-1.672991183494890455e-01,-1.672991183494890455e-01,-1.672991183494890455e-01,-1.672991183494890455e-01,-1.672991183494890455e-01,-1.672991183494890455e-01,-1.672991183494890455e-01,-1.672991183494890455e-01,-1.323659217623088247e-01,-5.228097448421534232e-02,-2.775557561562891351e-17,-2.775557561562891351e-17,-2.775557561562891351e-17,-2.775557561562891351e-17,-2.775557561562891351e-17,-2.775557561562891351e-17,-2.775557561562891351e-17,-2.775557561562891351e-17,-2.775557561562891351e-17,-2.775557561562891351e-17,-2.775557561562891351e-17,-4.021613421863190485e-04,-1.166267892340189238e-02,-2.292319650461752123e-02,-3.458587542801938586e-02,-4.584639300923498695e-02,-5.710691059045060192e-02,-6.876958951385248042e-02,-8.003010709506808151e-02,-9.169278601846997390e-02,-1.473560977496613522e-01,-1.586166153308769533e-01,-1.702792942542788179e-01,-1.815398118354944468e-01,-1.483975352667342706e-01,-1.600602141901361630e-01,-1.672991183494890455e-01,-1.672991183494890455e-01,-1.672991183494890455e-01,-1.672991183494890455e-01,-1.672991183494890455e-01,-1.672991183494890455e-01,-1.672991183494890455e-01,-1.672991183494890455e-01,-1.672991183494890455e-01,-1.672991183494890455e-01,-1.672991183494890455e-01
-1.672991183494890455e-01,-1.672991183494890455e-01,-1.672991183494890455e-01,-1.672991183494890455e-01,-1.672991183494890455e-01,-1.672991183494890455e-01,-1.437726798315921428e-01,-8.026317787292604200e-02,-1.473372917282433914e-02,-1.425844758660449463e-03,-2.775557561562891351e-17,-2.775557561562891351e-17,0.000000000000000000e+00,-2.775557561562891351e-17,-2.775557561562891351e-17,0.000000000000000000e+00,-2.775557561562891351e-17,-2.775557561562891351e-17,-2.775557561562891351e-17,-2.775557561562891351e-17,-2.775557561562891351e-17,-2.775557561562891351e-17,-5.630258790607828301e-03,-1.729293771400972068e-02,-2.855345529522532178e-02,-3.981397287644092287e-02,-5.147665179984280137e-02,-6.273716938105841634e-02,-7.399768696227401743e-02,-8.566036588567588206e-02,-1.413236776168672604e-01,-1.529863565402691528e-01,-1.642468741214847539e-01,-1.755073917027003549e-01,-1.427672764761264701e-01,-1.540277940573420712e-01,-1.652883116385577000e-01,-1.672991183494890455e-01,-1.672991183494890455e-01,-1.672991183494890455e-01,-1.672991183494890455e-01,-1.672991183494890455e-01,-1.672991183494890455e-01,-1.672991183494890455e-01,-1.672991183494890455e-01,-1.672991183494890455e-01,-1.672991183494890455e-01
-1.672991183494890455e-01,-1.672991183494890455e-01,-1.672991183494890455e-01,-1.672991183494890455e-01,-1.558329500819281843e-01,-1.049332627076651481e-01,-4.847872179445424090e-02,-3.517083738029033735e-02,-2.186295296612641992e-02,-8.079786965742408178e-03,-2.775557561562891351e-17,-2.775557561562891351e-17,-2.775557561562891351e-17,-2.775557561562891351e-17,-2.775557561562891351e-17,-2.775557561562891351e-17,-2.775557561562891351e-17,-2.775557561562891351e-17,-2.775557561562891351e-17,-2.775557561562891351e-17,-2.775557561562891351e-17,-2.775557561562891351e-17,-2.775557561562891351e-17,-1.126051758121562885e-02,-2.252103516243122994e-02,-3.378155274364683103e-02,-4.544423166704872341e-02,-5.670474924826433838e-02,-6.836742817166621689e-02,-7.962794575288181798e-02,-1.352912574840731685e-01,-1.469539364074750609e-01,-1.582144539886906620e-01,-1.694749715699062631e-01,-1.367348563433324060e-01,-1.479953739245480071e-01,-1.596580528479498717e-01,-1.672991183494890455e-01,-1.672991183494890455e-01,-1.672991183494890455e-01,-1.672991183494890455e-01,-1.672991183494890455e-01,-1.672991183494890455e-01,-1.672991183494890455e-01,-1.672991183494890455e-01,-1.672991183494890455e-01,-1.672991183494890455e-01
-1.672991183494890455e-01,-1.672991183494890455e-01,-1.619076428558043346e-01,-1.271972345121648029e-01,-8.269899600230426473e-02,-6.939111158814034730e-02,-5.560794558775632168e-02,-4.230006117359241813e-02,-2.899217675942855621e-02,-1.520901075904448896e-02,-1.901126344880571528e-03,-2.775557561562891351e-17,-2.775557561562891351e-17,-2.775557561562891351e-17,-2.775557561562891351e-17,-2.775557561562891351e-17,-2.775557561562891351e-17,0.000000000000000000e+00,-2.775557561562891351e-17,-2.775557561562891351e-17,-2.775557561562891351e-17,-2.775557561562891351e-17,-2.775557561562891351e-17,-5.228097448421564764e-03,-1.648861502963716585e-02,-2.815129395303905824e-02,-3.941181153425465933e-02,-5.067232911547024654e-02,-6.233500803887213892e-02,-7.359552562008775389e-02,-1.296609986934653680e-01,-1.409215162746809691e-01,-1.521820338558965979e-01,-1.638447127792984626e-01,-1.307024362105383142e-01,-1.419629537917539430e-01,-1.536256327151558077e-01,-1.648861502963714087e-01,-1.672991183494890455e-01,-1.672991183494890455e-01,-1.672991183494890455e-01,-1.672991183494890455e-01,-1.672991183494890455e-01,-1.672991183494890455e-01,-1.672991183494890455e-01,-1.672991183494890455e-01,-1.672991183494890455e-01
-1.658138633925511085e-01,-1.476046376204920296e-01,-1.169192702101542747e-01,-1.031361042097702491e-01,-8.982821979560635939e-02,-7.604505379522229214e-02,-6.273716938105840246e-02,-4.942928496689451279e-02,-3.564611896651048717e-02,-2.233823455234659749e-02,-9.030350138182680064e-03,-2.775557561562891351e-17,-5.551115123125782702e-17,0.000000000000000000e+00,-2.775557561562891351e-17,-2.775557561562891351e-17,-2.775557561562891351e-17,-2.775557561562891351e-17,-2.775557561562891351e-17,-2.775557561562891351e-17,-2.775557561562891351e-17,-2.775557561562891351e-17,-5.551115123125782702e-17,-2.775557561562891351e-17,-1.045619489684310177e-02,-2.211887382024496640e-02,-3.337939140146059525e-02,-4.504207032486244600e-02,-5.630258790607806096e-02,-6.756310548729367593e-02,-7.922578441069555444e-02,-9.048630199191115553e-02,-1.017468195731267566e-01,-1.134094984965286351e-01,-1.246700160777442501e-01,-1.363326950011461147e-01,-1.475932125823617436e-01,-1.588537301635773447e-01,-1.672991183494890455e-01,-1.672991183494890455e-01,-1.672991183494890455e-01,-1.672991183494890455e-01,-1.672991183494890455e-01,-1.672991183494890455e-01,-1.672991183494890455e-01,-1.672991183494890455e-01,-1.672991183494890455e-01
-1.517039413016407212e-01,-1.373563784176202729e-01,-1.235732124172362334e-01,-1.102653280030723437e-01,-9.695744358890844017e-02,-8.317427758852438680e-02,-6.986639317436048324e-02,-5.655850876019657969e-02,-4.277534275981255407e-02,-2.946745834564865052e-02,-1.568429234526461102e-02,-2.376407931100721349e-03,-2.775557561562891351e-17,-2.775557561562891351e-17,-2.775557561562891351e-17,-2.775557561562891351e-17,-2.775557561562891351e-17,-2.775557561562891351e-17,-2.775557561562891351e-17,-2.775557561562891351e-17,-2.775557561562891351e-17,-2.775557561562891351e-17,-2.775557561562891351e-17,0.000000000000000000e+00,-4.825936106235301226e-03,-1.608645368745087456e-02,-2.734697126866650341e-02,-3.900965019206836804e-02,-5.027016777328398300e-02,-6.193284669668587539e-02,-7.319336427790147648e-02,-8.445388185911706369e-02,-9.611656078251895607e-02,-1.073770783637345572e-01,-1.186375959449501721e-01,-1.303002748683520506e-01,-1.415607924495676517e-01,-1.528213100307832528e-01,-1.644839889541851452e-01,-1.672991183494890455e-01,-1.672991183494890455e-01,-1.672991183494890455e-01,-1.672991183494890455e-01,-1.672991183494890455e-01,-1.672991183494890455e-01,-1.672991183494890455e-01,-1.672991183494890455e-01
-1.577934866250862711e-01,-1.444856022109223537e-01,-1.307024362105383142e-01,-1.173945517963744106e-01,-1.036113857959903850e-01,-9.030350138182648145e-02,-7.699561696766257790e-02,-6.321245096727853841e-02,-4.990456655311464873e-02,-3.659668213895075906e-02,-2.281351613856671956e-02,-9.505631724402829885e-03,-2.775557561562891351e-17,-2.775557561562891351e-17,-2.775557561562891351e-17,-2.775557561562891351e-17,-2.775557561562891351e-17,-2.775557561562891351e-17,-2.775557561562891351e-17,-2.775557561562891351e-17,-2.775557561562891351e-17,0.000000000000000000e+00,-2.775557561562891351e-17,-5.551115123125782702e-17,-2.775557561562891351e-17,-1.005403355465681048e-02,-2.171671247805867511e-02,-3.297723005927430395e-02,-4.423774764048990504e-02,-5.590042656389178355e-02,-6.716094414510739852e-02,-7.842146172632301349e-02,-9.008414064972487811e-02,-1.013446582309404931e-01,-1.130073371543423716e-01,-1.242678547355579727e-01,-1.355283723167735876e-01,-1.471910512401754523e-01,-1.584515688213910811e-01,-1.672991183494890455e-01,-1.672991183494890455e-01,-1.672991183494890455e-01,-1.672991183494890455e-01,-1.672991183494890455e-01,-1.672991183494890455e-01,-1.672991183494890455e-01,-1.672991183494890455e-01
-1.649227104183883519e-01,-1.511395444180043124e-01,-1.378316600038404227e-01,-1.245237755896765053e-01,-1.107406095892924797e-01,-9.743272517512857611e-02,-8.412484076096467256e-02,-7.034167476058063306e-02,-5.703379034641674339e-02,-4.325062434603270389e-02,-2.994273993186880034e-02,-1.663485551770491067e-02,-2.851689517320871170e-03,-2.775557561562891351e-17,-2.775557561562891351e-17,-2.775557561562891351e-17,-2.775557561562891351e-17,-2.775557561562891351e-17,-2.775557561562891351e-17,-2.775557561562891351e-17,0.000000000000000000e+00,-2.775557561562891351e-17,-2.775557561562891351e-17,-2.775557561562891351e-17,-2.775557561562891351e-17,-4.021613421862746396e-03,-1.568429234526463878e-02,-2.694480992648023987e-02,-3.860748884988210450e-02,-4.986800643109771947e-02,-6.112852401231333443e-02,-7.279120293571519906e-02,-8.405172051693080015e-02,-9.531223809814641512e-02,-1.069749170215482936e-01,-1.182354346027639086e-01,-1.298981135261657871e-01,-1.411586311073813882e-01,-1.524191486885969893e-01,-1.640818276119988817e-01,-1.672991183494890455e-01,-1.672991183494890455e-01,-1.672991183494890455e-01,-1.672991183494890455e-01,-1.672991183494890455e-01,-1.672991183494890455e-01,-1.672991183494890455e-01
-1.672991183494890455e-01,-1.582687682113063932e-01,-1.449608837971425035e-01,-1.311777177967584640e-01,-1.178698333825945604e-01,-1.045619489684306708e-01,-9.077878296804661740e-02,-7.747089855388269997e-02,-6.416301413971881029e-02,-5.037984813933478467e-02,-3.707196372517088112e-02,-2.376407931100699145e-02,-9.980913310622951951e-03,-2.775557561562891351e-17,0.000000000000000000e+00,-2.775557561562891351e-17,-2.775557561562891351e-17,-2.775557561562891351e-17,-2.775557561562891351e-17,-2.775557561562891351e-17,-2.775557561562891351e-17,-2.775557561562891351e-17,-2.775557561562891351e-17,-2.775557561562891351e-17,-2.775557561562891351e-17,-2.775557561562891351e-17,-9.651872212470546941e-03,-2.091238979368614803e-02,-3.257506871708804042e-02,-4.383558629830364151e-02,-5.509610387951925647e-02,-6.675878280292113498e-02,-7.801930038413672219e-02,-8.968197930753861458e-02,-1.009424968887542157e-01,-1.122030144699698306e-01,-1.238656933933717091e-01,-1.351262109745873241e-01,-1.463867285558029252e-01,-1.580494074792047898e-01,-1.672991183494890455e-01,-1.672991183494890455e-01,-1.672991183494890455e-01,-1.672991183494890455e-01,-1.672991183494890455e-01,-1.672991183494890455e-01,-1.672991183494890455e-01
-1.672991183494890455e-01,-1.653979920046085017e-01,-1.520901075904445843e-01,-1.383069415900605448e-01,-1.249990571758966412e-01,-1.116911727617327516e-01,-9.790800676134872593e-02,-8.460012234718480850e-02,-7.081695634680075513e-02,-5.750907193263687933e-02,-4.420118751847298966e-02,-3.041802151808895016e-02,-1.711013710392503273e-02,-3.802252689761115301e-03,-2.775557561562891351e-17,-2.775557561562891351e-17,-2.775557561562891351e-17,-2.775557561562891351e-17,-2.775557561562891351e-17,-5.551115123125782702e-17,-2.775557561562891351e-17,-2.775557561562891351e-17,-2.775557561562891351e-17,-2.775557561562891351e-17,-2.775557561562891351e-17,-2.775557561562891351e-17,-3.619452079676455103e-03,-1.528213100307834749e-02,-2.654264858429397633e-02,-3.780316616550954967e-02,-4.946584508891144205e-02,-6.072636267012705702e-02,-7.198688025134265811e-02,-8.364955917474453662e-02,-9.491007675596013771e-02,-1.065727556793620162e-01,-1.178332732605776312e-01,-1.290937908417932323e-01,-1.407564697651951247e-01,-1.520169873464107257e-01,-1.632775049276263268e-01,-1.672991183494890455e-01,-1.672991183494890455e-01,-1.672991183494890455e-01,-1.672991183494890455e-01,-1.672991183494890455e-01,-1.672991183494890455e-01
-1.672991183494890455e-01,-1.672991183494890455e-01,-1.587440497975265430e-01,-1.454361653833626256e-01,-1.321282809691987359e-01,-1.183451149688146964e-01,-1.050372305546508067e-01,-9.172934614048690316e-02,-7.794618014010284979e-02,-6.463829572593896011e-02,-5.085512972555492062e-02,-3.754724531139103094e-02,-2.423936089722714127e-02,-1.045619489684310177e-02,-2.775557561562891351e-17,-5.551115123125782702e-17,-2.775557561562891351e-17,-2.775557561562891351e-17,-2.775557561562891351e-17,-2.775557561562891351e-17,-2.775557561562891351e-17,-2.775557561562891351e-17,-5.551115123125782702e-17,-2.775557561562891351e-17,-2.775557561562891351e-17,0.000000000000000000e+00,-2.775557561562891351e-17,-9.249710870284255648e-03,-2.051022845149988449e-02,-3.177074603271548559e-02,-4.343342495611735021e-02,-5.469394253733296518e-02,-6.635662146073484369e-02,-7.761713904195045866e-02,-8.887765662316607362e-02,-1.005403355465679383e-01,-1.118008531277835532e-01,-1.230613707089991682e-01,-1.347240496324010328e-01,-1.459845672136166339e-01,-1.576472461370185263e-01,-1.672991183494890455e-01,-1.672991183494890455e-01,-1.672991183494890455e-01,-1.672991183494890455e-01,-1.672991183494890455e-01,-1.672991183494890455e-01
-1.672991183494890455e-01,-1.672991183494890455e-01,-1.658732735908286238e-01,-1.525653891766647341e-01,-1.392575047625008167e-01,-1.254743387621167772e-01,-1.121664543479528875e-01,-9.838328834756884800e-02,-8.507540393340495832e-02,-7.176751951924104089e-02,-5.798435351885700140e-02,-4.467646910469311172e-02,-3.136858469052922205e-02,-1.758541869014518255e-02,-4.277534275981292877e-03,-2.775557561562891351e-17,-2.775557561562891351e-17,-2.775557561562891351e-17,0.000000000000000000e+00,-2.775557561562891351e-17,-5.551115123125782702e-17,-2.775557561562891351e-17,-2.775557561562891351e-17,-2.775557561562891351e-17,-2.775557561562891351e-17,-2.775557561562891351e-17,-2.775557561562891351e-17,-3.217290737490191566e-03,-1.447780831870579266e-02,-2.614048724210771280e-02,-3.740100482332328613e-02,-4.866152240453890110e-02,-6.032420132794077960e-02,-7.158471890915638070e-02,-8.324739783255825920e-02,-9.450791541377387417e-02,-1.057684329949894753e-01,-1.174311119183913676e-01,-1.286916294996069687e-01,-1.399521470808225698e-01,-1.516148260042244345e-01,-1.628753435854400633e-01,-1.672991183494890455e-01,-1.672991183494890455e-01,-1.672991183494890455e-01,-1.672991183494890455e-01,-1.672991183494890455e-01
-1.672991183494890455e-01,-1.672991183494890455e-01,-1.672991183494890455e-01,-1.596946129699668149e-01,-1.459114469695827754e-01,-1.326035625554188857e-01,-1.192956781412549683e-01,-1.055125121408709427e-01,-9.220462772670705298e-02,-7.842146172632299961e-02,-6.511357731215909606e-02,-5.180569289799520638e-02,-3.802252689761118076e-02,-2.471464248344726333e-02,-1.140675806928334590e-02,-2.775557561562891351e-17,-2.775557561562891351e-17,-2.775557561562891351e-17,-2.775557561562891351e-17,-2.775557561562891351e-17,-2.775557561562891351e-17,-2.775557561562891351e-17,-2.775557561562891351e-17,-2.775557561562891351e-17,-2.775557561562891351e-17,-2.775557561562891351e-17,-2.775557561562891351e-17,-2.775557561562891351e-17,-8.445388185911700818e-03,-2.010806710931359320e-02,-3.136858469052922205e-02,-4.303126361393110055e-02,-5.429178119514670164e-02,-6.555229877636231661e-02,-7.721497769976418124e-02,-8.847549528097978233e-02,-9.973601286219539730e-02,-1.113986917855972758e-01,-1.226592093668128908e-01,-1.343218882902147693e-01,-1.455824058714303704e-01,-1.568429234526459715e-01,-1.672991183494890455e-01,-1.672991183494890455e-01,-1.672991183494890455e-01,-1.672991183494890455e-01,-1.672991183494890455e-01
-1.672991183494890455e-01,-1.672991183494890455e-01,-1.672991183494890455e-01,-1.663485551770487736e-01,-1.530406707628848562e-01,-1.397327863487209665e-01,-1.259496203483369270e-01,-1.126417359341730234e-01,-9.933385152000913376e-02,-8.555068551962508039e-02,-7.224280110546119071e-02,-5.893491669129728716e-02,-4.515175069091326154e-02,-3.184386627674937187e-02,-1.806070027636533237e-02,-4.752815862201442698e-03,-2.775557561562891351e-17,-2.775557561562891351e-17,-2.775557561562891351e-17,-2.775557561562891351e-17,0.000000000000000000e+00,-2.775557561562891351e-17,-2.775557561562891351e-17,-2.775557561562891351e-17,-2.775557561562891351e-17,-2.775557561562891351e-17,-2.775557561562891351e-17,-2.775557561562891351e-17,-2.815129395303928028e-03,-1.407564697651952912e-02,-2.533616455773515797e-02,-3.699884348113702259e-02,-4.825936106235263756e-02,-5.992203998575451607e-02,-7.118255756697010328e-02,-8.244307514818571825e-02,-9.410575407158758288e-02,-1.053662716528032117e-01,-1.166267892340188128e-01,-1.282894681574207052e-01,-1.395499857386363063e-01,-1.508105033198519074e-01,-1.624731822432537998e-01,-1.672991183494890455e-01,-1.672991183494890455e-01,-1.672991183494890455e-01,-1.672991183494890455e-01
-1.672991183494890455e-01,-1.672991183494890455e-01,-1.672991183494890455e-01,-1.672991183494890455e-01,-1.601698945561869647e-01,-1.468620101420230473e-01,-1.330788441416390078e-01,-1.197709597274751181e-01,-1.059877937270910786e-01,-9.267990931292718892e-02,-7.937202489876327149e-02,-1.037903825905280020e-01,-9.048249817636411230e-02,-7.717461376220022262e-02,-6.339144776181618313e-02,-5.008356334765226570e-02,0.000000000000000000e+00,-2.775557561562891351e-17,-2.775557561562891351e-17,-2.775557561562891351e-17,-2.775557561562891351e-17,-2.775557561562891351e-17,-2.775557561562891351e-17,-2.775557561562891351e-17,-2.775557561562891351e-17,-2.775557561562891351e-17,-2.775557561562891351e-17,-2.775557561562891351e-17,-2.775557561562891351e-17,-8.043226843725437281e-03,-1.970590576712732966e-02,-3.096642334834295851e-02,-4.222694092955855960e-02,-5.388961985296043811e-02,-6.515013743417605308e-02,-7.641065501539162641e-02,-8.807333393879351879e-02,-9.933385152000913376e-02,-1.109965304434110123e-01,-1.222570480246266134e-01,-1.335175656058422144e-01,-1.451802445292441068e-01,-1.564407621104597079e-01,-1.672991183494890455e-01,-1.672991183494890455e-01,-1.672991183494890455e-01,-1.672991183494890455e-01
-1.672991183494890455e-01,-1.672991183494890455e-01,-1.672991183494890455e-01,-1.672991183494890455e-01,-1.672991183494890455e-01,-1.535159523491050060e-01,-1.402080679349411163e-01,-1.269001835207771989e-01,-1.131170175203931594e-01,-9.980913310622926971e-02,-8.650124869206536615e-02,-1.109196063838301105e-01,-9.761172196966619308e-02,-8.382855596928215358e-02,-7.052067155511826391e-02,-5.721278714095437423e-02,-5.228097448421564764e-03,-2.775557561562891351e-17,-2.775557561562891351e-17,-2.775557561562891351e-17,-2.775557561562891351e-17,-2.775557561562891351e-17,-2.775557561562891351e-17,-2.775557561562891351e-17,-5.551115123125782702e-17,-2.775557561562891351e-17,-2.775557561562891351e-17,-2.775557561562891351e-17,-2.775557561562891351e-17,-2.010806710931373198e-03,-1.367348563433326558e-02,-2.493400321554886667e-02,-3.659668213895075906e-02,-4.785719972016636015e-02,-5.911771730138196124e-02,-7.078039622478383974e-02,-8.204091380599944083e-02,-9.330143138721505580e-02,-1.049641103106169343e-01,-2.590228630960215161e-01,-2.706855420194234085e-01,-2.819460596006390096e-01,-1.504083419776656438e-01,-1.620710209010675085e-01,-1.672991183494890455e-01,-1.672991183494890455e-01,-1.672991183494890455e-01
-1.672991183494890455e-01,-1.672991183494890455e-01,-1.672991183494890455e-01,-1.672991183494890455e-01,-1.672991183494890455e-01,-1.606451761424070868e-01,-1.473372917282431971e-01,-1.335541257278591576e-01,-1.202462413136952540e-01,-1.069383568995313644e-01,-9.315519089914732487e-02,-1.180488301771321913e-01,-1.047409457629682739e-01,-9.095777976258426212e-02,-7.764989534842037244e-02,-6.434201093425645501e-02,-1.235732124172364554e-02,-2.775557561562891351e-17,-2.775557561562891351e-17,-2.775557561562891351e-17,-2.775557561562891351e-17,-2.775557561562891351e-17,-2.775557561562891351e-17,-2.775557561562891351e-17,-2.775557561562891351e-17,-2.775557561562891351e-17,-5.551115123125782702e-17,-2.775557561562891351e-17,-2.775557561562891351e-17,-2.775557561562891351e-17,-7.641065501539173743e-03,-1.890158308275480259e-02,-3.056426200615666722e-02,-4.182477958737229606e-02,-5.308529716858788328e-02,-6.474797609198976178e-02,-7.600849367320536287e-02,-8.767117259660724138e-02,-9.893169017782285635e-02,-2.529904429632274243e-01,-2.646531218866293167e-01,-2.759136394678449178e-01,-1.443759218448715520e-01,-1.560386007682734444e-01,-1.672991183494890455e-01,-1.672991183494890455e-01,-1.672991183494890455e-01
-1.672991183494890455e-01,-1.672991183494890455e-01,-1.672991183494890455e-01,-1.672991183494890455e-01,-1.672991183494890455e-01,-1.672991183494890455e-01,-1.544665155215452779e-01,-1.406833495211612384e-01,-1.273754651069973487e-01,-1.140675806928334451e-01,-1.002844146924494195e-01,-1.251780539704342721e-01,-1.113948879700502326e-01,-9.808700355588634290e-02,-8.477911914172245322e-02,-7.099595314133841373e-02,-1.948654503502575408e-02,-6.178660620861836650e-03,-2.775557561562891351e-17,-2.775557561562891351e-17,-2.775557561562891351e-17,-2.775557561562891351e-17,-2.775557561562891351e-17,-2.775557561562891351e-17,-2.775557561562891351e-17,-2.775557561562891351e-17,-2.775557561562891351e-17,-2.775557561562891351e-17,-2.775557561562891351e-17,-2.775557561562891351e-17,-1.608645368745109661e-03,-1.327132429214697429e-02,-2.453184187336260313e-02,-3.579235945457820423e-02,-4.745503837798006885e-02,-5.871555595919569770e-02,-6.997607354041129879e-02,-8.163875246381316342e-02,-9.289927004502877839e-02,-2.473601841726196238e-01,-2.586207017538352249e-01,-2.698812193350508259e-01,-1.387456630542637515e-01,-1.500061806354793525e-01,-1.612666982166949814e-01,-1.672991183494890455e-01,-1.672991183494890455e-01
-1.672991183494890455e-01,-1.672991183494890455e-01,-1.672991183494890455e-01,-1.672991183494890455e-01,-1.672991183494890455e-01,-1.672991183494890455e-01,-1.611204577286272366e-01,-1.478125733144633469e-01,-1.345046889002994295e-01,-1.207215228999153900e-01,-1.074136384857515003e-01,-1.323072777637363806e-01,-1.185241117633523411e-01,-1.052162273491884237e-01,-9.143306134880438418e-02,-7.812517693464049451e-02,-2.661576882832783486e-02,-1.283260282794379536e-02,-2.775557561562891351e-17,-2.775557561562891351e-17,-2.775557561562891351e-17,-2.775557561562891351e-17,-2.775557561562891351e-17,-2.775557561562891351e-17,-2.775557561562891351e-17,0.000000000000000000e+00,0.000000000000000000e+00,-2.775557561562891351e-17,-2.775557561562891351e-17,-2.775557561562891351e-17,-2.775557561562891351e-17,-7.238904159352910206e-03,-1.849942174056851130e-02,-2.975993932178414014e-02,-4.142261824518600477e-02,-5.268313582640163362e-02,-6.434581474980349824e-02,-7.560633233101909934e-02,-8.686684991223470043e-02,-9.852952883563657893e-02,-1.097900464168521939e-01,-1.210505639980677950e-01,-1.327132429214696874e-01,-1.439737605026852885e-01,-1.556364394260871808e-01,-1.668969570073027819e-01,-1.672991183494890455e-01
-1.672991183494890455e-01,-1.672991183494890455e-01,-1.672991183494890455e-01,-1.672991183494890455e-01,-1.672991183494890455e-01,-1.672991183494890455e-01,-2.084751223670084641e-01,-1.961178011252848463e-01,-1.828099167111209566e-01,-1.278507466932174985e-01,-1.145428622790535811e-01,-1.007596962786695555e-01,-8.745181186450563804e-02,-7.414392745034173449e-02,-6.036076144995769499e-02,-4.705287703579380532e-02,-3.374499262162991564e-02,-1.996182662124587615e-02,-6.653942207081986471e-03,-2.775557561562891351e-17,-2.775557561562891351e-17,-5.551115123125782702e-17,-2.775557561562891351e-17,-2.775557561562891351e-17,-2.775557561562891351e-17,-2.775557561562891351e-17,-2.775557561562891351e-17,-2.775557561562891351e-17,-2.775557561562891351e-17,-2.775557561562891351e-17,-2.775557561562891351e-17,-1.206484026558818368e-03,-1.246700160777444721e-02,-2.412968053117633960e-02,-3.539019811239194069e-02,-4.665071569360754178e-02,-5.831339461700943416e-02,-6.957391219822503525e-02,-8.123659112162688600e-02,-9.249710870284250097e-02,-1.037576262840581159e-01,-1.154203052074599944e-01,-1.266808227886755955e-01,-1.379413403698911966e-01,-1.496040192932930890e-01,-1.608645368745086901e-01,-1.672991183494890455e-01
-1.672991183494890455e-01,-1.672991183494890455e-01,-1.672991183494890455e-01,-1.672991183494890455e-01,-1.672991183494890455e-01,-1.672991183494890455e-01,-2.084751223670084641e-01,-2.032470249185869271e-01,-1.894638589182028876e-01,-1.349799704865195793e-01,-1.216720860723556619e-01,-1.078889200719716362e-01,-9.458103565780774658e-02,-8.079786965742369320e-02,-6.748998524325978965e-02,-5.418210082909591385e-02,-4.039893482871187436e-02,-2.709105041454798468e-02,-1.378316600038406725e-02,-2.775557561562891351e-17,-2.775557561562891351e-17,-2.775557561562891351e-17,-2.775557561562891351e-17,-2.775557561562891351e-17,-2.775557561562891351e-17,-2.775557561562891351e-17,-2.775557561562891351e-17,-2.775557561562891351e-17,-2.775557561562891351e-17,-2.775557561562891351e-17,-2.775557561562891351e-17,-2.775557561562891351e-17,-6.836742817166646669e-03,-1.809726039838224776e-02,-2.935777797959784885e-02,-4.102045690299971348e-02,-5.228097448421534232e-02,-6.354149206543095729e-02,-7.520417098883282192e-02,-8.646468857004843689e-02,-9.772520615126403798e-02,-1.093878850746659304e-01,-1.206484026558815315e-01,-1.323110815792833961e-01,-1.435715991604990249e-01,-1.548321167417146260e-01,-1.664947956651164906e-01
-1.672991183494890455e-01,-1.672991183494890455e-01,-1.672991183494890455e-01,-1.672991183494890455e-01,-1.672991183494890455e-01,-1.672991183494890455e-01,-2.084751223670084641e-01,-2.084751223670084641e-01,-1.965930827115049961e-01,-1.421091942798216601e-01,-1.283260282794376206e-01,-1.150181438652737170e-01,-1.017102594511098274e-01,-8.792709345072578786e-02,-7.461920903656188431e-02,-6.131132462239799463e-02,-4.752815862201395514e-02,-3.422027420785006546e-02,-2.043710820746602597e-02,-7.129223793302136292e-03,-2.775557561562891351e-17,-2.775557561562891351e-17,-2.775557561562891351e-17,-5.551115123125782702e-17,-2.775557561562891351e-17,-2.775557561562891351e-17,-2.775557561562891351e-17,-5.551115123125782702e-17,-2.775557561562891351e-17,-2.775557561562891351e-17,-2.775557561562891351e-17,-2.775557561562891351e-17,-8.043226843725548303e-04,-1.206484026558815592e-02,-2.332535784680378477e-02,-3.498803677020564940e-02,-4.624855435142126436e-02,-5.791123327482315675e-02,-6.917175085603874396e-02,-8.043226843725435893e-02,-9.209494736065623743e-02,-1.033554649418718524e-01,-1.146159825230874535e-01,-1.262786614464893320e-01,-1.375391790277049331e-01,-1.487996966089205619e-01,-1.604623755323224266e-01
-1.672991183494890455e-01,-1.672991183494890455e-01,-1.672991183494890455e-01,-1.672991183494890455e-01,-1.672991183494890455e-01,-1.672991183494890455e-01,-1.672991183494890455e-01,-1.672991183494890455e-01,-1.625463024872876583e-01,-1.492384180731237686e-01,-1.354552520727397291e-01,-1.221473676585758117e-01,-1.083642016581917722e-01,-9.505631724402788252e-02,-8.174843282986396509e-02,-6.796526682947992559e-02,-5.465738241531603592e-02,-4.134949800115214624e-02,-2.756633200076810675e-02,-1.425844758660418932e-02,-9.505631724402996419e-04,-2.775557561562891351e-17,-2.775557561562891351e-17,-2.775557561562891351e-17,-2.775557561562891351e-17,-2.775557561562891351e-17,-2.775557561562891351e-17,-2.775557561562891351e-17,-2.775557561562891351e-17,-2.775557561562891351e-17,-2.775557561562891351e-17,-2.775557561562891351e-17,-2.775557561562891351e-17,-6.032420132794091838e-03,-1.769509905619598422e-02,-2.895561663741161307e-02,-4.021613421862718640e-02,-5.187881314202906491e-02,-6.313933072324467988e-02,-7.439984830446028097e-02,-8.606252722786215947e-02,-9.732304480907777444e-02,-1.089857237324796529e-01,-1.202462413136952679e-01,-1.315067588949108690e-01,-1.431694378183127336e-01,-1.544299553995283625e-01
-1.672991183494890455e-01,-1.672991183494890455e-01,-1.672991183494890455e-01,-1.672991183494890455e-01,-1.672991183494890455e-01,-1.672991183494890455e-01,-1.672991183494890455e-01,-1.672991183494890455e-01,-1.672991183494890455e-01,-1.558923602802056996e-01,-1.425844758660418099e-01,-1.292765914518778925e-01,-1.154934254514938669e-01,-1.021855410373299772e-01,-8.887765662316607362e-02,-7.509449062278200637e-02,-6.178660620861811670e-02,-4.800344020823410496e-02,-3.469555579407021528e-02,-2.138767137990629785e-02,-7.604505379522258357e-03,-2.775557561562891351e-17,-2.775557561562891351e-17,-2.775557561562891351e-17,-2.775557561562891351e-17,-2.775557561562891351e-17,-2.775557561562891351e-17,-2.775557561562891351e-17,-2.775557561562891351e-17,-2.775557561562891351e-17,-2.775557561562891351e-17,0.000000000000000000e+00,0.000000000000000000e+00,-2.775557561562891351e-17,-1.166267892340189238e-02,-2.292319650461752123e-02,-3.458587542801938586e-02,-4.584639300923498695e-02,-5.710691059045060192e-02,-6.876958951385249430e-02,-8.003010709506808151e-02,-9.129062467628371036e-02,-1.029533035996855750e-01,-1.142138211809011900e-01,-1.258765001043030685e-01,-1.371370176855186696e-01,-1.483975352667342706e-01
-1.672991183494890455e-01,-1.672991183494890455e-01,-1.672991183494890455e-01,-1.672991183494890455e-01,-1.672991183494890455e-01,-1.672991183494890455e-01,-1.672991183494890455e-01,-1.672991183494890455e-01,-1.672991183494890455e-01,-1.630215840735077804e-01,-1.497136996593438907e-01,-1.359305336589598512e-01,-1.226226492447959476e-01,-1.093147648306320580e-01,-9.553159883024801846e-02,-8.222371441608410103e-02,-6.891583000192019748e-02,-5.513266400153617186e-02,-2.788498969673557371e-01,-2.650667309669716976e-01,-2.517588465528077801e-01,-1.425844758660449463e-03,-2.775557561562891351e-17,-2.775557561562891351e-17,-2.775557561562891351e-17,-2.775557561562891351e-17,-2.775557561562891351e-17,-2.775557561562891351e-17,0.000000000000000000e+00,-2.775557561562891351e-17,-2.775557561562891351e-17,-2.775557561562891351e-17,-2.775557561562891351e-17,-2.775557561562891351e-17,-5.630258790607828301e-03,-1.689077637182342939e-02,-2.855345529522532178e-02,-3.981397287644092287e-02,-5.107449045765652396e-02,-6.273716938105841634e-02,-7.399768696227401743e-02,-8.566036588567588206e-02,-9.692088346689149703e-02,-1.081814010481071120e-01,-1.198440799715089905e-01,-1.311045975527245777e-01,-1.423651151339402066e-01
-1.672991183494890455e-01,-1.672991183494890455e-01,-1.672991183494890455e-01,-1.672991183494890455e-01,-1.672991183494890455e-01,-1.672991183494890455e-01,-1.672991183494890455e-01,-1.672991183494890455e-01,-1.672991183494890455e-01,-1.672991183494890455e-01,-1.568429234526459715e-01,-1.430597574522619320e-01,-1.297518730380980423e-01,-1.164439886239341387e-01,-1.026608226235500992e-01,-8.935293820938619569e-02,-7.556977220900215619e-02,-6.226188779483826652e-02,-2.859791207606577901e-01,-2.721959547602738061e-01,-2.588880703461098887e-01,-8.555068551962530243e-03,-2.775557561562891351e-17,-5.551115123125782702e-17,-2.775557561562891351e-17,-2.775557561562891351e-17,-2.775557561562891351e-17,-2.775557561562891351e-17,0.000000000000000000e+00,-2.775557561562891351e-17,0.000000000000000000e+00,-2.775557561562891351e-17,-2.775557561562891351e-17,0.000000000000000000e+00,-2.775557561562891351e-17,-1.126051758121562885e-02,-2.252103516243122994e-02,-3.378155274364683103e-02,-4.544423166704872341e-02,-5.670474924826433838e-02,-6.796526682947993947e-02,-7.962794575288180410e-02,-9.088846333409741907e-02,-1.025511422574992976e-01,-1.138116598387149125e-01,-1.250721774199305136e-01,-1.367348563433324060e-01
-1.672991183494890455e-01,-1.672991183494890455e-01,-1.672991183494890455e-01,-1.672991183494890455e-01,-1.672991183494890455e-01,-1.672991183494890455e-01,-1.672991183494890455e-01,-1.672991183494890455e-01,-1.672991183494890455e-01,-1.672991183494890455e-01,-1.634968656597279302e-01,-1.501889812455640405e-01,-1.368810968314001231e-01,-1.230979308310160836e-01,-1.097900464168521939e-01,-9.648216200268830423e-02,-8.269899600230426473e-02,-6.939111158814034730e-02,-2.926330629677397210e-01,-2.793251785535758591e-01,-2.660172941394119972e-01,-1.520901075904448896e-02,-1.901126344880571528e-03,-2.775557561562891351e-17,-2.775557561562891351e-17,-2.775557561562891351e-17,-2.775557561562891351e-17,-2.775557561562891351e-17,-2.775557561562891351e-17,0.000000000000000000e+00,-2.775557561562891351e-17,-2.775557561562891351e-17,-2.775557561562891351e-17,-2.775557561562891351e-17,-2.775557561562891351e-17,-5.228097448421537008e-03,-1.648861502963713810e-02,-2.774913261085276694e-02,-3.941181153425465933e-02,-5.067232911547026042e-02,-6.233500803887212505e-02,-7.359552562008774002e-02,-8.485604320130335498e-02,-9.651872212470521961e-02,-1.077792397059208346e-01,-1.190397572871364357e-01,-1.307024362105383142e-01
-1.672991183494890455e-01,-1.672991183494890455e-01,-1.672991183494890455e-01,-1.672991183494890455e-01,-1.672991183494890455e-01,-1.672991183494890455e-01,-1.672991183494890455e-01,-1.672991183494890455e-01,-1.672991183494890455e-01,-1.672991183494890455e-01,-1.672991183494890455e-01,-1.573182050388661213e-01,-1.435350390384820818e-01,-1.302271546243181644e-01,-1.169192702101542747e-01,-1.031361042097702491e-01,-8.982821979560634551e-02,-7.652033538144242808e-02,-6.273716938105840246e-02,-4.942928496689451279e-02,-3.612140055273060923e-02,-2.233823455234656974e-02,-9.030350138182680064e-03,-2.775557561562891351e-17,-2.775557561562891351e-17,-2.775557561562891351e-17,-2.775557561562891351e-17,-2.775557561562891351e-17,-2.775557561562891351e-17,-2.775557561562891351e-17,-2.775557561562891351e-17,0.000000000000000000e+00,-2.775557561562891351e-17,-2.775557561562891351e-17,-2.775557561562891351e-17,-2.775557561562891351e-17,-1.045619489684310177e-02,-2.211887382024496640e-02,-3.337939140146059525e-02,-4.463990898267619634e-02,-5.630258790607806096e-02,-6.756310548729367593e-02,-7.922578441069552668e-02,-9.048630199191115553e-02,-1.017468195731267566e-01,-1.134094984965286490e-01,-1.246700160777442501e-01
-1.672991183494890455e-01,-1.672991183494890455e-01,-1.672991183494890455e-01,-1.672991183494890455e-01,-1.672991183494890455e-01,-1.672991183494890455e-01,-1.672991183494890455e-01,-1.672991183494890455e-01,-1.672991183494890455e-01,-1.672991183494890455e-01,-1.672991183494890455e-01,-1.644474288321682021e-01,-1.506642628317841626e-01,-1.373563784176202729e-01,-1.240484940034563555e-01,-1.102653280030723298e-01,-9.695744358890842629e-02,-8.317427758852438680e-02,-6.986639317436048324e-02,-5.655850876019659357e-02,-4.277534275981255407e-02,-2.946745834564865052e-02,-1.615957393148476084e-02,-2.376407931100721349e-03,-2.775557561562891351e-17,-2.775557561562891351e-17,-2.775557561562891351e-17,-2.775557561562891351e-17,-2.775557561562891351e-17,-2.775557561562891351e-17,-2.775557561562891351e-17,-2.775557561562891351e-17,-2.775557561562891351e-17,-2.775557561562891351e-17,-2.775557561562891351e-17,-2.775557561562891351e-17,-4.825936106235301226e-03,-1.608645368745087456e-02,-2.734697126866653116e-02,-3.900965019206836804e-02,-5.027016777328398300e-02,-6.153068535449959797e-02,-7.319336427790146260e-02,-8.445388185911706369e-02,-9.571439944033267866e-02,-1.073770783637345572e-01,-1.186375959449501721e-01
-1.672991183494890455e-01,-1.672991183494890455e-01,-1.672991183494890455e-01,-1.672991183494890455e-01,-1.672991183494890455e-01,-1.672991183494890455e-01,-1.672991183494890455e-01,-1.672991183494890455e-01,-1.672991183494890455e-01,-1.672991183494890455e-01,-1.672991183494890455e-01,-1.672991183494890455e-01,-1.577934866250862711e-01,-1.444856022109223537e-01,-1.307024362105383142e-01,-1.173945517963744245e-01,-1.040866673822105209e-01,-9.030350138182649533e-02,-7.699561696766257790e-02,-6.368773255349867435e-02,-4.990456655311464873e-02,-3.659668213895075906e-02,-2.281351613856671956e-02,-9.505631724402802130e-03,-2.775557561562891351e-17,-2.775557561562891351e-17,-2.775557561562891351e-17,-2.775557561562891351e-17,-2.775557561562891351e-17,-2.775557561562891351e-17,-2.775557561562891351e-17,-2.775557561562891351e-17,-2.775557561562891351e-17,-2.775557561562891351e-17,-2.775557561562891351e-17,-2.775557561562891351e-17,-2.775557561562891351e-17,-1.005403355465681048e-02,-2.131455113587243932e-02,-3.297723005927430395e-02,-4.423774764048990504e-02,-5.590042656389178355e-02,-6.716094414510739852e-02,-7.842146172632299961e-02,-9.008414064972487811e-02,-1.013446582309404931e-01,-1.126051758121560942e-01
-1.672991183494890455e-01,-1.672991183494890455e-01,-1.672991183494890455e-01,-1.672991183494890455e-01,-1.672991183494890455e-01,-1.672991183494890455e-01,-1.672991183494890455e-01,-1.672991183494890455e-01,-1.672991183494890455e-01,-1.672991183494890455e-01,-1.672991183494890455e-01,-1.672991183494890455e-01,-1.649227104183883519e-01,-1.516148260042244622e-01,-1.378316600038404227e-01,-1.245237755896765053e-01,-1.107406095892924658e-01,-9.743272517512857611e-02,-8.412484076096467256e-02,-7.034167476058061919e-02,-5.703379034641672951e-02,-4.372590593225285371e-02,-2.994273993186882810e-02,-1.663485551770491067e-02,-3.326971103540993235e-03,-2.775557561562891351e-17,-2.775557561562891351e-17,0.000000000000000000e+00,-2.775557561562891351e-17,-2.775557561562891351e-17,-2.775557561562891351e-17,-2.775557561562891351e-17,-2.775557561562891351e-17,-2.775557561562891351e-17,-2.775557561562891351e-17,-2.775557561562891351e-17,-2.775557561562891351e-17,-4.021613421862718640e-03,-1.568429234526461102e-02,-2.694480992648023987e-02,-3.820532750769584096e-02,-4.986800643109771947e-02,-6.112852401231333443e-02,-7.238904159352893553e-02,-8.405172051693080015e-02,-9.531223809814641512e-02,-1.069749170215482936e-01
-1.672991183494890455e-01,-1.672991183494890455e-01,-1.672991183494890455e-01,-1.672991183494890455e-01,-1.672991183494890455e-01,-1.672991183494890455e-01,-1.672991183494890455e-01,-1.672991183494890455e-01,-1.672991183494890455e-01,-1.672991183494890455e-01,-1.672991183494890455e-01,-1.672991183494890455e-01,-1.672991183494890455e-01,-1.582687682113063932e-01,-1.449608837971425035e-01,-1.316529993829785861e-01,-1.178698333825945604e-01,-1.045619489684306569e-01,-9.125406455426676722e-02,-7.747089855388269997e-02,-6.416301413971881029e-02,-5.037984813933478467e-02,-3.707196372517088112e-02,-2.376407931100701920e-02,-9.980913310622951951e-03,-5.551115123125782702e-17,0.000000000000000000e+00,-2.775557561562891351e-17,-2.775557561562891351e-17,-2.775557561562891351e-17,-2.775557561562891351e-17,-2.775557561562891351e-17,-2.775557561562891351e-17,-2.775557561562891351e-17,-2.775557561562891351e-17,-2.775557561562891351e-17,-2.775557561562891351e-17,-2.775557561562891351e-17,-9.651872212470519186e-03,-2.091238979368617579e-02,-3.257506871708801266e-02,-4.383558629830362763e-02,-5.509610387951922872e-02,-6.675878280292114886e-02,-7.801930038413672219e-02,-8.927981796535233716e-02,-1.009424968887542157e-01
-1.672991183494890455e-01,-1.672991183494890455e-01,-1.672991183494890455e-01,-1.672991183494890455e-01,-1.672991183494890455e-01,-1.672991183494890455e-01,-1.672991183494890455e-01,-1.672991183494890455e-01,-1.672991183494890455e-01,-1.672991183494890455e-01,-1.672991183494890455e-01,-1.672991183494890455e-01,-1.672991183494890455e-01,-1.653979920046085017e-01,-1.520901075904445843e-01,-1.383069415900605448e-01,-1.249990571758966551e-01,-1.116911727617327516e-01,-9.790800676134871205e-02,-8.460012234718480850e-02,-7.129223793302090495e-02,-5.750907193263687933e-02,-4.420118751847298966e-02,-3.041802151808895016e-02,-1.711013710392506049e-02,-3.802252689761143056e-03,-2.775557561562891351e-17,-2.775557561562891351e-17,-2.775557561562891351e-17,-2.775557561562891351e-17,-2.775557561562891351e-17,-5.551115123125782702e-17,-2.775557561562891351e-17,-2.775557561562891351e-17,-2.775557561562891351e-17,-2.775557561562891351e-17,-2.775557561562891351e-17,-2.775557561562891351e-17,-3.619452079676482859e-03,-1.487996966089208395e-02,-2.654264858429397633e-02,-3.780316616550957742e-02,-4.906368374672516464e-02,-6.072636267012705702e-02,-7.198688025134264423e-02,-8.364955917474453662e-02,-9.491007675596013771e-02
-1.672991183494890455e-01,-1.672991183494890455e-01,-1.672991183494890455e-01,-1.672991183494890455e-01,-1.672991183494890455e-01,-1.672991183494890455e-01,-1.672991183494890455e-01,-1.672991183494890455e-01,-1.672991183494890455e-01,-1.672991183494890455e-01,-1.672991183494890455e-01,-1.672991183494890455e-01,-1.672991183494890455e-01,-1.672991183494890455e-01,-1.592193313837466651e-01,-1.454361653833626533e-01,-1.321282809691987359e-01,-1.188203965550348462e-01,-1.050372305546508067e-01,-9.172934614048690316e-02,-7.794618014010284979e-02,-6.463829572593896011e-02,-5.133041131177507044e-02,-3.754724531139105870e-02,-2.423936089722714127e-02,-1.093147648306322384e-02,-2.775557561562891351e-17,-5.551115123125782702e-17,-2.775557561562891351e-17,-2.775557561562891351e-17,-2.775557561562891351e-17,-2.775557561562891351e-17,-2.775557561562891351e-17,-2.775557561562891351e-17,-2.775557561562891351e-17,-2.775557561562891351e-17,-2.775557561562891351e-17,-2.775557561562891351e-17,-2.775557561562891351e-17,-9.249710870284283404e-03,-2.051022845149988449e-02,-3.177074603271548559e-02,-4.343342495611737797e-02,-5.469394253733299294e-02,-6.595446011854858015e-02,-7.761713904195044478e-02,-9.377899798106124896e-02
-1.672991183494890455e-01,-1.672991183494890455e-01,-1.672991183494890455e-01,-1.672991183494890455e-01,-1.672991183494890455e-01,-1.672991183494890455e-01,-1.672991183494890455e-01,-1.672991183494890455e-01,-1.672991183494890455e-01,-1.672991183494890455e-01,-1.672991183494890455e-01,-1.672991183494890455e-01,-1.672991183494890455e-01,-1.672991183494890455e-01,-1.658732735908286238e-01,-1.525653891766647341e-01,-1.392575047625008167e-01,-1.254743387621167772e-01,-1.121664543479528875e-01,-9.885856993378899782e-02,-8.507540393340495832e-02,-7.176751951924104089e-02,-5.798435351885701527e-02,-4.467646910469312560e-02,-3.136858469052922205e-02,-1.758541869014518255e-02,-4.277534275981292877e-03,-2.775557561562891351e-17,-2.775557561562891351e-17,-2.775557561562891351e-17,-2.775557561562891351e-17,-2.775557561562891351e-17,-5.551115123125782702e-17,0.000000000000000000e+00,-2.775557561562891351e-17,-2.775557561562891351e-17,-2.775557561562891351e-17,-2.775557561562891351e-17,-2.775557561562891351e-17,-3.217290737490191566e-03,-1.447780831870579266e-02,-2.614048724210771280e-02,-3.740100482332328613e-02,-4.866152240453890110e-02,-6.032420132794077960e-02,-1.164508436468123243e-01,-1.620207507332942221e-01
-1.672991183494890455e-01,-1.672991183494890455e-01,-1.672991183494890455e-01,-1.672991183494890455e-01,-1.672991183494890455e-01,-1.672991183494890455e-01,-1.672991183494890455e-01,-1.672991183494890455e-01,-1.672991183494890455e-01,-1.672991183494890455e-01,-1.672991183494890455e-01,-1.672991183494890455e-01,-1.672991183494890455e-01,-1.672991183494890455e-01,-1.672991183494890455e-01,-1.596946129699668149e-01,-1.459114469695827754e-01,-1.326035625554188857e-01,-1.192956781412549822e-01,-1.055125121408709427e-01,-9.220462772670703910e-02,-7.889674331254313555e-02,-6.511357731215909606e-02,-5.180569289799520638e-02,-3.849780848383133058e-02,-2.471464248344726333e-02,-1.140675806928337366e-02,-2.775557561562891351e-17,-5.551115123125782702e-17,0.000000000000000000e+00,-2.775557561562891351e-17,-2.775557561562891351e-17,-2.775557561562891351e-17,0.000000000000000000e+00,-2.775557561562891351e-17,0.000000000000000000e+00,-2.775557561562891351e-17,-2.775557561562891351e-17,-2.775557561562891351e-17,-2.775557561562891351e-17,-8.445388185911700818e-03,-2.010806710931359320e-02,-3.136858469052922205e-02,-9.717223430575791521e-02,-1.567046804912694546e-01,-1.672991183494890455e-01,-1.672991183494890455e-01
-1.672991183494890455e-01,-1.672991183494890455e-01,-1.672991183494890455e-01,-1.672991183494890455e-01,-1.672991183494890455e-01,-1.672991183494890455e-01,-1.672991183494890455e-01,-1.672991183494890455e-01,-1.672991183494890455e-01,-1.672991183494890455e-01,-1.672991183494890455e-01,-1.672991183494890455e-01,-1.672991183494890455e-01,-1.672991183494890455e-01,-1.672991183494890455e-01,-1.668238367632688957e-01,-1.530406707628848562e-01,-1.397327863487209665e-01,-1.264249019345570768e-01,-1.126417359341730373e-01,-9.933385152000913376e-02,-8.555068551962508039e-02,-7.224280110546119071e-02,-5.893491669129730104e-02,-4.515175069091326154e-02,-3.184386627674937187e-02,-1.853598186258545444e-02,-4.752815862201414943e-03,-2.775557561562891351e-17,-5.551115123125782702e-17,-2.775557561562891351e-17,-2.775557561562891351e-17,-2.775557561562891351e-17,-2.775557561562891351e-17,-2.775557561562891351e-17,-2.775557561562891351e-17,-2.775557561562891351e-17,-2.775557561562891351e-17,-2.775557561562891351e-17,-2.775557561562891351e-17,-2.815129395303955784e-03,-7.632268222178839601e-02,-1.495537491255198026e-01,-1.672991183494890455e-01,-1.672991183494890455e-01,-1.672991183494890455e-01,-1.672991183494890455e-01
-1.672991183494890455e-01,-1.672991183494890455e-01,-1.672991183494890455e-01,-1.672991183494890455e-01,-1.672991183494890455e-01,-1.672991183494890455e-01,-1.672991183494890455e-01,-1.672991183494890455e-01,-1.672991183494890455e-01,-1.672991183494890455e-01,-1.672991183494890455e-01,-1.672991183494890455e-01,-1.672991183494890455e-01,-1.672991183494890455e-01,-1.672991183494890455e-01,-1.672991183494890455e-01,-1.601698945561869647e-01,-1.468620101420230473e-01,-1.330788441416390078e-01,-1.197709597274751042e-01,-1.064630753133112284e-01,-9.267990931292718892e-02,-7.937202489876327149e-02,-6.606414048459938182e-02,-5.228097448421534232e-02,-3.897309007005145265e-02,-2.518992406966741315e-02,-1.188203965550352348e-02,-5.551115123125782702e-17,-2.775557561562891351e-17,-2.775557561562891351e-17,-2.775557561562891351e-17,-2.775557561562891351e-17,-2.775557561562891351e-17,-2.775557561562891351e-17,-2.775557561562891351e-17,-2.775557561562891351e-17,-2.775557561562891351e-17,0.000000000000000000e+00,-6.273716938105841634e-02,-1.359305336589598512e-01,-1.672991183494890455e-01,-1.672991183494890455e-01,-1.672991183494890455e-01,-1.672991183494890455e-01,-1.672991183494890455e-01,-1.672991183494890455e-01
-1.672991183494890455e-01,-1.672991183494890455e-01,-1.672991183494890455e-01,-1.672991183494890455e-01,-1.672991183494890455e-01,-1.672991183494890455e-01,-1.672991183494890455e-01,-1.672991183494890455e-01,-1.672991183494890455e-01,-1.672991183494890455e-01,-1.672991183494890455e-01,-1.672991183494890455e-01,-1.672991183494890455e-01,-1.672991183494890455e-01,-1.672991183494890455e-01,-1.672991183494890455e-01,-1.672991183494890455e-01,-1.539912339353251558e-01,-1.402080679349411163e-01,-1.269001835207771989e-01,-1.131170175203931733e-01,-9.980913310622928358e-02,-8.650124869206536615e-02,-7.271808269168131278e-02,-5.941019827751743698e-02,-4.610231386335353343e-02,-3.231914786296949393e-02,-1.901126344880560426e-02,-5.703379034641686829e-03,-2.775557561562891351e-17,-2.775557561562891351e-17,-2.775557561562891351e-17,-2.775557561562891351e-17,-2.775557561562891351e-17,-2.775557561562891351e-17,-2.775557561562891351e-17,-2.775557561562891351e-17,-5.228097448421534232e-02,-1.307024362105383142e-01,-1.672991183494890455e-01,-1.672991183494890455e-01,-1.672991183494890455e-01,-1.672991183494890455e-01,-1.672991183494890455e-01,-1.672991183494890455e-01,-1.672991183494890455e-01,-1.672991183494890455e-01
-1.672991183494890455e-01,-1.672991183494890455e-01,-1.672991183494890455e-01,-1.672991183494890455e-01,-1.672991183494890455e-01,-1.672991183494890455e-01,-1.672991183494890455e-01,-1.672991183494890455e-01,-1.672991183494890455e-01,-1.672991183494890455e-01,-1.672991183494890455e-01,-1.672991183494890455e-01,-1.672991183494890455e-01,-1.672991183494890455e-01,-1.672991183494890455e-01,-1.672991183494890455e-01,-1.672991183494890455e-01,-1.606451761424070868e-01,-1.473372917282431971e-01,-1.340294073140793074e-01,-1.202462413136952540e-01,-1.069383568995313644e-01,-9.363047248536746081e-02,-7.984730648498342132e-02,-6.653942207081951776e-02,-5.275625607043549214e-02,-3.944837165627160247e-02,-2.614048724210768504e-02,-1.235732124172364554e-02,-2.775557561562891351e-17,-2.775557561562891351e-17,-2.775557561562891351e-17,-5.551115123125782702e-17,-2.775557561562891351e-17,-2.775557561562891351e-17,-4.705287703579380532e-02,-1.254743387621167772e-01,-1.672991183494890455e-01,-1.672991183494890455e-01,-1.672991183494890455e-01,-1.672991183494890455e-01,-1.672991183494890455e-01,-1.672991183494890455e-01,-1.672991183494890455e-01,-1.719387944562949799e-01,-1.719387944562949799e-01,-1.719387944562949799e-01
-1.672991183494890455e-01,-1.672991183494890455e-01,-1.672991183494890455e-01,-1.672991183494890455e-01,-1.672991183494890455e-01,-1.672991183494890455e-01,-1.672991183494890455e-01,-1.672991183494890455e-01,-1.672991183494890455e-01,-1.672991183494890455e-01,-1.672991183494890455e-01,-1.672991183494890455e-01,-1.672991183494890455e-01,-1.672991183494890455e-01,-1.672991183494890455e-01,-1.672991183494890455e-01,-1.672991183494890455e-01,-1.672991183494890455e-01,-1.544665155215452779e-01,-1.406833495211612384e-01,-1.273754651069973487e-01,-1.140675806928334451e-01,-1.002844146924494195e-01,-8.697653027828551597e-02,-7.366864586412158467e-02,-5.988547986373758680e-02,-4.657759544957368325e-02,-3.279442944918964375e-02,-1.948654503502575408e-02,-6.178660620861836650e-03,-2.775557561562891351e-17,-2.775557561562891351e-17,-2.775557561562891351e-17,-4.182477958737226831e-02,-1.202462413136952540e-01,-1.672991183494890455e-01,-1.672991183494890455e-01,-1.672991183494890455e-01,-1.672991183494890455e-01,-1.672991183494890455e-01,-1.672991183494890455e-01,-1.672991183494890455e-01,-1.672991183494890455e-01,-1.672991183494890455e-01,-1.719387944562949799e-01,-1.719387944562949799e-01,-1.719387944562949799e-01
-1.672991183494890455e-01,-1.672991183494890455e-01,-1.672991183494890455e-01,-1.672991183494890455e-01,-1.672991183494890455e-01,-1.672991183494890455e-01,-1.672991183494890455e-01,-1.672991183494890455e-01,-1.672991183494890455e-01,-1.672991183494890455e-01,-1.672991183494890455e-01,-1.672991183494890455e-01,-1.672991183494890455e-01,-1.672991183494890455e-01,-1.672991183494890455e-01,-1.672991183494890455e-01,-1.672991183494890455e-01,-1.672991183494890455e-01,-1.615957393148473864e-01,-1.478125733144633469e-01,-1.345046889002994295e-01,-1.207215228999153900e-01,-1.074136384857515003e-01,-9.410575407158761063e-02,-8.032258807120355726e-02,-6.701470365703965371e-02,-5.370681924287575015e-02,-3.992365324249172454e-02,-2.661576882832783486e-02,-1.330788441416391743e-02,-2.775557561562891351e-17,-3.659668213895075906e-02,-1.097900464168521939e-01,-1.672991183494890455e-01,-1.672991183494890455e-01,-1.672991183494890455e-01,-1.672991183494890455e-01,-1.672991183494890455e-01,-1.672991183494890455e-01,-1.672991183494890455e-01,-1.672991183494890455e-01,-1.672991183494890455e-01,-1.672991183494890455e-01,-1.672991183494890455e-01,-1.719387944562949799e-01,-1.719387944562949799e-01,-1.719387944562949799e-01
-1.672991183494890455e-01,-1.672991183494890455e-01,-1.672991183494890455e-01,-1.672991183494890455e-01,-1.672991183494890455e-01,-1.672991183494890455e-01,-1.672991183494890455e-01,-1.672991183494890455e-01,-1.672991183494890455e-01,-1.672991183494890455e-01,-1.672991183494890455e-01,-1.672991183494890455e-01,-1.672991183494890455e-01,-1.672991183494890455e-01,-1.672991183494890455e-01,-1.672991183494890455e-01,-1.672991183494890455e-01,-1.672991183494890455e-01,-1.672991183494890455e-01,-1.549417971077654277e-01,-1.416339126936015380e-01,-1.278507466932174985e-01,-1.145428622790535811e-01,-1.012349778648896914e-01,-8.745181186450563804e-02,-7.414392745034173449e-02,-6.036076144995769499e-02,-4.705287703579381919e-02,-3.374499262162991564e-02,-4.298327845378387135e-02,-1.070571772960863949e-01,-1.672991183494890455e-01,-1.672991183494890455e-01,-1.672991183494890455e-01,-1.672991183494890455e-01,-1.672991183494890455e-01,-1.672991183494890455e-01,-1.672991183494890455e-01,-1.672991183494890455e-01,-1.672991183494890455e-01,-1.672991183494890455e-01,-1.672991183494890455e-01,-1.672991183494890455e-01,-1.672991183494890455e-01,-1.672991183494890455e-01,-1.672991183494890455e-01,-1.672991183494890455e-01
