0.000000000000000000e+00,0.000000000000000000e+00,0.000000000000000000e+00,0.000000000000000000e+00,0.000000000000000000e+00,0.000000000000000000e+00,-2.287138427352583547e-02,-2.587469735994842035e-02,-1.848192668567744459e-02,-1.108915601140646537e-02,-3.696385337135488745e-03,0.000000000000000000e+00,0.000000000000000000e+00,0.000000000000000000e+00,0.000000000000000000e+00,0.000000000000000000e+00,0.000000000000000000e+00,0.000000000000000000e+00,0.000000000000000000e+00,0.000000000000000000e+00,0.000000000000000000e+00,0.000000000000000000e+00,0.000000000000000000e+00,0.000000000000000000e+00,0.000000000000000000e+00,0.000000000000000000e+00,0.000000000000000000e+00,0.000000000000000000e+00,0.000000000000000000e+00,0.000000000000000000e+00,0.000000000000000000e+00,0.000000000000000000e+00,0.000000000000000000e+00,0.000000000000000000e+00,0.000000000000000000e+00,0.000000000000000000e+00,0.000000000000000000e+00,0.000000000000000000e+00,0.000000000000000000e+00,0.000000000000000000e+00,0.000000000000000000e+00,0.000000000000000000e+00,0.000000000000000000e+00,0.000000000000000000e+00,0.000000000000000000e+00,0.000000000000000000e+00,0.000000000000000000e+00
0.000000000000000000e+00,0.000000000000000000e+00,0.000000000000000000e+00,0.000000000000000000e+00,0.000000000000000000e+00,-3.927409420706457280e-03,-5.618505712445942546e-02,-4.879228645018845317e-02,-4.139951577591748089e-02,-3.400674510164650166e-02,-2.661397442737552244e-02,-1.922120375310454321e-02,-1.182843307883356399e-02,-4.435662404562586494e-03,0.000000000000000000e+00,0.000000000000000000e+00,0.000000000000000000e+00,0.000000000000000000e+00,0.000000000000000000e+00,0.000000000000000000e+00,0.000000000000000000e+00,0.000000000000000000e+00,0.000000000000000000e+00,0.000000000000000000e+00,0.000000000000000000e+00,0.000000000000000000e+00,0.000000000000000000e+00,0.000000000000000000e+00,0.000000000000000000e+00,0.000000000000000000e+00,0.000000000000000000e+00,0.000000000000000000e+00,0.000000000000000000e+00,0.000000000000000000e+00,0.000000000000000000e+00,0.000000000000000000e+00,0.000000000000000000e+00,0.000000000000000000e+00,0.000000000000000000e+00,0.000000000000000000e+00,0.000000000000000000e+00,0.000000000000000000e+00,0.000000000000000000e+00,0.000000000000000000e+00,0.000000000000000000e+00,0.000000000000000000e+00,0.000000000000000000e+00
0.000000000000000000e+00,0.000000000000000000e+00,0.000000000000000000e+00,0.000000000000000000e+00,0.000000000000000000e+00,-3.215855243307874645e-02,-7.836336914727236314e-02,-7.097059847300138391e-02,-6.357782779873040468e-02,-5.618505712445942546e-02,-4.879228645018844623e-02,-4.139951577591747395e-02,-3.400674510164649472e-02,-2.661397442737551897e-02,-1.996048082053163836e-02,-1.256771014626066260e-02,-5.174939471989683376e-03,0.000000000000000000e+00,0.000000000000000000e+00,0.000000000000000000e+00,0.000000000000000000e+00,0.000000000000000000e+00,0.000000000000000000e+00,0.000000000000000000e+00,0.000000000000000000e+00,0.000000000000000000e+00,0.000000000000000000e+00,0.000000000000000000e+00,0.000000000000000000e+00,0.000000000000000000e+00,0.000000000000000000e+00,0.000000000000000000e+00,0.000000000000000000e+00,0.000000000000000000e+00,0.000000000000000000e+00,0.000000000000000000e+00,0.000000000000000000e+00,0.000000000000000000e+00,0.000000000000000000e+00,0.000000000000000000e+00,0.000000000000000000e+00,0.000000000000000000e+00,0.000000000000000000e+00,0.000000000000000000e+00,0.000000000000000000e+00,0.000000000000000000e+00,0.000000000000000000e+00
0.000000000000000000e+00,0.000000000000000000e+00,0.000000000000000000e+00,0.000000000000000000e+00,0.000000000000000000e+00,-7.420493564299493472e-02,-1.005416811700852869e-01,-9.314891049581430771e-02,-8.649541688897044445e-02,-7.910264621469945134e-02,-7.170987554042848600e-02,-6.431710486615750677e-02,-5.692433419188652755e-02,-4.953156351761554832e-02,-4.213879284334457603e-02,-3.474602216907359681e-02,-2.735325149480261411e-02,-1.996048082053163836e-02,-1.256771014626066260e-02,-5.174939471989684243e-03,0.000000000000000000e+00,0.000000000000000000e+00,0.000000000000000000e+00,0.000000000000000000e+00,0.000000000000000000e+00,0.000000000000000000e+00,0.000000000000000000e+00,0.000000000000000000e+00,0.000000000000000000e+00,0.000000000000000000e+00,0.000000000000000000e+00,0.000000000000000000e+00,0.000000000000000000e+00,0.000000000000000000e+00,0.000000000000000000e+00,0.000000000000000000e+00,0.000000000000000000e+00,0.000000000000000000e+00,0.000000000000000000e+00,0.000000000000000000e+00,0.000000000000000000e+00,0.000000000000000000e+00,0.000000000000000000e+00,0.000000000000000000e+00,0.000000000000000000e+00,0.000000000000000000e+00,0.000000000000000000e+00
0.000000000000000000e+00,0.000000000000000000e+00,0.000000000000000000e+00,0.000000000000000000e+00,-4.320150362777102661e-03,-1.308520409345962920e-01,-1.234592702603253267e-01,-1.160664995860543475e-01,-1.086737289117833682e-01,-1.012809582375123890e-01,-9.388818756324140979e-02,-8.649541688897044445e-02,-7.910264621469945134e-02,-7.170987554042847212e-02,-6.431710486615750677e-02,-5.692433419188652755e-02,-5.027084058504265041e-02,-4.287806991077166424e-02,-3.548529923650069196e-02,-2.809252856222971273e-02,-2.069975788795873697e-02,-1.330698721368775775e-02,-5.914216539416781993e-03,0.000000000000000000e+00,0.000000000000000000e+00,0.000000000000000000e+00,0.000000000000000000e+00,0.000000000000000000e+00,0.000000000000000000e+00,0.000000000000000000e+00,0.000000000000000000e+00,0.000000000000000000e+00,0.000000000000000000e+00,0.000000000000000000e+00,0.000000000000000000e+00,0.000000000000000000e+00,0.000000000000000000e+00,0.000000000000000000e+00,0.000000000000000000e+00,0.000000000000000000e+00,0.000000000000000000e+00,0.000000000000000000e+00,0.000000000000000000e+00,0.000000000000000000e+00,0.000000000000000000e+00,0.000000000000000000e+00,0.000000000000000000e+00
0.000000000000000000e+00,0.000000000000000000e+00,0.000000000000000000e+00,0.000000000000000000e+00,-5.514544874839007182e-02,-1.530303529574092158e-01,-1.456375822831382505e-01,-1.382448116088672851e-01,-1.308520409345962920e-01,-1.234592702603253267e-01,-1.168057766534814634e-01,-1.094130059792104703e-01,-1.020202353049394772e-01,-9.462746463066851188e-02,-8.723469395639753265e-02,-7.984192328212655343e-02,-7.244915260785558808e-02,-6.505638193358460886e-02,-5.766361125931362269e-02,-5.027084058504264347e-02,-4.287806991077167118e-02,-3.548529923650069196e-02,-2.809252856222971273e-02,-2.069975788795873697e-02,-1.330698721368775948e-02,-6.653493606843879742e-03,0.000000000000000000e+00,0.000000000000000000e+00,0.000000000000000000e+00,0.000000000000000000e+00,0.000000000000000000e+00,0.000000000000000000e+00,0.000000000000000000e+00,0.000000000000000000e+00,0.000000000000000000e+00,0.000000000000000000e+00,0.000000000000000000e+00,0.000000000000000000e+00,0.000000000000000000e+00,0.000000000000000000e+00,0.000000000000000000e+00,0.000000000000000000e+00,0.000000000000000000e+00,0.000000000000000000e+00,0.000000000000000000e+00,0.000000000000000000e+00,0.000000000000000000e+00
0.000000000000000000e+00,0.000000000000000000e+00,0.000000000000000000e+00,0.000000000000000000e+00,-1.203173427237601567e-01,-1.759479420476492695e-01,-1.685551713733782764e-01,-1.611624006991073110e-01,-1.537696300248363457e-01,-1.463768593505653526e-01,-1.389840886762943872e-01,-1.315913180020233941e-01,-1.241985473277524288e-01,-1.168057766534814357e-01,-1.094130059792104703e-01,-1.020202353049394911e-01,-9.462746463066851188e-02,-8.723469395639751878e-02,-7.984192328212656731e-02,-7.318842967528267629e-02,-6.579565900101169706e-02,-5.840288832674072478e-02,-5.101011765246974555e-02,-4.361734697819875939e-02,-3.622457630392779404e-02,-2.883180562965681135e-02,-2.143903495538583559e-02,-1.404626428111485636e-02,-6.653493606843879742e-03,0.000000000000000000e+00,0.000000000000000000e+00,0.000000000000000000e+00,0.000000000000000000e+00,0.000000000000000000e+00,0.000000000000000000e+00,0.000000000000000000e+00,0.000000000000000000e+00,0.000000000000000000e+00,0.000000000000000000e+00,0.000000000000000000e+00,0.000000000000000000e+00,0.000000000000000000e+00,0.000000000000000000e+00,0.000000000000000000e+00,0.000000000000000000e+00,0.000000000000000000e+00,0.000000000000000000e+00
0.000000000000000000e+00,0.000000000000000000e+00,0.000000000000000000e+00,-6.653493606843879742e-03,-1.990965552214602752e-01,-1.981262540704621933e-01,-1.907334833961912002e-01,-1.833407127219202348e-01,-1.759479420476492695e-01,-1.685551713733782764e-01,-1.611624006991073110e-01,-1.537696300248363179e-01,-1.471161364179924547e-01,-1.397233657437214893e-01,-1.323305950694504962e-01,-1.249378243951795031e-01,-1.175450537209085516e-01,-1.101522830466375724e-01,-1.027595123723665793e-01,-9.536674169809561397e-02,-8.797397102382463474e-02,-8.058120034955365552e-02,-7.318842967528267629e-02,-6.579565900101169706e-02,-5.840288832674072478e-02,-5.101011765246974555e-02,-4.361734697819876633e-02,-3.696385337135488225e-02,-2.957108269708390996e-02,-2.217831202281293074e-02,-1.478554134854195498e-02,-7.392770674270977491e-03,0.000000000000000000e+00,0.000000000000000000e+00,0.000000000000000000e+00,0.000000000000000000e+00,0.000000000000000000e+00,0.000000000000000000e+00,0.000000000000000000e+00,0.000000000000000000e+00,0.000000000000000000e+00,0.000000000000000000e+00,0.000000000000000000e+00,0.000000000000000000e+00,0.000000000000000000e+00,0.000000000000000000e+00,0.000000000000000000e+00
0.000000000000000000e+00,0.000000000000000000e+00,0.000000000000000000e+00,-8.081222443312462145e-02,-2.276973367675461102e-01,-2.203045660932751171e-01,-2.129117954190041240e-01,-2.062583018121602885e-01,-1.988655311378892954e-01,-1.914727604636183023e-01,-1.840799897893473369e-01,-1.766872191150763716e-01,-1.692944484408053785e-01,-1.619016777665344131e-01,-1.545089070922634200e-01,-1.471161364179924547e-01,-1.397233657437214893e-01,-1.323305950694504962e-01,-1.249378243951795309e-01,-1.175450537209085516e-01,-1.101522830466375585e-01,-1.034987894397936814e-01,-9.610601876552271605e-02,-8.871324809125172295e-02,-8.132047741698075760e-02,-7.392770674270977838e-02,-6.653493606843879915e-02,-5.914216539416781993e-02,-5.174939471989684070e-02,-4.435662404562586841e-02,-3.696385337135488919e-02,-2.957108269708390996e-02,-2.217831202281293074e-02,-1.478554134854195498e-02,-7.392770674270977491e-03,-7.392770674270977491e-04,0.000000000000000000e+00,0.000000000000000000e+00,0.000000000000000000e+00,0.000000000000000000e+00,0.000000000000000000e+00,0.000000000000000000e+00,0.000000000000000000e+00,0.000000000000000000e+00,0.000000000000000000e+00,0.000000000000000000e+00,0.000000000000000000e+00
0.000000000000000000e+00,0.000000000000000000e+00,0.000000000000000000e+00,-1.552481841596905221e-01,-2.365686615766712519e-01,-2.365686615766713075e-01,-2.358293845092441776e-01,-2.284366138349732400e-01,-2.210438431607022469e-01,-2.136510724864312816e-01,-2.062583018121602607e-01,-1.988655311378892954e-01,-1.914727604636183300e-01,-1.840799897893473369e-01,-1.766872191150763438e-01,-1.700337255082324805e-01,-1.626409548339614874e-01,-1.552481841596905499e-01,-1.478554134854195568e-01,-1.404626428111485914e-01,-1.330698721368775983e-01,-1.256771014626066052e-01,-1.182843307883356399e-01,-1.108915601140646745e-01,-1.034987894397936814e-01,-9.610601876552271605e-02,-8.871324809125172295e-02,-8.132047741698075760e-02,-7.392770674270977838e-02,-6.727421313586590124e-02,-5.988144246159491507e-02,-5.248867178732394279e-02,-4.509590111305296356e-02,-3.770313043878198433e-02,-3.031035976451100858e-02,-2.291758909024003282e-02,-1.552481841596905360e-02,-8.132047741698074372e-03,-7.392770674270977491e-04,0.000000000000000000e+00,0.000000000000000000e+00,0.000000000000000000e+00,0.000000000000000000e+00,0.000000000000000000e+00,0.000000000000000000e+00,0.000000000000000000e+00,0.000000000000000000e+00
0.000000000000000000e+00,0.000000000000000000e+00,0.000000000000000000e+00,-2.217831202281293490e-01,-2.365686615766712797e-01,-2.365686615766712797e-01,-2.365686615766712519e-01,-2.365686615766712797e-01,-2.365686615766712797e-01,-2.365686615766712797e-01,-2.291758909024002866e-01,-2.217831202281293212e-01,-2.143903495538583559e-01,-2.069975788795873628e-01,-1.996048082053163975e-01,-1.922120375310454321e-01,-1.848192668567744112e-01,-1.774264961825034459e-01,-1.700337255082324805e-01,-1.626409548339615152e-01,-1.552481841596905499e-01,-1.478554134854195568e-01,-1.404626428111485636e-01,-1.338091492043047004e-01,-1.264163785300337073e-01,-1.190236078557627419e-01,-1.116308371814917627e-01,-1.042380665072207835e-01,-9.684529583294980426e-02,-8.945252515867883891e-02,-8.205975448440783193e-02,-7.466698381013688046e-02,-6.727421313586588736e-02,-5.988144246159492201e-02,-5.248867178732394279e-02,-4.509590111305296356e-02,-3.770313043878198433e-02,-3.031035976451100858e-02,-2.365686615766712797e-02,-1.626409548339614874e-02,-8.871324809125172989e-03,-1.478554134854195498e-03,0.000000000000000000e+00,0.000000000000000000e+00,0.000000000000000000e+00,0.000000000000000000e+00,0.000000000000000000e+00
0.000000000000000000e+00,0.000000000000000000e+00,-7.329764106024350134e-02,-2.365686615766713075e-01,-2.365686615766712797e-01,-2.365686615766712797e-01,-2.365686615766712797e-01,-2.365686615766712797e-01,-2.365686615766712797e-01,-2.365686615766712797e-01,-2.365686615766713075e-01,-2.365686615766713075e-01,-2.365686615766712797e-01,-2.291758909024003144e-01,-2.217831202281293212e-01,-2.143903495538583559e-01,-2.069975788795873628e-01,-2.003440852727434995e-01,-1.929513145984725064e-01,-1.855585439242015133e-01,-1.781657732499305757e-01,-1.707730025756595826e-01,-1.633802319013885895e-01,-1.559874612271176242e-01,-1.485946905528466588e-01,-1.412019198785756657e-01,-1.338091492043047004e-01,-1.264163785300337073e-01,-1.190236078557627419e-01,-1.116308371814917488e-01,-1.042380665072207835e-01,-9.684529583294979038e-02,-9.019180222610592712e-02,-8.279903155183494790e-02,-7.540626087756396867e-02,-6.801349020329298944e-02,-6.062071952902201022e-02,-5.322794885475103793e-02,-4.583517818048005871e-02,-3.844240750620907948e-02,-3.104963683193810720e-02,-2.365686615766712797e-02,-1.626409548339614874e-02,-8.871324809125172989e-03,-1.478554134854195498e-03,0.000000000000000000e+00,0.000000000000000000e+00
0.000000000000000000e+00,0.000000000000000000e+00,-1.335739246828506199e-01,-2.204389801055345877e-01,-2.271596807185082278e-01,-2.338803813314818403e-01,-2.365686615766712519e-01,-2.365686615766712797e-01,-2.365686615766712797e-01,-2.365686615766712797e-01,-2.365686615766712797e-01,-2.365686615766712797e-01,-2.365686615766712797e-01,-2.365686615766712797e-01,-2.365686615766712797e-01,-2.365686615766712797e-01,-2.299151679698273887e-01,-2.225223972955564233e-01,-2.151296266212854302e-01,-2.077368559470144926e-01,-2.003440852727434995e-01,-1.929513145984725342e-01,-1.855585439242015133e-01,-1.781657732499305757e-01,-1.707730025756595826e-01,-1.641195089688156916e-01,-1.567267382945447263e-01,-1.493339676202737332e-01,-1.419411969460027678e-01,-1.345484262717318025e-01,-1.271556555974608094e-01,-1.197628849231898301e-01,-1.123701142489188509e-01,-1.049773435746478856e-01,-9.758457290037690635e-02,-9.019180222610592712e-02,-2.120868322571105025e-01,-2.046940615828395094e-01,-1.973012909085685440e-01,-1.899085202342975509e-01,-1.832550266274536876e-01,-4.657445524790715385e-02,-3.918168457363618157e-02,-3.178891389936520234e-02,-2.439614322509422312e-02,-1.700337255082324736e-02,-9.610601876552271605e-03
0.000000000000000000e+00,0.000000000000000000e+00,-1.814589165502876189e-01,-2.002768782666137504e-01,-2.069975788795873628e-01,-2.130462094312636223e-01,-2.197669100442372347e-01,-2.264876106572108472e-01,-2.332083112701844319e-01,-2.365686615766712797e-01,-2.365686615766713075e-01,-2.365686615766712797e-01,-2.365686615766712797e-01,-2.365686615766712797e-01,-2.365686615766712797e-01,-2.365686615766712797e-01,-2.365686615766712797e-01,-2.365686615766712797e-01,-2.365686615766712797e-01,-2.299151679698273887e-01,-2.232616743629835254e-01,-2.158689036887125601e-01,-2.084761330144415670e-01,-2.010833623401706016e-01,-1.936905916658996363e-01,-1.862978209916286709e-01,-1.789050503173576501e-01,-1.715122796430866847e-01,-1.641195089688157194e-01,-1.567267382945447263e-01,-1.493339676202737332e-01,-1.419411969460027678e-01,-1.345484262717318025e-01,-1.271556555974608094e-01,-1.205021619906169322e-01,-1.131093913163459530e-01,-2.350044213473505006e-01,-2.276116506730795352e-01,-2.202188799988085699e-01,-2.128261093245375768e-01,-2.054333386502666114e-01,-6.875276727072009153e-02,-6.135999659644911230e-02,-5.396722592217813308e-02,-4.657445524790715385e-02,-3.918168457363617463e-02,-3.178891389936520234e-02
0.000000000000000000e+00,-4.668786707075109343e-02,-1.727220057534219477e-01,-1.794427063663955602e-01,-1.861634069793691726e-01,-1.928841075923427850e-01,-1.996048082053163975e-01,-2.063255088182899821e-01,-2.130462094312635946e-01,-2.197669100442372347e-01,-2.264876106572108749e-01,-2.332083112701844596e-01,-2.365686615766712797e-01,-2.365686615766713075e-01,-2.365686615766712797e-01,-2.365686615766712519e-01,-2.365686615766713075e-01,-2.365686615766713075e-01,-2.365686615766712797e-01,-2.365686615766712797e-01,-2.365686615766712797e-01,-2.365686615766712797e-01,-2.306544450372544630e-01,-2.232616743629834977e-01,-2.158689036887125323e-01,-2.084761330144415670e-01,-2.010833623401705739e-01,-1.936905916658996363e-01,-1.870370980590557175e-01,-1.796443273847847522e-01,-1.722515567105137591e-01,-1.648587860362427937e-01,-1.574660153619718006e-01,-1.500732446877008353e-01,-1.426804740134298699e-01,-1.352877033391589046e-01,-2.571827333701634521e-01,-2.497899626958924590e-01,-2.423971920216214937e-01,-2.350044213473505006e-01,-2.276116506730795352e-01,-9.093107929353301533e-02,-8.427758568668913819e-02,-7.688481501241817284e-02,-6.949204433814717974e-02,-6.209927366387620745e-02,-5.470650298960523517e-02
0.000000000000000000e+00,-8.659202696028193980e-02,-1.525599039145010827e-01,-1.592806045274746951e-01,-1.660013051404483075e-01,-1.727220057534219477e-01,-1.794427063663955324e-01,-1.854913369180717919e-01,-1.922120375310454321e-01,-1.989327381440190445e-01,-2.056534387569926570e-01,-2.123741393699662694e-01,-2.190948399829398818e-01,-2.258155405959134943e-01,-2.325362412088871067e-01,-2.365686615766712797e-01,-2.365686615766712797e-01,-2.365686615766713075e-01,-2.365686615766712797e-01,-2.365686615766712797e-01,-2.365686615766712797e-01,-2.365686615766712797e-01,-2.365686615766712797e-01,-2.365686615766712797e-01,-2.365686615766712797e-01,-2.313937221046815929e-01,-2.240009514304106553e-01,-2.166081807561396344e-01,-2.092154100818686691e-01,-2.018226394075976760e-01,-1.944298687333267106e-01,-1.870370980590557453e-01,-1.796443273847847522e-01,-1.722515567105137868e-01,-1.648587860362427937e-01,-1.574660153619718284e-01,-2.801003224604035058e-01,-2.727075517861324849e-01,-2.653147811118615196e-01,-2.579220104375905542e-01,-2.505292397633195889e-01,-1.138486683837730551e-01,-1.064558977095020759e-01,-9.906312703523109664e-02,-9.167035636096013129e-02,-8.427758568668913819e-02,-7.688481501241817284e-02
0.000000000000000000e+00,-1.132858097074365133e-01,-1.317257320142828925e-01,-1.384464326272565049e-01,-1.451671332402301173e-01,-1.518878338532037298e-01,-1.586085344661773422e-01,-1.653292350791509546e-01,-1.720499356921245671e-01,-1.787706363050982072e-01,-1.854913369180717919e-01,-1.922120375310454043e-01,-1.989327381440190168e-01,-2.056534387569926570e-01,-2.123741393699662416e-01,-2.190948399829398818e-01,-2.251434705346161413e-01,-2.318641711475897260e-01,-2.365686615766712519e-01,-2.365686615766712519e-01,-2.365686615766712797e-01,-2.365686615766712797e-01,-2.365686615766712519e-01,-2.365686615766713075e-01,-2.365686615766712797e-01,-2.365686615766712797e-01,-2.365686615766712797e-01,-2.365686615766712797e-01,-2.313937221046815929e-01,-2.240009514304106275e-01,-2.173474578235667087e-01,-2.099546871492957711e-01,-2.025619164750247780e-01,-1.951691458007537849e-01,-1.877763751264828196e-01,-1.803836044522118542e-01,-3.022786344832164573e-01,-2.948858638089454365e-01,-2.874930931346744711e-01,-2.801003224604035058e-01,-2.727075517861324849e-01,-1.360269804065860066e-01,-1.286342097323150135e-01,-1.212414390580440343e-01,-1.145879454512001572e-01,-1.071951747769291641e-01,-9.980240410265818485e-02
-2.759687689202291322e-02,-1.048429295623884150e-01,-1.115636301753620274e-01,-1.182843307883356399e-01,-1.250050314013092523e-01,-1.317257320142828647e-01,-1.384464326272565049e-01,-1.451671332402301173e-01,-1.518878338532037298e-01,-1.586085344661773422e-01,-1.646571650178535740e-01,-1.713778656308271864e-01,-1.780985662438008266e-01,-1.848192668567744668e-01,-1.915399674697480514e-01,-1.982606680827216916e-01,-2.049813686956952763e-01,-2.117020693086689165e-01,-2.184227699216425289e-01,-2.251434705346161413e-01,-2.318641711475897260e-01,-2.365686615766712797e-01,-2.365686615766712797e-01,-2.365686615766712797e-01,-2.365686615766712797e-01,-2.365686615766712797e-01,-2.365686615766712797e-01,-2.365686615766713075e-01,-2.365686615766712519e-01,-2.365686615766712797e-01,-2.365686615766712797e-01,-2.321329991721087227e-01,-2.247402284978377296e-01,-2.173474578235667365e-01,-2.099546871492957711e-01,-2.025619164750247780e-01,-1.951691458007538127e-01,-1.877763751264828196e-01,-1.811228815196389563e-01,-1.737301108453679632e-01,-1.663373401710969979e-01,-1.589445694968260325e-01,-1.515517988225550394e-01,-1.441590281482840741e-01,-1.367662574740130810e-01,-1.293734867997421156e-01,-1.219807161254711225e-01
-4.628882547185577540e-02,-8.468082772346754994e-02,-9.140152833644116237e-02,-9.812222894941478868e-02,-1.041708595010910482e-01,-1.108915601140646606e-01,-1.176122607270382869e-01,-1.243329613400118994e-01,-1.310536619529855118e-01,-1.377743625659591242e-01,-1.444950631789327367e-01,-1.980714112955379580e-01,-2.047921119085115704e-01,-2.115128125214852106e-01,-2.182335131344587953e-01,-1.780985662438008266e-01,-1.848192668567744390e-01,-1.915399674697480792e-01,-1.975885980214243109e-01,-2.043092986343979234e-01,-2.110299992473715358e-01,-2.177506998603451760e-01,-2.244714004733187607e-01,-2.311921010862923731e-01,-2.365686615766712519e-01,-2.365686615766712797e-01,-2.365686615766712797e-01,-2.365686615766712797e-01,-2.365686615766713075e-01,-2.365686615766712797e-01,-2.365686615766712797e-01,-2.365686615766712797e-01,-2.365686615766712797e-01,-2.365686615766712797e-01,-2.328722762395357970e-01,-2.254795055652648317e-01,-2.180867348909938386e-01,-2.106939642167228455e-01,-2.033011935424518801e-01,-1.959084228681808870e-01,-1.885156521939099494e-01,-1.811228815196389286e-01,-1.737301108453679632e-01,-1.663373401710969701e-01,-1.589445694968260325e-01,-1.515517988225550117e-01,-1.441590281482840741e-01
-5.177039690931238558e-02,-6.384665582324934585e-02,-7.056735643622297216e-02,-7.728805704919658459e-02,-8.400875766217019702e-02,-9.072945827514380945e-02,-2.810812084214842077e-01,-2.878019090344578479e-01,-2.945226096474314881e-01,-3.012433102604050728e-01,-1.243329613400118994e-01,-1.779093094566170929e-01,-1.839579400082933802e-01,-1.906786406212669649e-01,-1.973993412342406051e-01,-1.572643943435826364e-01,-1.639850949565562210e-01,-1.707057955695298335e-01,-1.774264961825034459e-01,-1.841471967954770583e-01,-1.908678974084506708e-01,-1.975885980214243109e-01,-2.043092986343979234e-01,-2.110299992473715358e-01,-2.177506998603451482e-01,-2.244714004733187884e-01,-2.305200310249950202e-01,-2.365686615766712797e-01,-2.365686615766712797e-01,-2.365686615766712797e-01,-2.365686615766712797e-01,-2.365686615766712797e-01,-2.365686615766713075e-01,-2.365686615766712797e-01,-2.365686615766712797e-01,-2.365686615766712797e-01,-2.365686615766712797e-01,-2.328722762395357970e-01,-2.254795055652648039e-01,-2.180867348909938386e-01,-2.106939642167228455e-01,-2.040404706098789822e-01,-1.966476999356080169e-01,-1.892549292613370238e-01,-1.818621585870660307e-01,-1.744693879127950653e-01,-1.670766172385241000e-01
-3.696385337135488225e-02,-4.368455398432850856e-02,-5.040525459730212099e-02,-5.712595521027573342e-02,-6.384665582324934585e-02,-7.056735643622297216e-02,-2.602470365212660175e-01,-2.669677371342396577e-01,-2.736884377472132979e-01,-2.804091383601868825e-01,-1.034987894397936814e-01,-1.570751375563989305e-01,-1.637958381693725429e-01,-1.705165387823461554e-01,-1.772372393953197400e-01,-1.371022925046617713e-01,-1.438229931176353837e-01,-1.505436937306089962e-01,-1.572643943435826086e-01,-1.639850949565562210e-01,-1.700337255082324805e-01,-1.767544261212060930e-01,-1.834751267341797054e-01,-1.901958273471533456e-01,-1.969165279601269580e-01,-2.036372285731005427e-01,-2.103579291860741551e-01,-2.170786297990477953e-01,-2.237993304120214078e-01,-2.305200310249950202e-01,-2.365686615766712797e-01,-2.365686615766712519e-01,-2.365686615766712797e-01,-2.365686615766712797e-01,-2.365686615766712797e-01,-2.365686615766712797e-01,-2.365686615766712797e-01,-2.365686615766713075e-01,-2.365686615766712797e-01,-2.365686615766712797e-01,-2.336115533069628991e-01,-2.262187826326919338e-01,-2.188260119584209129e-01,-2.114332412841499753e-01,-2.040404706098790100e-01,-1.966476999356079891e-01,-1.892549292613370238e-01
-1.612968147113667816e-02,-2.285038208411029406e-02,-2.957108269708390996e-02,-3.629178331005752933e-02,-4.301248392303114176e-02,-4.973318453600475419e-02,-2.400849346823451802e-01,-2.468056352953187926e-01,-2.535263359082924328e-01,-2.602470365212660175e-01,-8.333668760087284411e-02,-1.369130357174780654e-01,-1.436337363304516779e-01,-1.503544369434253181e-01,-1.564030674951015498e-01,-1.162681206044435533e-01,-1.229888212174171658e-01,-1.297095218303907782e-01,-1.364302224433643906e-01,-1.431509230563380031e-01,-1.498716236693116155e-01,-1.565923242822852557e-01,-1.633130248952588681e-01,-1.700337255082324805e-01,-1.767544261212060930e-01,-1.834751267341797054e-01,-1.901958273471533178e-01,-1.969165279601269303e-01,-2.036372285731005705e-01,-2.096858591247768022e-01,-2.164065597377504424e-01,-2.231272603507240271e-01,-2.298479609636976395e-01,-2.365686615766712797e-01,-2.365686615766712519e-01,-2.365686615766713075e-01,-2.365686615766712797e-01,-2.365686615766712797e-01,-2.365686615766712797e-01,-2.365686615766712797e-01,-2.365686615766712797e-01,-2.365686615766712797e-01,-2.365686615766712797e-01,-2.343508303743899734e-01,-2.269580597001190081e-01,-2.195652890258480427e-01,-2.121725183515770496e-01
0.000000000000000000e+00,-2.688280245189446360e-03,-9.408980858163062261e-03,-1.612968147113667816e-02,-2.285038208411029406e-02,-2.957108269708390996e-02,-2.199228328434243429e-01,-2.266435334563979553e-01,-2.326921640080742149e-01,-2.394128646210478273e-01,-6.250251570065462614e-02,-6.922321631362823857e-02,-7.594391692660185100e-02,-8.266461753957547731e-02,-8.938531815254908974e-02,-9.610601876552271605e-02,-1.028267193784963285e-01,-1.095474199914699409e-01,-1.162681206044435672e-01,-1.229888212174171658e-01,-1.297095218303908060e-01,-1.364302224433643906e-01,-1.431509230563380031e-01,-1.491995536080142903e-01,-1.559202542209879305e-01,-1.626409548339615152e-01,-1.693616554469351276e-01,-1.760823560599087401e-01,-1.828030566728823525e-01,-1.895237572858559649e-01,-1.962444578988296051e-01,-2.029651585118031898e-01,-2.096858591247768022e-01,-2.164065597377504424e-01,-2.231272603507240548e-01,-2.298479609636976950e-01,-2.365686615766712797e-01,-2.365686615766712797e-01,-2.365686615766712797e-01,-2.365686615766712797e-01,-2.365686615766712797e-01,-2.365686615766712797e-01,-2.365686615766712797e-01,-2.365686615766712797e-01,-2.365686615766712519e-01,-2.365686615766712797e-01,-2.343508303743900012e-01
0.000000000000000000e+00,0.000000000000000000e+00,0.000000000000000000e+00,0.000000000000000000e+00,-2.016210183892084770e-03,-8.736910796865700671e-03,-1.545761140983931831e-02,-2.217831202281293074e-02,-2.889901263578655011e-02,-3.561971324876016254e-02,-4.234041386173378191e-02,-4.906111447470739434e-02,-5.578181508768101371e-02,-6.250251570065462614e-02,-6.922321631362823857e-02,-7.594391692660186488e-02,-8.199254747827811052e-02,-8.871324809125173683e-02,-9.543394870422534926e-02,-1.021546493171989617e-01,-1.088753499301725880e-01,-1.155960505431462004e-01,-1.223167511561198129e-01,-1.290374517690934253e-01,-1.357581523820670377e-01,-1.424788529950406779e-01,-1.491995536080142903e-01,-1.559202542209879028e-01,-1.626409548339614874e-01,-1.693616554469351276e-01,-1.760823560599087401e-01,-1.821309866115849996e-01,-1.888516872245586120e-01,-1.955723878375322522e-01,-2.022930884505058091e-01,-2.090137890634794493e-01,-2.157344896764530340e-01,-2.224551902894266742e-01,-2.291758909024003144e-01,-2.358965915153739268e-01,-2.365686615766712797e-01,-2.365686615766712797e-01,-2.365686615766712797e-01,-2.365686615766712797e-01,-2.365686615766712797e-01,-2.365686615766712519e-01,-2.365686615766712519e-01
0.000000000000000000e+00,0.000000000000000000e+00,0.000000000000000000e+00,0.000000000000000000e+00,0.000000000000000000e+00,0.000000000000000000e+00,0.000000000000000000e+00,-2.016210183892084770e-03,-8.736910796865700671e-03,-1.545761140983931657e-02,-2.217831202281293074e-02,-2.822694257448919025e-02,-3.494764318746280268e-02,-4.166834380043641511e-02,-4.838904441341003448e-02,-5.510974502638365385e-02,-6.183044563935725935e-02,-6.855114625233088566e-02,-7.527184686530449809e-02,-8.199254747827811052e-02,-8.871324809125173683e-02,-9.543394870422533538e-02,-1.021546493171989617e-01,-1.088753499301725880e-01,-1.155960505431461866e-01,-1.216446810948224461e-01,-1.283653817077960446e-01,-1.350860823207696848e-01,-1.418067829337432972e-01,-1.485274835467169097e-01,-1.552481841596905221e-01,-1.619688847726641623e-01,-1.686895853856377747e-01,-1.754102859986113871e-01,-1.821309866115849718e-01,-1.888516872245585843e-01,-1.955723878375321967e-01,-2.022930884505058646e-01,-2.090137890634794493e-01,-2.150624196151557088e-01,-2.217831202281293490e-01,-2.285038208411029337e-01,-2.352245214540765739e-01,-2.365686615766712797e-01,-2.365686615766712797e-01,-2.365686615766712797e-01,-2.365686615766712797e-01
0.000000000000000000e+00,0.000000000000000000e+00,0.000000000000000000e+00,0.000000000000000000e+00,0.000000000000000000e+00,0.000000000000000000e+00,0.000000000000000000e+00,0.000000000000000000e+00,0.000000000000000000e+00,0.000000000000000000e+00,-1.344140122594723180e-03,-8.064840735568339081e-03,-1.478554134854195498e-02,-2.150624196151557088e-02,-2.822694257448918678e-02,-3.494764318746280268e-02,-4.166834380043642205e-02,-4.838904441341003448e-02,-5.510974502638364692e-02,-6.115837557805991337e-02,-1.844045225700140234e-01,-1.911252231829876358e-01,-1.978459237959612482e-01,-2.045666244089348607e-01,-9.476187864292798246e-02,-1.014825792559015949e-01,-1.082032798688752212e-01,-1.149239804818488475e-01,-1.216446810948224322e-01,-1.283653817077960724e-01,-1.350860823207696848e-01,-1.418067829337433250e-01,-1.485274835467169097e-01,-1.545761140983931692e-01,-1.612968147113667816e-01,-1.680175153243403940e-01,-1.747382159373140065e-01,-1.814589165502876467e-01,-1.881796171632612591e-01,-1.949003177762348993e-01,-2.016210183892084840e-01,-2.083417190021820964e-01,-2.150624196151557088e-01,-2.217831202281293212e-01,-2.285038208411029337e-01,-2.352245214540765739e-01,-2.365686615766712797e-01
0.000000000000000000e+00,0.000000000000000000e+00,0.000000000000000000e+00,0.000000000000000000e+00,0.000000000000000000e+00,0.000000000000000000e+00,0.000000000000000000e+00,0.000000000000000000e+00,0.000000000000000000e+00,0.000000000000000000e+00,0.000000000000000000e+00,0.000000000000000000e+00,0.000000000000000000e+00,-6.720700612973615901e-04,-7.392770674270977491e-03,-1.411347128724459339e-02,-2.083417190021821103e-02,-2.755487251319182346e-02,-3.427557312616544283e-02,-4.099627373913905526e-02,-1.642424207310931861e-01,-1.709631213440667707e-01,-1.776838219570403832e-01,-1.844045225700139956e-01,-7.459977680400714517e-02,-8.132047741698075760e-02,-8.804117802995435615e-02,-9.408980858163061567e-02,-1.008105091946042281e-01,-1.075312098075778544e-01,-1.142519104205514807e-01,-1.209726110335250793e-01,-1.276933116464986917e-01,-1.344140122594723041e-01,-1.411347128724459443e-01,-1.478554134854195568e-01,-1.545761140983931692e-01,-1.612968147113667816e-01,-1.680175153243403940e-01,-1.747382159373140065e-01,-1.814589165502876189e-01,-1.881796171632612591e-01,-1.942282477149374909e-01,-2.009489483279111310e-01,-2.076696489408847435e-01,-2.143903495538583559e-01,-2.211110501668319683e-01
0.000000000000000000e+00,0.000000000000000000e+00,0.000000000000000000e+00,0.000000000000000000e+00,0.000000000000000000e+00,0.000000000000000000e+00,0.000000000000000000e+00,0.000000000000000000e+00,0.000000000000000000e+00,0.000000000000000000e+00,0.000000000000000000e+00,0.000000000000000000e+00,0.000000000000000000e+00,0.000000000000000000e+00,0.000000000000000000e+00,0.000000000000000000e+00,-6.720700612973615901e-04,-7.392770674270977491e-03,-1.411347128724459339e-02,-2.083417190021821103e-02,-1.440803188921723210e-01,-1.501289494438485805e-01,-1.568496500568221930e-01,-1.635703506697958054e-01,-5.376560490378892720e-02,-6.048630551676254657e-02,-6.720700612973615207e-02,-7.392770674270977838e-02,-8.064840735568339081e-02,-8.736910796865701712e-02,-9.408980858163062955e-02,-1.008105091946042420e-01,-1.075312098075778544e-01,-1.142519104205514668e-01,-1.209726110335250793e-01,-1.270212415852013388e-01,-1.337419421981749512e-01,-1.404626428111485636e-01,-1.471833434241222038e-01,-1.539040440370957885e-01,-1.606247446500694287e-01,-1.673454452630430689e-01,-1.740661458760166536e-01,-1.807868464889902660e-01,-1.875075471019638784e-01,-1.942282477149374909e-01,-1.821099844221694408e-01
0.000000000000000000e+00,0.000000000000000000e+00,0.000000000000000000e+00,0.000000000000000000e+00,0.000000000000000000e+00,0.000000000000000000e+00,0.000000000000000000e+00,0.000000000000000000e+00,0.000000000000000000e+00,0.000000000000000000e+00,0.000000000000000000e+00,0.000000000000000000e+00,0.000000000000000000e+00,0.000000000000000000e+00,0.000000000000000000e+00,0.000000000000000000e+00,0.000000000000000000e+00,0.000000000000000000e+00,0.000000000000000000e+00,0.000000000000000000e+00,-1.232461469919541031e-01,-1.299668476049277155e-01,-1.366875482179013279e-01,-1.434082488308749403e-01,-3.360350306486807603e-02,-4.032420367784169540e-02,-4.704490429081530783e-02,-5.376560490378892720e-02,-6.048630551676254657e-02,-6.653493606843879915e-02,-7.325563668141242546e-02,-7.997633729438602401e-02,-8.669703790735965032e-02,-9.341773852033326275e-02,-1.001384391333068891e-01,-1.068591397462804876e-01,-1.135798403592541139e-01,-1.203005409722277264e-01,-1.270212415852013388e-01,-1.337419421981749512e-01,-1.404626428111485636e-01,-1.471833434241222038e-01,-1.539040440370958163e-01,-1.606247446500694009e-01,-1.666733752017456882e-01,-1.733940758147192729e-01,-1.069431485039426533e-01
0.000000000000000000e+00,0.000000000000000000e+00,0.000000000000000000e+00,0.000000000000000000e+00,0.000000000000000000e+00,0.000000000000000000e+00,0.000000000000000000e+00,0.000000000000000000e+00,0.000000000000000000e+00,0.000000000000000000e+00,0.000000000000000000e+00,0.000000000000000000e+00,0.000000000000000000e+00,0.000000000000000000e+00,0.000000000000000000e+00,0.000000000000000000e+00,0.000000000000000000e+00,0.000000000000000000e+00,0.000000000000000000e+00,0.000000000000000000e+00,0.000000000000000000e+00,0.000000000000000000e+00,0.000000000000000000e+00,-6.720700612973615901e-03,-1.276933116464987021e-02,-1.949003177762348438e-02,-2.621073239059710028e-02,-3.293143300357071618e-02,-3.965213361654432861e-02,-4.637283422951794798e-02,-5.309353484249156041e-02,-5.981423545546518672e-02,-6.653493606843879915e-02,-7.325563668141241158e-02,-7.997633729438602401e-02,-8.669703790735965032e-02,-9.341773852033326275e-02,-1.001384391333068891e-01,-1.061870696849831347e-01,-1.129077702979567471e-01,-1.196284709109303734e-01,-1.263491715239039859e-01,-1.330698721368775983e-01,-1.397905727498511830e-01,-1.465112733628248232e-01,-1.532319739757984356e-01,-4.498668972809213851e-02
0.000000000000000000e+00,0.000000000000000000e+00,0.000000000000000000e+00,0.000000000000000000e+00,0.000000000000000000e+00,0.000000000000000000e+00,0.000000000000000000e+00,0.000000000000000000e+00,0.000000000000000000e+00,0.000000000000000000e+00,0.000000000000000000e+00,0.000000000000000000e+00,0.000000000000000000e+00,0.000000000000000000e+00,0.000000000000000000e+00,0.000000000000000000e+00,0.000000000000000000e+00,0.000000000000000000e+00,0.000000000000000000e+00,0.000000000000000000e+00,0.000000000000000000e+00,0.000000000000000000e+00,0.000000000000000000e+00,0.000000000000000000e+00,0.000000000000000000e+00,0.000000000000000000e+00,-6.048630551676254311e-03,-1.276933116464987021e-02,-1.949003177762348438e-02,-2.621073239059709681e-02,-3.293143300357072312e-02,-3.965213361654433555e-02,-4.570076416822058812e-02,-5.242146478119420056e-02,-5.914216539416781993e-02,-6.586286600714144623e-02,-7.258356662011505867e-02,-7.930426723308867110e-02,-8.602496784606228353e-02,-9.274566845903589596e-02,-9.946636907200950839e-02,-1.061870696849831347e-01,-1.129077702979567610e-01,-1.196284709109303734e-01,-1.263491715239039859e-01,-1.205945716240453269e-01,0.000000000000000000e+00
0.000000000000000000e+00,0.000000000000000000e+00,0.000000000000000000e+00,0.000000000000000000e+00,0.000000000000000000e+00,0.000000000000000000e+00,0.000000000000000000e+00,0.000000000000000000e+00,0.000000000000000000e+00,0.000000000000000000e+00,0.000000000000000000e+00,0.000000000000000000e+00,0.000000000000000000e+00,0.000000000000000000e+00,0.000000000000000000e+00,0.000000000000000000e+00,0.000000000000000000e+00,0.000000000000000000e+00,0.000000000000000000e+00,0.000000000000000000e+00,0.000000000000000000e+00,0.000000000000000000e+00,0.000000000000000000e+00,0.000000000000000000e+00,0.000000000000000000e+00,0.000000000000000000e+00,0.000000000000000000e+00,0.000000000000000000e+00,0.000000000000000000e+00,-5.376560490378892720e-03,-1.209726110335250862e-02,-1.881796171632612452e-02,-2.553866232929974042e-02,-3.225936294227335632e-02,-3.898006355524697569e-02,-4.570076416822058812e-02,-5.242146478119420749e-02,-5.914216539416781993e-02,-6.586286600714143236e-02,-7.258356662011504479e-02,-7.863219717179130430e-02,-8.535289778476493061e-02,-9.207359839773854304e-02,-9.879429901071215547e-02,-1.055149996236857679e-01,-6.663994701551650968e-02,0.000000000000000000e+00
0.000000000000000000e+00,0.000000000000000000e+00,0.000000000000000000e+00,0.000000000000000000e+00,0.000000000000000000e+00,0.000000000000000000e+00,0.000000000000000000e+00,0.000000000000000000e+00,0.000000000000000000e+00,0.000000000000000000e+00,0.000000000000000000e+00,0.000000000000000000e+00,0.000000000000000000e+00,0.000000000000000000e+00,0.000000000000000000e+00,0.000000000000000000e+00,0.000000000000000000e+00,0.000000000000000000e+00,0.000000000000000000e+00,0.000000000000000000e+00,0.000000000000000000e+00,0.000000000000000000e+00,0.000000000000000000e+00,0.000000000000000000e+00,0.000000000000000000e+00,0.000000000000000000e+00,0.000000000000000000e+00,0.000000000000000000e+00,0.000000000000000000e+00,0.000000000000000000e+00,0.000000000000000000e+00,0.000000000000000000e+00,-5.376560490378892720e-03,-1.209726110335250862e-02,-1.814589165502876467e-02,-2.486659226800238057e-02,-3.158729288097599647e-02,-3.830799349394961584e-02,-4.502869410692322133e-02,-5.174939471989684070e-02,-5.847009533287046007e-02,-6.519079594584406556e-02,-7.191149655881769187e-02,-7.863219717179130430e-02,-8.535289778476493061e-02,-2.589569954936396523e-02,0.000000000000000000e+00
0.000000000000000000e+00,0.000000000000000000e+00,0.000000000000000000e+00,0.000000000000000000e+00,0.000000000000000000e+00,0.000000000000000000e+00,0.000000000000000000e+00,0.000000000000000000e+00,0.000000000000000000e+00,0.000000000000000000e+00,0.000000000000000000e+00,0.000000000000000000e+00,0.000000000000000000e+00,0.000000000000000000e+00,0.000000000000000000e+00,0.000000000000000000e+00,0.000000000000000000e+00,0.000000000000000000e+00,0.000000000000000000e+00,0.000000000000000000e+00,0.000000000000000000e+00,0.000000000000000000e+00,0.000000000000000000e+00,0.000000000000000000e+00,0.000000000000000000e+00,0.000000000000000000e+00,0.000000000000000000e+00,0.000000000000000000e+00,0.000000000000000000e+00,0.000000000000000000e+00,0.000000000000000000e+00,0.000000000000000000e+00,0.000000000000000000e+00,0.000000000000000000e+00,0.000000000000000000e+00,-4.704490429081531130e-03,-1.142519104205514703e-02,-1.814589165502876467e-02,-2.486659226800237710e-02,-3.158729288097598953e-02,-3.830799349394960890e-02,-4.502869410692322133e-02,-5.107732465859948084e-02,-5.779802527157309328e-02,-6.048630551676253964e-02,0.000000000000000000e+00,0.000000000000000000e+00
0.000000000000000000e+00,0.000000000000000000e+00,0.000000000000000000e+00,0.000000000000000000e+00,0.000000000000000000e+00,0.000000000000000000e+00,0.000000000000000000e+00,0.000000000000000000e+00,0.000000000000000000e+00,0.000000000000000000e+00,0.000000000000000000e+00,0.000000000000000000e+00,0.000000000000000000e+00,0.000000000000000000e+00,0.000000000000000000e+00,0.000000000000000000e+00,0.000000000000000000e+00,0.000000000000000000e+00,0.000000000000000000e+00,0.000000000000000000e+00,0.000000000000000000e+00,0.000000000000000000e+00,0.000000000000000000e+00,0.000000000000000000e+00,0.000000000000000000e+00,0.000000000000000000e+00,0.000000000000000000e+00,0.000000000000000000e+00,0.000000000000000000e+00,0.000000000000000000e+00,0.000000000000000000e+00,0.000000000000000000e+00,0.000000000000000000e+00,0.000000000000000000e+00,0.000000000000000000e+00,0.000000000000000000e+00,0.000000000000000000e+00,0.000000000000000000e+00,-4.032420367784169540e-03,-1.075312098075778544e-02,-1.747382159373140134e-02,-2.419452220670501724e-02,-3.091522281967863314e-02,-3.763592343265224904e-02,-2.772289002851616516e-02,0.000000000000000000e+00,0.000000000000000000e+00
0.000000000000000000e+00,0.000000000000000000e+00,0.000000000000000000e+00,0.000000000000000000e+00,0.000000000000000000e+00,0.000000000000000000e+00,0.000000000000000000e+00,0.000000000000000000e+00,0.000000000000000000e+00,0.000000000000000000e+00,0.000000000000000000e+00,0.000000000000000000e+00,0.000000000000000000e+00,0.000000000000000000e+00,0.000000000000000000e+00,0.000000000000000000e+00,0.000000000000000000e+00,0.000000000000000000e+00,0.000000000000000000e+00,0.000000000000000000e+00,0.000000000000000000e+00,0.000000000000000000e+00,0.000000000000000000e+00,0.000000000000000000e+00,0.000000000000000000e+00,0.000000000000000000e+00,0.000000000000000000e+00,0.000000000000000000e+00,0.000000000000000000e+00,0.000000000000000000e+00,0.000000000000000000e+00,0.000000000000000000e+00,0.000000000000000000e+00,0.000000000000000000e+00,0.000000000000000000e+00,0.000000000000000000e+00,0.000000000000000000e+00,0.000000000000000000e+00,0.000000000000000000e+00,0.000000000000000000e+00,0.000000000000000000e+00,-4.032420367784169540e-03,-1.075312098075778544e-02,-1.747382159373140134e-02,-7.560788189595318322e-03,0.000000000000000000e+00,0.000000000000000000e+00
0.000000000000000000e+00,0.000000000000000000e+00,0.000000000000000000e+00,0.000000000000000000e+00,0.000000000000000000e+00,0.000000000000000000e+00,0.000000000000000000e+00,0.000000000000000000e+00,0.000000000000000000e+00,0.000000000000000000e+00,0.000000000000000000e+00,0.000000000000000000e+00,0.000000000000000000e+00,0.000000000000000000e+00,0.000000000000000000e+00,0.000000000000000000e+00,0.000000000000000000e+00,0.000000000000000000e+00,0.000000000000000000e+00,0.000000000000000000e+00,0.000000000000000000e+00,0.000000000000000000e+00,0.000000000000000000e+00,0.000000000000000000e+00,0.000000000000000000e+00,0.000000000000000000e+00,0.000000000000000000e+00,0.000000000000000000e+00,0.000000000000000000e+00,0.000000000000000000e+00,0.000000000000000000e+00,0.000000000000000000e+00,0.000000000000000000e+00,0.000000000000000000e+00,0.000000000000000000e+00,0.000000000000000000e+00,0.000000000000000000e+00,0.000000000000000000e+00,0.000000000000000000e+00,0.000000000000000000e+00,0.000000000000000000e+00,0.000000000000000000e+00,0.000000000000000000e+00,0.000000000000000000e+00,0.000000000000000000e+00,0.000000000000000000e+00,0.000000000000000000e+00
0.000000000000000000e+00,0.000000000000000000e+00,0.000000000000000000e+00,0.000000000000000000e+00,0.000000000000000000e+00,0.000000000000000000e+00,0.000000000000000000e+00,0.000000000000000000e+00,0.000000000000000000e+00,0.000000000000000000e+00,0.000000000000000000e+00,0.000000000000000000e+00,0.000000000000000000e+00,0.000000000000000000e+00,0.000000000000000000e+00,0.000000000000000000e+00,0.000000000000000000e+00,0.000000000000000000e+00,0.000000000000000000e+00,0.000000000000000000e+00,0.000000000000000000e+00,0.000000000000000000e+00,0.000000000000000000e+00,0.000000000000000000e+00,0.000000000000000000e+00,0.000000000000000000e+00,0.000000000000000000e+00,0.000000000000000000e+00,0.000000000000000000e+00,0.000000000000000000e+00,0.000000000000000000e+00,0.000000000000000000e+00,0.000000000000000000e+00,0.000000000000000000e+00,0.000000000000000000e+00,0.000000000000000000e+00,0.000000000000000000e+00,0.000000000000000000e+00,0.000000000000000000e+00,0.000000000000000000e+00,0.000000000000000000e+00,0.000000000000000000e+00,0.000000000000000000e+00,0.000000000000000000e+00,0.000000000000000000e+00,0.000000000000000000e+00,0.000000000000000000e+00
0.000000000000000000e+00,0.000000000000000000e+00,0.000000000000000000e+00,0.000000000000000000e+00,0.000000000000000000e+00,0.000000000000000000e+00,0.000000000000000000e+00,0.000000000000000000e+00,0.000000000000000000e+00,0.000000000000000000e+00,0.000000000000000000e+00,0.000000000000000000e+00,0.000000000000000000e+00,0.000000000000000000e+00,0.000000000000000000e+00,0.000000000000000000e+00,0.000000000000000000e+00,0.000000000000000000e+00,0.000000000000000000e+00,0.000000000000000000e+00,0.000000000000000000e+00,0.000000000000000000e+00,0.000000000000000000e+00,0.000000000000000000e+00,0.000000000000000000e+00,0.000000000000000000e+00,0.000000000000000000e+00,0.000000000000000000e+00,0.000000000000000000e+00,0.000000000000000000e+00,0.000000000000000000e+00,0.000000000000000000e+00,0.000000000000000000e+00,0.000000000000000000e+00,0.000000000000000000e+00,0.000000000000000000e+00,0.000000000000000000e+00,0.000000000000000000e+00,0.000000000000000000e+00,0.000000000000000000e+00,0.000000000000000000e+00,0.000000000000000000e+00,0.000000000000000000e+00,0.000000000000000000e+00,0.000000000000000000e+00,0.000000000000000000e+00,0.000000000000000000e+00
0.000000000000000000e+00,0.000000000000000000e+00,0.000000000000000000e+00,0.000000000000000000e+00,0.000000000000000000e+00,0.000000000000000000e+00,0.000000000000000000e+00,0.000000000000000000e+00,0.000000000000000000e+00,0.000000000000000000e+00,0.000000000000000000e+00,0.000000000000000000e+00,0.000000000000000000e+00,0.000000000000000000e+00,0.000000000000000000e+00,0.000000000000000000e+00,0.000000000000000000e+00,0.000000000000000000e+00,0.000000000000000000e+00,0.000000000000000000e+00,0.000000000000000000e+00,0.000000000000000000e+00,0.000000000000000000e+00,0.000000000000000000e+00,0.000000000000000000e+00,0.000000000000000000e+00,0.000000000000000000e+00,0.000000000000000000e+00,0.000000000000000000e+00,0.000000000000000000e+00,0.000000000000000000e+00,0.000000000000000000e+00,0.000000000000000000e+00,0.000000000000000000e+00,0.000000000000000000e+00,0.000000000000000000e+00,0.000000000000000000e+00,0.000000000000000000e+00,0.000000000000000000e+00,0.000000000000000000e+00,0.000000000000000000e+00,0.000000000000000000e+00,-1.924558376817533667e-01,-1.924558376817533667e-01,-1.924558376817533667e-01,0.000000000000000000e+00,0.000000000000000000e+00
0.000000000000000000e+00,0.000000000000000000e+00,0.000000000000000000e+00,0.000000000000000000e+00,0.000000000000000000e+00,0.000000000000000000e+00,0.000000000000000000e+00,0.000000000000000000e+00,0.000000000000000000e+00,0.000000000000000000e+00,0.000000000000000000e+00,0.000000000000000000e+00,0.000000000000000000e+00,0.000000000000000000e+00,0.000000000000000000e+00,0.000000000000000000e+00,0.000000000000000000e+00,0.000000000000000000e+00,0.000000000000000000e+00,0.000000000000000000e+00,0.000000000000000000e+00,0.000000000000000000e+00,0.000000000000000000e+00,0.000000000000000000e+00,0.000000000000000000e+00,0.000000000000000000e+00,0.000000000000000000e+00,0.000000000000000000e+00,0.000000000000000000e+00,0.000000000000000000e+00,0.000000000000000000e+00,0.000000000000000000e+00,0.000000000000000000e+00,0.000000000000000000e+00,0.000000000000000000e+00,0.000000000000000000e+00,0.000000000000000000e+00,0.000000000000000000e+00,0.000000000000000000e+00,0.000000000000000000e+00,0.000000000000000000e+00,0.000000000000000000e+00,-1.924558376817533667e-01,-1.924558376817533667e-01,-1.924558376817533667e-01,0.000000000000000000e+00,0.000000000000000000e+00
0.000000000000000000e+00,0.000000000000000000e+00,0.000000000000000000e+00,0.000000000000000000e+00,0.000000000000000000e+00,0.000000000000000000e+00,0.000000000000000000e+00,0.000000000000000000e+00,0.000000000000000000e+00,0.000000000000000000e+00,0.000000000000000000e+00,0.000000000000000000e+00,0.000000000000000000e+00,0.000000000000000000e+00,0.000000000000000000e+00,0.000000000000000000e+00,0.000000000000000000e+00,0.000000000000000000e+00,0.000000000000000000e+00,0.000000000000000000e+00,0.000000000000000000e+00,0.000000000000000000e+00,0.000000000000000000e+00,0.000000000000000000e+00,0.000000000000000000e+00,0.000000000000000000e+00,0.000000000000000000e+00,0.000000000000000000e+00,0.000000000000000000e+00,0.000000000000000000e+00,0.000000000000000000e+00,0.000000000000000000e+00,0.000000000000000000e+00,0.000000000000000000e+00,0.000000000000000000e+00,0.000000000000000000e+00,0.000000000000000000e+00,0.000000000000000000e+00,0.000000000000000000e+00,0.000000000000000000e+00,0.000000000000000000e+00,0.000000000000000000e+00,-1.924558376817533667e-01,-1.924558376817533667e-01,-1.924558376817533667e-01,0.000000000000000000e+00,0.000000000000000000e+00
0.000000000000000000e+00,0.000000000000000000e+00,0.000000000000000000e+00,0.000000000000000000e+00,0.000000000000000000e+00,0.000000000000000000e+00,0.000000000000000000e+00,0.000000000000000000e+00,0.000000000000000000e+00,0.000000000000000000e+00,0.000000000000000000e+00,0.000000000000000000e+00,0.000000000000000000e+00,0.000000000000000000e+00,0.000000000000000000e+00,0.000000000000000000e+00,0.000000000000000000e+00,0.000000000000000000e+00,0.000000000000000000e+00,0.000000000000000000e+00,0.000000000000000000e+00,0.000000000000000000e+00,0.000000000000000000e+00,0.000000000000000000e+00,0.000000000000000000e+00,0.000000000000000000e+00,0.000000000000000000e+00,0.000000000000000000e+00,0.000000000000000000e+00,0.000000000000000000e+00,0.000000000000000000e+00,0.000000000000000000e+00,0.000000000000000000e+00,0.000000000000000000e+00,0.000000000000000000e+00,0.000000000000000000e+00,0.000000000000000000e+00,0.000000000000000000e+00,0.000000000000000000e+00,0.000000000000000000e+00,0.000000000000000000e+00,0.000000000000000000e+00,0.000000000000000000e+00,0.000000000000000000e+00,0.000000000000000000e+00,0.000000000000000000e+00,0.000000000000000000e+00
0.000000000000000000e+00,0.000000000000000000e+00,0.000000000000000000e+00,0.000000000000000000e+00,0.000000000000000000e+00,0.000000000000000000e+00,0.000000000000000000e+00,0.000000000000000000e+00,0.000000000000000000e+00,0.000000000000000000e+00,0.000000000000000000e+00,0.000000000000000000e+00,0.000000000000000000e+00,0.000000000000000000e+00,0.000000000000000000e+00,0.000000000000000000e+00,0.000000000000000000e+00,0.000000000000000000e+00,0.000000000000000000e+00,0.000000000000000000e+00,0.000000000000000000e+00,0.000000000000000000e+00,0.000000000000000000e+00,0.000000000000000000e+00,0.000000000000000000e+00,0.000000000000000000e+00,0.000000000000000000e+00,0.000000000000000000e+00,0.000000000000000000e+00,0.000000000000000000e+00,0.000000000000000000e+00,0.000000000000000000e+00,0.000000000000000000e+00,0.000000000000000000e+00,0.000000000000000000e+00,0.000000000000000000e+00,0.000000000000000000e+00,0.000000000000000000e+00,0.000000000000000000e+00,0.000000000000000000e+00,0.000000000000000000e+00,0.000000000000000000e+00,0.000000000000000000e+00,0.000000000000000000e+00,0.000000000000000000e+00,0.000000000000000000e+00,0.000000000000000000e+00
0.000000000000000000e+00,0.000000000000000000e+00,0.000000000000000000e+00,0.000000000000000000e+00,0.000000000000000000e+00,0.000000000000000000e+00,0.000000000000000000e+00,0.000000000000000000e+00,0.000000000000000000e+00,0.000000000000000000e+00,0.000000000000000000e+00,0.000000000000000000e+00,0.000000000000000000e+00,0.000000000000000000e+00,0.000000000000000000e+00,0.000000000000000000e+00,0.000000000000000000e+00,0.000000000000000000e+00,0.000000000000000000e+00,0.000000000000000000e+00,0.000000000000000000e+00,0.000000000000000000e+00,0.000000000000000000e+00,0.000000000000000000e+00,0.000000000000000000e+00,0.000000000000000000e+00,0.000000000000000000e+00,0.000000000000000000e+00,0.000000000000000000e+00,0.000000000000000000e+00,0.000000000000000000e+00,0.000000000000000000e+00,0.000000000000000000e+00,0.000000000000000000e+00,0.000000000000000000e+00,0.000000000000000000e+00,0.000000000000000000e+00,0.000000000000000000e+00,0.000000000000000000e+00,0.000000000000000000e+00,0.000000000000000000e+00,0.000000000000000000e+00,0.000000000000000000e+00,0.000000000000000000e+00,0.000000000000000000e+00,0.000000000000000000e+00,0.000000000000000000e+00
0.000000000000000000e+00,0.000000000000000000e+00,0.000000000000000000e+00,0.000000000000000000e+00,0.000000000000000000e+00,0.000000000000000000e+00,0.000000000000000000e+00,0.000000000000000000e+00,0.000000000000000000e+00,0.000000000000000000e+00,0.000000000000000000e+00,0.000000000000000000e+00,0.000000000000000000e+00,0.000000000000000000e+00,0.000000000000000000e+00,0.000000000000000000e+00,0.000000000000000000e+00,0.000000000000000000e+00,0.000000000000000000e+00,0.000000000000000000e+00,0.000000000000000000e+00,0.000000000000000000e+00,0.000000000000000000e+00,0.000000000000000000e+00,0.000000000000000000e+00,0.000000000000000000e+00,0.000000000000000000e+00,0.000000000000000000e+00,0.000000000000000000e+00,0.000000000000000000e+00,0.000000000000000000e+00,0.000000000000000000e+00,0.000000000000000000e+00,0.000000000000000000e+00,0.000000000000000000e+00,0.000000000000000000e+00,0.000000000000000000e+00,0.000000000000000000e+00,0.000000000000000000e+00,0.000000000000000000e+00,0.000000000000000000e+00,0.000000000000000000e+00,0.000000000000000000e+00,0.000000000000000000e+00,0.000000000000000000e+00,0.000000000000000000e+00,0.000000000000000000e+00
0.000000000000000000e+00,0.000000000000000000e+00,0.000000000000000000e+00,0.000000000000000000e+00,0.000000000000000000e+00,0.000000000000000000e+00,0.000000000000000000e+00,0.000000000000000000e+00,0.000000000000000000e+00,0.000000000000000000e+00,0.000000000000000000e+00,0.000000000000000000e+00,0.000000000000000000e+00,0.000000000000000000e+00,0.000000000000000000e+00,0.000000000000000000e+00,0.000000000000000000e+00,0.000000000000000000e+00,0.000000000000000000e+00,0.000000000000000000e+00,0.000000000000000000e+00,0.000000000000000000e+00,0.000000000000000000e+00,0.000000000000000000e+00,0.000000000000000000e+00,0.000000000000000000e+00,0.000000000000000000e+00,0.000000000000000000e+00,0.000000000000000000e+00,0.000000000000000000e+00,0.000000000000000000e+00,0.000000000000000000e+00,0.000000000000000000e+00,0.000000000000000000e+00,0.000000000000000000e+00,0.000000000000000000e+00,0.000000000000000000e+00,0.000000000000000000e+00,0.000000000000000000e+00,0.000000000000000000e+00,0.000000000000000000e+00,0.000000000000000000e+00,0.000000000000000000e+00,0.000000000000000000e+00,0.000000000000000000e+00,0.000000000000000000e+00,0.000000000000000000e+00
