1.115677524876794446e-01,1.115677524876794446e-01,1.115677524876794446e-01,1.115677524876794446e-01,1.115677524876794446e-01,1.115677524876794446e-01,1.115677524876794446e-01,1.115677524876794446e-01,1.115677524876794446e-01,1.115677524876794446e-01,1.115677524876794446e-01,1.115677524876794446e-01,1.115677524876794446e-01,1.115677524876794446e-01,1.115677524876794446e-01,1.115677524876794446e-01,1.115677524876794446e-01,7.566088961808145608e-02,3.847163878885498378e-02,1.282387959628483731e-03,-3.590686286959798856e-02,-7.309611369882443310e-02,-9.361432105288045036e-02,-9.361432105288045036e-02,-9.361432105288045036e-02,-9.361432105288045036e-02,-9.361432105288047811e-02,-9.361432105288045036e-02,-9.361432105288045036e-02,-1.667104347517048279e-02,7.309611369882446086e-02,1.115677524876794446e-01,1.115677524876794446e-01,1.115677524876794446e-01,1.115677524876794446e-01,1.115677524876794446e-01,1.115677524876794446e-01,1.115677524876794446e-01,1.115677524876794446e-01,1.115677524876794446e-01,1.115677524876794446e-01,1.115677524876794446e-01,1.115677524876794446e-01,1.115677524876794446e-01,1.115677524876794446e-01,1.115677524876794446e-01,1.115677524876794446e-01
1.115677524876794446e-01,1.115677524876794446e-01,1.115677524876794446e-01,1.115677524876794446e-01,1.115677524876794446e-01,1.115677524876794446e-01,1.115677524876794446e-01,1.115677524876794446e-01,1.115677524876794446e-01,1.115677524876794446e-01,1.115677524876794446e-01,1.115677524876794446e-01,1.115677524876794446e-01,1.115677524876794446e-01,1.115677524876794446e-01,1.115677524876794446e-01,9.617909697213744558e-02,5.898984614291096634e-02,2.180059531368448711e-02,-1.538865551554199906e-02,-5.386029430439698285e-02,-9.104954513362342738e-02,-9.361432105288045036e-02,-9.361432105288045036e-02,-9.361432105288045036e-02,-9.361432105288045036e-02,-9.361432105288047811e-02,-9.361432105288045036e-02,-9.361432105288047811e-02,-9.361432105288045036e-02,-9.361432105288042260e-02,-2.949492307145548664e-02,6.027223410253947089e-02,1.115677524876794446e-01,1.115677524876794446e-01,1.115677524876794446e-01,1.115677524876794446e-01,1.115677524876794446e-01,1.115677524876794446e-01,1.115677524876794446e-01,1.115677524876794446e-01,1.115677524876794446e-01,1.115677524876794446e-01,1.115677524876794446e-01,1.115677524876794446e-01,1.115677524876794446e-01,1.115677524876794446e-01
1.115677524876794446e-01,1.115677524876794446e-01,1.115677524876794446e-01,1.115677524876794446e-01,1.115677524876794446e-01,1.115677524876794446e-01,1.115677524876794446e-01,1.115677524876794446e-01,1.115677524876794446e-01,1.115677524876794446e-01,1.115677524876794446e-01,1.115677524876794446e-01,1.115677524876794446e-01,1.115677524876794446e-01,1.115677524876794446e-01,1.115677524876794446e-01,7.822566553733846517e-02,4.103641470811197900e-02,3.847163878885492827e-03,-3.334208695034099335e-02,-7.053133777956746564e-02,-9.361432105288045036e-02,-9.361432105288045036e-02,-9.361432105288045036e-02,-9.361432105288045036e-02,-9.361432105288045036e-02,-9.361432105288045036e-02,-9.361432105288045036e-02,-9.361432105288045036e-02,-9.361432105288045036e-02,-9.361432105288045036e-02,-9.361432105288045036e-02,-9.361432105288045036e-02,-4.231880266774046273e-02,4.744835450625448092e-02,1.115677524876794446e-01,1.115677524876794446e-01,1.115677524876794446e-01,1.115677524876794446e-01,1.115677524876794446e-01,1.115677524876794446e-01,1.115677524876794446e-01,1.115677524876794446e-01,1.115677524876794446e-01,1.115677524876794446e-01,1.115677524876794446e-01,1.115677524876794446e-01
1.115677524876794446e-01,1.115677524876794446e-01,1.115677524876794446e-01,1.115677524876794446e-01,1.115677524876794446e-01,1.115677524876794446e-01,1.115677524876794446e-01,1.115677524876794446e-01,1.115677524876794446e-01,1.115677524876794446e-01,1.115677524876794446e-01,1.115677524876794446e-01,1.115677524876794446e-01,1.115677524876794446e-01,1.115677524876794446e-01,9.874387289139445467e-02,6.155462206216797544e-02,2.436537123294149620e-02,-1.282387959628500385e-02,-5.001313042551147614e-02,-8.720238125473797619e-02,-9.361432105288045036e-02,-9.361432105288045036e-02,-9.361432105288045036e-02,-9.361432105288045036e-02,-9.361432105288045036e-02,-9.361432105288045036e-02,-9.361432105288042260e-02,-9.361432105288047811e-02,-9.361432105288047811e-02,-9.361432105288045036e-02,-9.361432105288045036e-02,-9.361432105288045036e-02,-9.361432105288045036e-02,-9.361432105288045036e-02,-5.514268226402546658e-02,3.462447490996949095e-02,1.115677524876794446e-01,1.115677524876794446e-01,1.115677524876794446e-01,1.115677524876794446e-01,1.115677524876794446e-01,1.115677524876794446e-01,1.115677524876794446e-01,1.115677524876794446e-01,1.115677524876794446e-01,1.115677524876794446e-01
1.115677524876794446e-01,1.115677524876794446e-01,1.115677524876794446e-01,1.115677524876794446e-01,1.115677524876794446e-01,1.115677524876794446e-01,1.115677524876794446e-01,1.115677524876794446e-01,1.115677524876794446e-01,1.115677524876794446e-01,1.115677524876794446e-01,1.115677524876794446e-01,1.115677524876794446e-01,1.115677524876794446e-01,1.115677524876794446e-01,8.079044145659546039e-02,4.360119062736897422e-02,6.411939798142488045e-03,-3.077731103108399813e-02,-6.796656186031044267e-02,-9.361432105288042260e-02,-9.361432105288047811e-02,-9.361432105288045036e-02,-9.361432105288045036e-02,-9.361432105288045036e-02,-9.361432105288045036e-02,-9.361432105288045036e-02,-9.361432105288045036e-02,-9.361432105288042260e-02,-9.361432105288045036e-02,-9.361432105288045036e-02,-9.361432105288047811e-02,-9.361432105288045036e-02,-9.361432105288042260e-02,-9.361432105288045036e-02,-9.361432105288045036e-02,-9.361432105288045036e-02,-6.796656186031044267e-02,2.180059531368450099e-02,1.051558126895369427e-01,1.115677524876794446e-01,1.115677524876794446e-01,1.115677524876794446e-01,1.115677524876794446e-01,1.115677524876794446e-01,1.115677524876794446e-01,1.115677524876794446e-01
1.115677524876794446e-01,1.115677524876794446e-01,1.115677524876794446e-01,1.115677524876794446e-01,1.115677524876794446e-01,1.115677524876794446e-01,1.115677524876794446e-01,1.115677524876794446e-01,1.115677524876794446e-01,1.115677524876794446e-01,-1.141546674997142019e-01,-1.141546674997142019e-01,-1.141546674997142019e-01,-1.141546674997142019e-01,1.013086488106514499e-01,6.411939798142496372e-02,2.693014715219849142e-02,-1.025910367702800863e-02,-4.744835450625448092e-02,-8.463760533548095322e-02,-9.361432105288045036e-02,-9.361432105288045036e-02,-9.361432105288045036e-02,-9.361432105288045036e-02,-9.361432105288045036e-02,-9.361432105288045036e-02,-9.361432105288045036e-02,-9.361432105288045036e-02,-9.361432105288045036e-02,-9.361432105288045036e-02,-9.361432105288045036e-02,-9.361432105288045036e-02,-9.361432105288042260e-02,-9.361432105288045036e-02,-9.361432105288045036e-02,-9.361432105288045036e-02,-9.361432105288042260e-02,-9.361432105288042260e-02,-9.361432105288047811e-02,-8.079044145659544651e-02,8.976715717399497141e-03,9.233193309325195275e-02,1.115677524876794446e-01,1.115677524876794446e-01,1.115677524876794446e-01,1.115677524876794446e-01,1.115677524876794446e-01
1.115677524876794446e-01,1.115677524876794446e-01,1.115677524876794446e-01,1.115677524876794446e-01,1.115677524876794446e-01,1.115677524876794446e-01,1.115677524876794446e-01,1.115677524876794446e-01,1.115677524876794446e-01,1.115677524876794446e-01,-1.141546674997142019e-01,-1.141546674997142019e-01,-1.141546674997142019e-01,-1.141546674997142019e-01,8.335521737585245561e-02,4.616596654662598331e-02,8.976715717399497141e-03,-2.821253511182700291e-02,-6.540178594105344745e-02,-9.361432105288042260e-02,-9.361432105288045036e-02,-9.361432105288045036e-02,-1.627429935216519186e-01,-1.627429935216519186e-01,-1.627429935216519186e-01,-1.627429935216519186e-01,-1.627429935216519186e-01,-9.361432105288045036e-02,-9.361432105288045036e-02,-9.361432105288045036e-02,-9.361432105288045036e-02,-9.361432105288045036e-02,-9.361432105288045036e-02,-9.361432105288045036e-02,-9.361432105288045036e-02,-9.361432105288045036e-02,-9.361432105288045036e-02,-9.361432105288045036e-02,-9.361432105288045036e-02,-9.361432105288045036e-02,-9.361432105288047811e-02,-9.361432105288045036e-02,-1.025910367702798087e-02,7.950805349696696278e-02,1.115677524876794446e-01,1.115677524876794446e-01,1.115677524876794446e-01
1.115677524876794446e-01,1.115677524876794446e-01,1.115677524876794446e-01,1.115677524876794446e-01,1.115677524876794446e-01,1.115677524876794446e-01,1.115677524876794446e-01,1.115677524876794446e-01,1.115677524876794446e-01,1.115677524876794446e-01,-1.141546674997142019e-01,-1.141546674997142019e-01,-1.141546674997142019e-01,-1.218489952574851876e-01,6.668417390068197281e-02,2.949492307145548664e-02,-7.694327757770999532e-03,-4.488357858699745795e-02,-8.207282941622395800e-02,-9.361432105288045036e-02,-9.361432105288045036e-02,-9.361432105288045036e-02,-1.627429935216519186e-01,-1.627429935216519186e-01,-1.627429935216519186e-01,-1.627429935216519186e-01,-1.627429935216519186e-01,-9.361432105288045036e-02,-9.361432105288045036e-02,-9.361432105288042260e-02,-9.361432105288045036e-02,-9.361432105288045036e-02,-9.361432105288045036e-02,-9.361432105288045036e-02,-9.361432105288045036e-02,-9.361432105288045036e-02,-9.361432105288045036e-02,-9.361432105288045036e-02,-9.361432105288045036e-02,-9.361432105288045036e-02,-9.361432105288045036e-02,-9.361432105288045036e-02,-9.361432105288045036e-02,-9.361432105288045036e-02,-2.308298327331298472e-02,6.668417390068197281e-02,1.115677524876794446e-01
1.115677524876794446e-01,1.115677524876794446e-01,1.115677524876794446e-01,1.115677524876794446e-01,1.115677524876794446e-01,1.115677524876794446e-01,1.115677524876794446e-01,1.115677524876794446e-01,1.115677524876794446e-01,1.115677524876794446e-01,-1.141546674997142019e-01,-1.141546674997142019e-01,-1.141546674997142019e-01,-1.398024266922841818e-01,4.873074246588297853e-02,1.154149163665649236e-02,-2.564775919257000769e-02,-6.283701002179647999e-02,-9.361432105288045036e-02,-9.361432105288045036e-02,-9.361432105288045036e-02,-9.361432105288045036e-02,-1.627429935216519186e-01,-1.627429935216519186e-01,-1.627429935216519186e-01,-1.627429935216519186e-01,-1.627429935216519186e-01,-9.361432105288045036e-02,-9.361432105288042260e-02,-9.361432105288045036e-02,-9.361432105288047811e-02,-9.361432105288045036e-02,-9.361432105288045036e-02,-9.361432105288045036e-02,-9.361432105288045036e-02,-9.361432105288045036e-02,-9.361432105288045036e-02,-9.361432105288045036e-02,-9.361432105288042260e-02,-9.361432105288045036e-02,-9.361432105288047811e-02,-9.361432105288045036e-02,-9.361432105288045036e-02,-9.361432105288045036e-02,-9.361432105288045036e-02,-9.361432105288045036e-02,-3.590686286959798856e-02
1.115677524876794446e-01,1.115677524876794446e-01,1.115677524876794446e-01,1.115677524876794446e-01,1.115677524876794446e-01,1.115677524876794446e-01,1.115677524876794446e-01,1.115677524876794446e-01,1.115677524876794446e-01,1.115677524876794446e-01,1.115677524876794446e-01,1.115677524876794446e-01,1.064382006491654542e-01,6.924894981993896803e-02,3.205969899071248186e-02,-5.129551838513990436e-03,-4.231880266774049049e-02,-7.950805349696693503e-02,-9.361432105288045036e-02,-9.361432105288045036e-02,-9.361432105288042260e-02,-9.361432105288045036e-02,-1.627429935216519186e-01,-1.627429935216519186e-01,-1.627429935216519186e-01,-1.627429935216519186e-01,-1.627429935216519186e-01,-9.361432105288045036e-02,-9.361432105288045036e-02,-9.361432105288042260e-02,-9.361432105288045036e-02,-9.361432105288045036e-02,-9.361432105288047811e-02,-9.361432105288045036e-02,-9.361432105288045036e-02,-9.361432105288045036e-02,-9.361432105288045036e-02,-9.361432105288045036e-02,-9.361432105288045036e-02,-9.361432105288045036e-02,-9.361432105288045036e-02,-9.361432105288047811e-02,-9.361432105288045036e-02,-9.361432105288047811e-02,-9.361432105288045036e-02,-9.361432105288042260e-02,-9.361432105288045036e-02
1.115677524876794446e-01,1.115677524876794446e-01,1.115677524876794446e-01,1.115677524876794446e-01,1.115677524876794446e-01,1.115677524876794446e-01,1.115677524876794446e-01,1.115677524876794446e-01,1.115677524876794446e-01,1.115677524876794446e-01,1.115677524876794446e-01,1.115677524876794446e-01,8.848476921436645992e-02,5.129551838513997375e-02,1.410626755591348758e-02,-2.308298327331298472e-02,-6.027223410253948477e-02,-9.361432105288042260e-02,-9.361432105288045036e-02,-9.361432105288045036e-02,-9.361432105288045036e-02,-9.361432105288045036e-02,-1.627429935216519186e-01,-1.661825365981277891e-01,-1.661825365981277891e-01,-1.661825365981277891e-01,-1.661825365981277891e-01,-9.361432105288045036e-02,-9.361432105288045036e-02,-9.361432105288045036e-02,-9.361432105288045036e-02,-9.361432105288047811e-02,-9.361432105288045036e-02,-9.361432105288045036e-02,-9.361432105288045036e-02,-9.361432105288045036e-02,-9.361432105288045036e-02,-9.361432105288042260e-02,-9.361432105288045036e-02,-9.361432105288047811e-02,-9.361432105288045036e-02,-9.361432105288045036e-02,-9.361432105288045036e-02,-9.361432105288045036e-02,-9.361432105288045036e-02,-9.361432105288045036e-02,-8.506506798869042929e-02
1.115677524876794446e-01,1.115677524876794446e-01,1.115677524876794446e-01,1.115677524876794446e-01,1.115677524876794446e-01,1.115677524876794446e-01,1.115677524876794446e-01,1.115677524876794446e-01,1.115677524876794446e-01,1.115677524876794446e-01,1.115677524876794446e-01,1.090029765684224494e-01,7.181372573919596325e-02,3.462447490996947708e-02,-2.564775919257022974e-03,-3.975402674848349527e-02,-7.694327757770993981e-02,-9.361432105288045036e-02,-9.361432105288045036e-02,-9.361432105288045036e-02,-9.361432105288045036e-02,-9.361432105288047811e-02,-9.361432105288047811e-02,-9.705386412935632090e-02,-9.705386412935632090e-02,-9.705386412935632090e-02,-9.705386412935634866e-02,-9.361432105288045036e-02,-9.361432105288045036e-02,-9.361432105288045036e-02,-9.361432105288045036e-02,-9.361432105288042260e-02,-9.361432105288042260e-02,-9.361432105288042260e-02,-9.361432105288045036e-02,-9.361432105288045036e-02,-9.361432105288045036e-02,-9.361432105288045036e-02,-9.361432105288045036e-02,-9.361432105288045036e-02,-9.361432105288045036e-02,-9.361432105288045036e-02,-9.361432105288045036e-02,-9.361432105288045036e-02,-9.361432105288045036e-02,-9.361432105288045036e-02,-7.509093941380212689e-02
1.115677524876794446e-01,1.115677524876794446e-01,1.115677524876794446e-01,1.115677524876794446e-01,1.115677524876794446e-01,1.115677524876794446e-01,1.115677524876794446e-01,1.115677524876794446e-01,1.115677524876794446e-01,1.115677524876794446e-01,1.115677524876794446e-01,9.104954513362345514e-02,5.386029430439696897e-02,1.667104347517049667e-02,-2.051820735405598950e-02,-5.770745818328246179e-02,-9.361432105288047811e-02,-9.361432105288045036e-02,-9.361432105288045036e-02,-9.361432105288045036e-02,-9.361432105288045036e-02,-9.361432105288047811e-02,-9.361432105288045036e-02,-9.705386412935632090e-02,-9.705386412935632090e-02,-9.705386412935632090e-02,-9.705386412935634866e-02,-9.361432105288045036e-02,-9.361432105288045036e-02,-9.361432105288045036e-02,-9.361432105288045036e-02,-9.361432105288045036e-02,-9.361432105288045036e-02,-9.361432105288047811e-02,-9.361432105288045036e-02,-9.361432105288045036e-02,-9.361432105288045036e-02,-9.361432105288042260e-02,-9.361432105288045036e-02,-9.361432105288045036e-02,-9.361432105288045036e-02,-9.361432105288045036e-02,-9.361432105288045036e-02,-9.361432105288045036e-02,-9.361432105288045036e-02,-8.648994349938876613e-02,-6.582924859426295128e-02
1.115677524876794446e-01,1.115677524876794446e-01,1.115677524876794446e-01,1.115677524876794446e-01,1.115677524876794446e-01,1.115677524876794446e-01,1.115677524876794446e-01,1.115677524876794446e-01,1.115677524876794446e-01,1.115677524876794446e-01,1.115677524876794446e-01,7.437850165845297234e-02,3.718925082922647229e-02,0.000000000000000000e+00,-3.718925082922650005e-02,-7.437850165845297234e-02,-9.361432105288045036e-02,-9.361432105288045036e-02,-9.361432105288045036e-02,-9.361432105288045036e-02,-9.361432105288045036e-02,-9.361432105288047811e-02,-9.361432105288045036e-02,-9.705386412935632090e-02,-9.705386412935632090e-02,-9.705386412935632090e-02,-9.705386412935632090e-02,-9.361432105288045036e-02,-9.361432105288045036e-02,-9.361432105288045036e-02,-9.361432105288047811e-02,-9.361432105288047811e-02,-9.361432105288045036e-02,-9.361432105288045036e-02,-9.361432105288045036e-02,-9.361432105288042260e-02,-9.361432105288045036e-02,-9.361432105288045036e-02,-9.361432105288045036e-02,-9.361432105288045036e-02,-9.361432105288042260e-02,-9.361432105288047811e-02,-9.361432105288045036e-02,-9.361432105288045036e-02,-9.361432105288045036e-02,-7.651581492450046373e-02,-5.585512001937462112e-02
1.115677524876794446e-01,1.115677524876794446e-01,1.115677524876794446e-01,1.115677524876794446e-01,1.115677524876794446e-01,1.115677524876794446e-01,1.115677524876794446e-01,1.115677524876794446e-01,1.115677524876794446e-01,1.115677524876794446e-01,9.489670901250896184e-02,5.770745818328246873e-02,2.051820735405598950e-02,-1.667104347517048279e-02,-5.514268226402546658e-02,-9.233193309325196663e-02,-9.361432105288045036e-02,-9.361432105288045036e-02,-9.361432105288045036e-02,-9.361432105288045036e-02,-9.361432105288045036e-02,-9.361432105288045036e-02,-9.361432105288045036e-02,-9.361432105288045036e-02,-9.361432105288042260e-02,-9.361432105288045036e-02,-9.361432105288045036e-02,-9.361432105288045036e-02,-9.361432105288045036e-02,-9.361432105288045036e-02,-9.361432105288047811e-02,-9.361432105288045036e-02,-9.361432105288045036e-02,-9.361432105288042260e-02,-9.361432105288045036e-02,-9.361432105288045036e-02,-9.361432105288045036e-02,-9.361432105288045036e-02,-9.361432105288045036e-02,-9.361432105288045036e-02,-9.361432105288045036e-02,-9.361432105288045036e-02,-9.361432105288045036e-02,-9.361432105288045036e-02,-8.791481901008713074e-02,-6.725412410496131588e-02,-4.659342919983547326e-02
1.115677524876794446e-01,1.115677524876794446e-01,1.115677524876794446e-01,1.115677524876794446e-01,1.115677524876794446e-01,1.115677524876794446e-01,1.115677524876794446e-01,1.115677524876794446e-01,1.115677524876794446e-01,1.115677524876794446e-01,7.694327757770996756e-02,3.975402674848348139e-02,2.564775919256995218e-03,-3.462447490996947708e-02,-7.181372573919594937e-02,-9.361432105288045036e-02,-9.361432105288045036e-02,-9.361432105288045036e-02,-9.361432105288045036e-02,-9.361432105288045036e-02,-9.361432105288045036e-02,-9.361432105288047811e-02,-9.361432105288045036e-02,-9.361432105288045036e-02,-9.361432105288045036e-02,-9.361432105288045036e-02,-9.361432105288045036e-02,-9.361432105288042260e-02,-9.361432105288045036e-02,-9.361432105288045036e-02,-9.361432105288047811e-02,-9.361432105288045036e-02,-9.361432105288047811e-02,-9.361432105288045036e-02,-9.361432105288045036e-02,-9.361432105288045036e-02,-9.361432105288045036e-02,-9.361432105288045036e-02,-9.361432105288047811e-02,-9.361432105288045036e-02,-9.361432105288045036e-02,-9.361432105288045036e-02,-9.361432105288045036e-02,-9.361432105288045036e-02,-7.794069043519877282e-02,-5.727999553007295797e-02,-3.661930062494714311e-02
1.115677524876794446e-01,1.115677524876794446e-01,1.115677524876794446e-01,1.115677524876794446e-01,1.115677524876794446e-01,1.115677524876794446e-01,1.115677524876794446e-01,1.115677524876794446e-01,1.115677524876794446e-01,9.746148493176595706e-02,6.027223410253947089e-02,2.308298327331298472e-02,-1.410626755591351533e-02,-5.129551838513998763e-02,-8.848476921436645992e-02,-9.361432105288045036e-02,-9.361432105288045036e-02,-9.361432105288045036e-02,-9.361432105288045036e-02,-9.361432105288045036e-02,-9.361432105288045036e-02,-9.361432105288045036e-02,-9.361432105288045036e-02,-9.361432105288042260e-02,-9.361432105288045036e-02,-9.361432105288042260e-02,-9.361432105288045036e-02,-9.361432105288045036e-02,-9.361432105288045036e-02,-9.361432105288045036e-02,-9.361432105288045036e-02,-9.361432105288045036e-02,-9.361432105288045036e-02,-9.361432105288045036e-02,-9.361432105288047811e-02,-9.361432105288045036e-02,-9.361432105288045036e-02,-9.361432105288045036e-02,-9.361432105288045036e-02,-9.361432105288045036e-02,-9.361432105288045036e-02,-9.361432105288045036e-02,-9.361432105288045036e-02,-8.933969452078543982e-02,-6.867899961565962497e-02,-4.801830471053381011e-02,-2.735760980540799525e-02
1.115677524876794446e-01,1.115677524876794446e-01,1.115677524876794446e-01,1.115677524876794446e-01,1.115677524876794446e-01,1.115677524876794446e-01,1.115677524876794446e-01,1.115677524876794446e-01,1.115677524876794446e-01,7.950805349696696278e-02,4.231880266774047661e-02,5.129551838513990436e-03,-3.205969899071248186e-02,-6.924894981993895415e-02,-9.361432105288045036e-02,-9.361432105288045036e-02,-9.361432105288047811e-02,-9.361432105288042260e-02,-9.361432105288045036e-02,-9.361432105288045036e-02,-9.361432105288045036e-02,-9.361432105288045036e-02,-9.361432105288047811e-02,-9.361432105288045036e-02,-9.361432105288045036e-02,-9.361432105288045036e-02,-9.361432105288045036e-02,-9.361432105288047811e-02,-9.361432105288045036e-02,-9.361432105288045036e-02,-9.361432105288045036e-02,-9.361432105288045036e-02,-9.361432105288042260e-02,-9.361432105288045036e-02,-9.361432105288045036e-02,-9.361432105288045036e-02,-9.361432105288042260e-02,-9.361432105288045036e-02,-9.361432105288047811e-02,-9.361432105288045036e-02,-9.361432105288045036e-02,-9.361432105288045036e-02,-9.361432105288045036e-02,-7.936556594589713742e-02,-5.870487104077132257e-02,-3.804417613564547995e-02,-1.738348123051966510e-02
1.115677524876794446e-01,1.115677524876794446e-01,1.115677524876794446e-01,1.115677524876794446e-01,1.115677524876794446e-01,1.115677524876794446e-01,1.115677524876794446e-01,1.115677524876794446e-01,1.000262608510229523e-01,6.283701002179647999e-02,2.564775919256997994e-02,-1.154149163665650624e-02,-4.873074246588296465e-02,-8.591999329510946470e-02,-9.361432105288045036e-02,-9.361432105288042260e-02,-9.361432105288045036e-02,-9.361432105288045036e-02,-9.361432105288042260e-02,-9.361432105288045036e-02,-9.361432105288045036e-02,-9.361432105288045036e-02,-9.361432105288045036e-02,-9.361432105288045036e-02,-9.361432105288045036e-02,-9.361432105288045036e-02,-9.361432105288045036e-02,-9.361432105288045036e-02,-9.361432105288045036e-02,-9.361432105288042260e-02,-9.361432105288045036e-02,-9.361432105288045036e-02,-9.361432105288045036e-02,-9.361432105288045036e-02,-9.361432105288045036e-02,-9.361432105288045036e-02,-9.361432105288045036e-02,-9.361432105288045036e-02,-9.361432105288045036e-02,-9.361432105288045036e-02,-9.361432105288045036e-02,-9.361432105288045036e-02,-9.076457003148374891e-02,-7.010387512635796181e-02,-4.944318022123214695e-02,-2.878248531610633210e-02,-8.121790410980503361e-03
1.115677524876794446e-01,1.115677524876794446e-01,1.115677524876794446e-01,1.115677524876794446e-01,1.115677524876794446e-01,1.115677524876794446e-01,1.115677524876794446e-01,1.115677524876794446e-01,8.207282941622395800e-02,4.488357858699748570e-02,7.694327757770999532e-03,-2.949492307145548664e-02,-6.668417390068195894e-02,-9.361432105288047811e-02,-9.361432105288045036e-02,-9.361432105288042260e-02,-9.361432105288045036e-02,-9.361432105288045036e-02,-9.361432105288045036e-02,-9.361432105288045036e-02,-9.361432105288045036e-02,-9.361432105288045036e-02,-9.361432105288047811e-02,-9.361432105288045036e-02,-9.361432105288045036e-02,-9.361432105288042260e-02,-9.361432105288042260e-02,-9.361432105288045036e-02,-9.361432105288045036e-02,-9.361432105288045036e-02,-9.361432105288045036e-02,-9.361432105288045036e-02,-9.361432105288045036e-02,-9.361432105288045036e-02,-9.361432105288047811e-02,-9.361432105288045036e-02,-9.361432105288042260e-02,-9.361432105288045036e-02,-9.361432105288045036e-02,-9.361432105288045036e-02,-9.361432105288045036e-02,-9.361432105288045036e-02,-8.079044145659544651e-02,-6.012974655146963165e-02,-3.946905164634381680e-02,-1.880835674121800194e-02,1.852338163907840674e-03
1.115677524876794446e-01,1.115677524876794446e-01,1.115677524876794446e-01,1.115677524876794446e-01,1.115677524876794446e-01,1.115677524876794446e-01,1.115677524876794446e-01,1.025910367702799475e-01,6.540178594105347520e-02,2.821253511182697515e-02,-8.976715717399524896e-03,-4.616596654662599719e-02,-8.335521737585246949e-02,-9.361432105288045036e-02,-9.361432105288045036e-02,-9.361432105288045036e-02,-9.361432105288045036e-02,-9.361432105288045036e-02,-9.361432105288045036e-02,-9.361432105288042260e-02,-9.361432105288047811e-02,-9.361432105288045036e-02,-9.361432105288045036e-02,-9.361432105288045036e-02,-9.361432105288047811e-02,-9.361432105288045036e-02,-9.361432105288045036e-02,-9.361432105288045036e-02,-9.361432105288045036e-02,-9.361432105288045036e-02,-9.361432105288045036e-02,-9.361432105288045036e-02,-9.361432105288045036e-02,-9.361432105288045036e-02,-9.361432105288045036e-02,-9.361432105288045036e-02,-9.361432105288042260e-02,-9.361432105288045036e-02,-9.361432105288047811e-02,-9.361432105288045036e-02,-9.361432105288045036e-02,-9.218944554218211351e-02,-7.152875063705627090e-02,-5.086805573193048380e-02,-3.020736082680466894e-02,-9.546665921678826328e-03,1.111402898344698853e-02
1.115677524876794446e-01,1.115677524876794446e-01,1.115677524876794446e-01,1.115677524876794446e-01,1.115677524876794446e-01,1.115677524876794446e-01,1.115677524876794446e-01,8.463760533548095322e-02,4.744835450625448092e-02,1.025910367702798087e-02,-2.693014715219849142e-02,-6.411939798142499147e-02,-9.361432105288047811e-02,-9.361432105288047811e-02,-9.361432105288045036e-02,-9.361432105288045036e-02,-9.361432105288045036e-02,-9.361432105288045036e-02,-9.361432105288045036e-02,-9.361432105288045036e-02,-9.361432105288045036e-02,-9.361432105288045036e-02,-9.361432105288047811e-02,-9.361432105288045036e-02,-9.361432105288042260e-02,-9.361432105288045036e-02,-9.361432105288042260e-02,-9.361432105288045036e-02,-9.361432105288045036e-02,-9.361432105288045036e-02,-9.361432105288045036e-02,-9.361432105288045036e-02,-9.361432105288045036e-02,-9.361432105288047811e-02,-9.361432105288045036e-02,-9.361432105288047811e-02,-9.361432105288045036e-02,-9.361432105288045036e-02,-9.361432105288045036e-02,-9.361432105288045036e-02,-9.361432105288045036e-02,-8.221531696729378336e-02,-6.155462206216796850e-02,-4.089392715704215364e-02,-2.023323225191633878e-02,4.274626532095177067e-04,2.108815755833533256e-02
1.115677524876794446e-01,1.115677524876794446e-01,1.115677524876794446e-01,1.115677524876794446e-01,1.115677524876794446e-01,1.115677524876794446e-01,1.051558126895369427e-01,6.796656186031047042e-02,3.077731103108399813e-02,-6.411939798142501923e-03,-4.360119062736897422e-02,-8.079044145659544651e-02,-9.361432105288045036e-02,-9.361432105288045036e-02,-9.361432105288045036e-02,-9.361432105288045036e-02,-9.361432105288047811e-02,-9.361432105288042260e-02,-9.361432105288045036e-02,-9.361432105288045036e-02,-9.361432105288045036e-02,-9.361432105288042260e-02,-9.361432105288045036e-02,-9.361432105288045036e-02,-9.361432105288045036e-02,-9.361432105288045036e-02,-9.361432105288045036e-02,-9.361432105288045036e-02,-9.361432105288045036e-02,-9.361432105288047811e-02,-9.361432105288045036e-02,-9.361432105288045036e-02,-9.361432105288045036e-02,-9.361432105288047811e-02,-9.361432105288045036e-02,-9.361432105288045036e-02,-9.361432105288045036e-02,-9.361432105288045036e-02,-9.361432105288045036e-02,-9.361432105288045036e-02,-9.361432105288045036e-02,-7.295362614775460774e-02,-5.229293124262882064e-02,-3.163223633750297803e-02,-1.097154143237716317e-02,9.689153472748679441e-03,3.034984837787448042e-02
1.115677524876794446e-01,1.115677524876794446e-01,1.115677524876794446e-01,1.115677524876794446e-01,1.115677524876794446e-01,1.115677524876794446e-01,8.720238125473794844e-02,5.001313042551147614e-02,1.282387959628500385e-02,-2.436537123294149620e-02,-6.155462206216796850e-02,-9.361432105288042260e-02,-9.361432105288045036e-02,-9.361432105288045036e-02,-9.361432105288045036e-02,-9.361432105288045036e-02,-9.361432105288045036e-02,-9.361432105288045036e-02,-9.361432105288045036e-02,-9.361432105288045036e-02,-9.361432105288045036e-02,-9.361432105288045036e-02,-9.361432105288047811e-02,-9.361432105288045036e-02,-9.361432105288045036e-02,-9.361432105288045036e-02,-9.361432105288045036e-02,-9.361432105288045036e-02,-9.361432105288045036e-02,-1.005565976450365218e-01,-1.005565976450365218e-01,-1.005565976450365218e-01,-1.005565976450365218e-01,-9.361432105288045036e-02,-9.361432105288045036e-02,-9.361432105288042260e-02,-9.361432105288045036e-02,-9.361432105288045036e-02,-9.361432105288045036e-02,-9.361432105288045036e-02,-8.435263023334127475e-02,-6.369193532821545989e-02,-4.231880266774049049e-02,-2.165810776261467563e-02,-9.974128574888330157e-04,1.966328204763700960e-02,4.032397695276279670e-02
1.115677524876794446e-01,1.115677524876794446e-01,1.115677524876794446e-01,1.115677524876794446e-01,1.115677524876794446e-01,1.077205886087939518e-01,7.053133777956746564e-02,3.334208695034097947e-02,-3.847163878885506705e-03,-4.103641470811197900e-02,-7.822566553733845129e-02,-9.361432105288045036e-02,-9.361432105288045036e-02,-9.361432105288045036e-02,-9.361432105288045036e-02,-9.361432105288045036e-02,-9.361432105288045036e-02,-9.361432105288045036e-02,-9.361432105288045036e-02,-9.361432105288045036e-02,-9.361432105288045036e-02,-9.361432105288045036e-02,-9.361432105288045036e-02,-9.361432105288045036e-02,-9.361432105288045036e-02,-9.361432105288042260e-02,-9.361432105288045036e-02,-9.361432105288045036e-02,-9.361432105288045036e-02,-1.005565976450365218e-01,-1.005565976450365495e-01,-1.005565976450365218e-01,-1.005565976450365218e-01,-9.361432105288045036e-02,-9.361432105288045036e-02,-9.361432105288045036e-02,-9.361432105288045036e-02,-9.361432105288045036e-02,-9.361432105288045036e-02,-9.361432105288045036e-02,-7.437850165845294459e-02,-5.371780675332712973e-02,-3.305711184820131487e-02,-1.239641694307550002e-02,8.264277962050342596e-03,2.892497286717614358e-02,4.958566777230197231e-02
1.115677524876794446e-01,1.115677524876794446e-01,1.115677524876794446e-01,1.115677524876794446e-01,1.115677524876794446e-01,8.976715717399495753e-02,5.257790634476847830e-02,1.538865551554199906e-02,-2.180059531368450099e-02,-5.898984614291097328e-02,-9.361432105288045036e-02,-9.361432105288047811e-02,-9.361432105288045036e-02,-9.361432105288045036e-02,-9.361432105288045036e-02,-9.361432105288045036e-02,-9.361432105288045036e-02,-9.361432105288045036e-02,-9.361432105288045036e-02,-9.361432105288045036e-02,-9.361432105288042260e-02,-9.361432105288047811e-02,-9.361432105288045036e-02,-9.361432105288045036e-02,-9.361432105288045036e-02,-9.361432105288045036e-02,-9.361432105288045036e-02,-9.361432105288045036e-02,-9.361432105288045036e-02,-1.005565976450365218e-01,-1.005565976450365218e-01,-1.005565976450365218e-01,-1.005565976450365218e-01,-9.361432105288045036e-02,-9.361432105288045036e-02,-9.361432105288045036e-02,-9.361432105288045036e-02,-9.361432105288045036e-02,-9.361432105288045036e-02,-8.577750574403961159e-02,-6.511681083891376898e-02,-4.445611593378798188e-02,-2.379542102866219477e-02,-3.134726123536324405e-03,1.752596878158949045e-02,3.889910144206448761e-02,5.955979634719030247e-02
1.115677524876794446e-01,1.115677524876794446e-01,1.115677524876794446e-01,1.115677524876794446e-01,1.102853645280509470e-01,7.309611369882446086e-02,3.590686286959797469e-02,-1.282387959628511487e-03,-3.847163878885498378e-02,-7.566088961808145608e-02,-9.361432105288045036e-02,-9.361432105288045036e-02,-9.361432105288045036e-02,-9.361432105288045036e-02,-9.361432105288045036e-02,-9.361432105288045036e-02,-9.361432105288045036e-02,-9.361432105288045036e-02,-9.361432105288047811e-02,-9.361432105288045036e-02,-9.361432105288045036e-02,-9.361432105288045036e-02,-9.361432105288045036e-02,-9.361432105288047811e-02,-9.361432105288045036e-02,-9.361432105288042260e-02,-9.361432105288045036e-02,-9.361432105288045036e-02,-9.361432105288045036e-02,-1.005565976450365218e-01,-1.005565976450364940e-01,-1.005565976450365218e-01,-1.005565976450365218e-01,-9.361432105288045036e-02,-9.361432105288047811e-02,-9.361432105288045036e-02,-9.361432105288042260e-02,-9.361432105288045036e-02,-9.361432105288045036e-02,-7.580337716915128143e-02,-5.514268226402546658e-02,-3.448198735889965172e-02,-1.382129245377383686e-02,6.839402451352005752e-03,2.750009735647782061e-02,4.816079226160363547e-02,6.882148716672946420e-02
1.115677524876794446e-01,1.115677524876794446e-01,1.115677524876794446e-01,1.115677524876794446e-01,9.361432105288045036e-02,5.642507022365397806e-02,1.923581939442749189e-02,-1.923581939442750577e-02,-5.642507022365400582e-02,-9.361432105288045036e-02,-9.361432105288045036e-02,-9.361432105288045036e-02,-9.361432105288045036e-02,-9.361432105288042260e-02,-9.361432105288045036e-02,-9.361432105288045036e-02,-9.361432105288045036e-02,-9.361432105288045036e-02,-9.361432105288045036e-02,-9.361432105288045036e-02,-9.361432105288045036e-02,-9.361432105288045036e-02,-9.361432105288045036e-02,-9.361432105288045036e-02,-9.361432105288045036e-02,-9.361432105288045036e-02,-9.361432105288042260e-02,-9.361432105288045036e-02,-9.361432105288045036e-02,-9.361432105288045036e-02,-9.361432105288045036e-02,-9.361432105288045036e-02,-9.361432105288045036e-02,-9.361432105288045036e-02,-9.361432105288045036e-02,-9.361432105288045036e-02,-9.361432105288045036e-02,-9.361432105288045036e-02,-8.720238125473792068e-02,-6.654168634961210582e-02,-4.588099144448634648e-02,-2.522029653936050386e-02,-4.559601634234661249e-03,1.610109327089116749e-02,3.676178817601696847e-02,5.742248308114280414e-02,7.808317798626862594e-02
1.115677524876794446e-01,1.115677524876794446e-01,1.115677524876794446e-01,1.115677524876794446e-01,7.566088961808145608e-02,3.847163878885498378e-02,1.282387959628483731e-03,-3.590686286959798856e-02,-7.309611369882446086e-02,-9.361432105288045036e-02,-9.361432105288045036e-02,-9.361432105288045036e-02,-9.361432105288045036e-02,-9.361432105288045036e-02,-9.361432105288045036e-02,-9.361432105288045036e-02,-9.361432105288045036e-02,-9.361432105288045036e-02,-9.361432105288045036e-02,-9.361432105288045036e-02,-9.361432105288045036e-02,-9.361432105288042260e-02,-9.361432105288045036e-02,-9.361432105288047811e-02,-9.361432105288045036e-02,-9.361432105288045036e-02,-9.361432105288045036e-02,-9.361432105288045036e-02,-9.361432105288045036e-02,-9.361432105288045036e-02,-9.361432105288045036e-02,-9.361432105288045036e-02,-9.361432105288047811e-02,-9.361432105288045036e-02,-9.361432105288042260e-02,-9.361432105288045036e-02,-9.361432105288045036e-02,-9.361432105288045036e-02,-7.722825267984961828e-02,-5.656755777472377567e-02,-3.590686286959798856e-02,-1.524616796447217371e-02,5.414526940653682785e-03,2.607522184577948376e-02,4.673591675090529862e-02,6.739661165603114124e-02,8.805730656115695609e-02
1.115677524876794446e-01,1.115677524876794446e-01,1.115677524876794446e-01,9.617909697213744558e-02,5.898984614291096634e-02,2.180059531368450099e-02,-1.538865551554199906e-02,-5.257790634476847136e-02,-8.976715717399497141e-02,-9.361432105288045036e-02,-9.361432105288047811e-02,-9.361432105288045036e-02,-9.361432105288045036e-02,-9.361432105288045036e-02,-9.361432105288045036e-02,-9.361432105288045036e-02,-9.361432105288045036e-02,-9.361432105288042260e-02,-9.361432105288045036e-02,-9.361432105288045036e-02,-9.361432105288045036e-02,-9.361432105288045036e-02,-9.361432105288045036e-02,-9.361432105288045036e-02,-9.361432105288045036e-02,-9.361432105288045036e-02,-9.361432105288045036e-02,-9.361432105288045036e-02,-9.361432105288042260e-02,-9.361432105288045036e-02,-9.361432105288045036e-02,-9.361432105288045036e-02,-9.361432105288045036e-02,-9.361432105288045036e-02,-9.361432105288045036e-02,-9.361432105288042260e-02,-9.361432105288045036e-02,-8.862725676543628528e-02,-6.796656186031047042e-02,-4.730586695518465556e-02,-2.664517205005884071e-02,-5.984477144932998094e-03,1.467621776019284452e-02,3.533691266531865938e-02,5.599760757044446730e-02,7.665830247557030297e-02,9.731899738069611783e-02
1.115677524876794446e-01,1.115677524876794446e-01,1.115677524876794446e-01,7.822566553733846517e-02,4.103641470811197900e-02,3.847163878885492827e-03,-3.334208695034099335e-02,-7.053133777956746564e-02,-9.361432105288045036e-02,-9.361432105288047811e-02,-9.361432105288045036e-02,-9.361432105288045036e-02,-9.361432105288047811e-02,-9.361432105288045036e-02,-9.361432105288045036e-02,-9.361432105288045036e-02,-9.361432105288045036e-02,-9.361432105288045036e-02,-9.361432105288042260e-02,-9.361432105288045036e-02,-9.361432105288045036e-02,-9.361432105288045036e-02,-9.361432105288047811e-02,-9.361432105288045036e-02,-9.361432105288045036e-02,-9.361432105288045036e-02,-9.361432105288045036e-02,-9.361432105288045036e-02,-9.361432105288045036e-02,-9.361432105288045036e-02,-9.361432105288045036e-02,-9.361432105288047811e-02,-9.361432105288045036e-02,-9.361432105288047811e-02,-9.361432105288045036e-02,-9.361432105288045036e-02,-9.361432105288045036e-02,-7.865312819054795512e-02,-5.799243328542214027e-02,-3.733173838029632541e-02,-1.667104347517048279e-02,3.989651429955345940e-03,2.465034633508114692e-02,4.531104124020697566e-02,6.597173614533280439e-02,8.663243105045861925e-02,1.072931259555844480e-01
1.115677524876794446e-01,1.115677524876794446e-01,9.874387289139445467e-02,6.155462206216796850e-02,2.436537123294149620e-02,-1.282387959628498997e-02,-5.001313042551147614e-02,-8.720238125473794844e-02,-9.361432105288045036e-02,-9.361432105288045036e-02,-9.361432105288045036e-02,-9.361432105288045036e-02,-9.361432105288045036e-02,-9.361432105288045036e-02,-9.361432105288047811e-02,-9.361432105288042260e-02,-9.361432105288045036e-02,-9.361432105288045036e-02,-9.361432105288045036e-02,-9.361432105288042260e-02,-9.361432105288045036e-02,-9.361432105288045036e-02,-9.361432105288045036e-02,-9.361432105288042260e-02,-9.361432105288045036e-02,-9.361432105288047811e-02,-9.361432105288045036e-02,-9.361432105288045036e-02,-9.361432105288045036e-02,-9.361432105288045036e-02,-9.361432105288045036e-02,-9.361432105288045036e-02,-9.361432105288045036e-02,-9.361432105288045036e-02,-9.361432105288045036e-02,-9.361432105288045036e-02,-9.005213227613459437e-02,-6.939143737100877951e-02,-4.873074246588296465e-02,-2.807004756075717755e-02,-7.409352655631334938e-03,1.325134224949450767e-02,3.391203715462032253e-02,5.457273205974613739e-02,7.523342696487196612e-02,9.589412186999779486e-02,1.115677524876794446e-01
1.115677524876794446e-01,1.115677524876794446e-01,8.079044145659546039e-02,4.360119062736897422e-02,6.411939798142488045e-03,-3.077731103108397037e-02,-6.796656186031047042e-02,-9.361432105288042260e-02,-9.361432105288042260e-02,-9.361432105288045036e-02,-9.361432105288045036e-02,-9.361432105288045036e-02,-9.361432105288045036e-02,-9.361432105288045036e-02,-9.361432105288045036e-02,-9.361432105288042260e-02,-9.361432105288045036e-02,-9.361432105288045036e-02,-9.361432105288047811e-02,-9.361432105288045036e-02,-9.361432105288042260e-02,-9.361432105288045036e-02,-9.361432105288045036e-02,-9.361432105288045036e-02,-9.361432105288045036e-02,-9.361432105288045036e-02,-9.361432105288045036e-02,-9.361432105288042260e-02,-9.361432105288045036e-02,-9.361432105288045036e-02,-9.361432105288042260e-02,-9.361432105288047811e-02,-9.361432105288045036e-02,-9.361432105288042260e-02,-9.361432105288045036e-02,-9.361432105288045036e-02,-8.007800370124626421e-02,-5.941730879612047711e-02,-3.875661389099466225e-02,-1.809591898586884740e-02,2.564775919257022974e-03,2.322547082438283783e-02,4.388616572950862493e-02,6.454686063463446755e-02,8.520755553976029628e-02,1.058682504448861111e-01,1.115677524876794446e-01
1.115677524876794446e-01,1.013086488106514499e-01,6.411939798142496372e-02,2.693014715219849142e-02,-1.025910367702800863e-02,-4.744835450625448092e-02,-8.463760533548095322e-02,-9.361432105288045036e-02,-9.361432105288045036e-02,-9.361432105288045036e-02,-9.361432105288042260e-02,-3.334833297765621429e-01,-3.334833297765621429e-01,-3.334833297765621429e-01,-3.334833297765620319e-01,-3.334833297765621429e-01,-9.361432105288045036e-02,-9.361432105288045036e-02,-9.361432105288045036e-02,-9.361432105288045036e-02,-9.361432105288045036e-02,-9.361432105288045036e-02,-9.361432105288045036e-02,-9.361432105288045036e-02,-9.361432105288047811e-02,-9.361432105288047811e-02,-9.361432105288045036e-02,-9.361432105288045036e-02,-9.361432105288045036e-02,-9.361432105288045036e-02,-9.361432105288045036e-02,-9.361432105288045036e-02,-9.361432105288045036e-02,-9.361432105288045036e-02,-9.361432105288045036e-02,-9.147700778683293121e-02,-7.081631288170711636e-02,-5.015561797658132925e-02,-2.949492307145551440e-02,-8.834228166329657905e-03,1.182646673879618471e-02,3.248716164392198569e-02,5.314785654904780055e-02,7.380855145417362928e-02,9.446924635929945802e-02,1.115677524876794446e-01,1.115677524876794446e-01
1.115677524876794446e-01,8.335521737585245561e-02,4.616596654662598331e-02,8.976715717399497141e-03,-2.821253511182697515e-02,-6.540178594105347520e-02,-9.361432105288045036e-02,-9.361432105288045036e-02,-9.361432105288042260e-02,-9.361432105288045036e-02,-9.361432105288045036e-02,-3.334833297765621429e-01,-3.334833297765621429e-01,-3.334833297765621429e-01,-3.334833297765621429e-01,-3.334833297765621429e-01,-9.361432105288047811e-02,-9.361432105288045036e-02,-9.361432105288042260e-02,-9.361432105288045036e-02,-9.361432105288045036e-02,-9.361432105288045036e-02,-9.361432105288045036e-02,-9.361432105288045036e-02,-9.361432105288045036e-02,-9.361432105288045036e-02,-9.361432105288045036e-02,-9.361432105288047811e-02,-9.361432105288045036e-02,-9.361432105288042260e-02,-9.361432105288045036e-02,-9.361432105288045036e-02,-9.361432105288045036e-02,-9.361432105288042260e-02,-9.361432105288045036e-02,-8.150287921194462881e-02,-6.084218430681881395e-02,-4.018148940169299910e-02,-1.952079449656718424e-02,1.139900408558672251e-03,2.180059531368450099e-02,4.246129021881031584e-02,6.312198512393613070e-02,8.378268002906195944e-02,1.044433749341877882e-01,1.115677524876794446e-01,1.115677524876794446e-01
1.038734247299084451e-01,6.668417390068195894e-02,2.949492307145548664e-02,-7.694327757770999532e-03,-4.488357858699745795e-02,-8.207282941622395800e-02,-9.361432105288045036e-02,-9.361432105288045036e-02,-9.361432105288045036e-02,-9.361432105288045036e-02,-9.361432105288045036e-02,-3.334833297765621429e-01,-3.334833297765621429e-01,-3.334833297765621429e-01,-3.334833297765621429e-01,-3.334833297765621429e-01,-9.361432105288045036e-02,-9.361432105288045036e-02,-9.361432105288045036e-02,-9.361432105288045036e-02,-9.361432105288045036e-02,-9.361432105288047811e-02,-9.361432105288045036e-02,-9.361432105288042260e-02,-9.361432105288045036e-02,-9.361432105288045036e-02,-9.361432105288042260e-02,-9.361432105288045036e-02,-9.361432105288045036e-02,-9.361432105288045036e-02,-9.361432105288045036e-02,-9.361432105288045036e-02,-9.361432105288045036e-02,-9.361432105288042260e-02,-9.290188329753129581e-02,-7.224118839240545320e-02,-5.158049348727963834e-02,-3.091979858215382349e-02,-1.025910367702800863e-02,1.040159122809783399e-02,3.106228613322364884e-02,5.172298103834947064e-02,7.238367594347530631e-02,9.304437084860112117e-02,1.115677524876794446e-01,1.115677524876794446e-01,1.115677524876794446e-01
8.591999329510946470e-02,4.873074246588297853e-02,1.154149163665647848e-02,-2.564775919256997994e-02,-6.283701002179645223e-02,-9.361432105288045036e-02,-9.361432105288045036e-02,-9.361432105288045036e-02,-9.361432105288045036e-02,-9.361432105288045036e-02,-9.361432105288045036e-02,-3.334833297765621429e-01,-3.334833297765621429e-01,-3.334833297765621429e-01,-3.334833297765621429e-01,-3.334833297765621429e-01,-9.361432105288047811e-02,-9.361432105288047811e-02,-9.361432105288045036e-02,-9.361432105288045036e-02,-9.361432105288045036e-02,-9.361432105288045036e-02,-9.361432105288045036e-02,-9.361432105288047811e-02,-9.361432105288045036e-02,-9.361432105288047811e-02,-9.361432105288045036e-02,-9.361432105288042260e-02,-9.361432105288045036e-02,-9.361432105288045036e-02,-9.361432105288045036e-02,-9.361432105288045036e-02,-9.361432105288045036e-02,-9.361432105288045036e-02,-8.364019247799212020e-02,-6.297949757286627759e-02,-4.160636491239130819e-02,-2.094567000726552108e-02,-2.849751021396507156e-04,2.037571980298616414e-02,4.103641470811197900e-02,6.169710961323780773e-02,8.235780451836362259e-02,1.030184994234894513e-01,1.115677524876794446e-01,1.115677524876794446e-01,1.115677524876794446e-01
-1.639907070182356208e-01,-2.011799578474621486e-01,-2.383692086766886209e-01,-2.755584595059150654e-01,-3.127477103351415932e-01,-9.361432105288045036e-02,-9.361432105288045036e-02,-9.361432105288045036e-02,-9.361432105288045036e-02,-9.361432105288047811e-02,-9.361432105288045036e-02,-3.334833297765621429e-01,-3.334833297765621429e-01,-3.334833297765621429e-01,-3.334833297765621429e-01,-3.334833297765621429e-01,-9.361432105288042260e-02,-9.361432105288045036e-02,-9.361432105288045036e-02,-9.361432105288042260e-02,-9.361432105288045036e-02,-9.361432105288047811e-02,-9.361432105288045036e-02,-9.361432105288045036e-02,-9.361432105288045036e-02,-9.361432105288045036e-02,-9.361432105288045036e-02,-9.361432105288045036e-02,-9.361432105288045036e-02,-9.361432105288045036e-02,-9.361432105288047811e-02,-9.361432105288045036e-02,-9.361432105288045036e-02,-9.361432105288045036e-02,-7.366606390310379004e-02,-5.300536899797797519e-02,-3.234467409285216033e-02,-1.168397918772634547e-02,8.976715717399511019e-03,2.963741062252532588e-02,5.029810552765114767e-02,7.095880043277696947e-02,9.161949533790278433e-02,1.115677524876794446e-01,1.115677524876794446e-01,1.115677524876794446e-01,1.115677524876794446e-01
-1.649925726116953928e-01,-2.191333892822611429e-01,-2.563226401114875319e-01,-2.935118909407140597e-01,-3.268539778910550808e-01,-9.361432105288045036e-02,-9.361432105288047811e-02,-9.361432105288045036e-02,-9.361432105288042260e-02,-9.361432105288045036e-02,-9.361432105288045036e-02,-9.361432105288045036e-02,-9.361432105288045036e-02,-9.361432105288045036e-02,-9.361432105288045036e-02,-9.361432105288042260e-02,-9.361432105288045036e-02,-9.361432105288045036e-02,-9.361432105288045036e-02,-9.361432105288045036e-02,-9.361432105288042260e-02,-9.361432105288045036e-02,-9.361432105288045036e-02,-9.361432105288045036e-02,-9.361432105288042260e-02,-9.361432105288047811e-02,-9.361432105288047811e-02,-9.361432105288045036e-02,-9.361432105288045036e-02,-9.361432105288045036e-02,-9.361432105288045036e-02,-9.361432105288045036e-02,-9.361432105288045036e-02,-8.506506798869045705e-02,-6.440437308356461443e-02,-4.374367817843885509e-02,-2.308298327331301247e-02,-2.422288368187155982e-03,1.823840653693867275e-02,3.961153919741364215e-02,6.027223410253947089e-02,8.093292900766529963e-02,1.015936239127911145e-01,1.115677524876794446e-01,1.115677524876794446e-01,1.115677524876794446e-01,1.115677524876794446e-01
-1.216719043504951581e-01,-1.466383949395125008e-01,-2.209768219742271056e-01,-3.101829344158845148e-01,-3.268539778910550808e-01,-9.361432105288045036e-02,-9.361432105288045036e-02,-9.361432105288042260e-02,-9.361432105288045036e-02,-9.361432105288045036e-02,-9.361432105288045036e-02,-9.361432105288045036e-02,-9.361432105288045036e-02,-9.361432105288045036e-02,-9.361432105288045036e-02,-9.361432105288045036e-02,-9.361432105288045036e-02,-9.361432105288042260e-02,-9.361432105288045036e-02,-9.361432105288045036e-02,-9.361432105288047811e-02,-9.361432105288045036e-02,-9.361432105288045036e-02,-9.361432105288045036e-02,-9.361432105288045036e-02,-9.361432105288045036e-02,-9.361432105288045036e-02,-9.361432105288045036e-02,-9.361432105288045036e-02,-9.361432105288045036e-02,-9.361432105288045036e-02,-9.361432105288045036e-02,-9.361432105288045036e-02,-7.509093941380212689e-02,-5.443024450867631203e-02,-3.376954960355049717e-02,-1.310885469842465456e-02,7.551840206701160296e-03,2.821253511182697515e-02,4.887323001695280389e-02,6.953392492207863262e-02,9.019461982720446136e-02,1.108553147323302762e-01,1.115677524876794446e-01,1.115677524876794446e-01,1.115677524876794446e-01,1.115677524876794446e-01
-1.216719043504951581e-01,-1.216719043504951581e-01,-1.216719043504951581e-01,-1.537316033412076399e-01,-2.434987605152026113e-01,-9.361432105288045036e-02,-9.361432105288045036e-02,-9.361432105288045036e-02,-9.361432105288045036e-02,-9.361432105288045036e-02,-9.361432105288042260e-02,-9.361432105288045036e-02,-9.361432105288045036e-02,-9.361432105288045036e-02,-9.361432105288045036e-02,-9.361432105288045036e-02,-9.361432105288045036e-02,-9.361432105288045036e-02,-9.361432105288045036e-02,-9.361432105288045036e-02,-9.361432105288045036e-02,-9.361432105288045036e-02,-9.361432105288045036e-02,-9.361432105288045036e-02,-9.361432105288045036e-02,-9.361432105288045036e-02,-9.361432105288045036e-02,-9.361432105288045036e-02,-9.361432105288045036e-02,-9.361432105288045036e-02,-9.361432105288045036e-02,-9.361432105288045036e-02,-8.648994349938879389e-02,-6.582924859426292352e-02,-4.516855368913716418e-02,-2.450785878401134932e-02,-3.847163878885492827e-03,1.681353102624033591e-02,3.747422593136615077e-02,5.813492083649197256e-02,7.879561574161780824e-02,1.001687484020927776e-01,1.115677524876794446e-01,1.115677524876794446e-01,1.115677524876794446e-01,1.115677524876794446e-01,1.115677524876794446e-01
-1.216719043504951581e-01,-1.216719043504951581e-01,-1.216719043504951581e-01,-1.216719043504951581e-01,-1.216719043504951581e-01,9.233193309325195275e-02,2.564775919256995218e-03,-8.079044145659544651e-02,-9.361432105288045036e-02,-9.361432105288045036e-02,-9.361432105288045036e-02,-9.361432105288045036e-02,-9.361432105288045036e-02,-9.361432105288045036e-02,-9.361432105288045036e-02,-9.361432105288045036e-02,-9.361432105288042260e-02,-9.361432105288045036e-02,-9.361432105288047811e-02,-9.361432105288045036e-02,-9.361432105288045036e-02,-9.361432105288045036e-02,-9.361432105288045036e-02,-9.361432105288045036e-02,-9.361432105288045036e-02,-9.361432105288042260e-02,-9.361432105288045036e-02,-9.361432105288045036e-02,-9.361432105288042260e-02,-9.361432105288045036e-02,-9.361432105288045036e-02,-9.361432105288045036e-02,-7.651581492450046373e-02,-5.585512001937462112e-02,-3.519442511424883402e-02,-1.453373020912299141e-02,6.126964696002851207e-03,2.678765960112865219e-02,4.744835450625446704e-02,6.810904941138029578e-02,8.876974431650612452e-02,1.094304392216319394e-01,1.115677524876794446e-01,1.115677524876794446e-01,1.115677524876794446e-01,1.115677524876794446e-01,1.115677524876794446e-01
1.115677524876794446e-01,1.115677524876794446e-01,1.115677524876794446e-01,1.115677524876794446e-01,1.115677524876794446e-01,1.115677524876794446e-01,1.115677524876794446e-01,1.051558126895369427e-01,2.180059531368450099e-02,-6.796656186031044267e-02,-9.361432105288045036e-02,-9.361432105288045036e-02,-9.361432105288047811e-02,-9.361432105288045036e-02,-9.361432105288045036e-02,-9.361432105288045036e-02,-9.361432105288045036e-02,-9.361432105288045036e-02,-9.361432105288045036e-02,-9.361432105288042260e-02,-9.361432105288047811e-02,-9.361432105288045036e-02,-9.361432105288045036e-02,-9.361432105288045036e-02,-9.361432105288045036e-02,-9.361432105288045036e-02,-9.361432105288042260e-02,-9.361432105288045036e-02,-9.361432105288045036e-02,-9.361432105288047811e-02,-9.361432105288045036e-02,-8.791481901008713074e-02,-6.725412410496131588e-02,-4.659342919983550102e-02,-2.593273429470965841e-02,-5.272039389583815794e-03,1.538865551554199906e-02,3.604935042066781392e-02,5.671004532579363572e-02,7.737074023091947139e-02,9.803143513604528625e-02,1.115677524876794446e-01,1.115677524876794446e-01,1.115677524876794446e-01,1.115677524876794446e-01,1.115677524876794446e-01,1.115677524876794446e-01
1.115677524876794446e-01,1.115677524876794446e-01,1.115677524876794446e-01,1.115677524876794446e-01,1.115677524876794446e-01,1.115677524876794446e-01,1.115677524876794446e-01,1.115677524876794446e-01,1.115677524876794446e-01,1.115677524876794446e-01,3.462447490996949095e-02,-5.514268226402546658e-02,-9.361432105288045036e-02,-9.361432105288045036e-02,-9.361432105288042260e-02,-9.361432105288045036e-02,-9.361432105288045036e-02,-9.361432105288045036e-02,-9.361432105288045036e-02,-9.361432105288045036e-02,-9.361432105288045036e-02,-9.361432105288045036e-02,-9.361432105288045036e-02,-9.361432105288045036e-02,-9.361432105288045036e-02,-9.361432105288045036e-02,-9.361432105288045036e-02,-9.361432105288042260e-02,-9.361432105288045036e-02,-9.361432105288045036e-02,-9.361432105288045036e-02,-7.794069043519880058e-02,-5.727999553007295797e-02,-3.661930062494717086e-02,-1.595860571982132825e-02,4.702089185304514363e-03,2.536278409043032922e-02,4.602347899555613020e-02,6.668417390068195894e-02,8.734486880580780155e-02,1.080055637109336164e-01,1.115677524876794446e-01,1.115677524876794446e-01,1.115677524876794446e-01,1.115677524876794446e-01,1.115677524876794446e-01,1.115677524876794446e-01
1.115677524876794446e-01,1.115677524876794446e-01,1.115677524876794446e-01,1.115677524876794446e-01,1.115677524876794446e-01,1.115677524876794446e-01,1.115677524876794446e-01,1.115677524876794446e-01,1.115677524876794446e-01,1.115677524876794446e-01,1.115677524876794446e-01,1.115677524876794446e-01,4.744835450625448092e-02,-4.231880266774046273e-02,-9.361432105288045036e-02,-9.361432105288045036e-02,-9.361432105288045036e-02,-9.361432105288045036e-02,-9.361432105288045036e-02,-9.361432105288045036e-02,-9.361432105288042260e-02,-9.361432105288047811e-02,-9.361432105288045036e-02,-9.361432105288045036e-02,-9.361432105288042260e-02,-9.361432105288045036e-02,-9.361432105288042260e-02,-9.361432105288045036e-02,-9.361432105288045036e-02,-9.361432105288045036e-02,-8.933969452078543982e-02,-6.867899961565962497e-02,-4.801830471053381011e-02,-2.735760980540799525e-02,-6.696914900282152638e-03,1.396378000484366222e-02,3.462447490996947708e-02,5.528516981509530581e-02,7.594586472022113455e-02,9.660655962534694940e-02,1.115677524876794446e-01,1.115677524876794446e-01,1.115677524876794446e-01,1.115677524876794446e-01,1.115677524876794446e-01,1.115677524876794446e-01,1.115677524876794446e-01
1.115677524876794446e-01,1.115677524876794446e-01,1.115677524876794446e-01,1.115677524876794446e-01,1.115677524876794446e-01,1.115677524876794446e-01,1.115677524876794446e-01,1.115677524876794446e-01,1.115677524876794446e-01,1.115677524876794446e-01,1.115677524876794446e-01,1.115677524876794446e-01,1.115677524876794446e-01,1.115677524876794446e-01,6.027223410253947089e-02,-2.949492307145548664e-02,-9.361432105288045036e-02,-9.361432105288045036e-02,-9.361432105288045036e-02,-9.361432105288045036e-02,-9.361432105288045036e-02,-9.361432105288045036e-02,-9.361432105288045036e-02,-9.361432105288045036e-02,-9.361432105288045036e-02,-9.361432105288042260e-02,-9.361432105288045036e-02,-9.361432105288045036e-02,-9.361432105288045036e-02,-9.361432105288045036e-02,-7.936556594589713742e-02,-5.870487104077129481e-02,-3.804417613564547995e-02,-1.738348123051966510e-02,3.277213674606177518e-03,2.393790857973199238e-02,4.459860348485780723e-02,6.525929838998363597e-02,8.591999329510946470e-02,1.065806882002352796e-01,1.115677524876794446e-01,1.115677524876794446e-01,1.115677524876794446e-01,1.115677524876794446e-01,1.115677524876794446e-01,1.115677524876794446e-01,1.115677524876794446e-01
1.115677524876794446e-01,1.115677524876794446e-01,1.115677524876794446e-01,1.115677524876794446e-01,1.115677524876794446e-01,1.115677524876794446e-01,1.115677524876794446e-01,1.115677524876794446e-01,1.115677524876794446e-01,1.115677524876794446e-01,1.115677524876794446e-01,1.115677524876794446e-01,1.115677524876794446e-01,1.115677524876794446e-01,1.115677524876794446e-01,1.115677524876794446e-01,7.309611369882446086e-02,-1.667104347517048279e-02,-9.361432105288045036e-02,-9.361432105288045036e-02,-9.361432105288045036e-02,-9.361432105288045036e-02,-9.361432105288045036e-02,-9.361432105288042260e-02,-9.361432105288045036e-02,-9.361432105288045036e-02,-9.361432105288045036e-02,-9.361432105288045036e-02,-9.361432105288042260e-02,-9.076457003148380442e-02,-7.010387512635796181e-02,-4.944318022123214695e-02,-2.878248531610633210e-02,-8.121790410980489483e-03,1.253890449414532537e-02,3.319959939927115411e-02,5.386029430439696897e-02,7.452098920952279770e-02,9.518168411464861256e-02,1.115677524876794446e-01,1.115677524876794446e-01,1.115677524876794446e-01,1.115677524876794446e-01,1.115677524876794446e-01,1.115677524876794446e-01,1.115677524876794446e-01,1.115677524876794446e-01
