3.530305223462883168e-02,3.530305223462883168e-02,3.530305223462883168e-02,3.530305223462883168e-02,3.530305223462883168e-02,3.530305223462883168e-02,3.530305223462883168e-02,3.530305223462883168e-02,3.530305223462883168e-02,3.530305223462883168e-02,2.958495222479458342e-02,2.162933481980780503e-02,1.367371741482101971e-02,5.718100009834241326e-03,-2.237517395152537059e-03,-1.019313480013931544e-02,-1.814875220512610077e-02,-2.610436961011287915e-02,-3.381137397119382548e-02,-4.176699137618060387e-02,-4.972260878116736837e-02,-5.767822618615416064e-02,-6.563384359114095290e-02,-7.358946099612771741e-02,-7.789357431874750770e-02,-8.170046155355566164e-02,-7.607559143518609346e-02,-6.811997403019930120e-02,-6.016435662521253669e-02,-4.819778211187825123e-02,-3.530305223462884556e-02,-2.673418932134100090e-02,-1.569577017192183566e-02,-5.718100009834248265e-03,3.198821164921761273e-03,1.105499335234620684e-02,1.591123480997355677e-02,2.191109626956775150e-02,2.680048613304920890e-02,3.069542382090732074e-02,3.352961252143386167e-02,3.530305223462883168e-02,3.530305223462883168e-02,3.530305223462883168e-02,3.530305223462883168e-02,3.530305223462883168e-02,3.530305223462883168e-02
3.530305223462883168e-02,3.530305223462883168e-02,3.530305223462883168e-02,3.530305223462883168e-02,3.530305223462883168e-02,3.530305223462883168e-02,3.530305223462883168e-02,3.530305223462883168e-02,3.530305223462883168e-02,3.530305223462883168e-02,2.908772613698290890e-02,2.113210873199612705e-02,1.317649132700934866e-02,5.220873922022570279e-03,-2.734743482964208106e-03,-1.044174784404515444e-02,-1.839736524903193282e-02,-2.635298265401871121e-02,-3.430860005900550347e-02,-4.226421746399226798e-02,-5.021983486897906024e-02,-5.817545227396583862e-02,-6.613106967895263089e-02,-7.408668708393939539e-02,-8.204230448892617378e-02,-8.999792189391296604e-02,-9.198682624515965023e-02,-9.198682624515962247e-02,-9.198682624515965023e-02,-8.562233232117022474e-02,-7.713634042251767131e-02,-6.865034852386510400e-02,-6.016435662521253669e-02,-5.167836472655995550e-02,-4.345756007474028959e-02,-1.469289898337994282e-01,-1.384429979351468609e-01,-1.299570060364942936e-01,-1.214710141378417124e-01,-1.129850222391891451e-01,7.458391317175100399e-03,1.594438321582766424e-02,2.477014627448487563e-02,3.314011875264805118e-02,3.530305223462883168e-02,3.530305223462883168e-02,3.530305223462883168e-02
3.530305223462883168e-02,3.530305223462883168e-02,3.530305223462883168e-02,3.530305223462883168e-02,3.530305223462883168e-02,3.530305223462883168e-02,3.530305223462883168e-02,3.530305223462883168e-02,3.530305223462883168e-02,3.530305223462883168e-02,2.859050004917123439e-02,2.088349568809029153e-02,1.292787828310350967e-02,4.972260878116731286e-03,-2.983356526870047098e-03,-1.093897393185683242e-02,-1.889459133684361081e-02,-2.685020874183038225e-02,-3.480582614681716758e-02,-4.276144355180394596e-02,-5.071706095679072435e-02,-5.867267836177751661e-02,-6.662829576676429499e-02,-7.458391317175107338e-02,-8.253953057673783789e-02,-9.049514798172463015e-02,-9.198682624515965023e-02,-9.198682624515965023e-02,-9.198682624515965023e-02,-8.509195782750443582e-02,-7.687115317568478379e-02,-6.838516127703221648e-02,-5.989916937837962141e-02,-5.141317747972706798e-02,-4.292718558107451454e-02,-1.463986153401336532e-01,-1.379126234414810304e-01,-1.294266315428285186e-01,-1.209406396441759374e-01,-1.124546477455233701e-01,7.988765810840882386e-03,1.647475770949345317e-02,2.496074960814601701e-02,3.344674150679858432e-02,3.530305223462883168e-02,3.530305223462883168e-02,3.530305223462883168e-02
3.530305223462883168e-02,3.530305223462883168e-02,3.530305223462883168e-02,3.530305223462883168e-02,3.530305223462883168e-02,3.530305223462883168e-02,3.530305223462883168e-02,3.530305223462883168e-02,3.530305223462883168e-02,3.530305223462883168e-02,2.834188700526539886e-02,2.038626960027861701e-02,1.243065219529183862e-02,4.475034790305060239e-03,-3.480582614681718145e-03,-1.143620001966850347e-02,-1.939181742465528185e-02,-2.734743482964206718e-02,-3.530305223462883168e-02,-4.325866963961562395e-02,-5.121428704460238845e-02,-5.916990444958918072e-02,-6.712552185457595910e-02,-7.508113925956273749e-02,-8.303675666454952975e-02,-9.099237406953629426e-02,-9.198682624515965023e-02,-9.198682624515965023e-02,-9.198682624515965023e-02,-8.482677058067154829e-02,-7.634077868201899486e-02,-6.785478678336642755e-02,-5.936879488471384636e-02,-5.088280298606127905e-02,-4.239681108740871174e-02,-1.458682408464678226e-01,-1.373822489478152553e-01,-1.288962570491626880e-01,-1.204102651505101346e-01,-1.119242732518575673e-01,8.519140304506671313e-03,1.700513220315923862e-02,2.549112410181180594e-02,3.397711600046436631e-02,3.530305223462883168e-02,3.530305223462883168e-02,3.530305223462883168e-02
3.530305223462883168e-02,3.530305223462883168e-02,3.530305223462883168e-02,3.530305223462883168e-02,3.530305223462883168e-02,3.530305223462883168e-02,3.530305223462883168e-02,3.530305223462883168e-02,3.530305223462883168e-02,3.530305223462883168e-02,2.784466091745372435e-02,1.988904351246694596e-02,1.193342610748016411e-02,3.977808702493382254e-03,-3.977808702493396131e-03,-1.193342610748018146e-02,-1.988904351246695984e-02,-2.784466091745373129e-02,-3.580027832244050967e-02,-4.375589572742728806e-02,-5.171151313241406644e-02,-5.966713053740085870e-02,-6.762274794238763709e-02,-7.532975230346858342e-02,-8.328536970845536180e-02,-9.124098711344215407e-02,-9.198682624515965023e-02,-9.198682624515965023e-02,-9.198682624515965023e-02,-8.429639608700575937e-02,-7.581040418835320593e-02,-6.732441228970063862e-02,-5.883842039104805743e-02,-5.035242849239549012e-02,-4.186643659374293669e-02,-1.453378663528020476e-01,-1.368518744541494803e-01,-1.283658825554969130e-01,-1.198798906568443318e-01,-1.113938987581917922e-01,9.049514798172456770e-03,1.753550669682502408e-02,2.602149859547758792e-02,3.424230324729726077e-02,3.530305223462883168e-02,3.530305223462883168e-02,3.530305223462883168e-02
3.530305223462883168e-02,3.530305223462883168e-02,3.530305223462883168e-02,3.530305223462883168e-02,3.530305223462883168e-02,3.530305223462883168e-02,3.530305223462883168e-02,3.530305223462883168e-02,3.530305223462883168e-02,3.530305223462883168e-02,2.734743482964205330e-02,1.939181742465527145e-02,1.143620001966848959e-02,3.480582614681711207e-03,-4.475034790305067178e-03,-1.243065219529185250e-02,-2.038626960027863089e-02,-2.834188700526540927e-02,-3.629750441025218766e-02,-4.425312181523896604e-02,-5.196012617631991237e-02,-5.991574358130670463e-02,-6.787136098629346914e-02,-7.582697839128026140e-02,-8.378259579626703979e-02,-9.173821320125381817e-02,-9.198682624515965023e-02,-9.198682624515965023e-02,-9.198682624515965023e-02,-8.376602159333999820e-02,-7.528002969468743089e-02,-6.679403779603486357e-02,-5.830804589738226851e-02,-4.982205399872970120e-02,-4.133606210007714776e-02,-1.448074918591362725e-01,-1.363214999604837052e-01,-1.278355080618311379e-01,-1.193495161631785567e-01,-1.108635242645259894e-01,9.314702045005347764e-03,1.780069394365791507e-02,2.628668584231048239e-02,3.477267774096304970e-02,3.530305223462883168e-02,3.530305223462883168e-02,3.530305223462883168e-02
3.530305223462883168e-02,3.530305223462883168e-02,3.530305223462883168e-02,3.530305223462883168e-02,3.530305223462883168e-02,3.530305223462883168e-02,3.530305223462883168e-02,3.530305223462883168e-02,3.530305223462883168e-02,3.480582614681716064e-02,2.685020874183037531e-02,1.889459133684360040e-02,1.093897393185681507e-02,2.983356526870040160e-03,-4.972260878116738225e-03,-1.292787828310353049e-02,-2.088349568809030193e-02,-2.859050004917124133e-02,-3.654611745415803359e-02,-4.450173485914481197e-02,-5.245735226413157648e-02,-6.041296966911836874e-02,-6.836858707410514713e-02,-7.632420447909192551e-02,-8.427982188407870390e-02,-9.198682624515965023e-02,-9.198682624515962247e-02,-9.198682624515965023e-02,-9.172163899832676270e-02,-8.323564709967420927e-02,-7.474965520102164196e-02,-6.626366330236906077e-02,-5.777767140371649346e-02,-4.929167950506392615e-02,-4.080568760641137271e-02,-3.231969570775880540e-02,-2.409889105593912562e-02,-1.561289915728656524e-02,-7.126907258633990994e-03,1.359084640018569379e-03,9.845076538671133221e-03,1.833106843732370053e-02,2.681706033597626437e-02,3.530305223462883168e-02,3.530305223462883168e-02,3.530305223462883168e-02,3.530305223462883168e-02
3.530305223462883168e-02,3.530305223462883168e-02,3.530305223462883168e-02,3.530305223462883168e-02,3.530305223462883168e-02,3.530305223462883168e-02,3.530305223462883168e-02,3.530305223462883168e-02,3.530305223462883168e-02,3.430860005900548265e-02,2.635298265401870427e-02,1.839736524903192241e-02,1.044174784404514056e-02,2.734743482964201167e-03,-5.220873922022570279e-03,-1.317649132700936254e-02,-2.113210873199614093e-02,-2.908772613698291931e-02,-3.704334354196969770e-02,-4.499896094695648996e-02,-5.295457835194324059e-02,-6.091019575693003285e-02,-6.886581316191682511e-02,-7.682143056690361738e-02,-8.477704797189038188e-02,-9.198682624515965023e-02,-9.198682624515965023e-02,-9.198682624515965023e-02,-9.119126450466095990e-02,-8.270527260600840647e-02,-7.421928070735583916e-02,-6.573328880870328572e-02,-5.751248415688360593e-02,-4.902649225823103862e-02,-4.054050035957847131e-02,-3.205450846092590400e-02,-2.356851656227334363e-02,-1.508252466362078326e-02,-6.596532764968209006e-03,1.889459133684351366e-03,1.037545103233691868e-02,1.886144293098948599e-02,2.734743482964205330e-02,3.530305223462883168e-02,3.530305223462883168e-02,3.530305223462883168e-02,3.530305223462883168e-02
3.530305223462883168e-02,3.530305223462883168e-02,3.530305223462883168e-02,3.530305223462883168e-02,3.530305223462883168e-02,3.530305223462883168e-02,3.530305223462883168e-02,3.530305223462883168e-02,3.530305223462883168e-02,3.405998701509965060e-02,2.610436961011286527e-02,1.814875220512608689e-02,1.019313480013930504e-02,2.237517395152530120e-03,-5.718100009834255204e-03,-1.367371741482103359e-02,-2.162933481980781891e-02,-2.958495222479459730e-02,-3.754056962978136180e-02,-4.549618703476815407e-02,-5.345180443975493245e-02,-6.140742184474171084e-02,-6.936303924972848922e-02,-7.731865665471528148e-02,-8.527427405970205987e-02,-9.198682624515965023e-02,-9.198682624515965023e-02,-9.198682624515965023e-02,-9.066089001099518485e-02,-8.244008535917551894e-02,-7.395409346052296551e-02,-6.546810156187038432e-02,-5.698210966321780313e-02,-4.849611776456524970e-02,-4.001012586591269626e-02,-3.152413396726011507e-02,-2.303814206860755470e-02,-1.455215016995499433e-02,-6.066158271302420080e-03,2.419833627350140293e-03,1.090582552600270413e-02,1.939181742465527145e-02,2.787780932330783529e-02,3.530305223462883168e-02,3.530305223462883168e-02,3.530305223462883168e-02,3.530305223462883168e-02
3.530305223462883168e-02,3.530305223462883168e-02,3.530305223462883168e-02,3.530305223462883168e-02,3.530305223462883168e-02,3.530305223462883168e-02,3.530305223462883168e-02,3.530305223462883168e-02,3.530305223462883168e-02,3.356276092728797261e-02,2.560714352230119423e-02,1.765152611731441237e-02,9.695908712327633988e-03,1.740291307340852134e-03,-6.215326097645926251e-03,-1.417094350263270464e-02,-2.212656090761948996e-02,-3.008217831260626141e-02,-3.803779571759303979e-02,-4.599341312257981818e-02,-5.394903052756661044e-02,-6.190464793255338882e-02,-6.986026533754018109e-02,-7.781588274252694559e-02,-8.577150014751372398e-02,-9.198682624515965023e-02,-9.198682624515965023e-02,-9.198682624515965023e-02,-9.039570276416226957e-02,-8.190971086550973002e-02,-7.342371896685717658e-02,-6.493772706820460927e-02,-5.645173516955202808e-02,-4.796574327089946077e-02,-3.947975137224690734e-02,-3.099375947359434003e-02,-2.250776757494177271e-02,-1.402177567628920540e-02,-5.535783777636638092e-03,2.950208121015929219e-03,1.143620001966848959e-02,1.992219191832105690e-02,2.840818381697362074e-02,3.530305223462883168e-02,3.530305223462883168e-02,3.530305223462883168e-02,3.530305223462883168e-02
3.530305223462883168e-02,3.530305223462883168e-02,3.530305223462883168e-02,3.530305223462883168e-02,3.530305223462883168e-02,3.530305223462883168e-02,3.530305223462883168e-02,3.530305223462883168e-02,3.530305223462883168e-02,3.306553483947630157e-02,2.510991743448951971e-02,1.715430002950273786e-02,9.198682624515959472e-03,1.243065219529181087e-03,-6.712552185457597298e-03,-1.466816959044438262e-02,-2.262378699543116101e-02,-3.057940440041793939e-02,-3.853502180540471778e-02,-4.649063921039151004e-02,-5.444625661537828842e-02,-6.215326097645923475e-02,-7.010887838144601314e-02,-7.806449578643277765e-02,-8.602011319141955603e-02,-9.198682624515965023e-02,-9.198682624515965023e-02,-9.198682624515965023e-02,-8.986532827049652228e-02,-8.137933637184394109e-02,-7.289334447319137378e-02,-6.440735257453882034e-02,-5.592136067588625303e-02,-4.743536877723368572e-02,-3.894937687858111841e-02,-3.046338497992855110e-02,-2.197739308127598379e-02,-1.349140118262342342e-02,-5.005409283970849166e-03,3.480582614681711207e-03,1.196657451333427505e-02,2.018737916515395137e-02,2.867337106380651521e-02,3.530305223462883168e-02,3.530305223462883168e-02,3.530305223462883168e-02,3.530305223462883168e-02
3.530305223462883168e-02,3.530305223462883168e-02,3.530305223462883168e-02,3.530305223462883168e-02,3.530305223462883168e-02,3.530305223462883168e-02,3.530305223462883168e-02,3.530305223462883168e-02,3.530305223462883168e-02,3.256830875166462358e-02,2.461269134667784519e-02,1.665707394169106681e-02,8.701456536704284955e-03,7.458391317175031010e-04,-7.209778273269275284e-03,-1.516539567825605367e-02,-2.312101308324283205e-02,-3.107663048822961738e-02,-3.878363484931056371e-02,-4.673925225429732822e-02,-5.469486965928412048e-02,-6.265048706427091274e-02,-7.060610446925767725e-02,-7.856172187424446951e-02,-8.651733927923123402e-02,-9.198682624515965023e-02,-9.198682624515965023e-02,-9.198682624515965023e-02,-8.933495377683071947e-02,-8.084896187817815216e-02,-7.236296997952559873e-02,-6.387697808087303142e-02,-5.539098618222045023e-02,-4.690499428356789680e-02,-3.841900238491534336e-02,-2.993301048626276217e-02,-2.144701858761020180e-02,-1.322621393579052895e-02,-4.740222037137961641e-03,3.745769861514605670e-03,1.223176176016716951e-02,2.071775365881973335e-02,2.920374555747230066e-02,3.530305223462883168e-02,3.530305223462883168e-02,3.530305223462883168e-02,3.530305223462883168e-02
3.530305223462883168e-02,3.530305223462883168e-02,3.530305223462883168e-02,3.530305223462883168e-02,3.530305223462883168e-02,3.530305223462883168e-02,3.530305223462883168e-02,3.530305223462883168e-02,3.530305223462883168e-02,3.207108266385295253e-02,2.411546525886617415e-02,1.615984785387938882e-02,8.204230448892613908e-03,2.486130439058320540e-04,-7.458391317175114277e-03,-1.541400872216189266e-02,-2.336962612714867799e-02,-3.132524353213544943e-02,-3.928086093712222782e-02,-4.723647834210900620e-02,-5.519209574709578459e-02,-6.314771315208257685e-02,-7.110333055706936911e-02,-7.905894796205611974e-02,-8.701456536704292588e-02,-9.198682624515965023e-02,-9.198682624515965023e-02,-9.198682624515965023e-02,-8.880457928316494443e-02,-8.031858738451237711e-02,-7.183259548585980980e-02,-6.334660358720725637e-02,-5.486061168855466130e-02,-4.663980703673500927e-02,-3.815381513808242808e-02,-2.966782323942987465e-02,-2.118183134077730734e-02,-1.269583944212474697e-02,-4.209847543472172715e-03,4.276144355180387657e-03,1.276213625383295497e-02,2.124812815248551881e-02,2.973412005113808612e-02,3.530305223462883168e-02,3.530305223462883168e-02,3.530305223462883168e-02,3.530305223462883168e-02
3.530305223462883168e-02,3.530305223462883168e-02,3.530305223462883168e-02,3.530305223462883168e-02,3.530305223462883168e-02,3.530305223462883168e-02,3.530305223462883168e-02,3.530305223462883168e-02,3.530305223462883168e-02,3.157385657604128149e-02,2.361823917105449616e-02,1.591123480997355677e-02,7.955617404986774915e-03,0.000000000000000000e+00,-7.955617404986792263e-03,-1.591123480997357065e-02,-2.386685221496034903e-02,-3.182246961994712742e-02,-3.977808702493390580e-02,-4.773370442992068419e-02,-5.568932183490747645e-02,-6.364493923989425483e-02,-7.160055664488103322e-02,-7.955617404986781160e-02,-8.751179145485458999e-02,-9.198682624515965023e-02,-9.198682624515965023e-02,-9.198682624515965023e-02,-8.827420478949914162e-02,-7.978821289084658819e-02,-7.156740823902692228e-02,-6.308141634037435497e-02,-5.459542444172177378e-02,-4.610943254306922034e-02,-3.762344064441665303e-02,-2.913744874576408572e-02,-2.065145684711152535e-02,-1.216546494845896498e-02,-3.679473049806383789e-03,4.806518848846176584e-03,1.329251074749873696e-02,2.177850264615130427e-02,3.026449454480387158e-02,3.530305223462883168e-02,3.530305223462883168e-02,3.530305223462883168e-02,3.530305223462883168e-02
3.530305223462883168e-02,3.530305223462883168e-02,3.530305223462883168e-02,3.530305223462883168e-02,3.530305223462883168e-02,3.530305223462883168e-02,3.530305223462883168e-02,3.530305223462883168e-02,3.530305223462883168e-02,3.132524353213544249e-02,2.336962612714866064e-02,1.541400872216188225e-02,7.458391317175100399e-03,-4.972260878116779859e-04,-8.452843492798456371e-03,-1.640846089778524863e-02,-2.436407830277202008e-02,-3.231969570775880540e-02,-4.027531311274558379e-02,-4.823093051773236217e-02,-5.618654792271914056e-02,-6.414216532770593282e-02,-7.209778273269269733e-02,-8.005340013767948959e-02,-8.800901754266626797e-02,-9.198682624515965023e-02,-9.198682624515965023e-02,-9.198682624515965023e-02,-8.800901754266625410e-02,-7.952302564401370066e-02,-7.103703374536113335e-02,-6.255104184670856604e-02,-5.406504994805599873e-02,-4.557905804940343142e-02,-3.709306615075087799e-02,-2.860707425209831067e-02,-2.012108235344573642e-02,-1.163509045479316911e-02,-3.149098556140608740e-03,5.336893342511965510e-03,1.382288524116452241e-02,2.230887713981708972e-02,3.079486903846965704e-02,3.530305223462883168e-02,3.530305223462883168e-02,3.530305223462883168e-02,3.530305223462883168e-02
3.530305223462883168e-02,3.530305223462883168e-02,3.530305223462883168e-02,3.530305223462883168e-02,3.530305223462883168e-02,3.530305223462883168e-02,3.530305223462883168e-02,3.530305223462883168e-02,3.530305223462883168e-02,3.082801744432376798e-02,2.287240003933698612e-02,1.491678263435020774e-02,6.961165229363422413e-03,-9.944521756233490328e-04,-8.950069580610134357e-03,-1.690568698559691968e-02,-2.486130439058369113e-02,-3.281692179557046951e-02,-4.077253920055724790e-02,-4.872815660554402628e-02,-5.668377401053080467e-02,-6.463939141551759693e-02,-7.259500882050438919e-02,-8.030201318158532164e-02,-8.825763058657210003e-02,-9.198682624515965023e-02,-9.198682624515965023e-02,-9.198682624515965023e-02,-8.747864304900047905e-02,-7.899265115034791174e-02,-7.050665925169534443e-02,-6.202066735304277711e-02,-5.353467545439019593e-02,-4.504868355573764249e-02,-3.656269165708507518e-02,-2.807669975843250787e-02,-1.959070785977995444e-02,-1.110471596112738712e-02,-2.618724062474819814e-03,5.867267836177744028e-03,1.435325973483030787e-02,2.283925163348287518e-02,3.132524353213544249e-02,3.530305223462883168e-02,3.530305223462883168e-02,3.530305223462883168e-02,3.530305223462883168e-02
3.530305223462883168e-02,3.530305223462883168e-02,3.530305223462883168e-02,3.530305223462883168e-02,3.530305223462883168e-02,3.530305223462883168e-02,3.530305223462883168e-02,3.530305223462883168e-02,3.530305223462883168e-02,3.033079135651209346e-02,2.237517395152531507e-02,1.441955654653853322e-02,6.463939141551751366e-03,-1.491678263435027019e-03,-9.447295668421805404e-03,-1.740291307340858379e-02,-2.535853047839536911e-02,-3.331414788338214750e-02,-4.126976528836892588e-02,-4.922538269335570427e-02,-5.693238705443665060e-02,-6.488800445942344286e-02,-7.284362186441022124e-02,-8.079923926939698575e-02,-8.875485667438376414e-02,-9.198682624515965023e-02,-9.198682624515965023e-02,-9.198682624515965023e-02,-8.694826855533470400e-02,-7.846227665668213669e-02,-6.997628475802956938e-02,-6.149029285937700207e-02,-5.300430096072442088e-02,-4.451830906207186744e-02,-3.603231716341930013e-02,-2.754632526476673282e-02,-1.906033336611417245e-02,-1.057434146746159820e-02,-2.088349568809030887e-03,6.132455083010635022e-03,1.461844698166320233e-02,2.310443888031576964e-02,3.159043077896833696e-02,3.530305223462883168e-02,3.530305223462883168e-02,3.530305223462883168e-02,3.530305223462883168e-02
3.530305223462883168e-02,3.530305223462883168e-02,3.530305223462883168e-02,3.530305223462883168e-02,3.530305223462883168e-02,3.530305223462883168e-02,3.530305223462883168e-02,3.530305223462883168e-02,3.530305223462883168e-02,2.983356526870042241e-02,2.187794786371364056e-02,1.392233045872685870e-02,5.966713053740080319e-03,-1.988904351246698066e-03,-9.944521756233483389e-03,-1.790013916122026871e-02,-2.560714352230120117e-02,-3.356276092728797955e-02,-4.151837833227475794e-02,-4.947399573726153632e-02,-5.742961314224832858e-02,-6.538523054723512085e-02,-7.334084795222188535e-02,-8.129646535720867762e-02,-8.925208276219545600e-02,-9.198682624515965023e-02,-9.198682624515965023e-02,-9.198682624515965023e-02,-8.641789406166891507e-02,-7.793190216301634776e-02,-6.944591026436378045e-02,-6.095991836571119926e-02,-5.247392646705863195e-02,-4.398793456840606464e-02,-3.550194266975351121e-02,-2.728113801793384530e-02,-1.879514611928127105e-02,-1.030915422062871067e-02,-1.823162321976136424e-03,6.662829576676423948e-03,1.514882147532898779e-02,2.363481337398155510e-02,3.212080527263411894e-02,3.530305223462883168e-02,3.530305223462883168e-02,3.530305223462883168e-02,3.530305223462883168e-02
3.530305223462883168e-02,3.530305223462883168e-02,3.530305223462883168e-02,3.530305223462883168e-02,3.530305223462883168e-02,3.530305223462883168e-02,3.530305223462883168e-02,3.530305223462883168e-02,3.530305223462883168e-02,2.933633918088874790e-02,2.138072177590196604e-02,1.342510437091518766e-02,5.718100009834241326e-03,-2.237517395152537059e-03,-1.019313480013932238e-02,-1.814875220512610077e-02,-2.610436961011287915e-02,-3.405998701509965754e-02,-4.201560442008643592e-02,-4.997122182507321431e-02,-5.792683923006000657e-02,-6.588245663504678495e-02,-7.383807404003356334e-02,-8.179369144502034172e-02,-8.974930885000713399e-02,-9.198682624515965023e-02,-9.198682624515965023e-02,-9.198682624515965023e-02,-8.588751956800312615e-02,-7.740152766935055884e-02,-6.891553577069799152e-02,-6.042954387204541034e-02,-5.220873922022574443e-02,-4.372274732157317712e-02,-3.523675542292062368e-02,-2.675076352426805637e-02,-1.826477162561548906e-02,-9.778779726962921748e-03,-1.292787828310354437e-03,7.193204070342205936e-03,1.567919596899477325e-02,2.416518786764734056e-02,3.265117976629990787e-02,3.530305223462883168e-02,3.530305223462883168e-02,3.530305223462883168e-02,3.530305223462883168e-02
3.530305223462883168e-02,3.530305223462883168e-02,3.530305223462883168e-02,3.530305223462883168e-02,3.530305223462883168e-02,3.530305223462883168e-02,3.530305223462883168e-02,3.530305223462883168e-02,3.530305223462883168e-02,2.908772613698290890e-02,2.113210873199612705e-02,1.317649132700934866e-02,5.220873922022570279e-03,-2.734743482964208106e-03,-1.069036088795098649e-02,-1.864597829293777875e-02,-2.660159569792454326e-02,-3.455721310291133552e-02,-4.251283050789810003e-02,-5.046844791288489229e-02,-5.842406531787167068e-02,-6.637968272285846294e-02,-7.433530012784524132e-02,-8.229091753283200583e-02,-9.024653493781877034e-02,-9.198682624515965023e-02,-9.198682624515965023e-02,-9.198682624515965023e-02,-8.562233232117022474e-02,-7.713634042251767131e-02,-6.865034852386510400e-02,-6.016435662521253669e-02,-5.167836472655994162e-02,-4.319237282790740207e-02,-3.470638092925483476e-02,-2.622038903060226744e-02,-1.773439713194970707e-02,-9.248405233297132821e-03,-7.624133346445655102e-04,7.723578564007994862e-03,1.620957046266055870e-02,2.469556236131312602e-02,3.318155425996568986e-02,3.530305223462883168e-02,3.530305223462883168e-02,3.530305223462883168e-02,3.530305223462883168e-02
3.530305223462883168e-02,3.530305223462883168e-02,3.530305223462883168e-02,3.530305223462883168e-02,3.530305223462883168e-02,3.530305223462883168e-02,3.530305223462883168e-02,3.530305223462883168e-02,3.530305223462883168e-02,2.859050004917123439e-02,2.063488264418445600e-02,1.267926523919767762e-02,4.723647834210892293e-03,-3.231969570775886091e-03,-1.118758697576266448e-02,-1.914320438074944286e-02,-2.709882178573622125e-02,-3.505443919072299963e-02,-4.301005659570977802e-02,-5.096567400069655640e-02,-5.892129140568334866e-02,-6.687690881067014093e-02,-7.483252621565690543e-02,-8.278814362064369770e-02,-9.074376102563046220e-02,-9.198682624515965023e-02,-9.198682624515965023e-02,-9.198682624515965023e-02,-8.509195782750443582e-02,-7.660596592885188238e-02,-6.811997403019931507e-02,-5.963398213154673388e-02,-5.114799023289416657e-02,-4.266199833424161314e-02,-3.417600643558904583e-02,-2.569001453693648546e-02,-1.720402263828392508e-02,-8.718030739631350834e-03,-2.320388409787835227e-04,8.253953057673776850e-03,1.673994495632634416e-02,2.522593685497891147e-02,3.371192875363147878e-02,3.530305223462883168e-02,3.530305223462883168e-02,3.530305223462883168e-02,3.530305223462883168e-02
3.530305223462883168e-02,3.530305223462883168e-02,3.530305223462883168e-02,3.530305223462883168e-02,3.530305223462883168e-02,3.530305223462883168e-02,3.530305223462883168e-02,3.530305223462883168e-02,3.530305223462883168e-02,2.809327396135956334e-02,2.013765655637278496e-02,1.218203915138599963e-02,4.226421746399221246e-03,-3.729195658587557138e-03,-1.168481306357434246e-02,-1.964043046856112085e-02,-2.759604787354789923e-02,-3.555166527853467762e-02,-4.350728268352145600e-02,-5.146290008850823439e-02,-5.941851749349502665e-02,-6.712552185457597298e-02,-7.508113925956273749e-02,-8.303675666454952975e-02,-9.099237406953629426e-02,-9.198682624515965023e-02,-9.198682624515965023e-02,-9.198682624515965023e-02,-8.456158333383864689e-02,-7.607559143518609346e-02,-6.758959953653354003e-02,-5.910360763788095884e-02,-5.061761573922839152e-02,-4.213162384057582421e-02,-3.364563194192325690e-02,-2.515964004327069653e-02,-1.667364814461813616e-02,-8.187656245965561908e-03,2.983356526869984648e-04,8.784327551339565776e-03,1.727031944999212962e-02,2.549112410181180247e-02,3.397711600046436631e-02,3.530305223462883168e-02,3.530305223462883168e-02,3.530305223462883168e-02,3.530305223462883168e-02
3.530305223462883168e-02,3.530305223462883168e-02,3.530305223462883168e-02,3.530305223462883168e-02,3.530305223462883168e-02,3.530305223462883168e-02,3.530305223462883168e-02,3.530305223462883168e-02,3.530305223462883168e-02,2.759604787354788882e-02,1.964043046856110697e-02,1.168481306357432858e-02,3.729195658587550199e-03,-4.226421746399228185e-03,-1.218203915138602045e-02,-2.013765655637279189e-02,-2.809327396135956334e-02,-3.604889136634635560e-02,-4.375589572742728806e-02,-5.171151313241406644e-02,-5.966713053740085870e-02,-6.762274794238763709e-02,-7.557836534737441547e-02,-8.353398275236120774e-02,-9.148960015734795836e-02,-9.198682624515965023e-02,-9.198682624515965023e-02,-9.198682624515965023e-02,-8.403120884017287184e-02,-7.554521694152030453e-02,-6.705922504286775110e-02,-5.857323314421516991e-02,-5.008724124556260260e-02,-4.160124934691004916e-02,-3.311525744825748185e-02,-2.462926554960491454e-02,-1.614327365095235417e-02,-7.922468999132667444e-03,5.635228995198929280e-04,9.049514798172456770e-03,1.753550669682502061e-02,2.602149859547758792e-02,3.450749049413015523e-02,3.530305223462883168e-02,3.530305223462883168e-02,3.530305223462883168e-02,3.530305223462883168e-02
3.530305223462883168e-02,3.530305223462883168e-02,3.530305223462883168e-02,3.530305223462883168e-02,3.530305223462883168e-02,3.530305223462883168e-02,3.530305223462883168e-02,3.530305223462883168e-02,3.505443919072299269e-02,2.709882178573621431e-02,1.914320438074943592e-02,1.118758697576265060e-02,3.231969570775879153e-03,-4.723647834210906171e-03,-1.243065219529185250e-02,-2.038626960027863089e-02,-2.834188700526540927e-02,-3.629750441025218766e-02,-4.425312181523896604e-02,-5.220873922022574443e-02,-6.016435662521253669e-02,-6.811997403019931507e-02,-7.607559143518609346e-02,-8.403120884017287184e-02,-9.198682624515965023e-02,-9.198682624515965023e-02,-9.198682624515965023e-02,-9.198682624515965023e-02,-8.350083434650708292e-02,-7.501484244785454336e-02,-6.652885054920196217e-02,-5.804285865054938098e-02,-4.955686675189681367e-02,-4.133606210007716164e-02,-3.285007020142458045e-02,-2.436407830277202702e-02,-1.587808640411945971e-02,-7.392094505466878518e-03,1.093897393185674916e-03,9.579889291838238757e-03,1.806588119049080954e-02,2.655187308914337338e-02,3.503786498779593722e-02,3.530305223462883168e-02,3.530305223462883168e-02,3.530305223462883168e-02,3.530305223462883168e-02
3.530305223462883168e-02,3.530305223462883168e-02,3.530305223462883168e-02,3.530305223462883168e-02,3.530305223462883168e-02,3.530305223462883168e-02,3.530305223462883168e-02,3.530305223462883168e-02,3.455721310291132164e-02,2.660159569792453979e-02,1.889459133684359693e-02,1.093897393185681507e-02,2.983356526870040160e-03,-4.972260878116745164e-03,-1.292787828310353049e-02,-2.088349568809030193e-02,-2.883911309307708726e-02,-3.679473049806386564e-02,-4.475034790305063015e-02,-5.270596530803742241e-02,-6.066158271302421467e-02,-6.861720011801099306e-02,-7.657281752299775757e-02,-8.452843492798454983e-02,-9.198682624515962247e-02,-9.198682624515965023e-02,-9.198682624515965023e-02,-9.145645175149384742e-02,-8.297045985284130787e-02,-7.448446795418874056e-02,-6.626366330236907465e-02,-5.777767140371649346e-02,-4.929167950506392615e-02,-4.080568760641137271e-02,-3.231969570775880540e-02,-2.383370380910623809e-02,-1.534771191045367772e-02,-6.861720011801096530e-03,1.624271886851463842e-03,1.011026378550402421e-02,1.859625568415659499e-02,2.708224758280915884e-02,3.530305223462883168e-02,3.530305223462883168e-02,3.530305223462883168e-02,3.530305223462883168e-02,3.530305223462883168e-02
3.530305223462883168e-02,3.530305223462883168e-02,3.530305223462883168e-02,3.530305223462883168e-02,3.530305223462883168e-02,3.530305223462883168e-02,3.530305223462883168e-02,3.530305223462883168e-02,3.430860005900548265e-02,2.635298265401870427e-02,1.839736524903192588e-02,1.044174784404514403e-02,2.486130439058362174e-03,-5.469486965928409272e-03,-1.342510437091520153e-02,-2.138072177590197298e-02,-2.933633918088875137e-02,-3.729195658587554363e-02,-4.524757399086230814e-02,-5.320319139584910040e-02,-6.115880880083587878e-02,-6.911442620582265717e-02,-7.707004361080943555e-02,-8.502566101579621394e-02,-9.198682624515965023e-02,-9.198682624515965023e-02,-9.198682624515965023e-02,-9.119126450466095990e-02,-8.270527260600839259e-02,-7.421928070735585303e-02,-6.573328880870328572e-02,-5.724729691005070453e-02,-4.876130501139813722e-02,-4.027531311274558379e-02,-3.178932121409301648e-02,-2.330332931544044223e-02,-1.481733741678788879e-02,-6.331345518135314543e-03,2.154646380517245829e-03,1.064063827916981314e-02,1.912663017782238045e-02,2.761262207647494429e-02,3.530305223462883168e-02,3.530305223462883168e-02,3.530305223462883168e-02,3.530305223462883168e-02,3.530305223462883168e-02
3.530305223462883168e-02,3.530305223462883168e-02,3.530305223462883168e-02,3.530305223462883168e-02,3.530305223462883168e-02,3.530305223462883168e-02,3.530305223462883168e-02,3.530305223462883168e-02,3.381137397119381161e-02,2.585575656620703322e-02,1.790013916122024790e-02,9.944521756233469512e-03,1.988904351246691127e-03,-5.966713053740087258e-03,-1.392233045872687952e-02,-2.187794786371365791e-02,-2.983356526870042935e-02,-3.778918267368720774e-02,-4.574480007867398612e-02,-5.370041748366077838e-02,-6.165603488864755677e-02,-6.961165229363433515e-02,-7.756726969862111354e-02,-8.527427405970205987e-02,-9.198682624515965023e-02,-9.198682624515965023e-02,-9.198682624515965023e-02,-9.066089001099518485e-02,-8.217489811234261754e-02,-7.368890621369007798e-02,-6.520291431503748292e-02,-5.671692241638492948e-02,-4.823093051773236217e-02,-3.974493861907978098e-02,-3.125894672042722755e-02,-2.277295482177466024e-02,-1.428696292312209987e-02,-5.800971024469532555e-03,2.685020874183034756e-03,1.117101277283560207e-02,1.965700467148816591e-02,2.814299657014072975e-02,3.530305223462883168e-02,3.530305223462883168e-02,3.530305223462883168e-02,3.530305223462883168e-02,3.530305223462883168e-02
3.530305223462883168e-02,3.530305223462883168e-02,3.530305223462883168e-02,3.530305223462883168e-02,3.530305223462883168e-02,3.530305223462883168e-02,3.530305223462883168e-02,3.530305223462883168e-02,3.331414788338213362e-02,2.535853047839535523e-02,1.740291307340857685e-02,9.447295668421798465e-03,1.491678263435013141e-03,-6.463939141551765244e-03,-1.441955654653855057e-02,-2.237517395152532201e-02,-3.033079135651210734e-02,-3.828640876149888572e-02,-4.624202616648566411e-02,-5.419764357147244249e-02,-6.190464793255340270e-02,-6.986026533754018109e-02,-7.781588274252694559e-02,-8.577150014751372398e-02,-9.198682624515965023e-02,-9.198682624515965023e-02,-9.198682624515965023e-02,-9.013051551732940980e-02,-8.164452361867684249e-02,-7.315853172002428906e-02,-6.467253982137170787e-02,-5.618654792271914056e-02,-4.770055602406655937e-02,-3.921456412541401981e-02,-3.072857222676143862e-02,-2.224258032810888519e-02,-1.375658842945631094e-02,-5.270596530803743629e-03,3.215395367848816743e-03,1.143620001966848959e-02,1.992219191832105690e-02,2.840818381697362074e-02,3.530305223462883168e-02,3.530305223462883168e-02,3.530305223462883168e-02,3.530305223462883168e-02,3.530305223462883168e-02
3.530305223462883168e-02,3.530305223462883168e-02,3.530305223462883168e-02,3.530305223462883168e-02,3.530305223462883168e-02,3.530305223462883168e-02,3.530305223462883168e-02,3.530305223462883168e-02,3.281692179557046257e-02,2.486130439058368419e-02,1.690568698559690233e-02,8.950069580610123948e-03,9.944521756233420939e-04,-6.961165229363436291e-03,-1.491678263435021468e-02,-2.287240003933700000e-02,-3.057940440041793939e-02,-3.853502180540471778e-02,-4.649063921039149616e-02,-5.444625661537828842e-02,-6.240187402036505293e-02,-7.035749142535185907e-02,-7.831310883033862358e-02,-8.626872623532540196e-02,-9.198682624515967798e-02,-9.198682624515965023e-02,-9.198682624515965023e-02,-8.960014102366362088e-02,-8.111414912501105356e-02,-7.262815722635850013e-02,-6.414216532770593282e-02,-5.565617342905336551e-02,-4.717018153040078432e-02,-3.868418963174823089e-02,-3.019819773309566358e-02,-2.197739308127598379e-02,-1.349140118262341648e-02,-5.005409283970849166e-03,3.480582614681711207e-03,1.196657451333427852e-02,2.045256641198684236e-02,2.893855831063940620e-02,3.530305223462883168e-02,3.530305223462883168e-02,3.530305223462883168e-02,3.530305223462883168e-02,3.530305223462883168e-02
3.530305223462883168e-02,3.530305223462883168e-02,3.530305223462883168e-02,3.530305223462883168e-02,3.530305223462883168e-02,3.530305223462883168e-02,3.530305223462883168e-02,3.530305223462883168e-02,3.231969570775879153e-02,2.436407830277200620e-02,1.640846089778522782e-02,8.452843492798445962e-03,7.458391317175100399e-04,-7.209778273269275284e-03,-1.516539567825606061e-02,-2.312101308324283899e-02,-3.107663048822961738e-02,-3.903224789321639576e-02,-4.698786529820317415e-02,-5.494348270318995253e-02,-6.289910010817674479e-02,-7.085471751316350930e-02,-7.881033491815028769e-02,-8.676595232313707995e-02,-9.198682624515965023e-02,-9.198682624515965023e-02,-9.198682624515965023e-02,-8.906976652999783195e-02,-8.058377463134526464e-02,-7.209778273269271121e-02,-6.361179083404013002e-02,-5.512579893538756270e-02,-4.690499428356789680e-02,-3.841900238491534336e-02,-2.993301048626276217e-02,-2.144701858761020180e-02,-1.296102668895763449e-02,-4.475034790305060239e-03,4.010957108347493194e-03,1.249694900700006051e-02,2.098294090565262782e-02,2.946893280430519166e-02,3.530305223462883168e-02,3.530305223462883168e-02,3.530305223462883168e-02,3.530305223462883168e-02,3.530305223462883168e-02
3.530305223462883168e-02,3.530305223462883168e-02,3.530305223462883168e-02,3.530305223462883168e-02,3.530305223462883168e-02,3.530305223462883168e-02,3.530305223462883168e-02,3.530305223462883168e-02,3.182246961994711354e-02,2.411546525886617068e-02,1.615984785387938882e-02,8.204230448892613908e-03,2.486130439058320540e-04,-7.707004361080953270e-03,-1.566262176606773165e-02,-2.361823917105451004e-02,-3.157385657604129536e-02,-3.952947398102805987e-02,-4.748509138601485213e-02,-5.544070879100163052e-02,-6.339632619598840890e-02,-7.135194360097520117e-02,-7.930756100596197955e-02,-8.726317841094875793e-02,-9.198682624515965023e-02,-9.198682624515965023e-02,-9.198682624515965023e-02,-8.853939203633204302e-02,-8.031858738451237711e-02,-7.183259548585980980e-02,-6.334660358720724249e-02,-5.486061168855466130e-02,-4.637461978990210787e-02,-3.788862789124955444e-02,-2.940263599259697325e-02,-2.091664409394441981e-02,-1.243065219529184556e-02,-3.944660296639285191e-03,4.541331602013278651e-03,1.302732350066584943e-02,2.151331539931841327e-02,2.999930729797097712e-02,3.530305223462883168e-02,3.530305223462883168e-02,3.530305223462883168e-02,3.530305223462883168e-02,3.530305223462883168e-02
3.530305223462883168e-02,3.530305223462883168e-02,3.530305223462883168e-02,3.530305223462883168e-02,3.530305223462883168e-02,3.530305223462883168e-02,3.530305223462883168e-02,3.530305223462883168e-02,3.157385657604128149e-02,2.361823917105449963e-02,1.566262176606772125e-02,7.707004361080935922e-03,-2.486130439058389929e-04,-8.204230448892624317e-03,-1.615984785387940270e-02,-2.411546525886618803e-02,-3.207108266385295947e-02,-4.002670006883973786e-02,-4.798231747382651624e-02,-5.593793487881330850e-02,-6.389355228380008689e-02,-7.184916968878686527e-02,-7.980478709377365754e-02,-8.776040449876042204e-02,-9.198682624515965023e-02,-9.198682624515965023e-02,-9.198682624515965023e-02,-8.827420478949914162e-02,-7.978821289084658819e-02,-7.130222099219403475e-02,-6.281622909354146744e-02,-5.433023719488887238e-02,-4.584424529623631894e-02,-3.735825339758376551e-02,-2.887226149893119820e-02,-2.038626960027862395e-02,-1.190027770162606358e-02,-3.414285802973496264e-03,5.071706095679064108e-03,1.355769799433163142e-02,2.204368989298419873e-02,3.052968179163676257e-02,3.530305223462883168e-02,3.530305223462883168e-02,3.530305223462883168e-02,3.530305223462883168e-02,3.530305223462883168e-02
3.530305223462883168e-02,3.530305223462883168e-02,3.530305223462883168e-02,3.530305223462883168e-02,3.530305223462883168e-02,3.530305223462883168e-02,3.530305223462883168e-02,3.530305223462883168e-02,3.107663048822960350e-02,2.312101308324282511e-02,1.516539567825604673e-02,7.209778273269261406e-03,-7.458391317175169788e-04,-8.701456536704295364e-03,-1.665707394169108069e-02,-2.461269134667785213e-02,-3.256830875166463746e-02,-4.052392615665141584e-02,-4.847954356163819423e-02,-5.643516096662497261e-02,-6.439077837161176487e-02,-7.209778273269269733e-02,-8.005340013767948959e-02,-8.800901754266625410e-02,-9.198682624515965023e-02,-9.198682624515965023e-02,-9.198682624515965023e-02,-8.774383029583336657e-02,-7.925783839718079926e-02,-7.077184649852825971e-02,-6.228585459987566464e-02,-5.379986270122309733e-02,-4.531387080257053002e-02,-3.682787890391797658e-02,-2.834188700526540927e-02,-1.985589510661284196e-02,-1.136990320796027465e-02,-2.883911309307707338e-03,5.602080589344853034e-03,1.408807248799741688e-02,2.230887713981709319e-02,3.079486903846965704e-02,3.530305223462883168e-02,3.530305223462883168e-02,3.530305223462883168e-02,3.530305223462883168e-02,3.530305223462883168e-02
3.530305223462883168e-02,3.530305223462883168e-02,3.530305223462883168e-02,3.530305223462883168e-02,3.530305223462883168e-02,3.530305223462883168e-02,3.530305223462883168e-02,3.530305223462883168e-02,3.057940440041793245e-02,2.262378699543115060e-02,1.466816959044436874e-02,6.712552185457590359e-03,-1.243065219529188026e-03,-9.198682624515973349e-03,-1.715430002950275867e-02,-2.510991743448953706e-02,-3.306553483947631544e-02,-4.077253920055724790e-02,-4.872815660554402628e-02,-5.668377401053081854e-02,-6.463939141551759693e-02,-7.259500882050437531e-02,-8.055062622549115370e-02,-8.850624363047793208e-02,-9.198682624515965023e-02,-9.198682624515965023e-02,-9.198682624515965023e-02,-8.721345580216757765e-02,-7.872746390351502421e-02,-7.024147200486247078e-02,-6.175548010620988959e-02,-5.326948820755730840e-02,-4.478349630890475497e-02,-3.629750441025220153e-02,-2.781151251159962035e-02,-1.932552061294706691e-02,-1.083952871429449266e-02,-2.618724062474819814e-03,5.867267836177747498e-03,1.435325973483030787e-02,2.283925163348287518e-02,3.132524353213544249e-02,3.530305223462883168e-02,3.530305223462883168e-02,3.530305223462883168e-02,3.530305223462883168e-02,3.530305223462883168e-02
3.530305223462883168e-02,3.530305223462883168e-02,3.530305223462883168e-02,3.530305223462883168e-02,3.530305223462883168e-02,3.530305223462883168e-02,3.530305223462883168e-02,3.530305223462883168e-02,3.008217831260625794e-02,2.212656090761947608e-02,1.417094350263269770e-02,6.215326097645919312e-03,-1.740291307340859073e-03,-9.695908712327644396e-03,-1.740291307340859073e-02,-2.535853047839536911e-02,-3.331414788338214750e-02,-4.126976528836891200e-02,-4.922538269335570427e-02,-5.718100009834249653e-02,-6.513661750332927491e-02,-7.309223490831605330e-02,-8.104785231330283168e-02,-8.900346971828959619e-02,-9.198682624515962247e-02,-9.198682624515965023e-02,-9.198682624515962247e-02,-8.668308130850180260e-02,-7.819708940984922141e-02,-6.971109751119666798e-02,-6.122510561254410066e-02,-5.273911371389151947e-02,-4.425312181523895216e-02,-3.603231716341930013e-02,-2.754632526476673282e-02,-1.906033336611416551e-02,-1.057434146746159820e-02,-2.088349568809030887e-03,6.397642329843529485e-03,1.488363422849609680e-02,2.336962612714866064e-02,3.185561802580122448e-02,3.530305223462883168e-02,3.530305223462883168e-02,3.530305223462883168e-02,3.530305223462883168e-02,3.530305223462883168e-02
3.530305223462883168e-02,3.530305223462883168e-02,3.530305223462883168e-02,3.530305223462883168e-02,3.530305223462883168e-02,3.530305223462883168e-02,3.530305223462883168e-02,3.530305223462883168e-02,2.958495222479458342e-02,2.162933481980780503e-02,1.392233045872685870e-02,5.966713053740080319e-03,-1.988904351246698066e-03,-9.944521756233483389e-03,-1.790013916122026871e-02,-2.585575656620704016e-02,-3.381137397119381161e-02,-4.176699137618060387e-02,-4.972260878116738225e-02,-5.767822618615416064e-02,-6.563384359114095290e-02,-7.358946099612771741e-02,-8.154507840111449579e-02,-8.950069580610130193e-02,-9.198682624515965023e-02,-9.198682624515965023e-02,-9.198682624515962247e-02,-8.615270681483601367e-02,-7.766671491618346024e-02,-6.918072301753089293e-02,-6.095991836571121314e-02,-5.247392646705863195e-02,-4.398793456840607852e-02,-3.550194266975351121e-02,-2.701595077110094389e-02,-1.852995887244837658e-02,-1.004396697379580927e-02,-1.557975075143241961e-03,6.928016823509314942e-03,1.541400872216187878e-02,2.390000062081444610e-02,3.238599251946701341e-02,3.530305223462883168e-02,3.530305223462883168e-02,3.530305223462883168e-02,3.530305223462883168e-02,3.530305223462883168e-02
3.530305223462883168e-02,3.530305223462883168e-02,3.530305223462883168e-02,3.530305223462883168e-02,3.530305223462883168e-02,3.530305223462883168e-02,3.530305223462883168e-02,3.530305223462883168e-02,2.933633918088874443e-02,2.138072177590196604e-02,1.342510437091518766e-02,5.469486965928402333e-03,-2.486130439058376052e-03,-1.044174784404515444e-02,-1.839736524903193282e-02,-2.635298265401871814e-02,-3.430860005900548959e-02,-4.226421746399226798e-02,-5.021983486897906024e-02,-5.817545227396583862e-02,-6.613106967895261701e-02,-7.408668708393939539e-02,-8.204230448892617378e-02,-8.999792189391296604e-02,-9.198682624515965023e-02,-9.198682624515965023e-02,-9.198682624515965023e-02,-8.588751956800311227e-02,-7.740152766935055884e-02,-6.891553577069799152e-02,-6.042954387204542421e-02,-5.194355197339284302e-02,-4.345756007474028959e-02,-3.497156817608772228e-02,-2.648557627743515497e-02,-1.799958437878259460e-02,-9.513592480130027285e-03,-1.027600581477466912e-03,7.458391317175100399e-03,1.594438321582766771e-02,2.443037511448023155e-02,3.291636701313279539e-02,3.530305223462883168e-02,3.530305223462883168e-02,3.530305223462883168e-02,3.530305223462883168e-02,3.530305223462883168e-02
3.530305223462883168e-02,3.530305223462883168e-02,3.530305223462883168e-02,3.530305223462883168e-02,3.530305223462883168e-02,3.530305223462883168e-02,3.530305223462883168e-02,3.530305223462883168e-02,2.883911309307707338e-02,2.088349568809029153e-02,1.292787828310350967e-02,4.972260878116731286e-03,-2.983356526870047098e-03,-1.093897393185683242e-02,-1.889459133684361081e-02,-2.685020874183038919e-02,-3.480582614681716758e-02,-4.276144355180394596e-02,-5.071706095679072435e-02,-5.867267836177751661e-02,-6.662829576676430887e-02,-7.458391317175107338e-02,-8.253953057673785176e-02,-9.024653493781879809e-02,-9.198682624515965023e-02,-9.198682624515965023e-02,-9.198682624515965023e-02,-8.535714507433732334e-02,-7.687115317568478379e-02,-6.838516127703221648e-02,-5.989916937837963529e-02,-5.141317747972706798e-02,-4.292718558107451454e-02,-3.444119368242194723e-02,-2.595520178376937298e-02,-1.746920988511681261e-02,-8.983217986464238358e-03,-4.972260878116779859e-04,7.988765810840882386e-03,1.647475770949344970e-02,2.496074960814601701e-02,3.344674150679858432e-02,3.530305223462883168e-02,3.530305223462883168e-02,3.530305223462883168e-02,3.530305223462883168e-02,3.530305223462883168e-02
3.530305223462883168e-02,3.530305223462883168e-02,3.530305223462883168e-02,3.530305223462883168e-02,3.530305223462883168e-02,3.530305223462883168e-02,3.530305223462883168e-02,3.530305223462883168e-02,2.834188700526539886e-02,2.038626960027861701e-02,1.243065219529183515e-02,4.475034790305060239e-03,-3.480582614681718145e-03,-1.143620001966851041e-02,-1.939181742465528185e-02,-2.734743482964206718e-02,-3.530305223462883168e-02,-4.325866963961562395e-02,-5.121428704460238845e-02,-5.892129140568334866e-02,-6.687690881067014093e-02,-7.483252621565690543e-02,-8.278814362064368382e-02,-9.074376102563046220e-02,-9.198682624515965023e-02,-9.198682624515965023e-02,-9.198682624515965023e-02,-8.482677058067154829e-02,-7.634077868201899486e-02,-6.785478678336642755e-02,-5.936879488471384636e-02,-5.088280298606127905e-02,-4.239681108740872562e-02,-3.391081918875614443e-02,-2.542482729010359099e-02,-1.693883539145102368e-02,-8.452843492798456371e-03,3.314840585411094054e-05,8.253953057673776850e-03,1.673994495632634416e-02,2.522593685497891147e-02,3.371192875363147878e-02,3.530305223462883168e-02,3.530305223462883168e-02,3.530305223462883168e-02,3.530305223462883168e-02,3.530305223462883168e-02
3.530305223462883168e-02,3.530305223462883168e-02,3.530305223462883168e-02,3.530305223462883168e-02,3.530305223462883168e-02,3.530305223462883168e-02,3.530305223462883168e-02,3.530305223462883168e-02,2.784466091745372435e-02,1.988904351246694596e-02,1.193342610748016411e-02,3.977808702493382254e-03,-3.977808702493396131e-03,-1.193342610748017452e-02,-1.988904351246695290e-02,-2.759604787354789923e-02,-3.555166527853467762e-02,-4.350728268352145600e-02,-5.146290008850823439e-02,-5.941851749349502665e-02,-6.737413489848180503e-02,-7.532975230346856954e-02,-8.328536970845536180e-02,-9.124098711344215407e-02,-9.198682624515965023e-02,-9.198682624515965023e-02,-9.198682624515965023e-02,-8.429639608700577325e-02,-7.581040418835320593e-02,-6.732441228970063862e-02,-5.883842039104807131e-02,-5.035242849239549012e-02,-4.186643659374293669e-02,-3.338044469509036938e-02,-2.489445279643780207e-02,-1.667364814461813616e-02,-8.187656245965561908e-03,2.983356526869984648e-04,8.784327551339565776e-03,1.727031944999212962e-02,2.575631134864469346e-02,3.424230324729726077e-02,3.530305223462883168e-02,3.530305223462883168e-02,3.530305223462883168e-02,3.530305223462883168e-02,3.530305223462883168e-02
3.530305223462883168e-02,3.530305223462883168e-02,3.530305223462883168e-02,3.530305223462883168e-02,3.530305223462883168e-02,3.530305223462883168e-02,3.530305223462883168e-02,3.530305223462883168e-02,2.734743482964205330e-02,1.939181742465527145e-02,1.143620001966848959e-02,3.480582614681711207e-03,-4.226421746399228185e-03,-1.218203915138602045e-02,-2.013765655637279189e-02,-2.809327396135957722e-02,-3.604889136634635560e-02,-4.400450877133312011e-02,-5.196012617631991237e-02,-5.991574358130669076e-02,-6.787136098629346914e-02,-7.582697839128026140e-02,-8.378259579626703979e-02,-9.173821320125381817e-02,-9.198682624515965023e-02,-9.198682624515965023e-02,-9.198682624515965023e-02,-8.376602159333998432e-02,-7.528002969468741701e-02,-6.679403779603484970e-02,-5.830804589738226851e-02,-5.008724124556260260e-02,-4.160124934691004916e-02,-3.311525744825748185e-02,-2.462926554960491454e-02,-1.614327365095234723e-02,-7.657281752299779920e-03,8.287101463527873912e-04,9.314702045005347764e-03,1.780069394365791507e-02,2.628668584231048239e-02,3.477267774096304970e-02,3.530305223462883168e-02,3.530305223462883168e-02,3.530305223462883168e-02,3.530305223462883168e-02,3.530305223462883168e-02
3.530305223462883168e-02,3.530305223462883168e-02,3.530305223462883168e-02,3.530305223462883168e-02,3.530305223462883168e-02,3.530305223462883168e-02,3.530305223462883168e-02,3.480582614681716064e-02,2.709882178573621431e-02,1.914320438074943592e-02,1.118758697576265060e-02,3.231969570775879153e-03,-4.723647834210906171e-03,-1.267926523919769149e-02,-2.063488264418446988e-02,-2.859050004917125520e-02,-3.654611745415801971e-02,-4.450173485914479810e-02,-5.245735226413157648e-02,-6.041296966911835487e-02,-6.836858707410514713e-02,-7.632420447909192551e-02,-8.427982188407870390e-02,-9.198682624515965023e-02,-9.198682624515965023e-02,-9.198682624515962247e-02,-9.172163899832673495e-02,-8.350083434650708292e-02,-7.501484244785454336e-02,-6.652885054920194829e-02,-5.804285865054938098e-02,-4.955686675189681367e-02,-4.107087485324426024e-02,-3.258488295459169293e-02,-2.409889105593912562e-02,-1.561289915728656524e-02,-7.126907258633990994e-03,1.359084640018569379e-03,9.845076538671133221e-03,1.833106843732370053e-02,2.681706033597626437e-02,3.530305223462883168e-02,3.530305223462883168e-02,3.530305223462883168e-02,3.530305223462883168e-02,3.530305223462883168e-02,3.530305223462883168e-02
3.530305223462883168e-02,3.530305223462883168e-02,3.530305223462883168e-02,3.530305223462883168e-02,3.530305223462883168e-02,3.530305223462883168e-02,3.530305223462883168e-02,3.455721310291132164e-02,2.660159569792454326e-02,1.864597829293776141e-02,1.069036088795097608e-02,2.734743482964201167e-03,-5.220873922022577218e-03,-1.317649132700936254e-02,-2.113210873199614787e-02,-7.630464283132144809e-02,-8.426026023630818484e-02,-9.221587764129497711e-02,-1.001714950462817694e-01,-6.091019575693004673e-02,-6.886581316191682511e-02,-7.682143056690360350e-02,-8.477704797189038188e-02,-9.198682624515965023e-02,-9.198682624515967798e-02,-9.198682624515965023e-02,-9.145645175149387518e-02,-8.297045985284129399e-02,-7.448446795418875443e-02,-6.599847605553617325e-02,-5.751248415688359206e-02,-4.902649225823102475e-02,-4.054050035957847131e-02,-3.205450846092590400e-02,-2.356851656227334363e-02,-1.508252466362077632e-02,-6.596532764968209006e-03,1.889459133684351366e-03,1.037545103233691868e-02,1.886144293098948599e-02,2.734743482964205330e-02,3.530305223462883168e-02,3.530305223462883168e-02,3.530305223462883168e-02,3.530305223462883168e-02,3.530305223462883168e-02,3.530305223462883168e-02
3.530305223462883168e-02,3.530305223462883168e-02,3.530305223462883168e-02,3.530305223462883168e-02,3.530305223462883168e-02,3.530305223462883168e-02,3.530305223462883168e-02,3.405998701509965060e-02,2.610436961011286527e-02,1.814875220512608689e-02,1.019313480013930504e-02,2.237517395152530120e-03,-5.718100009834255204e-03,-1.367371741482103359e-02,-2.162933481980781891e-02,-7.680186891913308445e-02,-8.475748632411987671e-02,-9.271310372910666897e-02,-1.006687211340934335e-01,-6.140742184474171084e-02,-6.936303924972850310e-02,-7.707004361080943555e-02,-8.502566101579621394e-02,-9.198682624515965023e-02,-9.198682624515965023e-02,-9.198682624515965023e-02,-9.092607725782807238e-02,-8.244008535917551894e-02,-7.395409346052296551e-02,-6.546810156187038432e-02,-5.698210966321780313e-02,-4.849611776456524970e-02,-4.001012586591269626e-02,-3.152413396726011507e-02,-2.303814206860755470e-02,-1.455215016995499433e-02,-6.066158271302420080e-03,2.419833627350140293e-03,1.090582552600270760e-02,1.939181742465527145e-02,2.761262207647494429e-02,3.530305223462883168e-02,3.530305223462883168e-02,3.530305223462883168e-02,3.530305223462883168e-02,3.530305223462883168e-02,3.530305223462883168e-02
3.530305223462883168e-02,3.530305223462883168e-02,3.530305223462883168e-02,3.530305223462883168e-02,3.530305223462883168e-02,3.530305223462883168e-02,3.530305223462883168e-02,3.356276092728797261e-02,2.560714352230119423e-02,1.765152611731441237e-02,9.695908712327633988e-03,1.740291307340852134e-03,-6.215326097645919312e-03,-1.417094350263270464e-02,-2.212656090761948996e-02,-7.729909500694477631e-02,-8.525471241193154082e-02,-9.296171677301250102e-02,-1.009173341779992655e-01,-6.165603488864755677e-02,-6.961165229363434903e-02,-7.756726969862109966e-02,-8.552288710360789192e-02,-9.198682624515967798e-02,-9.198682624515965023e-02,-9.198682624515965023e-02,-9.039570276416229733e-02,-8.190971086550973002e-02,-7.342371896685716270e-02,-6.493772706820459539e-02,-5.645173516955202808e-02,-4.796574327089946077e-02,-3.947975137224689346e-02,-3.099375947359434003e-02,-2.250776757494177965e-02,-1.402177567628920540e-02,-5.535783777636638092e-03,2.685020874183034756e-03,1.117101277283559513e-02,1.965700467148816591e-02,2.814299657014072975e-02,3.530305223462883168e-02,3.530305223462883168e-02,3.530305223462883168e-02,3.530305223462883168e-02,3.530305223462883168e-02,3.530305223462883168e-02
3.530305223462883168e-02,3.530305223462883168e-02,3.530305223462883168e-02,3.530305223462883168e-02,3.530305223462883168e-02,3.530305223462883168e-02,3.530305223462883168e-02,3.306553483947630157e-02,2.510991743448951971e-02,1.715430002950274133e-02,9.198682624515959472e-03,1.243065219529181087e-03,-6.712552185457604237e-03,-1.466816959044438262e-02,-2.237517395152532895e-02,-7.754770805085060836e-02,-8.550332545583740063e-02,-9.345894286082416513e-02,-1.014145602658109574e-01,-6.215326097645922088e-02,-7.010887838144601314e-02,-7.806449578643279152e-02,-8.602011319141955603e-02,-9.198682624515965023e-02,-9.198682624515965023e-02,-9.198682624515965023e-02,-8.986532827049652228e-02,-8.137933637184394109e-02,-7.289334447319137378e-02,-6.440735257453880647e-02,-5.592136067588625303e-02,-4.743536877723365797e-02,-3.894937687858111841e-02,-3.072857222676143862e-02,-2.224258032810888519e-02,-1.375658842945631788e-02,-5.270596530803743629e-03,3.215395367848816743e-03,1.170138726650138059e-02,2.018737916515395137e-02,2.867337106380651521e-02,3.530305223462883168e-02,3.530305223462883168e-02,3.530305223462883168e-02,3.530305223462883168e-02,3.530305223462883168e-02,3.530305223462883168e-02
3.530305223462883168e-02,3.530305223462883168e-02,3.530305223462883168e-02,3.530305223462883168e-02,3.530305223462883168e-02,3.530305223462883168e-02,3.530305223462883168e-02,3.496120929925830567e-02,3.329860956813802259e-02,3.064155766139439047e-02,2.706774515524798530e-02,2.350947096434569464e-02,1.813321388988197239e-02,1.176250463979490110e-02,4.397343214084484253e-03,-3.962270387249278158e-03,-1.100112719283328350e-02,-2.110103210150790498e-02,-3.219538918580587550e-02,-4.428419844572720199e-02,-5.736745988127187057e-02,-7.144517349243988125e-02,-8.271045204442310783e-02,-9.198682624515965023e-02,-9.198682624515965023e-02,-9.198682624515965023e-02,-8.933495377683073335e-02,-8.084896187817815216e-02,-7.236296997952561261e-02,-6.414216532770591894e-02,-5.565617342905336551e-02,-4.717018153040078432e-02,-3.868418963174823089e-02,-3.019819773309564970e-02,-2.171220583444309626e-02,-1.322621393579052895e-02,-4.740222037137961641e-03,3.745769861514605670e-03,1.223176176016716604e-02,2.071775365881973335e-02,2.920374555747230066e-02,3.530305223462883168e-02,3.530305223462883168e-02,3.530305223462883168e-02,3.530305223462883168e-02,3.530305223462883168e-02,3.530305223462883168e-02
