0.000000000000000000e+00,0.000000000000000000e+00,0.000000000000000000e+00,0.000000000000000000e+00,0.000000000000000000e+00,0.000000000000000000e+00,0.000000000000000000e+00,0.000000000000000000e+00,0.000000000000000000e+00,0.000000000000000000e+00,0.000000000000000000e+00,0.000000000000000000e+00,0.000000000000000000e+00,0.000000000000000000e+00,0.000000000000000000e+00,-1.123259883281348603e-03,-2.056834282140805603e-02,-4.119238448000361874e-02,-4.119238448000362568e-02,-4.119238448000361874e-02,-4.119238448000361874e-02,-4.119238448000361874e-02,-4.119238448000361874e-02,-3.935343874428917643e-02,-3.420439068428872409e-02,-2.905534262428826481e-02,-2.390629456428781247e-02,-1.875724650428736012e-02,-1.379209301785835548e-02,-8.643044957857901403e-03,-3.493996897857449928e-03,0.000000000000000000e+00,0.000000000000000000e+00,0.000000000000000000e+00,0.000000000000000000e+00,0.000000000000000000e+00,0.000000000000000000e+00,0.000000000000000000e+00,0.000000000000000000e+00,0.000000000000000000e+00,0.000000000000000000e+00,0.000000000000000000e+00,0.000000000000000000e+00,0.000000000000000000e+00,0.000000000000000000e+00,0.000000000000000000e+00,0.000000000000000000e+00
0.000000000000000000e+00,0.000000000000000000e+00,0.000000000000000000e+00,0.000000000000000000e+00,0.000000000000000000e+00,0.000000000000000000e+00,0.000000000000000000e+00,0.000000000000000000e+00,0.000000000000000000e+00,0.000000000000000000e+00,0.000000000000000000e+00,0.000000000000000000e+00,0.000000000000000000e+00,0.000000000000000000e+00,-1.287262015000113086e-02,-3.122848138312774025e-02,-3.713255812500326769e-02,-3.990512246500350912e-02,-4.119238448000361874e-02,-4.119238448000361874e-02,-4.119238448000361874e-02,-4.119238448000361874e-02,-4.119238448000361874e-02,-4.119238448000361874e-02,-3.714670386143183178e-02,-3.199765580143137944e-02,-2.684860774143092710e-02,-2.169955968143047476e-02,-1.655051162143002588e-02,-1.140146356142957354e-02,-6.436310075000564561e-03,-1.287262015000113086e-03,0.000000000000000000e+00,0.000000000000000000e+00,0.000000000000000000e+00,0.000000000000000000e+00,0.000000000000000000e+00,0.000000000000000000e+00,0.000000000000000000e+00,0.000000000000000000e+00,0.000000000000000000e+00,0.000000000000000000e+00,0.000000000000000000e+00,0.000000000000000000e+00,0.000000000000000000e+00,0.000000000000000000e+00,0.000000000000000000e+00
0.000000000000000000e+00,0.000000000000000000e+00,0.000000000000000000e+00,0.000000000000000000e+00,0.000000000000000000e+00,0.000000000000000000e+00,0.000000000000000000e+00,0.000000000000000000e+00,0.000000000000000000e+00,0.000000000000000000e+00,0.000000000000000000e+00,0.000000000000000000e+00,-7.674062012500674698e-03,-2.220526975875194986e-02,-3.010212712000264260e-02,-3.287469146000288750e-02,-3.564725580000312893e-02,-3.841982014000337731e-02,-4.109336432500361458e-02,-4.119238448000361874e-02,-4.119238448000362568e-02,-4.119238448000361874e-02,-4.119238448000361874e-02,-4.119238448000361874e-02,-3.990512246500350219e-02,-3.493996897857450101e-02,-2.979092091857404520e-02,-2.464187285857358939e-02,-1.949282479857314052e-02,-1.434377673857268817e-02,-9.194728678572237565e-03,-4.045680618571783488e-03,0.000000000000000000e+00,0.000000000000000000e+00,0.000000000000000000e+00,0.000000000000000000e+00,0.000000000000000000e+00,0.000000000000000000e+00,0.000000000000000000e+00,0.000000000000000000e+00,0.000000000000000000e+00,0.000000000000000000e+00,0.000000000000000000e+00,0.000000000000000000e+00,0.000000000000000000e+00,0.000000000000000000e+00,0.000000000000000000e+00
0.000000000000000000e+00,0.000000000000000000e+00,0.000000000000000000e+00,0.000000000000000000e+00,0.000000000000000000e+00,0.000000000000000000e+00,0.000000000000000000e+00,0.000000000000000000e+00,0.000000000000000000e+00,0.000000000000000000e+00,-3.286231394062788611e-03,-1.395565309531372582e-02,-2.297267596000201681e-02,-2.574524030000226171e-02,-2.851780464000250662e-02,-3.129036898000275152e-02,-3.406293332000299295e-02,-3.683549766000324133e-02,-3.960806200000348276e-02,-4.119238448000361874e-02,-4.119238448000361874e-02,-4.119238448000361874e-02,-4.119238448000361180e-02,-4.119238448000361874e-02,-4.119238448000361874e-02,-3.769838758214617142e-02,-3.273323409571716330e-02,-2.758418603571671096e-02,-2.243513797571625862e-02,-2.971261016305747904e-01,-2.919770535705743519e-01,-2.868280055105739135e-01,-2.816789574505734750e-01,-2.798400117148590049e-01,0.000000000000000000e+00,0.000000000000000000e+00,0.000000000000000000e+00,0.000000000000000000e+00,0.000000000000000000e+00,0.000000000000000000e+00,0.000000000000000000e+00,0.000000000000000000e+00,0.000000000000000000e+00,0.000000000000000000e+00,0.000000000000000000e+00,0.000000000000000000e+00,0.000000000000000000e+00
0.000000000000000000e+00,0.000000000000000000e+00,0.000000000000000000e+00,0.000000000000000000e+00,0.000000000000000000e+00,0.000000000000000000e+00,0.000000000000000000e+00,0.000000000000000000e+00,-9.747296507813356381e-04,-7.407945345938150503e-03,-1.594224495500139865e-02,-1.871480929500164356e-02,-2.148737363500188846e-02,-2.425993797500212990e-02,-2.693348216000236717e-02,-2.970604650000260860e-02,-3.247861084000285004e-02,-3.525117518000309147e-02,-3.802373952000333984e-02,-4.079630386000358822e-02,-4.119238448000361874e-02,-4.119238448000361874e-02,-4.119238448000361874e-02,-4.119238448000361874e-02,-4.119238448000361874e-02,-4.064070075928928605e-02,-3.549165269928882677e-02,-3.034260463928837789e-02,-2.537745115285936978e-02,-3.000684148077179536e-01,-2.949193667477174596e-01,-2.897703186877170212e-01,-2.846212706277165827e-01,-2.798400117148590049e-01,0.000000000000000000e+00,0.000000000000000000e+00,0.000000000000000000e+00,0.000000000000000000e+00,0.000000000000000000e+00,0.000000000000000000e+00,0.000000000000000000e+00,0.000000000000000000e+00,0.000000000000000000e+00,0.000000000000000000e+00,0.000000000000000000e+00,0.000000000000000000e+00,0.000000000000000000e+00
0.000000000000000000e+00,0.000000000000000000e+00,0.000000000000000000e+00,0.000000000000000000e+00,0.000000000000000000e+00,0.000000000000000000e+00,0.000000000000000000e+00,-2.877773254687752795e-03,-8.354825578125734536e-03,-1.158535813500101777e-02,-1.435792247500126094e-02,-1.713048681500150411e-02,-1.990305115500174554e-02,-2.267561549500199392e-02,-2.544817983500223535e-02,-2.822074417500248372e-02,-3.089428836000271406e-02,-3.366685270000295549e-02,-3.643941704000319692e-02,-3.921198138000344530e-02,-4.119238448000361874e-02,-4.119238448000361874e-02,-4.119238448000361874e-02,-4.119238448000361874e-02,-4.119238448000361874e-02,-4.119238448000361180e-02,-3.843396587643194834e-02,-3.328491781643149600e-02,-2.813586975643104365e-02,-3.028268334112895754e-01,-2.978616799248605673e-01,-2.927126318648601289e-01,-2.875635838048596904e-01,-2.824145357448592519e-01,0.000000000000000000e+00,0.000000000000000000e+00,0.000000000000000000e+00,0.000000000000000000e+00,0.000000000000000000e+00,0.000000000000000000e+00,0.000000000000000000e+00,0.000000000000000000e+00,0.000000000000000000e+00,0.000000000000000000e+00,0.000000000000000000e+00,0.000000000000000000e+00,0.000000000000000000e+00
0.000000000000000000e+00,0.000000000000000000e+00,0.000000000000000000e+00,0.000000000000000000e+00,0.000000000000000000e+00,0.000000000000000000e+00,-1.503868604062632165e-03,-4.554927130000399615e-03,-7.327491470000643652e-03,-1.010005581000088769e-02,-1.287262015000113086e-02,-1.554616433500136813e-02,-1.831872867500160956e-02,-2.109129301500185100e-02,-2.386385735500209937e-02,-2.663642169500234080e-02,-2.940898603500258224e-02,-3.218155037500283061e-02,-3.485509456000306094e-02,-3.762765890000330932e-02,-4.040022324000355075e-02,-4.119238448000361874e-02,-1.570052772664319307e-01,-1.570052772664319307e-01,-1.570052772664319307e-01,-4.119238448000361874e-02,-4.119238448000361874e-02,-3.622723099357461757e-02,-3.107818293357415829e-02,-3.057691465884326831e-01,-3.006200985284322447e-01,-2.954710504684318062e-01,-2.905058969820027981e-01,-2.853568489220023596e-01,-3.677891471428894376e-04,0.000000000000000000e+00,0.000000000000000000e+00,0.000000000000000000e+00,0.000000000000000000e+00,0.000000000000000000e+00,0.000000000000000000e+00,0.000000000000000000e+00,0.000000000000000000e+00,0.000000000000000000e+00,0.000000000000000000e+00,0.000000000000000000e+00,0.000000000000000000e+00
0.000000000000000000e+00,0.000000000000000000e+00,0.000000000000000000e+00,0.000000000000000000e+00,0.000000000000000000e+00,0.000000000000000000e+00,-1.980403100000174040e-04,-2.970604650000261034e-03,-5.743168990000505070e-03,-8.515733330000748239e-03,-1.128829767000099141e-02,-1.406086201000123631e-02,-1.673440619500147011e-02,-1.950697053500171502e-02,-2.227953487500195645e-02,-2.505209921500220482e-02,-2.782466355500244626e-02,-3.059722789500268769e-02,-3.336979223500292913e-02,-3.614235657500317056e-02,-3.881590076000340783e-02,-4.119238448000361874e-02,-1.570052772664319307e-01,-1.570052772664319307e-01,-1.570052772664319307e-01,-4.119238448000361874e-02,-4.119238448000361874e-02,-3.916954417071772526e-02,-3.402049611071727986e-02,-3.087114597655758463e-01,-3.035624117055753524e-01,-2.984133636455749139e-01,-2.932643155855744754e-01,-2.881152675255740370e-01,-3.310102324286004830e-03,0.000000000000000000e+00,0.000000000000000000e+00,0.000000000000000000e+00,0.000000000000000000e+00,0.000000000000000000e+00,0.000000000000000000e+00,0.000000000000000000e+00,0.000000000000000000e+00,0.000000000000000000e+00,0.000000000000000000e+00,0.000000000000000000e+00,0.000000000000000000e+00
0.000000000000000000e+00,0.000000000000000000e+00,0.000000000000000000e+00,0.000000000000000000e+00,0.000000000000000000e+00,0.000000000000000000e+00,0.000000000000000000e+00,-1.386282170000121801e-03,-4.158846510000365621e-03,-6.931410850000608789e-03,-9.703975190000851958e-03,-1.247653953000109686e-02,-1.524910387000134003e-02,-1.802166821000158320e-02,-2.069521239500181700e-02,-2.346777673500206191e-02,-2.624034107500230334e-02,-2.901290541500254824e-02,-3.178546975500278621e-02,-3.455803409500302764e-02,-3.733059843500327601e-02,-4.000414262000351329e-02,-1.570052772664319307e-01,-1.570052772664319307e-01,-1.570052772664319307e-01,-4.119238448000361874e-02,-4.119238448000361874e-02,-4.119238448000361874e-02,-3.696280928786038755e-02,-3.181376122785993521e-02,-2.666471316785948287e-02,-2.151566510785903052e-02,-1.636661704785858165e-02,-1.121756898785812757e-02,-6.068520927857676099e-03,-1.103367441428668421e-03,0.000000000000000000e+00,0.000000000000000000e+00,0.000000000000000000e+00,0.000000000000000000e+00,0.000000000000000000e+00,0.000000000000000000e+00,0.000000000000000000e+00,0.000000000000000000e+00,0.000000000000000000e+00,0.000000000000000000e+00,0.000000000000000000e+00
0.000000000000000000e+00,0.000000000000000000e+00,0.000000000000000000e+00,0.000000000000000000e+00,0.000000000000000000e+00,0.000000000000000000e+00,0.000000000000000000e+00,0.000000000000000000e+00,-2.673544185000234670e-03,-5.347088370000469340e-03,-8.119652710000712509e-03,-1.089221705000095741e-02,-1.366478139000119885e-02,-1.643734573000144375e-02,-1.920991007000168865e-02,-2.198247441000193009e-02,-2.465601859500217083e-02,-2.742858293500240879e-02,-3.020114727500265023e-02,-3.297371161500289860e-02,-3.574627595500314003e-02,-3.851884029500338147e-02,-4.119238448000361874e-02,-4.119238448000361874e-02,-4.119238448000361874e-02,-4.119238448000361874e-02,-4.119238448000361874e-02,-4.119238448000361874e-02,-3.972122789143206489e-02,-3.457217983143161255e-02,-2.960702634500260097e-02,-2.445797828500214863e-02,-1.930893022500169628e-02,-1.415988216500124394e-02,-9.010834105000791600e-03,-3.861786045000339257e-03,0.000000000000000000e+00,0.000000000000000000e+00,0.000000000000000000e+00,0.000000000000000000e+00,0.000000000000000000e+00,0.000000000000000000e+00,0.000000000000000000e+00,0.000000000000000000e+00,0.000000000000000000e+00,0.000000000000000000e+00,0.000000000000000000e+00
0.000000000000000000e+00,0.000000000000000000e+00,0.000000000000000000e+00,0.000000000000000000e+00,0.000000000000000000e+00,0.000000000000000000e+00,0.000000000000000000e+00,0.000000000000000000e+00,-1.089221705000095654e-03,-3.861786045000339257e-03,-6.634350385000582426e-03,-9.307894570000817963e-03,-1.208045891000106113e-02,-1.485302325000130430e-02,-1.762558759000154920e-02,-2.039815193000179064e-02,-2.317071627000203554e-02,-2.594328061000227698e-02,-2.861682479500251425e-02,-3.138938913500276262e-02,-3.416195347500300405e-02,-3.693451781500324549e-02,-3.970708215500349386e-02,-4.119238448000361874e-02,-4.119238448000361874e-02,-4.119238448000361874e-02,-4.119238448000361874e-02,-4.119238448000361874e-02,-4.119238448000361874e-02,-3.751449300857472718e-02,-3.236544494857427484e-02,-2.721639688857381903e-02,-2.225124340214481092e-02,-1.710219534214436204e-02,-1.195314728214390623e-02,-6.804099222143453890e-03,-1.655051162143002415e-03,0.000000000000000000e+00,0.000000000000000000e+00,0.000000000000000000e+00,0.000000000000000000e+00,0.000000000000000000e+00,0.000000000000000000e+00,0.000000000000000000e+00,0.000000000000000000e+00,0.000000000000000000e+00,0.000000000000000000e+00
0.000000000000000000e+00,0.000000000000000000e+00,0.000000000000000000e+00,0.000000000000000000e+00,0.000000000000000000e+00,0.000000000000000000e+00,0.000000000000000000e+00,0.000000000000000000e+00,0.000000000000000000e+00,-2.277463565000200241e-03,-5.050027905000443844e-03,-7.822592245000687880e-03,-1.049613643000091995e-02,-1.326870077000116485e-02,-1.604126511000140975e-02,-1.881382945000165119e-02,-2.158639379000189609e-02,-2.435895813000213753e-02,-2.713152247000238590e-02,-2.990408681000262733e-02,-3.257763099500286114e-02,-3.535019533500310951e-02,-3.812275967500334400e-02,-4.089532401500359238e-02,-4.119238448000362568e-02,-4.119238448000361874e-02,-4.119238448000362568e-02,-4.119238448000361874e-02,-4.119238448000361874e-02,-4.045680618571784182e-02,-3.530775812571738947e-02,-3.015871006571693713e-02,-2.500966200571647785e-02,-1.986061394571602898e-02,-1.489546045928702434e-02,-9.746412399286570258e-03,-4.597364339286117915e-03,0.000000000000000000e+00,0.000000000000000000e+00,0.000000000000000000e+00,0.000000000000000000e+00,0.000000000000000000e+00,0.000000000000000000e+00,0.000000000000000000e+00,0.000000000000000000e+00,0.000000000000000000e+00,0.000000000000000000e+00
0.000000000000000000e+00,0.000000000000000000e+00,0.000000000000000000e+00,0.000000000000000000e+00,0.000000000000000000e+00,0.000000000000000000e+00,0.000000000000000000e+00,0.000000000000000000e+00,0.000000000000000000e+00,-6.931410850000609006e-04,-3.465705425000304395e-03,-6.238269765000547563e-03,-9.010834105000791600e-03,-1.178339844500103477e-02,-1.445694263000127031e-02,-1.722950697000151521e-02,-2.000207131000175664e-02,-2.277463565000200155e-02,-2.554719999000224298e-02,-2.831976433000249135e-02,-3.109232867000272932e-02,-3.376587285500296659e-02,-3.653843719500320802e-02,-3.931100153500345640e-02,-4.119238448000361874e-02,-4.119238448000361874e-02,-4.119238448000361874e-02,-4.119238448000361180e-02,-4.119238448000361874e-02,-4.119238448000361874e-02,-3.825007130286050411e-02,-3.310102324286005177e-02,-2.795197518285959942e-02,-2.280292712285914708e-02,-1.765387906285869474e-02,-1.268872557642968663e-02,-7.539677516429233416e-03,-2.390629456428781073e-03,0.000000000000000000e+00,0.000000000000000000e+00,0.000000000000000000e+00,0.000000000000000000e+00,0.000000000000000000e+00,0.000000000000000000e+00,0.000000000000000000e+00,0.000000000000000000e+00,0.000000000000000000e+00
0.000000000000000000e+00,0.000000000000000000e+00,0.000000000000000000e+00,0.000000000000000000e+00,0.000000000000000000e+00,0.000000000000000000e+00,0.000000000000000000e+00,0.000000000000000000e+00,0.000000000000000000e+00,0.000000000000000000e+00,-1.881382945000165379e-03,-4.653947285000408114e-03,-7.426511625000652150e-03,-1.019907596500089705e-02,-1.297164030500114022e-02,-1.574420464500138339e-02,-1.841774883000161719e-02,-2.119031317000186210e-02,-2.396287751000210353e-02,-2.673544185000234844e-02,-2.950800619000259334e-02,-3.228057053000282783e-02,-3.505313487000307621e-02,-3.772667905500331348e-02,-4.049924339500355491e-02,-4.119238448000361874e-02,-4.119238448000361874e-02,-4.119238448000361874e-02,-4.119238448000361874e-02,-4.119238448000361874e-02,-4.119238448000361874e-02,-3.604333642000316640e-02,-3.089428836000271406e-02,-2.574524030000226171e-02,-2.059619224000180937e-02,-1.544714418000135703e-02,-1.029809612000090469e-02,-5.332942633571896573e-03,-1.838945735714447188e-04,0.000000000000000000e+00,0.000000000000000000e+00,0.000000000000000000e+00,0.000000000000000000e+00,0.000000000000000000e+00,0.000000000000000000e+00,0.000000000000000000e+00,0.000000000000000000e+00
0.000000000000000000e+00,0.000000000000000000e+00,0.000000000000000000e+00,0.000000000000000000e+00,0.000000000000000000e+00,0.000000000000000000e+00,0.000000000000000000e+00,0.000000000000000000e+00,0.000000000000000000e+00,0.000000000000000000e+00,-3.960806200000348081e-04,-3.069624805000269532e-03,-5.842189145000514436e-03,-8.614753485000757605e-03,-1.138731782500099904e-02,-1.415988216500124394e-02,-1.693244650500148538e-02,-1.970501084500173375e-02,-2.237855503000196755e-02,-2.515111937000220899e-02,-2.792368371000245389e-02,-3.069624805000269532e-02,-3.346881239000294023e-02,-3.624137673000318860e-02,-3.901394107000343003e-02,-4.119238448000361874e-02,-4.119238448000361874e-02,-4.119238448000361180e-02,-4.119238448000361874e-02,-4.119238448000361874e-02,-4.119238448000361874e-02,-3.880175502357483680e-02,-3.383660153714582869e-02,-2.868755347714537635e-02,-2.353850541714492400e-02,-1.838945735714447166e-02,-1.324040929714402105e-02,-8.091361237143566976e-03,-2.942313177143115500e-03,0.000000000000000000e+00,0.000000000000000000e+00,0.000000000000000000e+00,0.000000000000000000e+00,0.000000000000000000e+00,0.000000000000000000e+00,0.000000000000000000e+00,0.000000000000000000e+00
0.000000000000000000e+00,0.000000000000000000e+00,0.000000000000000000e+00,0.000000000000000000e+00,0.000000000000000000e+00,0.000000000000000000e+00,0.000000000000000000e+00,0.000000000000000000e+00,0.000000000000000000e+00,0.000000000000000000e+00,0.000000000000000000e+00,-1.584322480000139232e-03,-4.356886820000382618e-03,-7.030431005000618155e-03,-9.802995345000861324e-03,-1.257555968500110276e-02,-1.534812402500134593e-02,-1.812068836500159083e-02,-2.089325270500183573e-02,-2.366581704500208064e-02,-2.633936123000231444e-02,-2.911192557000255934e-02,-3.188448991000279731e-02,-3.465705425000304568e-02,-3.742961859000328712e-02,-4.020218293000352855e-02,-4.119238448000361874e-02,-4.119238448000361874e-02,-4.119238448000361874e-02,-4.119238448000361874e-02,-4.119238448000361874e-02,-4.119238448000361180e-02,-3.659502014071750603e-02,-3.144597208071704675e-02,-2.648081859428804211e-02,-2.133177053428758629e-02,-1.618272247428713395e-02,-1.103367441428668334e-02,-5.884626354286231001e-03,-7.355782942857788751e-04,0.000000000000000000e+00,0.000000000000000000e+00,0.000000000000000000e+00,0.000000000000000000e+00,0.000000000000000000e+00,0.000000000000000000e+00,0.000000000000000000e+00
0.000000000000000000e+00,0.000000000000000000e+00,0.000000000000000000e+00,0.000000000000000000e+00,0.000000000000000000e+00,0.000000000000000000e+00,0.000000000000000000e+00,0.000000000000000000e+00,0.000000000000000000e+00,0.000000000000000000e+00,0.000000000000000000e+00,0.000000000000000000e+00,-2.772564340000243602e-03,-5.545128680000487205e-03,-8.218672865000721875e-03,-1.099123720500096504e-02,-1.376380154500120995e-02,-1.653636588500145138e-02,-1.930893022500169628e-02,-2.208149456500194119e-02,-2.485405890500218262e-02,-2.752760309000241989e-02,-3.030016743000266133e-02,-3.307273177000290276e-02,-3.584529611000314420e-02,-3.861786045000339257e-02,-4.119238448000361874e-02,-4.119238448000361874e-02,-4.119238448000361874e-02,-4.119238448000361874e-02,-4.119238448000361874e-02,-4.119238448000361874e-02,-3.953733331786062066e-02,-3.438828525786016832e-02,-2.923923719785971598e-02,-2.409018913785925670e-02,-1.912503565143024858e-02,-1.397598759142979971e-02,-8.826939531429347369e-03,-3.677891471428894592e-03,0.000000000000000000e+00,0.000000000000000000e+00,0.000000000000000000e+00,0.000000000000000000e+00,0.000000000000000000e+00,0.000000000000000000e+00,0.000000000000000000e+00
0.000000000000000000e+00,0.000000000000000000e+00,0.000000000000000000e+00,0.000000000000000000e+00,0.000000000000000000e+00,0.000000000000000000e+00,0.000000000000000000e+00,0.000000000000000000e+00,0.000000000000000000e+00,0.000000000000000000e+00,0.000000000000000000e+00,0.000000000000000000e+00,-1.188241860000104370e-03,-3.960806200000348623e-03,-6.733370540000591792e-03,-9.505934880000834961e-03,-1.217947906500107050e-02,-1.495204340500131540e-02,-1.772460774500155684e-02,-2.049717208500180174e-02,-2.326973642500204317e-02,-2.604230076500228808e-02,-2.881486510500253298e-02,-3.148840929000276678e-02,-3.426097363000300822e-02,-3.703353797000324965e-02,-3.980610231000349108e-02,-4.119238448000361874e-02,-4.119238448000361874e-02,-4.119238448000361874e-02,-4.119238448000361874e-02,-4.119238448000361874e-02,-4.119238448000361180e-02,-3.733059843500328295e-02,-3.218155037500282367e-02,-2.703250231500237133e-02,-2.188345425500192246e-02,-1.691830076857291781e-02,-1.176925270857246200e-02,-6.620204648572010526e-03,-1.471156588571557750e-03,0.000000000000000000e+00,0.000000000000000000e+00,0.000000000000000000e+00,0.000000000000000000e+00,0.000000000000000000e+00,0.000000000000000000e+00
0.000000000000000000e+00,0.000000000000000000e+00,0.000000000000000000e+00,0.000000000000000000e+00,0.000000000000000000e+00,0.000000000000000000e+00,0.000000000000000000e+00,0.000000000000000000e+00,0.000000000000000000e+00,0.000000000000000000e+00,0.000000000000000000e+00,0.000000000000000000e+00,0.000000000000000000e+00,-2.376483720000208740e-03,-5.149048060000452343e-03,-7.921612400000695511e-03,-1.069417674000094041e-02,-1.346674108000118358e-02,-1.614028526500141739e-02,-1.891284960500166229e-02,-2.168541394500190372e-02,-2.445797828500214863e-02,-2.723054262500239353e-02,-3.000310696500263496e-02,-3.277567130500287640e-02,-3.544921549000311367e-02,-3.822177983000335511e-02,-4.099434417000360348e-02,-4.119238448000361874e-02,-4.119238448000361874e-02,-4.119238448000361874e-02,-4.119238448000361874e-02,-4.119238448000361874e-02,-4.027291161214639759e-02,-3.512386355214593830e-02,-2.997481549214549290e-02,-2.482576743214503709e-02,-1.967671937214458475e-02,-1.452767131214413414e-02,-9.562517825715126027e-03,-4.413469765714673684e-03,0.000000000000000000e+00,0.000000000000000000e+00,0.000000000000000000e+00,0.000000000000000000e+00,0.000000000000000000e+00,0.000000000000000000e+00
0.000000000000000000e+00,0.000000000000000000e+00,0.000000000000000000e+00,0.000000000000000000e+00,0.000000000000000000e+00,0.000000000000000000e+00,0.000000000000000000e+00,0.000000000000000000e+00,0.000000000000000000e+00,0.000000000000000000e+00,0.000000000000000000e+00,0.000000000000000000e+00,0.000000000000000000e+00,-7.921612400000696162e-04,-3.564725580000313761e-03,-6.337289920000556930e-03,-9.109854260000800966e-03,-1.188241860000104587e-02,-1.465498294000128730e-02,-1.742754728000153047e-02,-2.010109146500176427e-02,-2.287365580500200918e-02,-2.564622014500225061e-02,-2.841878448500249899e-02,-3.119134882500274042e-02,-3.396391316500298185e-02,-3.673647750500322329e-02,-3.941002169000346056e-02,-4.119238448000361874e-02,-4.119238448000361874e-02,-4.119238448000361874e-02,-4.119238448000361874e-02,-4.119238448000361874e-02,-4.119238448000361874e-02,-3.806617672928905294e-02,-3.291712866928860753e-02,-2.776808060928815172e-02,-2.261903254928770285e-02,-1.746998448928725051e-02,-1.232093642928679469e-02,-7.171888369286344087e-03,-2.206734882857336842e-03,0.000000000000000000e+00,0.000000000000000000e+00,0.000000000000000000e+00,0.000000000000000000e+00,0.000000000000000000e+00
0.000000000000000000e+00,0.000000000000000000e+00,0.000000000000000000e+00,0.000000000000000000e+00,0.000000000000000000e+00,0.000000000000000000e+00,0.000000000000000000e+00,0.000000000000000000e+00,0.000000000000000000e+00,0.000000000000000000e+00,0.000000000000000000e+00,0.000000000000000000e+00,0.000000000000000000e+00,0.000000000000000000e+00,-1.980403100000174312e-03,-4.752967440000418348e-03,-7.525531780000661516e-03,-1.029809612000090469e-02,-1.307066046000114959e-02,-1.584322480000139102e-02,-1.861578914000163593e-02,-2.128933332500186973e-02,-2.406189766500211463e-02,-2.683446200500235954e-02,-2.960702634500260097e-02,-3.237959068500284587e-02,-3.515215502500308731e-02,-3.792471936500332874e-02,-4.069728370500357018e-02,-4.119238448000361874e-02,-4.119238448000361874e-02,-4.119238448000361874e-02,-4.119238448000361874e-02,-4.119238448000361874e-02,-4.082459533286073028e-02,-3.567554727286027794e-02,-3.071039378643126982e-02,-2.556134572643081748e-02,-2.041229766643036514e-02,-1.526324960642991280e-02,-1.011420154642945872e-02,-4.965153486429007244e-03,0.000000000000000000e+00,0.000000000000000000e+00,0.000000000000000000e+00,0.000000000000000000e+00,0.000000000000000000e+00
0.000000000000000000e+00,0.000000000000000000e+00,0.000000000000000000e+00,0.000000000000000000e+00,0.000000000000000000e+00,0.000000000000000000e+00,0.000000000000000000e+00,0.000000000000000000e+00,0.000000000000000000e+00,0.000000000000000000e+00,0.000000000000000000e+00,0.000000000000000000e+00,0.000000000000000000e+00,0.000000000000000000e+00,-4.951007750000434695e-04,-3.267665115000287397e-03,-5.941209300000522067e-03,-8.713773640000765236e-03,-1.148633798000101014e-02,-1.425890232000125331e-02,-1.703146666000149301e-02,-1.980403100000174138e-02,-2.257659534000198281e-02,-2.525013952500221662e-02,-2.802270386500246152e-02,-3.079526820500270295e-02,-3.356783254500295133e-02,-3.634039688500319276e-02,-3.911296122500343420e-02,-4.119238448000361874e-02,-4.119238448000361874e-02,-4.119238448000361180e-02,-4.119238448000361874e-02,-4.119238448000361874e-02,-4.119238448000361874e-02,-3.861786045000339257e-02,-3.346881239000294023e-02,-2.850365890357393212e-02,-2.335461084357347977e-02,-1.820556278357302743e-02,-1.305651472357257509e-02,-7.907466663572122745e-03,-2.758418603571670836e-03,0.000000000000000000e+00,0.000000000000000000e+00,0.000000000000000000e+00,0.000000000000000000e+00
0.000000000000000000e+00,0.000000000000000000e+00,0.000000000000000000e+00,0.000000000000000000e+00,0.000000000000000000e+00,0.000000000000000000e+00,0.000000000000000000e+00,0.000000000000000000e+00,0.000000000000000000e+00,0.000000000000000000e+00,0.000000000000000000e+00,0.000000000000000000e+00,0.000000000000000000e+00,0.000000000000000000e+00,0.000000000000000000e+00,-1.683342635000147948e-03,-4.455906975000391117e-03,-7.228471315000634285e-03,-9.902015500000870690e-03,-1.267457984000111386e-02,-1.544714418000135703e-02,-1.821970852000160193e-02,-2.099227286000184337e-02,-2.376483720000208827e-02,-2.653740154000233317e-02,-2.921094572500256698e-02,-3.198351006500280841e-02,-3.475607440500304984e-02,-3.752863874500329822e-02,-4.030120308500353965e-02,-4.119238448000361874e-02,-4.119238448000361874e-02,-4.119238448000361874e-02,-4.119238448000361874e-02,-4.119238448000361874e-02,-4.119238448000361874e-02,-3.641112556714605486e-02,-3.126207750714560252e-02,-2.611302944714515017e-02,-2.114787596071614206e-02,-1.599882790071568972e-02,-1.084977984071523738e-02,-5.700731780714786770e-03,-5.516837207143341021e-04,0.000000000000000000e+00,0.000000000000000000e+00,0.000000000000000000e+00
0.000000000000000000e+00,0.000000000000000000e+00,0.000000000000000000e+00,0.000000000000000000e+00,0.000000000000000000e+00,0.000000000000000000e+00,0.000000000000000000e+00,0.000000000000000000e+00,0.000000000000000000e+00,0.000000000000000000e+00,0.000000000000000000e+00,0.000000000000000000e+00,0.000000000000000000e+00,0.000000000000000000e+00,0.000000000000000000e+00,-9.902015500000870202e-05,-2.871584495000252535e-03,-5.644148835000494836e-03,-8.416713175000740607e-03,-1.118927751500098204e-02,-1.386282170000121758e-02,-2.757125226469349100e-01,-2.784850869869351375e-01,-2.812576513269353651e-01,-2.495307906000219025e-02,-2.772564340000243863e-02,-3.049820774000268353e-02,-3.317175192500291386e-02,-3.594431626500316224e-02,-3.871688060500340367e-02,-4.119238448000361874e-02,-4.119238448000361874e-02,-4.119238448000361180e-02,-4.119238448000361874e-02,-4.119238448000361874e-02,-4.119238448000361874e-02,-3.935343874428917643e-02,-3.420439068428872409e-02,-2.905534262428826481e-02,-2.390629456428781247e-02,-1.875724650428736012e-02,-1.379209301785835548e-02,-8.643044957857901403e-03,-3.493996897857449494e-03,0.000000000000000000e+00,0.000000000000000000e+00,0.000000000000000000e+00
0.000000000000000000e+00,0.000000000000000000e+00,0.000000000000000000e+00,0.000000000000000000e+00,0.000000000000000000e+00,0.000000000000000000e+00,0.000000000000000000e+00,0.000000000000000000e+00,0.000000000000000000e+00,0.000000000000000000e+00,0.000000000000000000e+00,0.000000000000000000e+00,0.000000000000000000e+00,0.000000000000000000e+00,0.000000000000000000e+00,0.000000000000000000e+00,-1.287262015000113086e-03,-4.059826355000356254e-03,-6.832390695000601158e-03,-9.604955035000844327e-03,-1.237751937500108750e-02,-2.742272203219347504e-01,-2.769007645069350154e-01,-2.796733288469352430e-01,-2.336875658000205427e-02,-2.614132092000229918e-02,-2.891388526000254061e-02,-3.168644960000278205e-02,-3.445901394000302348e-02,-3.713255812500326075e-02,-3.990512246500350219e-02,-4.119238448000361874e-02,-4.119238448000361874e-02,-4.119238448000361874e-02,-4.119238448000361874e-02,-4.119238448000362568e-02,-4.119238448000361874e-02,-3.714670386143183872e-02,-3.199765580143137944e-02,-2.684860774143092710e-02,-2.169955968143047823e-02,-1.655051162143002588e-02,-1.140146356142957354e-02,-6.436310075000564561e-03,-1.287262015000113086e-03,0.000000000000000000e+00,0.000000000000000000e+00
0.000000000000000000e+00,0.000000000000000000e+00,0.000000000000000000e+00,0.000000000000000000e+00,0.000000000000000000e+00,0.000000000000000000e+00,0.000000000000000000e+00,0.000000000000000000e+00,0.000000000000000000e+00,0.000000000000000000e+00,0.000000000000000000e+00,0.000000000000000000e+00,0.000000000000000000e+00,0.000000000000000000e+00,0.000000000000000000e+00,0.000000000000000000e+00,0.000000000000000000e+00,-2.475503875000217673e-03,-5.248068215000461709e-03,-8.020632555000704877e-03,-1.079319689500094805e-02,-2.726428978419346283e-01,-2.754154621819348558e-01,-2.780890063669351209e-01,-2.178443410000191482e-02,-2.455699844000215973e-02,-2.732956278000240463e-02,-3.010212712000264607e-02,-3.287469146000288056e-02,-3.564725580000313587e-02,-3.841982014000337037e-02,-4.109336432500361458e-02,-4.119238448000361874e-02,-4.119238448000361874e-02,-4.119238448000361874e-02,-4.119238448000361874e-02,-4.119238448000361874e-02,-3.990512246500350912e-02,-3.493996897857450101e-02,-2.979092091857404520e-02,-2.464187285857359286e-02,-1.949282479857314052e-02,-1.434377673857268991e-02,-9.194728678572235830e-03,-4.045680618571783488e-03,0.000000000000000000e+00,0.000000000000000000e+00
0.000000000000000000e+00,0.000000000000000000e+00,0.000000000000000000e+00,0.000000000000000000e+00,0.000000000000000000e+00,0.000000000000000000e+00,0.000000000000000000e+00,0.000000000000000000e+00,0.000000000000000000e+00,0.000000000000000000e+00,0.000000000000000000e+00,0.000000000000000000e+00,0.000000000000000000e+00,0.000000000000000000e+00,-2.258846570112147401e-01,-2.258846570112147401e-01,-2.258846570112147401e-01,-2.268748585612148372e-01,-2.295484027462150745e-01,-6.436310075000565428e-03,-9.208874415000808597e-03,-1.198143875500105350e-02,-1.475400309500129493e-02,-1.752656743500153810e-02,-2.029913177500178301e-02,-2.297267596000202028e-02,-2.574524030000226171e-02,-2.851780464000250662e-02,-3.129036898000274458e-02,-3.406293332000299295e-02,-3.683549766000323439e-02,-3.960806200000348276e-02,-4.119238448000361874e-02,-4.119238448000361874e-02,-4.119238448000361874e-02,-4.119238448000362568e-02,-4.119238448000361874e-02,-4.119238448000361874e-02,-3.769838758214617142e-02,-3.273323409571716330e-02,-2.758418603571671096e-02,-2.243513797571625862e-02,-1.728608991571580281e-02,-1.213704185571535046e-02,-6.987993795714899856e-03,-1.838945735714447296e-03,0.000000000000000000e+00
0.000000000000000000e+00,0.000000000000000000e+00,0.000000000000000000e+00,0.000000000000000000e+00,0.000000000000000000e+00,0.000000000000000000e+00,0.000000000000000000e+00,0.000000000000000000e+00,0.000000000000000000e+00,0.000000000000000000e+00,0.000000000000000000e+00,0.000000000000000000e+00,0.000000000000000000e+00,0.000000000000000000e+00,-2.258846570112147401e-01,-2.258846570112147401e-01,-2.258846570112147401e-01,-2.258846570112147401e-01,-2.280631004212149426e-01,-4.951007750000435345e-03,-7.624551935000670015e-03,-1.039711627500091405e-02,-1.316968061500115722e-02,-1.594224495500139865e-02,-1.871480929500164009e-02,-2.148737363500188499e-02,-2.425993797500213336e-02,-2.693348216000236717e-02,-2.970604650000261207e-02,-3.247861084000285004e-02,-3.525117518000309147e-02,-3.802373952000333984e-02,-4.079630386000358128e-02,-4.119238448000361874e-02,-4.119238448000361874e-02,-4.119238448000361874e-02,-4.119238448000361874e-02,-4.119238448000361874e-02,-4.064070075928928605e-02,-3.549165269928884064e-02,-3.034260463928837789e-02,-2.537745115285936978e-02,-2.022840309285892091e-02,-1.507935503285846857e-02,-9.930306972858014489e-03,-4.781258912857562146e-03,0.000000000000000000e+00
0.000000000000000000e+00,0.000000000000000000e+00,0.000000000000000000e+00,0.000000000000000000e+00,0.000000000000000000e+00,0.000000000000000000e+00,0.000000000000000000e+00,0.000000000000000000e+00,0.000000000000000000e+00,0.000000000000000000e+00,0.000000000000000000e+00,0.000000000000000000e+00,0.000000000000000000e+00,0.000000000000000000e+00,-2.258846570112147401e-01,-2.258846570112147401e-01,-2.258846570112147401e-01,-2.258846570112147401e-01,-2.264787779412147928e-01,-3.366685270000295896e-03,-6.139249610000539065e-03,-8.911813950000783968e-03,-1.158535813500101777e-02,-1.435792247500126094e-02,-1.713048681500150411e-02,-1.990305115500174901e-02,-2.267561549500199045e-02,-2.544817983500223535e-02,-2.822074417500247678e-02,-3.089428836000271406e-02,-3.366685270000295549e-02,-3.643941704000319692e-02,-3.921198138000344530e-02,-4.119238448000361874e-02,-4.119238448000361874e-02,-4.119238448000361874e-02,-4.119238448000361874e-02,-4.119238448000362568e-02,-4.119238448000361874e-02,-3.843396587643195528e-02,-3.328491781643149600e-02,-2.813586975643104365e-02,-2.298682169643058784e-02,-1.802166821000158320e-02,-1.287262015000113086e-02,-7.723572090000677647e-03,-2.574524030000226171e-03
0.000000000000000000e+00,0.000000000000000000e+00,0.000000000000000000e+00,0.000000000000000000e+00,0.000000000000000000e+00,0.000000000000000000e+00,0.000000000000000000e+00,0.000000000000000000e+00,0.000000000000000000e+00,0.000000000000000000e+00,0.000000000000000000e+00,0.000000000000000000e+00,0.000000000000000000e+00,0.000000000000000000e+00,-2.258846570112147401e-01,-2.258846570112147401e-01,-2.258846570112147401e-01,-2.258846570112147401e-01,-2.258846570112147401e-01,-1.782362790000156664e-03,-4.554927130000400483e-03,-7.327491470000644519e-03,-1.010005581000088595e-02,-1.277359999500112323e-02,-1.554616433500136813e-02,-1.831872867500160956e-02,-2.109129301500185100e-02,-2.386385735500209937e-02,-2.663642169500234080e-02,-2.940898603500258224e-02,-3.218155037500282367e-02,-3.485509456000306094e-02,-3.762765890000330932e-02,-4.040022324000355075e-02,-4.119238448000361874e-02,-4.119238448000361874e-02,-4.119238448000361874e-02,-4.119238448000361874e-02,-4.119238448000361874e-02,-4.119238448000361180e-02,-3.622723099357461757e-02,-3.107818293357415829e-02,-2.592913487357370594e-02,-2.078008681357325360e-02,-1.563103875357280126e-02,-1.066588526714379488e-02,-5.516837207143341672e-03
0.000000000000000000e+00,0.000000000000000000e+00,0.000000000000000000e+00,0.000000000000000000e+00,0.000000000000000000e+00,0.000000000000000000e+00,0.000000000000000000e+00,0.000000000000000000e+00,0.000000000000000000e+00,0.000000000000000000e+00,0.000000000000000000e+00,0.000000000000000000e+00,0.000000000000000000e+00,0.000000000000000000e+00,-2.258846570112147401e-01,-2.258846570112147401e-01,-2.258846570112147401e-01,-2.258846570112147401e-01,-2.258846570112147401e-01,-1.980403100000174040e-04,-2.970604650000261034e-03,-5.743168990000505070e-03,-8.515733330000748239e-03,-1.128829767000099314e-02,-1.406086201000123631e-02,-1.673440619500147011e-02,-1.950697053500171502e-02,-2.227953487500195645e-02,-2.505209921500220135e-02,-2.782466355500244626e-02,-3.059722789500268769e-02,-3.336979223500292913e-02,-3.604333642000316640e-02,-3.881590076000340783e-02,-4.119238448000361874e-02,-4.119238448000361874e-02,-4.119238448000361874e-02,-4.119238448000361874e-02,-4.119238448000361874e-02,-4.119238448000361874e-02,-3.916954417071773220e-02,-3.402049611071727986e-02,-2.887144805071682405e-02,-2.372239999071636476e-02,-1.857335193071591936e-02,-1.342430387071546528e-02,-8.459150384286457172e-03
0.000000000000000000e+00,0.000000000000000000e+00,0.000000000000000000e+00,0.000000000000000000e+00,0.000000000000000000e+00,0.000000000000000000e+00,0.000000000000000000e+00,0.000000000000000000e+00,0.000000000000000000e+00,0.000000000000000000e+00,0.000000000000000000e+00,0.000000000000000000e+00,0.000000000000000000e+00,0.000000000000000000e+00,0.000000000000000000e+00,0.000000000000000000e+00,0.000000000000000000e+00,0.000000000000000000e+00,0.000000000000000000e+00,0.000000000000000000e+00,-1.386282170000121801e-03,-4.158846510000365621e-03,-6.931410850000608789e-03,-9.703975190000851958e-03,-1.247653953000109686e-02,-1.524910387000133830e-02,-1.802166821000158320e-02,-2.069521239500182047e-02,-2.346777673500206191e-02,-2.624034107500230334e-02,-2.901290541500254824e-02,-3.178546975500279315e-02,-3.455803409500302764e-02,-3.733059843500327601e-02,-4.000414262000351329e-02,-4.119238448000361874e-02,-4.119238448000361874e-02,-4.119238448000361874e-02,-4.119238448000361874e-02,-4.119238448000361874e-02,-4.119238448000361874e-02,-3.696280928786038755e-02,-3.181376122785993521e-02,-2.666471316785948287e-02,-2.151566510785903399e-02,-1.636661704785858165e-02,-1.121756898785812757e-02
0.000000000000000000e+00,0.000000000000000000e+00,0.000000000000000000e+00,0.000000000000000000e+00,0.000000000000000000e+00,0.000000000000000000e+00,0.000000000000000000e+00,0.000000000000000000e+00,0.000000000000000000e+00,0.000000000000000000e+00,0.000000000000000000e+00,0.000000000000000000e+00,0.000000000000000000e+00,0.000000000000000000e+00,0.000000000000000000e+00,0.000000000000000000e+00,0.000000000000000000e+00,0.000000000000000000e+00,0.000000000000000000e+00,0.000000000000000000e+00,0.000000000000000000e+00,-2.673544185000234670e-03,-5.347088370000469340e-03,-8.119652710000712509e-03,-1.089221705000095568e-02,-1.366478139000119885e-02,-1.643734573000144028e-02,-1.920991007000168865e-02,-2.198247441000193009e-02,-2.465601859500216736e-02,-2.742858293500241226e-02,-3.020114727500265023e-02,-3.297371161500289860e-02,-3.574627595500314003e-02,-3.851884029500338147e-02,-4.119238448000361874e-02,-4.119238448000361874e-02,-4.119238448000361874e-02,-4.119238448000361874e-02,-4.119238448000361874e-02,-4.119238448000361874e-02,-3.972122789143205795e-02,-3.457217983143161255e-02,-2.960702634500260097e-02,-2.445797828500214863e-02,-1.930893022500169628e-02,-1.415988216500124394e-02
0.000000000000000000e+00,0.000000000000000000e+00,0.000000000000000000e+00,0.000000000000000000e+00,0.000000000000000000e+00,0.000000000000000000e+00,0.000000000000000000e+00,0.000000000000000000e+00,0.000000000000000000e+00,0.000000000000000000e+00,0.000000000000000000e+00,0.000000000000000000e+00,0.000000000000000000e+00,0.000000000000000000e+00,0.000000000000000000e+00,0.000000000000000000e+00,0.000000000000000000e+00,0.000000000000000000e+00,0.000000000000000000e+00,0.000000000000000000e+00,0.000000000000000000e+00,-1.089221705000095654e-03,-3.861786045000339257e-03,-6.634350385000582426e-03,-9.307894570000817963e-03,-1.208045891000106113e-02,-1.485302325000130430e-02,-1.762558759000154573e-02,-2.039815193000179064e-02,-2.317071627000203554e-02,-2.594328061000228391e-02,-2.861682479500251425e-02,-3.138938913500274874e-02,-3.416195347500300405e-02,-3.693451781500324549e-02,-3.970708215500348692e-02,-4.119238448000361874e-02,-4.119238448000361874e-02,-4.119238448000361874e-02,-4.119238448000361874e-02,-4.119238448000361874e-02,-4.119238448000361874e-02,-3.751449300857472718e-02,-3.236544494857427484e-02,-2.721639688857381903e-02,-2.225124340214481092e-02,-1.710219534214436204e-02
0.000000000000000000e+00,0.000000000000000000e+00,0.000000000000000000e+00,0.000000000000000000e+00,0.000000000000000000e+00,0.000000000000000000e+00,0.000000000000000000e+00,0.000000000000000000e+00,0.000000000000000000e+00,0.000000000000000000e+00,0.000000000000000000e+00,0.000000000000000000e+00,0.000000000000000000e+00,0.000000000000000000e+00,0.000000000000000000e+00,0.000000000000000000e+00,0.000000000000000000e+00,0.000000000000000000e+00,0.000000000000000000e+00,0.000000000000000000e+00,0.000000000000000000e+00,0.000000000000000000e+00,-2.277463565000200241e-03,-5.050027905000443844e-03,-7.822592245000687880e-03,-1.049613643000092342e-02,-1.326870077000116659e-02,-1.604126511000140975e-02,-1.881382945000165119e-02,-2.158639379000189956e-02,-2.435895813000213753e-02,-2.713152247000238243e-02,-2.980506665500261970e-02,-3.257763099500286114e-02,-3.535019533500310257e-02,-3.812275967500335094e-02,-4.089532401500358544e-02,-4.119238448000362568e-02,-4.119238448000361874e-02,-4.119238448000361874e-02,-4.119238448000361874e-02,-4.119238448000361874e-02,-4.045680618571784182e-02,-3.530775812571738947e-02,-3.015871006571693366e-02,-2.500966200571648132e-02,-1.986061394571603245e-02
0.000000000000000000e+00,0.000000000000000000e+00,0.000000000000000000e+00,0.000000000000000000e+00,0.000000000000000000e+00,0.000000000000000000e+00,0.000000000000000000e+00,0.000000000000000000e+00,0.000000000000000000e+00,0.000000000000000000e+00,0.000000000000000000e+00,0.000000000000000000e+00,0.000000000000000000e+00,0.000000000000000000e+00,0.000000000000000000e+00,0.000000000000000000e+00,0.000000000000000000e+00,0.000000000000000000e+00,0.000000000000000000e+00,0.000000000000000000e+00,0.000000000000000000e+00,0.000000000000000000e+00,-6.931410850000609006e-04,-3.465705425000304828e-03,-6.238269765000547563e-03,-9.010834105000791600e-03,-1.178339844500103650e-02,-1.445694263000127031e-02,-1.722950697000151521e-02,-2.000207131000175664e-02,-2.277463565000200155e-02,-2.554719999000224645e-02,-2.831976433000248788e-02,-3.109232867000272932e-02,-3.376587285500296659e-02,-3.653843719500320802e-02,-3.931100153500345640e-02,-4.119238448000361874e-02,-4.119238448000361874e-02,-4.119238448000361874e-02,-4.119238448000361874e-02,-4.119238448000361874e-02,-4.119238448000361874e-02,-3.825007130286050411e-02,-3.310102324286005177e-02,-2.795197518285959942e-02,-2.280292712285914708e-02
0.000000000000000000e+00,0.000000000000000000e+00,0.000000000000000000e+00,0.000000000000000000e+00,0.000000000000000000e+00,0.000000000000000000e+00,0.000000000000000000e+00,0.000000000000000000e+00,0.000000000000000000e+00,0.000000000000000000e+00,0.000000000000000000e+00,0.000000000000000000e+00,0.000000000000000000e+00,0.000000000000000000e+00,0.000000000000000000e+00,0.000000000000000000e+00,0.000000000000000000e+00,0.000000000000000000e+00,0.000000000000000000e+00,0.000000000000000000e+00,0.000000000000000000e+00,0.000000000000000000e+00,0.000000000000000000e+00,-1.881382945000165379e-03,-4.653947285000408982e-03,-7.426511625000653018e-03,-1.019907596500089705e-02,-1.297164030500113849e-02,-1.574420464500138339e-02,-1.841774883000161719e-02,-2.119031317000186210e-02,-2.396287751000210700e-02,-2.673544185000235190e-02,-2.950800619000259334e-02,-3.228057053000283477e-02,-3.505313487000307621e-02,-3.772667905500331348e-02,-4.049924339500355491e-02,-4.119238448000361874e-02,-4.119238448000361874e-02,-4.119238448000361874e-02,-4.119238448000361874e-02,-4.119238448000361874e-02,-4.119238448000361874e-02,-3.604333642000316640e-02,-3.089428836000271753e-02,-2.574524030000226171e-02
0.000000000000000000e+00,0.000000000000000000e+00,0.000000000000000000e+00,0.000000000000000000e+00,0.000000000000000000e+00,0.000000000000000000e+00,0.000000000000000000e+00,0.000000000000000000e+00,0.000000000000000000e+00,0.000000000000000000e+00,0.000000000000000000e+00,0.000000000000000000e+00,0.000000000000000000e+00,0.000000000000000000e+00,0.000000000000000000e+00,0.000000000000000000e+00,0.000000000000000000e+00,0.000000000000000000e+00,0.000000000000000000e+00,0.000000000000000000e+00,0.000000000000000000e+00,0.000000000000000000e+00,0.000000000000000000e+00,-3.960806200000348081e-04,-3.069624805000269532e-03,-5.842189145000513568e-03,-8.614753485000755870e-03,-1.138731782500100077e-02,-1.415988216500124394e-02,-1.693244650500148885e-02,-1.970501084500173028e-02,-2.237855503000196408e-02,-2.515111937000220899e-02,-2.792368371000245389e-02,-3.069624805000269532e-02,-3.346881239000294023e-02,-3.624137673000318166e-02,-3.901394107000343003e-02,-4.119238448000361874e-02,-4.119238448000361874e-02,-4.119238448000361874e-02,-4.119238448000362568e-02,-4.119238448000361874e-02,-4.119238448000362568e-02,-3.880175502357483680e-02,-3.383660153714582869e-02,-1.434377673857268817e-02
0.000000000000000000e+00,0.000000000000000000e+00,0.000000000000000000e+00,0.000000000000000000e+00,0.000000000000000000e+00,0.000000000000000000e+00,0.000000000000000000e+00,0.000000000000000000e+00,0.000000000000000000e+00,0.000000000000000000e+00,0.000000000000000000e+00,0.000000000000000000e+00,0.000000000000000000e+00,0.000000000000000000e+00,0.000000000000000000e+00,0.000000000000000000e+00,0.000000000000000000e+00,0.000000000000000000e+00,0.000000000000000000e+00,0.000000000000000000e+00,0.000000000000000000e+00,0.000000000000000000e+00,0.000000000000000000e+00,0.000000000000000000e+00,-1.584322480000139232e-03,-4.257866665000374119e-03,-7.030431005000618155e-03,-9.802995345000859589e-03,-1.257555968500110276e-02,-1.534812402500134766e-02,-1.812068836500159083e-02,-2.089325270500183573e-02,-2.356679689000207301e-02,-2.633936123000231444e-02,-2.911192557000255934e-02,-3.188448991000279731e-02,-3.465705425000304568e-02,-3.742961859000328712e-02,-4.020218293000352855e-02,-4.119238448000361874e-02,-4.119238448000361874e-02,-4.119238448000361874e-02,-4.119238448000361874e-02,-4.119238448000361874e-02,-2.445797828500214863e-02,-4.574377517589687386e-03,0.000000000000000000e+00
0.000000000000000000e+00,0.000000000000000000e+00,0.000000000000000000e+00,0.000000000000000000e+00,0.000000000000000000e+00,0.000000000000000000e+00,0.000000000000000000e+00,0.000000000000000000e+00,0.000000000000000000e+00,0.000000000000000000e+00,0.000000000000000000e+00,-2.197042702735921837e-01,-2.197042702735921837e-01,-2.197042702735921837e-01,-2.197042702735921837e-01,0.000000000000000000e+00,0.000000000000000000e+00,0.000000000000000000e+00,0.000000000000000000e+00,0.000000000000000000e+00,0.000000000000000000e+00,0.000000000000000000e+00,0.000000000000000000e+00,0.000000000000000000e+00,0.000000000000000000e+00,-2.772564340000244036e-03,-5.545128680000487205e-03,-8.218672865000721875e-03,-1.099123720500096504e-02,-1.376380154500120995e-02,-1.653636588500145138e-02,-1.930893022500169628e-02,-2.208149456500193772e-02,-2.485405890500218262e-02,-2.752760309000241989e-02,-3.030016743000266133e-02,-3.307273177000290276e-02,-3.584529611000314420e-02,-3.861786045000339257e-02,-4.119238448000361874e-02,-4.119238448000361874e-02,-4.119238448000361180e-02,-2.960702634500260097e-02,-9.010834105000791600e-03,0.000000000000000000e+00,0.000000000000000000e+00,0.000000000000000000e+00
0.000000000000000000e+00,0.000000000000000000e+00,0.000000000000000000e+00,0.000000000000000000e+00,0.000000000000000000e+00,0.000000000000000000e+00,0.000000000000000000e+00,0.000000000000000000e+00,0.000000000000000000e+00,0.000000000000000000e+00,0.000000000000000000e+00,-2.197042702735921837e-01,-2.197042702735921837e-01,-2.197042702735921837e-01,-2.197042702735921837e-01,0.000000000000000000e+00,0.000000000000000000e+00,0.000000000000000000e+00,0.000000000000000000e+00,0.000000000000000000e+00,0.000000000000000000e+00,0.000000000000000000e+00,0.000000000000000000e+00,0.000000000000000000e+00,0.000000000000000000e+00,-1.188241860000104587e-03,-3.960806200000347756e-03,-6.733370540000591792e-03,-9.505934880000834961e-03,-1.217947906500107050e-02,-1.495204340500131367e-02,-1.772460774500155684e-02,-2.049717208500180174e-02,-2.326973642500204317e-02,-2.604230076500228808e-02,-2.881486510500253298e-02,-3.148840929000276678e-02,-3.426097363000300822e-02,-3.703353797000324965e-02,-3.980610231000349802e-02,-3.475607440500304984e-02,-1.415988216500124394e-02,0.000000000000000000e+00,0.000000000000000000e+00,0.000000000000000000e+00,0.000000000000000000e+00,0.000000000000000000e+00
0.000000000000000000e+00,0.000000000000000000e+00,0.000000000000000000e+00,0.000000000000000000e+00,0.000000000000000000e+00,0.000000000000000000e+00,0.000000000000000000e+00,0.000000000000000000e+00,0.000000000000000000e+00,0.000000000000000000e+00,0.000000000000000000e+00,-2.197042702735921837e-01,-2.197042702735921837e-01,-2.197042702735921837e-01,-2.197042702735921837e-01,0.000000000000000000e+00,0.000000000000000000e+00,0.000000000000000000e+00,0.000000000000000000e+00,0.000000000000000000e+00,0.000000000000000000e+00,0.000000000000000000e+00,0.000000000000000000e+00,0.000000000000000000e+00,0.000000000000000000e+00,0.000000000000000000e+00,-2.376483720000208740e-03,-5.149048060000453210e-03,-7.921612400000695511e-03,-1.069417674000093868e-02,-1.346674108000118185e-02,-1.614028526500141739e-02,-1.891284960500165882e-02,-2.168541394500190372e-02,-2.445797828500215210e-02,-2.723054262500239353e-02,-3.000310696500263496e-02,-3.277567130500287640e-02,-3.323363952187791820e-02,-1.791645929531407444e-02,0.000000000000000000e+00,0.000000000000000000e+00,0.000000000000000000e+00,0.000000000000000000e+00,0.000000000000000000e+00,0.000000000000000000e+00,0.000000000000000000e+00
0.000000000000000000e+00,0.000000000000000000e+00,0.000000000000000000e+00,0.000000000000000000e+00,0.000000000000000000e+00,0.000000000000000000e+00,0.000000000000000000e+00,0.000000000000000000e+00,0.000000000000000000e+00,0.000000000000000000e+00,0.000000000000000000e+00,-2.197042702735921837e-01,-2.197042702735921837e-01,-2.197042702735921837e-01,-2.197042702735921837e-01,0.000000000000000000e+00,0.000000000000000000e+00,0.000000000000000000e+00,0.000000000000000000e+00,0.000000000000000000e+00,0.000000000000000000e+00,0.000000000000000000e+00,0.000000000000000000e+00,0.000000000000000000e+00,0.000000000000000000e+00,0.000000000000000000e+00,-7.921612400000696162e-04,-3.564725580000312893e-03,-6.337289920000556930e-03,-9.109854260000799231e-03,-1.188241860000104413e-02,-1.465498294000128904e-02,-1.742754728000153047e-02,-2.010109146500176774e-02,-2.287365580500200918e-02,-2.564622014500225408e-02,-2.841878448500249899e-02,-1.754513371406404149e-02,-3.184116859219029549e-03,0.000000000000000000e+00,0.000000000000000000e+00,0.000000000000000000e+00,0.000000000000000000e+00,0.000000000000000000e+00,0.000000000000000000e+00,0.000000000000000000e+00,0.000000000000000000e+00
0.000000000000000000e+00,0.000000000000000000e+00,0.000000000000000000e+00,0.000000000000000000e+00,0.000000000000000000e+00,0.000000000000000000e+00,0.000000000000000000e+00,0.000000000000000000e+00,0.000000000000000000e+00,0.000000000000000000e+00,0.000000000000000000e+00,0.000000000000000000e+00,0.000000000000000000e+00,0.000000000000000000e+00,0.000000000000000000e+00,0.000000000000000000e+00,0.000000000000000000e+00,0.000000000000000000e+00,0.000000000000000000e+00,0.000000000000000000e+00,0.000000000000000000e+00,0.000000000000000000e+00,0.000000000000000000e+00,0.000000000000000000e+00,0.000000000000000000e+00,0.000000000000000000e+00,0.000000000000000000e+00,-1.980403100000174312e-03,-4.752967440000417480e-03,-7.525531780000661516e-03,-1.029809612000090469e-02,-1.307066046000114959e-02,-1.584322480000139102e-02,-1.861578914000163593e-02,-2.128933332500187320e-02,-1.654255464468895251e-02,-5.031461625937942196e-03,0.000000000000000000e+00,0.000000000000000000e+00,0.000000000000000000e+00,0.000000000000000000e+00,0.000000000000000000e+00,0.000000000000000000e+00,0.000000000000000000e+00,0.000000000000000000e+00,0.000000000000000000e+00,0.000000000000000000e+00
0.000000000000000000e+00,0.000000000000000000e+00,0.000000000000000000e+00,0.000000000000000000e+00,0.000000000000000000e+00,0.000000000000000000e+00,0.000000000000000000e+00,0.000000000000000000e+00,0.000000000000000000e+00,0.000000000000000000e+00,0.000000000000000000e+00,0.000000000000000000e+00,0.000000000000000000e+00,0.000000000000000000e+00,0.000000000000000000e+00,0.000000000000000000e+00,0.000000000000000000e+00,0.000000000000000000e+00,0.000000000000000000e+00,0.000000000000000000e+00,0.000000000000000000e+00,0.000000000000000000e+00,0.000000000000000000e+00,0.000000000000000000e+00,0.000000000000000000e+00,0.000000000000000000e+00,0.000000000000000000e+00,-4.951007750000434695e-04,-3.267665115000286963e-03,-5.941209300000522067e-03,-8.713773640000766971e-03,-1.148633798000101014e-02,-1.425890232000125157e-02,-1.383806666125121480e-02,-6.188759687500542880e-03,0.000000000000000000e+00,0.000000000000000000e+00,0.000000000000000000e+00,0.000000000000000000e+00,0.000000000000000000e+00,0.000000000000000000e+00,0.000000000000000000e+00,0.000000000000000000e+00,0.000000000000000000e+00,0.000000000000000000e+00,0.000000000000000000e+00,0.000000000000000000e+00
0.000000000000000000e+00,0.000000000000000000e+00,0.000000000000000000e+00,0.000000000000000000e+00,0.000000000000000000e+00,0.000000000000000000e+00,0.000000000000000000e+00,0.000000000000000000e+00,0.000000000000000000e+00,0.000000000000000000e+00,0.000000000000000000e+00,0.000000000000000000e+00,0.000000000000000000e+00,0.000000000000000000e+00,0.000000000000000000e+00,0.000000000000000000e+00,0.000000000000000000e+00,0.000000000000000000e+00,0.000000000000000000e+00,0.000000000000000000e+00,0.000000000000000000e+00,0.000000000000000000e+00,0.000000000000000000e+00,0.000000000000000000e+00,0.000000000000000000e+00,0.000000000000000000e+00,0.000000000000000000e+00,0.000000000000000000e+00,-1.683342635000147948e-03,-4.455906975000391984e-03,-7.228471315000635153e-03,-8.973701546875788304e-03,-5.149048060000452343e-03,0.000000000000000000e+00,0.000000000000000000e+00,0.000000000000000000e+00,0.000000000000000000e+00,0.000000000000000000e+00,0.000000000000000000e+00,0.000000000000000000e+00,0.000000000000000000e+00,0.000000000000000000e+00,0.000000000000000000e+00,0.000000000000000000e+00,0.000000000000000000e+00,0.000000000000000000e+00,0.000000000000000000e+00
0.000000000000000000e+00,0.000000000000000000e+00,0.000000000000000000e+00,0.000000000000000000e+00,0.000000000000000000e+00,0.000000000000000000e+00,0.000000000000000000e+00,0.000000000000000000e+00,0.000000000000000000e+00,0.000000000000000000e+00,0.000000000000000000e+00,0.000000000000000000e+00,0.000000000000000000e+00,0.000000000000000000e+00,0.000000000000000000e+00,0.000000000000000000e+00,0.000000000000000000e+00,0.000000000000000000e+00,0.000000000000000000e+00,0.000000000000000000e+00,0.000000000000000000e+00,0.000000000000000000e+00,0.000000000000000000e+00,0.000000000000000000e+00,0.000000000000000000e+00,0.000000000000000000e+00,0.000000000000000000e+00,0.000000000000000000e+00,-9.902015500000870202e-05,-2.871584495000252535e-03,-2.998454068594013505e-03,-2.630222867187730898e-04,0.000000000000000000e+00,0.000000000000000000e+00,0.000000000000000000e+00,0.000000000000000000e+00,0.000000000000000000e+00,0.000000000000000000e+00,0.000000000000000000e+00,0.000000000000000000e+00,0.000000000000000000e+00,0.000000000000000000e+00,0.000000000000000000e+00,0.000000000000000000e+00,0.000000000000000000e+00,0.000000000000000000e+00,0.000000000000000000e+00
