-1.920578566778648189e-01,-1.920578566778648189e-01,-1.920578566778648189e-01,-1.920578566778648189e-01,-1.920578566778648189e-01,-1.920578566778648189e-01,-1.920578566778648189e-01,-1.920578566778648189e-01,-1.920578566778648189e-01,-1.630491179088123244e-01,-1.310394751291681925e-01,-9.902983234952406066e-02,-6.702018956987992881e-02,-3.501054679023579697e-02,-3.000904010591665116e-03,-2.775557561562891351e-17,-2.775557561562891351e-17,-2.775557561562891351e-17,-6.694324331319834176e-03,-1.408116497277617229e-02,-2.146800561423248266e-02,-2.885484625568884853e-02,-3.601084812709967609e-02,-4.339768876855601420e-02,-5.519932088713272456e-02,-6.653927546561844153e-02,-8.137066644104250235e-02,-9.155642716930065261e-02,-1.047719467544061395e-01,-1.138035136324367369e-01,-1.254031618272236359e-01,-1.332805348550266944e-01,-1.432643116594950194e-01,-1.523247333837813300e-01,-1.583553962512202762e-01,-1.657999465851879850e-01,-1.706764156023994061e-01,-1.765050945460485410e-01,-1.802273697130324093e-01,-1.844401772663629702e-01,-1.870082585831192856e-01,-1.896051947461312726e-01,-1.910190822126600074e-01,-1.920001469853534481e-01,-1.920578566778648189e-01,-1.920578566778648189e-01,-1.920578566778648189e-01
-1.920578566778648189e-01,-1.920578566778648189e-01,-1.920578566778648189e-01,-1.920578566778648189e-01,-1.920578566778648189e-01,-1.920578566778648189e-01,-1.920578566778648189e-01,-1.920578566778648189e-01,-1.920578566778648189e-01,-1.610485152350845661e-01,-1.300391737923043134e-01,-9.802953101266018154e-02,-6.601988823301604969e-02,-3.401024545337191785e-02,-2.000602673727785996e-03,-2.775557561562891351e-17,-2.775557561562891351e-17,-2.775557561562891351e-17,-6.925163101365344742e-03,-1.431200374282168286e-02,-2.169884438427802098e-02,-2.908568502573435910e-02,-3.647252566719069722e-02,-4.385936630864703534e-02,-5.124620695010337346e-02,-5.863304759155971158e-02,-6.601988823301604969e-02,-7.340672887447238781e-02,-8.079356951592872593e-02,-8.818041015738506405e-02,-9.556725079884140217e-02,-1.029540914402977403e-01,-1.103409320817540784e-01,-1.177277727232104165e-01,-1.251146133646667546e-01,-1.325014540061230928e-01,-1.398882946475794309e-01,-1.470442965189902584e-01,-1.544311371604465966e-01,-1.618179778019029347e-01,-1.692048184433592728e-01,-1.765916590848156109e-01,-1.839784997262719490e-01,-1.913653403677282872e-01,-1.920578566778648189e-01,-1.920578566778648189e-01,-1.920578566778648189e-01
-1.920578566778648189e-01,-1.920578566778648189e-01,-1.920578566778648189e-01,-1.920578566778648189e-01,-1.920578566778648189e-01,-1.920578566778648189e-01,-1.920578566778648189e-01,-1.920578566778648189e-01,-1.920578566778648189e-01,-1.600482138982206870e-01,-1.280385711185765552e-01,-9.602892833893242330e-02,-6.401928555928829145e-02,-3.200964277964415960e-02,-2.775557561562891351e-17,-2.775557561562891351e-17,-2.775557561562891351e-17,-2.775557561562891351e-17,-7.386840641456365875e-03,-1.477368128291270399e-02,-2.216052192436904211e-02,-2.954736256582538023e-02,-3.693420320728171835e-02,-4.432104384873805647e-02,-5.147704572014888402e-02,-5.886388636160522214e-02,-6.625072700306156026e-02,-7.363756764451789838e-02,-8.102440828597423650e-02,-8.841124892743057462e-02,-9.579808956888691274e-02,-1.031849302103432509e-01,-1.105717708517995890e-01,-1.179586114932559271e-01,-1.253454521347122652e-01,-1.327322927761686033e-01,-1.401191334176249415e-01,-1.475059740590812796e-01,-1.548928147005376177e-01,-1.622796553419939558e-01,-1.696664959834502939e-01,-1.770533366249066320e-01,-1.844401772663629702e-01,-1.918270179078193083e-01,-1.920578566778648189e-01,-1.920578566778648189e-01,-1.920578566778648189e-01
-1.920578566778648189e-01,-1.920578566778648189e-01,-1.920578566778648189e-01,-1.920578566778648189e-01,-1.920578566778648189e-01,-1.920578566778648189e-01,-1.920578566778648189e-01,-1.920578566778648189e-01,-1.900572540041370606e-01,-1.580476112244929288e-01,-1.260379684448487969e-01,-9.402832566520466506e-02,-6.201868288556053321e-02,-3.100934144278028048e-02,-2.775557561562891351e-17,-2.775557561562891351e-17,-2.775557561562891351e-17,-2.308387700455105662e-04,-7.617679411501876441e-03,-1.500452005295821456e-02,-2.239136069441455268e-02,-3.045199566062828933e-01,-3.119067972477392314e-01,-3.192936378891955695e-01,-5.193872326023990516e-02,-5.932556390169624327e-02,-6.671240454315258139e-02,-7.409924518460891951e-02,-8.148608582606525763e-02,-8.887292646752159575e-02,-9.625976710897793387e-02,-1.036466077504342720e-01,-1.110334483918906101e-01,-1.184202890333469482e-01,-1.258071296748032863e-01,-1.331939703162596245e-01,-1.405808109577159626e-01,-1.479676515991723007e-01,-1.553544922406286388e-01,-1.625104941120394664e-01,-1.698973347534958045e-01,-1.772841753949521426e-01,-1.846710160364084807e-01,-1.920578566778648189e-01,-1.920578566778648189e-01,-1.920578566778648189e-01,-1.920578566778648189e-01
-1.920578566778648189e-01,-1.920578566778648189e-01,-1.920578566778648189e-01,-1.920578566778648189e-01,-1.920578566778648189e-01,-1.920578566778648189e-01,-1.920578566778648189e-01,-1.920578566778648189e-01,-1.890569526672731815e-01,-1.570473098876290496e-01,-1.250376671079849178e-01,-9.302802432834078594e-02,-6.101838154869665409e-02,-2.900873876905252224e-02,-2.775557561562891351e-17,-2.775557561562891351e-17,-2.775557561562891351e-17,-6.925163101365594542e-04,-8.079356951592897573e-03,-1.546619759304923569e-02,-2.285303823450557381e-02,-3.049816341463739144e-01,-3.123684747878302526e-01,-3.197553154292865907e-01,-5.240040080033092629e-02,-5.978724144178726441e-02,-6.717408208324360253e-02,-7.433008395465443008e-02,-8.171692459611076820e-02,-8.910376523756710632e-02,-9.649060587902344444e-02,-1.038774465204797826e-01,-1.112642871619361207e-01,-1.186511278033924588e-01,-1.260379684448487969e-01,-1.334248090863051350e-01,-1.408116497277614731e-01,-1.481984903692178113e-01,-1.555853310106741494e-01,-1.629721716521304875e-01,-1.703590122935868256e-01,-1.777458529350431637e-01,-1.851326935764995019e-01,-1.920578566778648189e-01,-1.920578566778648189e-01,-1.920578566778648189e-01,-1.920578566778648189e-01
-1.920578566778648189e-01,-1.920578566778648189e-01,-1.920578566778648189e-01,-1.920578566778648189e-01,-1.920578566778648189e-01,-1.920578566778648189e-01,-1.920578566778648189e-01,-1.920578566778648189e-01,-1.870563499935454232e-01,-1.550467072139012914e-01,-1.230370644342571596e-01,-9.102742165461302770e-02,-5.901777887496889585e-02,-2.700813609532476400e-02,-2.775557561562891351e-17,-2.775557561562891351e-17,-2.775557561562891351e-17,-9.233550801820700205e-04,-8.310195721638408139e-03,-1.569703636309474626e-02,-2.308387700455108438e-02,-3.052124729164193973e-01,-3.125993135578757354e-01,-3.199861541993320735e-01,-5.263123957037643685e-02,-6.001808021183277497e-02,-6.740492085328911309e-02,-7.479176149474545121e-02,-8.217860213620178933e-02,-8.956544277765812745e-02,-9.695228341911446557e-02,-1.043391240605708037e-01,-1.117259647020271418e-01,-1.191128053434834799e-01,-1.264996459849398180e-01,-1.338864866263961562e-01,-1.412733272678524943e-01,-1.486601679093088324e-01,-1.560470085507651705e-01,-1.634338491922215086e-01,-1.708206898336778468e-01,-1.779766917050886743e-01,-1.853635323465450124e-01,-1.920578566778648189e-01,-1.920578566778648189e-01,-1.920578566778648189e-01,-1.920578566778648189e-01
-1.920578566778648189e-01,-1.920578566778648189e-01,-1.920578566778648189e-01,-1.920578566778648189e-01,-1.920578566778648189e-01,-1.920578566778648189e-01,-1.920578566778648189e-01,-1.920578566778648189e-01,-1.860560486566815441e-01,-1.540464058770374123e-01,-1.220367630973932804e-01,-9.002712031774914858e-02,-5.801747753810501673e-02,-2.600783475846088488e-02,-2.775557561562891351e-17,-2.775557561562891351e-17,-2.775557561562891351e-17,-1.385032620273091153e-03,-8.771873261729429272e-03,-1.615871390318576739e-02,-2.354555454464210551e-02,-3.093239518609844363e-02,-3.831923582755478175e-02,-4.570607646901111987e-02,-5.309291711046745799e-02,-6.047975775192379611e-02,-6.786659839338013422e-02,-7.525343903483647234e-02,-8.264027967629281046e-02,-8.979628154770363802e-02,-9.718312218915997613e-02,-1.045699628306163143e-01,-1.119568034720726524e-01,-1.193436441135289905e-01,-1.267304847549853286e-01,-1.341173253964416667e-01,-1.415041660378980048e-01,-1.488910066793543430e-01,-1.562778473208106811e-01,-1.636646879622670192e-01,-1.710515286037233573e-01,-1.784383692451796954e-01,-1.858252098866360336e-01,-1.920578566778648189e-01,-1.920578566778648189e-01,-1.920578566778648189e-01,-1.920578566778648189e-01
-1.920578566778648189e-01,-1.920578566778648189e-01,-1.920578566778648189e-01,-1.920578566778648189e-01,-1.920578566778648189e-01,-1.920578566778648189e-01,-1.920578566778648189e-01,-1.920578566778648189e-01,-1.840554459829537859e-01,-1.520458032033096540e-01,-1.200361604236655222e-01,-8.802651764402139034e-02,-5.601687486437725849e-02,-2.400723208473312664e-02,-2.775557561562891351e-17,-2.775557561562891351e-17,-2.775557561562891351e-17,-1.615871390318629475e-03,-9.002712031774939838e-03,-1.638955267323127796e-02,-2.377639331468764383e-02,-3.116323395614395420e-02,-3.855007459760026456e-02,-4.593691523905663043e-02,-5.332375588051296855e-02,-6.071059652196930667e-02,-6.809743716342564479e-02,-7.548427780488198291e-02,-8.287111844633832103e-02,-9.025795908779465915e-02,-9.764479972925099727e-02,-1.050316403707073354e-01,-1.124184810121636735e-01,-1.198053216536200116e-01,-1.271921622950763497e-01,-1.345790029365326879e-01,-1.419658435779890260e-01,-1.493526842194453641e-01,-1.567395248609017022e-01,-1.641263655023580403e-01,-1.715132061438143785e-01,-1.789000467852707166e-01,-1.862868874267270547e-01,-1.920578566778648189e-01,-1.920578566778648189e-01,-1.920578566778648189e-01,-1.920578566778648189e-01
-1.920578566778648189e-01,-1.920578566778648189e-01,-1.920578566778648189e-01,-1.920578566778648189e-01,-1.920578566778648189e-01,-1.920578566778648189e-01,-1.920578566778648189e-01,-1.920578566778648189e-01,-1.830551446460899068e-01,-1.510455018664457749e-01,-1.190358590868016431e-01,-8.702621630715751122e-02,-5.501657352751337937e-02,-2.300693074786924752e-02,-2.775557561562891351e-17,-2.775557561562891351e-17,-5.551115123125782702e-17,-2.077548930409595096e-03,-9.464389571865960971e-03,-1.685123021332229909e-02,-2.423807085477863721e-02,-3.162491149623497533e-02,-3.901175213769131345e-02,-4.639859277914765157e-02,-5.378543342060398968e-02,-6.117227406206032780e-02,-6.855911470351666592e-02,-7.594595534497300404e-02,-8.333279598642934216e-02,-9.071963662788568028e-02,-9.810647726934201840e-02,-1.054933179107983565e-01,-1.126493197822091841e-01,-1.200361604236655222e-01,-1.274230010651218603e-01,-1.348098417065781984e-01,-1.421966823480345365e-01,-1.495835229894908747e-01,-1.569703636309472128e-01,-1.643572042724035509e-01,-1.717440449138598890e-01,-1.791308855553162271e-01,-1.865177261967725653e-01,-1.920578566778648189e-01,-1.920578566778648189e-01,-1.920578566778648189e-01,-1.920578566778648189e-01
-1.920578566778648189e-01,-1.920578566778648189e-01,-1.920578566778648189e-01,-1.920578566778648189e-01,-1.920578566778648189e-01,-1.920578566778648189e-01,-1.920578566778648189e-01,-1.920578566778648189e-01,-1.810545419723621485e-01,-1.490448991927180167e-01,-1.170352564130738848e-01,-8.502561363342975298e-02,-5.301597085378562113e-02,-2.100632807414148928e-02,-2.775557561562891351e-17,-2.775557561562891351e-17,-2.775557561562891351e-17,-2.539226470500643984e-03,-9.926067111956982103e-03,-1.708206898336780966e-02,-2.446890962482414777e-02,-3.185575026628048589e-02,-3.924259090773685177e-02,-4.662943154919316213e-02,-5.401627219064950025e-02,-6.140311283210583837e-02,-6.878995347356217649e-02,-7.617679411501851461e-02,-8.356363475647485273e-02,-9.095047539793119085e-02,-9.833731603938752897e-02,-1.057241566808438671e-01,-1.131109973223002052e-01,-1.204978379637565433e-01,-1.278846786052128814e-01,-1.352715192466692196e-01,-1.426583598881255577e-01,-1.500452005295818958e-01,-1.574320411710382339e-01,-1.648188818124945720e-01,-1.722057224539509102e-01,-1.795925630954072483e-01,-1.869794037368635864e-01,-1.920578566778648189e-01,-1.920578566778648189e-01,-1.920578566778648189e-01,-1.920578566778648189e-01
-1.920578566778648189e-01,-1.920578566778648189e-01,-1.920578566778648189e-01,-1.920578566778648189e-01,-1.920578566778648189e-01,-1.920578566778648189e-01,-1.920578566778648189e-01,-1.920578566778648189e-01,-1.800542406354982694e-01,-1.480445978558541376e-01,-1.160349550762100057e-01,-8.402531229656587386e-02,-5.201566951692174201e-02,-2.000602673727761016e-02,-2.775557561562891351e-17,-2.775557561562891351e-17,-2.775557561562891351e-17,-2.770065240546154550e-03,-1.015690588200249267e-02,-1.754374652345883079e-02,-2.493058716491516891e-02,-3.231742780637150703e-02,-3.970426844782784515e-02,-4.709110908928418326e-02,-5.447794973074052138e-02,-6.186479037219685950e-02,-6.925163101365319762e-02,-7.663847165510953574e-02,-8.402531229656587386e-02,-9.141215293802221198e-02,-9.879899357947855010e-02,-1.061858342209348882e-01,-1.135726748623912263e-01,-1.209595155038475645e-01,-1.281155173752583920e-01,-1.355023580167147301e-01,-1.428891986581710682e-01,-1.502760392996274064e-01,-1.576628799410837445e-01,-1.650497205825400826e-01,-1.724365612239964207e-01,-1.798234018654527588e-01,-1.872102425069090970e-01,-1.920578566778648189e-01,-1.920578566778648189e-01,-1.920578566778648189e-01,-1.920578566778648189e-01
-1.920578566778648189e-01,-1.920578566778648189e-01,-1.920578566778648189e-01,-1.920578566778648189e-01,-1.920578566778648189e-01,-1.920578566778648189e-01,-1.920578566778648189e-01,-1.920578566778648189e-01,-1.780536379617705112e-01,-1.460439951821263793e-01,-1.140343524024822475e-01,-8.202470962283811562e-02,-5.001506684319398377e-02,-1.800542406354985192e-02,-2.775557561562891351e-17,-2.775557561562891351e-17,-2.775557561562891351e-17,-3.231742780637175683e-03,-1.061858342209351380e-02,-1.800542406354985192e-02,-2.539226470500619004e-02,-3.277910534646252816e-02,-3.993510721787335571e-02,-4.732194785932969383e-02,-5.470878850078603195e-02,-6.209562914224237007e-02,-6.948246978369870819e-02,-7.686931042515504631e-02,-8.425615106661138443e-02,-9.164299170806772254e-02,-9.902983234952406066e-02,-1.064166729909803988e-01,-1.138035136324367369e-01,-1.211903542738930750e-01,-1.285771949153494131e-01,-1.359640355568057513e-01,-1.433508761982620894e-01,-1.993817466714518649e-01,-2.067685873129082030e-01,-2.141554279543645412e-01,-1.728982387640874419e-01,-1.802850794055437800e-01,-1.876719200470001181e-01,-1.920578566778648189e-01,-1.920578566778648189e-01,-1.920578566778648189e-01,-1.920578566778648189e-01
-1.920578566778648189e-01,-1.920578566778648189e-01,-1.920578566778648189e-01,-1.920578566778648189e-01,-1.920578566778648189e-01,-1.920578566778648189e-01,-1.920578566778648189e-01,-1.920578566778648189e-01,-1.760530352880427529e-01,-1.440433925083986211e-01,-1.130340510656183683e-01,-8.102440828597423650e-02,-4.901476550633010465e-02,-1.700512272668594504e-02,-2.775557561562891351e-17,-2.775557561562891351e-17,-2.775557561562891351e-17,-3.462581550682658493e-03,-1.084942219213902437e-02,-1.823626283359536249e-02,-2.562310347505170061e-02,-3.300994411650803873e-02,-4.039678475796437684e-02,-4.778362539942071496e-02,-5.517046604087705308e-02,-6.255730668233339120e-02,-6.994414732378972932e-02,-7.733098796524606744e-02,-8.471782860670240556e-02,-9.210466924815874368e-02,-9.949150988961508180e-02,-1.068783505310714199e-01,-1.142651911725277580e-01,-1.216520318139840962e-01,-1.290388724554404343e-01,-1.364257130968967724e-01,-1.438125537383531105e-01,-1.996125854414973755e-01,-2.069994260829537136e-01,-2.143862667244100517e-01,-1.731290775341329524e-01,-1.805159181755892905e-01,-1.879027588170456287e-01,-1.920578566778648189e-01,-1.920578566778648189e-01,-1.920578566778648189e-01,-1.920578566778648189e-01
-1.920578566778648189e-01,-1.920578566778648189e-01,-1.920578566778648189e-01,-1.920578566778648189e-01,-1.920578566778648189e-01,-1.920578566778648189e-01,-1.920578566778648189e-01,-1.920578566778648189e-01,-1.750527339511788738e-01,-1.430430911715347420e-01,-1.110334483918906101e-01,-7.902380561224647826e-02,-4.701416283260234641e-02,-1.500452005295824232e-02,-2.775557561562891351e-17,-2.775557561562891351e-17,-2.775557561562891351e-17,-3.924259090773735137e-03,-1.131109973223004550e-02,-1.869794037368638362e-02,-2.608478101514274949e-02,-3.347162165659905986e-02,-4.085846229805539798e-02,-4.824530293951173610e-02,-5.540130481092256365e-02,-6.278814545237890177e-02,-7.017498609383523989e-02,-7.756182673529157801e-02,-8.494866737674791612e-02,-9.233550801820425424e-02,-9.972234865966059236e-02,-1.071091893011169305e-01,-1.144960299425732686e-01,-1.218828705840296067e-01,-1.292697112254859448e-01,-1.366565518669422830e-01,-1.440433925083986211e-01,-2.000742629815883966e-01,-2.074611036230447347e-01,-2.148479442645010729e-01,-1.735907550742239736e-01,-1.809775957156803117e-01,-1.883644363571366498e-01,-1.920578566778648189e-01,-1.920578566778648189e-01,-1.920578566778648189e-01,-1.920578566778648189e-01
-1.920578566778648189e-01,-1.920578566778648189e-01,-1.920578566778648189e-01,-1.920578566778648189e-01,-1.920578566778648189e-01,-1.920578566778648189e-01,-1.920578566778648189e-01,-1.920578566778648189e-01,-1.730521312774511156e-01,-1.410424884978069837e-01,-1.090328457181628519e-01,-7.702320293851872002e-02,-4.601386149573846729e-02,-1.400421871609433544e-02,-2.775557561562891351e-17,-2.775557561562891351e-17,0.000000000000000000e+00,-4.155097860819217948e-03,-1.154193850227555607e-02,-1.892877914373189419e-02,-2.631561978518823230e-02,-3.370246042664459818e-02,-4.108930106810090854e-02,-4.847614170955724666e-02,-5.586298235101358478e-02,-6.324982299246992290e-02,-7.063666363392626102e-02,-7.802350427538259914e-02,-8.541034491683893726e-02,-9.279718555829527538e-02,-1.001840261997516135e-01,-1.075708668412079516e-01,-1.149577074826642897e-01,-1.223445481241206279e-01,-1.297313887655769660e-01,-1.371182294070333041e-01,-1.445050700484896422e-01,-1.518919106899459803e-01,-1.592787513314023184e-01,-1.664347532028131460e-01,-1.738215938442694841e-01,-1.812084344857258222e-01,-1.885952751271821604e-01,-1.920578566778648189e-01,-1.920578566778648189e-01,-1.920578566778648189e-01,-1.920578566778648189e-01
-1.920578566778648189e-01,-1.920578566778648189e-01,-1.920578566778648189e-01,-1.920578566778648189e-01,-1.920578566778648189e-01,-1.920578566778648189e-01,-1.920578566778648189e-01,-1.920578566778648189e-01,-1.720518299405872364e-01,-1.400421871609431046e-01,-1.080325443812989727e-01,-7.602290160165484090e-02,-4.401325882201070905e-02,-1.200361604236657720e-02,-2.775557561562891351e-17,-2.775557561562891351e-17,-2.775557561562891351e-17,-4.616775400910239080e-03,-1.200361604236657720e-02,-1.939045668382291532e-02,-2.677729732527922568e-02,-3.416413796673559156e-02,-4.155097860819192968e-02,-4.893781924964826779e-02,-5.632465989110460591e-02,-6.371150053256094403e-02,-7.109834117401728215e-02,-7.825434304542810970e-02,-8.564118368688444782e-02,-9.302802432834078594e-02,-1.004148649697971241e-01,-1.078017056112534622e-01,-1.151885462527098003e-01,-1.225753868941661384e-01,-1.299622275356224765e-01,-1.373490681770788147e-01,-1.447359088185351528e-01,-1.521227494599914909e-01,-1.595095901014478290e-01,-1.668964307429041671e-01,-1.742832713843605053e-01,-1.816701120258168434e-01,-1.890569526672731815e-01,-1.920578566778648189e-01,-1.920578566778648189e-01,-1.920578566778648189e-01,-1.920578566778648189e-01
-1.920578566778648189e-01,-1.920578566778648189e-01,-1.920578566778648189e-01,-1.920578566778648189e-01,-1.920578566778648189e-01,-1.920578566778648189e-01,-1.920578566778648189e-01,-1.920578566778648189e-01,-1.700512272668594782e-01,-1.380415844872153464e-01,-1.060319417075712145e-01,-7.402229892792708266e-02,-4.201265614828295081e-02,-1.000301336863881896e-02,0.000000000000000000e+00,-2.775557561562891351e-17,-2.775557561562891351e-17,-4.847614170955749646e-03,-1.223445481241208777e-02,-1.962129545386839813e-02,-2.700813609532476400e-02,-3.439497673678110212e-02,-4.178181737823744024e-02,-4.916865801969377836e-02,-5.655549866115011648e-02,-6.394233930260645460e-02,-7.132917994406279272e-02,-7.871602058551913084e-02,-8.610286122697546896e-02,-9.348970186843180707e-02,-1.008765425098881452e-01,-1.082633831513444833e-01,-1.156502237928008214e-01,-1.230370644342571596e-01,-1.304239050757134977e-01,-1.378107457171698358e-01,-1.451975863586261739e-01,-1.525844270000825120e-01,-1.599712676415388501e-01,-1.673581082829951883e-01,-1.747449489244515264e-01,-1.819009507958623539e-01,-1.892877914373186921e-01,-1.920578566778648189e-01,-1.920578566778648189e-01,-1.920578566778648189e-01,-1.920578566778648189e-01
-1.920578566778648189e-01,-1.920578566778648189e-01,-1.920578566778648189e-01,-1.920578566778648189e-01,-1.920578566778648189e-01,-1.920578566778648189e-01,-1.920578566778648189e-01,-1.920578566778648189e-01,-1.690509259299955991e-01,-1.370412831503514672e-01,-1.050316403707073354e-01,-7.302199759106320354e-02,-4.101235481141907169e-02,-9.002712031774912083e-03,-2.775557561562891351e-17,-2.775557561562891351e-17,-2.775557561562891351e-17,-5.309291711046770779e-03,-1.269613235250310890e-02,-2.008297299395947477e-02,-2.746981363541578514e-02,-3.485665427687212325e-02,-4.224349491832846137e-02,-4.963033555978479949e-02,-5.701717620124113761e-02,-6.440401684269747573e-02,-7.179085748415381385e-02,-7.917769812561015197e-02,-8.656453876706649009e-02,-9.372054063847731764e-02,-1.011073812799336558e-01,-1.084942219213899939e-01,-1.158810625628463320e-01,-1.232679032043026701e-01,-1.306547438457590082e-01,-1.380415844872153464e-01,-1.454284251286716845e-01,-1.528152657701280226e-01,-1.602021064115843607e-01,-1.675889470530406988e-01,-1.749757876944970370e-01,-1.823626283359533751e-01,-1.897494689774097132e-01,-1.920578566778648189e-01,-1.920578566778648189e-01,-1.920578566778648189e-01,-1.920578566778648189e-01
-1.920578566778648189e-01,-1.920578566778648189e-01,-1.920578566778648189e-01,-1.920578566778648189e-01,-1.920578566778648189e-01,-1.920578566778648189e-01,-1.920578566778648189e-01,-1.920578566778648189e-01,-1.670503232562678408e-01,-1.350406804766237090e-01,-1.030310376969795771e-01,-7.102139491733544530e-02,-3.901175213769131345e-02,-7.002109358047209353e-03,-2.775557561562891351e-17,-2.775557561562891351e-17,-2.775557561562891351e-17,-5.540130481092281345e-03,-1.292697112254861946e-02,-2.031381176400495758e-02,-2.770065240546129570e-02,-3.508749304691763382e-02,-4.247433368837397194e-02,-4.986117432983031006e-02,-5.724801497128664818e-02,-6.463485561274298630e-02,-7.202169625419932442e-02,-7.940853689565566254e-02,-8.679537753711200065e-02,-9.418221817856833877e-02,-1.015690588200246769e-01,-1.089558994614810150e-01,-1.163427401029373531e-01,-1.237295807443936912e-01,-1.311164213858500294e-01,-1.385032620273063675e-01,-1.458901026687627056e-01,-1.532769433102190437e-01,-1.606637839516753818e-01,-1.680506245931317200e-01,-1.754374652345880581e-01,-1.828243058760443962e-01,-1.902111465175007343e-01,-1.920578566778648189e-01,-1.920578566778648189e-01,-1.920578566778648189e-01,-1.920578566778648189e-01
-1.920578566778648189e-01,-1.920578566778648189e-01,-1.920578566778648189e-01,-1.920578566778648189e-01,-1.920578566778648189e-01,-1.920578566778648189e-01,-1.920578566778648189e-01,-1.920578566778648189e-01,-1.660500219194039617e-01,-1.340403791397598299e-01,-1.020307363601156980e-01,-7.002109358047156618e-02,-3.801145080082743433e-02,-6.001808021183302477e-03,-2.775557561562891351e-17,-2.775557561562891351e-17,-2.775557561562891351e-17,-6.001808021183302477e-03,-1.338864866263964060e-02,-2.077548930409597872e-02,-2.816232994555231683e-02,-3.554917058700865495e-02,-4.293601122846499307e-02,-5.032285186992133119e-02,-5.770969251137766931e-02,-6.509653315283400743e-02,-7.248337379429034555e-02,-7.987021443574668367e-02,-8.725705507720302179e-02,-9.464389571865935991e-02,-1.020307363601156980e-01,-1.094175770015720361e-01,-1.165735788729828637e-01,-1.239604195144392018e-01,-1.313472601558955399e-01,-1.387341007973518781e-01,-1.461209414388082162e-01,-1.535077820802645543e-01,-1.608946227217208924e-01,-1.682814633631772305e-01,-1.756683040046335686e-01,-1.830551446460899068e-01,-1.904419852875462449e-01,-1.920578566778648189e-01,-1.920578566778648189e-01,-1.920578566778648189e-01,-1.920578566778648189e-01
-1.920578566778648189e-01,-1.920578566778648189e-01,-1.920578566778648189e-01,-1.920578566778648189e-01,-1.920578566778648189e-01,-1.920578566778648189e-01,-1.920578566778648189e-01,-1.920578566778648189e-01,-1.640494192456762035e-01,-1.320397764660320716e-01,-1.000301336863879398e-01,-6.802049090674380794e-02,-3.601084812709967609e-02,-4.001205347455544237e-03,-2.775557561562891351e-17,-2.775557561562891351e-17,-2.775557561562891351e-17,-6.463485561274323610e-03,-1.385032620273066173e-02,-2.100632807414151704e-02,-2.839316871559782740e-02,-3.578000935705416552e-02,-4.316684999851050364e-02,-5.055369063996684176e-02,-5.794053128142317988e-02,-6.532737192287951800e-02,-7.271421256433585611e-02,-8.010105320579219423e-02,-8.748789384724853235e-02,-9.487473448870487047e-02,-1.022615751301612086e-01,-1.096484157716175467e-01,-1.170352564130738848e-01,-1.244220970545302229e-01,-1.318089376959865611e-01,-1.391957783374428992e-01,-1.465826189788992373e-01,-1.539694596203555754e-01,-1.613563002618119135e-01,-1.687431409032682517e-01,-1.761299815447245898e-01,-1.835168221861809279e-01,-1.909036628276372660e-01,-1.920578566778648189e-01,-1.920578566778648189e-01,-1.920578566778648189e-01,-1.920578566778648189e-01
-1.920578566778648189e-01,-4.073166180040702633e-01,-4.073166180040702633e-01,-4.073166180040702633e-01,-1.920578566778648189e-01,-1.920578566778648189e-01,-1.920578566778648189e-01,-1.920578566778648189e-01,-1.630491179088123244e-01,-1.310394751291681925e-01,-9.902983234952406066e-02,-6.702018956987992881e-02,-3.501054679023579697e-02,-3.000904010591692872e-03,-2.775557561562891351e-17,-2.775557561562891351e-17,-2.775557561562891351e-17,-6.694324331319834176e-03,-1.408116497277617229e-02,-2.146800561423248266e-02,-2.885484625568884853e-02,-3.624168689714518665e-02,-4.362852753860152477e-02,-5.101536818005786289e-02,-5.840220882151420101e-02,-6.578904946297053913e-02,-7.317589010442687725e-02,-8.056273074588321537e-02,-8.794957138733955349e-02,-9.533641202879589160e-02,-1.027232526702522297e-01,-1.101100933117085678e-01,-1.174969339531649060e-01,-1.248837745946212441e-01,-1.320397764660320716e-01,-1.394266171074884098e-01,-1.468134577489447479e-01,-1.542002983904010860e-01,-1.615871390318574241e-01,-1.689739796733137622e-01,-1.763608203147701003e-01,-1.837476609562264385e-01,-1.911345015976827766e-01,-1.920578566778648189e-01,-1.920578566778648189e-01,-1.920578566778648189e-01,-1.920578566778648189e-01
-1.920578566778648189e-01,-4.073166180040702633e-01,-4.073166180040702633e-01,-4.073166180040702633e-01,-1.920578566778648189e-01,-1.920578566778648189e-01,-1.920578566778648189e-01,-1.920578566778648189e-01,-1.610485152350845661e-01,-1.290388724554404343e-01,-9.702922967579630242e-02,-6.501958689615217057e-02,-3.300994411650803873e-02,-1.000301336863906876e-03,-2.775557561562891351e-17,-2.775557561562891351e-17,-2.775557561562891351e-17,-7.156001871410855308e-03,-1.454284251286719343e-02,-2.192968315432355930e-02,-2.931652379577986967e-02,-3.670336443723620778e-02,-4.385936630864703534e-02,-5.124620695010337346e-02,-5.863304759155971158e-02,-6.601988823301604969e-02,-7.340672887447238781e-02,-8.079356951592872593e-02,-8.818041015738506405e-02,-9.556725079884140217e-02,-1.029540914402977403e-01,-1.103409320817540784e-01,-1.177277727232104165e-01,-1.251146133646667546e-01,-1.325014540061230928e-01,-1.398882946475794309e-01,-1.472751352890357690e-01,-1.546619759304921071e-01,-1.620488165719484452e-01,-1.694356572134047834e-01,-1.768224978548611215e-01,-1.842093384963174596e-01,-1.915961791377737977e-01,-1.920578566778648189e-01,-1.920578566778648189e-01,-1.920578566778648189e-01,-1.920578566778648189e-01
-1.920578566778648189e-01,-4.073166180040702633e-01,-4.073166180040702633e-01,-4.073166180040702633e-01,-1.920578566778648189e-01,-1.920578566778648189e-01,-1.920578566778648189e-01,-1.910575553410009397e-01,-1.590479125613568079e-01,-1.280385711185765552e-01,-9.602892833893242330e-02,-6.401928555928829145e-02,-3.200964277964415960e-02,-2.775557561562891351e-17,-2.775557561562891351e-17,-2.775557561562891351e-17,-2.775557561562891351e-17,-7.386840641456365875e-03,-1.477368128291270399e-02,-2.216052192436904211e-02,-2.954736256582538023e-02,-3.693420320728171835e-02,-4.432104384873805647e-02,-5.170788449019439459e-02,-5.909472513165073271e-02,-6.648156577310707083e-02,-7.386840641456340895e-02,-8.125524705601974707e-02,-8.864208769747608518e-02,-9.602892833893242330e-02,-1.034157689803887614e-01,-1.108026096218450995e-01,-1.181894502633014377e-01,-1.255762909047577758e-01,-1.329631315462141139e-01,-1.403499721876704520e-01,-1.475059740590812796e-01,-1.548928147005376177e-01,-1.622796553419939558e-01,-1.696664959834502939e-01,-1.770533366249066320e-01,-1.844401772663629702e-01,-1.918270179078193083e-01,-1.920578566778648189e-01,-1.920578566778648189e-01,-1.920578566778648189e-01,-1.920578566778648189e-01
-1.920578566778648189e-01,-1.920578566778648189e-01,-1.920578566778648189e-01,-1.920578566778648189e-01,-1.920578566778648189e-01,-1.920578566778648189e-01,-1.920578566778648189e-01,-1.900572540041370606e-01,-1.580476112244929288e-01,-1.260379684448487969e-01,-9.402832566520466506e-02,-6.201868288556053321e-02,-3.000904010591640136e-02,-2.775557561562891351e-17,-2.775557561562891351e-17,-2.775557561562891351e-17,-4.616775400910488880e-04,-7.848518181547387007e-03,-1.523535882300372513e-02,-2.262219946446006325e-02,-3.000904010591640136e-02,-3.739588074737273948e-02,-4.478272138882907760e-02,-5.216956203028541572e-02,-5.932556390169624327e-02,-6.671240454315258139e-02,-7.409924518460891951e-02,-8.148608582606525763e-02,-8.887292646752159575e-02,-9.625976710897793387e-02,-1.036466077504342720e-01,-1.110334483918906101e-01,-1.184202890333469482e-01,-1.258071296748032863e-01,-1.331939703162596245e-01,-1.405808109577159626e-01,-1.479676515991723007e-01,-1.553544922406286388e-01,-1.627413328820849769e-01,-1.701281735235413151e-01,-1.775150141649976532e-01,-1.849018548064539913e-01,-1.920578566778648189e-01,-1.920578566778648189e-01,-1.920578566778648189e-01,-1.920578566778648189e-01,-1.920578566778648189e-01
-1.920578566778648189e-01,-1.920578566778648189e-01,-1.920578566778648189e-01,-1.920578566778648189e-01,-1.920578566778648189e-01,-1.920578566778648189e-01,-1.920578566778648189e-01,-1.880566513304093024e-01,-1.560470085507651705e-01,-1.240373657711210387e-01,-9.202772299147690682e-02,-6.001808021183277497e-02,-2.900873876905252224e-02,-2.775557561562891351e-17,-2.775557561562891351e-17,-2.775557561562891351e-17,-6.925163101365872098e-04,-8.079356951592925329e-03,-1.546619759304923569e-02,-2.285303823450557381e-02,-3.023987887596191193e-02,-3.762671951741825005e-02,-4.501356015887458817e-02,-5.240040080033092629e-02,-5.978724144178726441e-02,-6.717408208324360253e-02,-7.456092272469994064e-02,-8.194776336615627876e-02,-8.933460400761261688e-02,-9.672144464906895500e-02,-1.041082852905252931e-01,-1.114951259319816312e-01,-1.188819665734379694e-01,-1.262688072148943075e-01,-1.336556478563506456e-01,-1.410424884978069837e-01,-1.484293291392633218e-01,-1.558161697807196600e-01,-1.632030104221759981e-01,-1.703590122935868256e-01,-1.777458529350431637e-01,-1.851326935764995019e-01,-1.920578566778648189e-01,-1.920578566778648189e-01,-1.920578566778648189e-01,-1.920578566778648189e-01,-1.920578566778648189e-01
-1.920578566778648189e-01,-1.920578566778648189e-01,-1.920578566778648189e-01,-1.920578566778648189e-01,-1.920578566778648189e-01,-1.920578566778648189e-01,-1.920578566778648189e-01,-1.870563499935454232e-01,-1.550467072139012914e-01,-1.230370644342571596e-01,-9.102742165461302770e-02,-5.901777887496889585e-02,-2.700813609532476400e-02,-2.775557561562891351e-17,-2.775557561562891351e-17,-2.775557561562891351e-17,-1.154193850227580587e-03,-8.541034491683946461e-03,-1.592787513314025682e-02,-2.331471577459659494e-02,-3.070155641605290531e-02,-3.808839705750929894e-02,-4.547523769896560930e-02,-5.286207834042194742e-02,-6.024891898187828554e-02,-6.763575962333462366e-02,-7.502260026479096178e-02,-8.217860213620178933e-02,-8.956544277765812745e-02,-9.695228341911446557e-02,-1.043391240605708037e-01,-1.117259647020271418e-01,-1.191128053434834799e-01,-1.264996459849398180e-01,-1.338864866263961562e-01,-1.412733272678524943e-01,-1.486601679093088324e-01,-1.560470085507651705e-01,-1.634338491922215086e-01,-1.708206898336778468e-01,-1.782075304751341849e-01,-1.855943711165905230e-01,-1.920578566778648189e-01,-1.920578566778648189e-01,-1.920578566778648189e-01,-1.920578566778648189e-01,-1.920578566778648189e-01
-1.920578566778648189e-01,-1.920578566778648189e-01,-1.920578566778648189e-01,-1.920578566778648189e-01,-1.920578566778648189e-01,-1.920578566778648189e-01,-1.920578566778648189e-01,-1.850557473198176650e-01,-1.530461045401735332e-01,-1.210364617605294013e-01,-8.902681898088526946e-02,-5.701717620124113761e-02,-2.500753342159703352e-02,-2.775557561562891351e-17,-2.775557561562891351e-17,-2.775557561562891351e-17,-1.385032620273091153e-03,-8.771873261729429272e-03,-1.615871390318576739e-02,-2.354555454464210551e-02,-3.093239518609844363e-02,-3.831923582755478175e-02,-4.570607646901111987e-02,-5.309291711046745799e-02,-6.047975775192379611e-02,-6.786659839338013422e-02,-7.525343903483647234e-02,-8.264027967629281046e-02,-9.002712031774914858e-02,-9.741396095920548670e-02,-1.048008016006618248e-01,-1.121876422421181629e-01,-1.195744828835745011e-01,-1.269613235250308392e-01,-1.343481641664871773e-01,-1.417350048079435154e-01,-1.491218454493998535e-01,-1.565086860908561917e-01,-1.638955267323125298e-01,-1.712823673737688679e-01,-1.786692080152252060e-01,-1.858252098866360336e-01,-1.920578566778648189e-01,-1.920578566778648189e-01,-1.920578566778648189e-01,-1.920578566778648189e-01,-1.920578566778648189e-01
-1.920578566778648189e-01,-1.920578566778648189e-01,-1.920578566778648189e-01,-1.920578566778648189e-01,-1.920578566778648189e-01,-1.920578566778648189e-01,-1.920578566778648189e-01,-1.840554459829537859e-01,-1.520458032033096540e-01,-1.200361604236655222e-01,-8.802651764402139034e-02,-5.601687486437725849e-02,-2.400723208473312664e-02,-2.775557561562891351e-17,-2.775557561562891351e-17,-2.775557561562891351e-17,-1.846710160364112285e-03,-9.233550801820450404e-03,-1.662039144327678852e-02,-2.400723208473312664e-02,-3.139407272618946476e-02,-3.878091336764580288e-02,-4.616775400910214100e-02,-5.355459465055847912e-02,-6.094143529201481724e-02,-6.832827593347115536e-02,-7.571511657492749348e-02,-8.310195721638383159e-02,-9.048879785784016971e-02,-9.764479972925099727e-02,-1.050316403707073354e-01,-1.124184810121636735e-01,-1.198053216536200116e-01,-1.271921622950763497e-01,-1.345790029365326879e-01,-1.419658435779890260e-01,-1.493526842194453641e-01,-1.567395248609017022e-01,-1.641263655023580403e-01,-1.715132061438143785e-01,-1.789000467852707166e-01,-1.862868874267270547e-01,-1.920578566778648189e-01,-1.920578566778648189e-01,-1.920578566778648189e-01,-1.920578566778648189e-01,-1.920578566778648189e-01
-1.920578566778648189e-01,-1.920578566778648189e-01,-1.920578566778648189e-01,-1.920578566778648189e-01,-1.920578566778648189e-01,-1.920578566778648189e-01,-1.920578566778648189e-01,-1.820548433092260276e-01,-1.500452005295818958e-01,-1.180355577499377639e-01,-8.602591497029363210e-02,-5.401627219064950025e-02,-2.200662941100536840e-02,-2.775557561562891351e-17,-2.775557561562891351e-17,-2.775557561562891351e-17,-2.308387700455133418e-03,-9.464389571865960971e-03,-1.685123021332229909e-02,-2.423807085477866496e-02,-3.162491149623497533e-02,-3.901175213769131345e-02,-4.639859277914765157e-02,-5.378543342060398968e-02,-6.117227406206032780e-02,-6.855911470351666592e-02,-7.594595534497300404e-02,-8.333279598642934216e-02,-9.071963662788568028e-02,-3.718249743388133965e-01,-3.792118149802697347e-01,-3.865986556217260728e-01,-1.202669991937110328e-01,-1.276538398351673709e-01,-1.350406804766237090e-01,-1.424275211180800471e-01,-1.498143617595363852e-01,-1.572012024009927234e-01,-1.645880430424490615e-01,-1.719748836839053996e-01,-1.793617243253617377e-01,-1.867485649668180758e-01,-1.920578566778648189e-01,-1.920578566778648189e-01,-1.920578566778648189e-01,-1.920578566778648189e-01,-1.920578566778648189e-01
-1.920578566778648189e-01,-1.920578566778648189e-01,-1.920578566778648189e-01,-1.920578566778648189e-01,-1.920578566778648189e-01,-1.920578566778648189e-01,-1.920578566778648189e-01,-1.810545419723621485e-01,-1.490448991927180167e-01,-1.170352564130738848e-01,-8.502561363342975298e-02,-5.301597085378562113e-02,-2.100632807414148928e-02,-2.775557561562891351e-17,-2.775557561562891351e-17,-2.775557561562891351e-17,-2.539226470500643984e-03,-9.926067111956982103e-03,-1.731290775341332022e-02,-2.469974839486968610e-02,-3.208658903632599646e-02,-3.947342967778233458e-02,-4.686027031923867270e-02,-5.424711096069501082e-02,-6.163395160215134894e-02,-6.902079224360768706e-02,-7.640763288506402517e-02,-8.379447352652036329e-02,-9.118131416797670141e-02,-3.722866518789044177e-01,-3.796734925203607558e-01,-3.870603331618170939e-01,-1.204978379637565433e-01,-1.278846786052128814e-01,-1.352715192466692196e-01,-1.426583598881255577e-01,-1.500452005295818958e-01,-1.574320411710382339e-01,-1.648188818124945720e-01,-1.722057224539509102e-01,-1.795925630954072483e-01,-1.869794037368635864e-01,-1.920578566778648189e-01,-1.920578566778648189e-01,-1.920578566778648189e-01,-1.920578566778648189e-01,-1.920578566778648189e-01
-1.920578566778648189e-01,-1.920578566778648189e-01,-1.920578566778648189e-01,-1.920578566778648189e-01,-1.920578566778648189e-01,-1.920578566778648189e-01,-1.920578566778648189e-01,-1.790539392986343903e-01,-1.470442965189902584e-01,-1.150346537393461266e-01,-8.302501095970199474e-02,-5.101536818005786289e-02,-1.900572540041373104e-02,-2.775557561562891351e-17,-2.775557561562891351e-17,-2.775557561562891351e-17,-3.000904010591692872e-03,-1.038774465204800324e-02,-1.777458529350434135e-02,-2.493058716491516891e-02,-3.231742780637150703e-02,-3.970426844782784515e-02,-4.709110908928418326e-02,-5.447794973074052138e-02,-6.186479037219685950e-02,-6.925163101365319762e-02,-7.663847165510953574e-02,-8.402531229656587386e-02,-9.141215293802221198e-02,-3.725174906489499005e-01,-3.799043312904062386e-01,-3.872911719318625767e-01,-1.209595155038475645e-01,-1.283463561453039026e-01,-1.357331967867602407e-01,-1.431200374282165788e-01,-1.505068780696729169e-01,-1.578937187111292551e-01,-1.652805593525855932e-01,-1.726673999940419313e-01,-1.800542406354982694e-01,-1.874410812769546075e-01,-1.920578566778648189e-01,-1.920578566778648189e-01,-1.920578566778648189e-01,-1.920578566778648189e-01,-1.920578566778648189e-01
-1.920578566778648189e-01,-1.920578566778648189e-01,-1.920578566778648189e-01,-1.920578566778648189e-01,-1.920578566778648189e-01,-1.920578566778648189e-01,-1.920578566778648189e-01,-1.770533366249066320e-01,-1.460439951821263793e-01,-1.140343524024822475e-01,-8.202470962283811562e-02,-5.001506684319398377e-02,-1.800542406354985192e-02,-2.775557561562891351e-17,-2.775557561562891351e-17,-2.775557561562891351e-17,-3.231742780637175683e-03,-1.061858342209351380e-02,-1.800542406354985192e-02,-2.539226470500619004e-02,-3.277910534646252816e-02,-4.016594598791886628e-02,-4.755278662937520440e-02,-5.493962727083154252e-02,-6.232646791228788063e-02,-6.971330855374421875e-02,-7.710014919520055687e-02,-8.448698983665689499e-02,-9.187383047811323311e-02,-9.926067111956957123e-02,-1.066475117610259093e-01,-1.140343524024822475e-01,-1.214211930439385856e-01,-1.288080336853949237e-01,-1.359640355568057513e-01,-1.433508761982620894e-01,-1.507377168397184275e-01,-1.581245574811747656e-01,-1.655113981226311037e-01,-1.728982387640874419e-01,-1.802850794055437800e-01,-1.876719200470001181e-01,-1.920578566778648189e-01,-1.920578566778648189e-01,-1.920578566778648189e-01,-1.920578566778648189e-01,-1.920578566778648189e-01
-1.920578566778648189e-01,-1.920578566778648189e-01,-1.920578566778648189e-01,-1.920578566778648189e-01,-1.920578566778648189e-01,-1.920578566778648189e-01,-1.920578566778648189e-01,-1.760530352880427529e-01,-1.440433925083986211e-01,-1.120337497287544892e-01,-8.002410694911035738e-02,-4.801446416946622553e-02,-1.600482138982209368e-02,-2.775557561562891351e-17,-2.775557561562891351e-17,-2.775557561562891351e-17,-3.693420320728196815e-03,-1.108026096218453493e-02,-1.846710160364087305e-02,-2.585394224509721117e-02,-3.324078288655354929e-02,-4.062762352800988741e-02,-4.778362539942071496e-02,-5.517046604087705308e-02,-6.255730668233339120e-02,-6.994414732378972932e-02,-7.733098796524606744e-02,-8.471782860670240556e-02,-9.210466924815874368e-02,-9.949150988961508180e-02,-1.068783505310714199e-01,-1.142651911725277580e-01,-1.216520318139840962e-01,-1.290388724554404343e-01,-1.364257130968967724e-01,-1.438125537383531105e-01,-1.511993943798094486e-01,-1.585862350212657867e-01,-1.659730756627221249e-01,-1.733599163041784630e-01,-1.807467569456348011e-01,-1.881335975870911392e-01,-1.920578566778648189e-01,-1.920578566778648189e-01,-1.920578566778648189e-01,-1.920578566778648189e-01,-1.920578566778648189e-01
-1.920578566778648189e-01,-1.920578566778648189e-01,-1.920578566778648189e-01,-1.920578566778648189e-01,-1.920578566778648189e-01,-1.920578566778648189e-01,-1.920578566778648189e-01,-1.740524326143149947e-01,-1.420427898346708628e-01,-1.110334483918906101e-01,-7.902380561224647826e-02,-4.701416283260234641e-02,-1.500452005295821456e-02,-2.775557561562891351e-17,-2.775557561562891351e-17,-2.775557561562891351e-17,-3.924259090773735137e-03,-1.131109973223001774e-02,-1.869794037368638362e-02,-2.608478101514272174e-02,-3.347162165659905986e-02,-4.085846229805539798e-02,-4.824530293951173610e-02,-5.563214358096807421e-02,-6.301898422242441233e-02,-7.040582486388075045e-02,-7.779266550533708857e-02,-8.517950614679342669e-02,-9.256634678824976481e-02,-9.995318742970610293e-02,-1.073400280711624410e-01,-1.147268687126187792e-01,-1.221137093540751173e-01,-1.295005499955314554e-01,-1.368873906369877935e-01,-1.442742312784441316e-01,-1.514302331498549592e-01,-1.588170737913112973e-01,-1.662039144327676354e-01,-1.735907550742239736e-01,-1.809775957156803117e-01,-1.883644363571366498e-01,-1.920578566778648189e-01,-1.920578566778648189e-01,-1.920578566778648189e-01,-1.920578566778648189e-01,-1.920578566778648189e-01
-1.920578566778648189e-01,-1.920578566778648189e-01,-1.920578566778648189e-01,-1.920578566778648189e-01,-1.920578566778648189e-01,-1.920578566778648189e-01,-1.920578566778648189e-01,-1.730521312774511156e-01,-1.410424884978069837e-01,-1.090328457181628519e-01,-7.702320293851872002e-02,-4.501356015887458817e-02,-1.300391737923045632e-02,-2.775557561562891351e-17,-2.775557561562891351e-17,-2.775557561562891351e-17,-4.385936630864728514e-03,-1.177277727232106663e-02,-1.915961791377740475e-02,-2.654645855523374287e-02,-3.393329919669008099e-02,-4.132013983814641911e-02,-4.870698047960272947e-02,-5.609382112105909535e-02,-6.324982299246992290e-02,-7.063666363392626102e-02,-7.802350427538259914e-02,-8.541034491683893726e-02,-9.279718555829527538e-02,-1.001840261997516135e-01,-1.075708668412079516e-01,-1.149577074826642897e-01,-1.223445481241206279e-01,-1.297313887655769660e-01,-1.371182294070333041e-01,-1.445050700484896422e-01,-1.518919106899459803e-01,-1.592787513314023184e-01,-1.666655919728586566e-01,-1.740524326143149947e-01,-1.814392732557713328e-01,-1.888261138972276709e-01,-1.920578566778648189e-01,-1.920578566778648189e-01,-1.920578566778648189e-01,-1.920578566778648189e-01,-1.920578566778648189e-01
-1.920578566778648189e-01,-1.920578566778648189e-01,-1.920578566778648189e-01,-1.920578566778648189e-01,-1.920578566778648189e-01,-1.920578566778648189e-01,-1.920578566778648189e-01,-1.710515286037233573e-01,-1.390418858240792255e-01,-1.070322430444350936e-01,-7.502260026479096178e-02,-4.301295748514682993e-02,-1.200361604236657720e-02,-2.775557561562891351e-17,-2.775557561562891351e-17,-2.775557561562891351e-17,-4.616775400910239080e-03,-1.200361604236657720e-02,-1.939045668382291532e-02,-2.677729732527925344e-02,-3.416413796673559156e-02,-4.155097860819192968e-02,-4.893781924964826779e-02,-5.632465989110460591e-02,-6.371150053256094403e-02,-7.109834117401728215e-02,-7.848518181547362027e-02,-8.587202245692995839e-02,-9.325886309838629651e-02,-1.006457037398426346e-01,-1.080325443812989727e-01,-1.154193850227553109e-01,-1.228062256642116490e-01,-1.301930663056679871e-01,-1.375799069471243252e-01,-1.449667475885806633e-01,-1.523535882300370015e-01,-1.597404288714933396e-01,-1.671272695129496777e-01,-1.742832713843605053e-01,-1.816701120258168434e-01,-1.890569526672731815e-01,-1.920578566778648189e-01,-1.920578566778648189e-01,-1.920578566778648189e-01,-1.920578566778648189e-01,-1.920578566778648189e-01
-1.920578566778648189e-01,-1.920578566778648189e-01,-1.920578566778648189e-01,-1.920578566778648189e-01,-1.920578566778648189e-01,-1.920578566778648189e-01,-1.920578566778648189e-01,-1.700512272668594782e-01,-1.380415844872153464e-01,-1.060319417075712145e-01,-7.402229892792708266e-02,-4.201265614828295081e-02,-1.000301336863881896e-02,-2.775557561562891351e-17,-2.775557561562891351e-17,-2.775557561562891351e-17,-5.078452941001260212e-03,-1.246529358245759833e-02,-1.985213422391393645e-02,-2.723897486537024681e-02,-3.462581550682661269e-02,-4.201265614828295081e-02,-4.939949678973928893e-02,-5.678633743119562705e-02,-6.417317807265196516e-02,-7.156001871410830328e-02,-7.894685935556464140e-02,-8.610286122697546896e-02,-9.348970186843180707e-02,-1.008765425098881452e-01,-1.082633831513444833e-01,-1.156502237928008214e-01,-1.230370644342571596e-01,-1.304239050757134977e-01,-1.378107457171698358e-01,-1.451975863586261739e-01,-1.525844270000825120e-01,-1.599712676415388501e-01,-1.673581082829951883e-01,-1.747449489244515264e-01,-1.821317895659078645e-01,-1.895186302073642026e-01,-1.920578566778648189e-01,-1.920578566778648189e-01,-1.920578566778648189e-01,-1.920578566778648189e-01,-1.920578566778648189e-01
-1.920578566778648189e-01,-1.920578566778648189e-01,-1.920578566778648189e-01,-1.920578566778648189e-01,-1.920578566778648189e-01,-1.920578566778648189e-01,-1.920578566778648189e-01,-1.680506245931317200e-01,-1.360409818134875881e-01,-1.040313390338434563e-01,-7.202169625419932442e-02,-4.001205347455519257e-02,-8.002410694911060718e-03,-2.775557561562891351e-17,-2.775557561562891351e-17,-2.775557561562891351e-17,-5.309291711046770779e-03,-1.269613235250310890e-02,-2.008297299395944702e-02,-2.746981363541575738e-02,-3.485665427687212325e-02,-4.224349491832846137e-02,-4.963033555978479949e-02,-5.701717620124113761e-02,-6.440401684269747573e-02,-7.179085748415381385e-02,-7.917769812561015197e-02,-8.656453876706649009e-02,-9.395137940852282821e-02,-1.013382200499791663e-01,-1.087250606914355044e-01,-1.161119013328918426e-01,-1.234987419743481807e-01,-1.308855826158045188e-01,-1.382724232572608569e-01,-1.456592638987171950e-01,-1.530461045401735332e-01,-1.604329451816298713e-01,-1.678197858230862094e-01,-1.752066264645425475e-01,-1.825934671059988856e-01,-1.897494689774097132e-01,-1.920578566778648189e-01,-1.920578566778648189e-01,-1.920578566778648189e-01,-1.920578566778648189e-01,-1.920578566778648189e-01
-1.920578566778648189e-01,-1.920578566778648189e-01,-1.920578566778648189e-01,-1.920578566778648189e-01,-1.920578566778648189e-01,-1.920578566778648189e-01,-1.920578566778648189e-01,-1.670503232562678408e-01,-1.350406804766237090e-01,-1.030310376969795771e-01,-7.102139491733544530e-02,-3.901175213769131345e-02,-7.002109358047209353e-03,-2.775557561562891351e-17,-2.775557561562891351e-17,-2.775557561562891351e-17,-5.770969251137791911e-03,-1.315780989259413003e-02,-2.054465053405046815e-02,-2.793149117550680627e-02,-3.531833181696314439e-02,-4.270517245841948251e-02,-5.009201309987582063e-02,-5.747885374133215874e-02,-6.486569438278849686e-02,-7.225253502424483498e-02,-7.963937566570117310e-02,-8.702621630715751122e-02,-9.441305694861384934e-02,-1.015690588200246769e-01,-1.089558994614810150e-01,-1.163427401029373531e-01,-1.237295807443936912e-01,-1.311164213858500294e-01,-1.385032620273063675e-01,-1.458901026687627056e-01,-1.532769433102190437e-01,-1.606637839516753818e-01,-1.680506245931317200e-01,-1.754374652345880581e-01,-1.828243058760443962e-01,-1.902111465175007343e-01,-1.920578566778648189e-01,-1.920578566778648189e-01,-1.920578566778648189e-01,-1.920578566778648189e-01,-1.920578566778648189e-01
-1.920578566778648189e-01,-1.920578566778648189e-01,-1.920578566778648189e-01,-1.920578566778648189e-01,-1.920578566778648189e-01,-1.920578566778648189e-01,-1.920578566778648189e-01,-1.650497205825400826e-01,-1.330400778028959508e-01,-1.010304350232518189e-01,-6.902079224360768706e-02,-3.701114946396355521e-02,-5.001506684319395601e-03,-2.775557561562891351e-17,-2.775557561562891351e-17,-2.775557561562891351e-17,-6.232646791228813044e-03,-1.338864866263966835e-02,-2.077548930409597872e-02,-2.816232994555231683e-02,-3.554917058700865495e-02,-4.293601122846499307e-02,-5.032285186992133119e-02,-5.770969251137766931e-02,-6.509653315283400743e-02,-7.248337379429034555e-02,-7.987021443574668367e-02,-8.725705507720302179e-02,-9.464389571865935991e-02,-1.020307363601156980e-01,-1.094175770015720361e-01,-1.168044176430283743e-01,-1.241912582844847124e-01,-1.315780989259410505e-01,-1.389649395673973886e-01,-1.463517802088537267e-01,-1.537386208503100649e-01,-1.611254614917664030e-01,-1.685123021332227411e-01,-1.758991427746790792e-01,-1.832859834161354173e-01,-1.906728240575917555e-01,-1.920578566778648189e-01,-1.920578566778648189e-01,-1.920578566778648189e-01,-1.920578566778648189e-01,-1.920578566778648189e-01
-1.920578566778648189e-01,-1.920578566778648189e-01,-1.920578566778648189e-01,-1.920578566778648189e-01,-1.920578566778648189e-01,-1.920578566778648189e-01,-1.920578566778648189e-01,-1.640494192456762035e-01,-1.320397764660320716e-01,-1.000301336863879398e-01,-6.802049090674380794e-02,-3.601084812709967609e-02,-4.001205347455544237e-03,-2.775557561562891351e-17,-2.775557561562891351e-17,-2.775557561562891351e-17,-6.463485561274323610e-03,-1.385032620273066173e-02,-2.123716684418699985e-02,-2.862400748564333797e-02,-3.601084812709967609e-02,-4.339768876855601420e-02,-5.078452941001235232e-02,-5.817137005146869044e-02,-6.555821069292502856e-02,-7.294505133438136668e-02,-8.033189197583770480e-02,-8.771873261729404292e-02,-9.510557325875038104e-02,-1.024924139002067192e-01,-1.098792545416630573e-01,-1.172660951831193954e-01,-1.244220970545302229e-01,-1.318089376959865611e-01,-1.391957783374428992e-01,-1.465826189788992373e-01,-1.539694596203555754e-01,-1.613563002618119135e-01,-1.687431409032682517e-01,-1.761299815447245898e-01,-1.835168221861809279e-01,-1.909036628276372660e-01,-1.920578566778648189e-01,-1.920578566778648189e-01,-1.920578566778648189e-01,-1.920578566778648189e-01,-1.920578566778648189e-01
-1.920578566778648189e-01,-1.920578566778648189e-01,-1.920578566778648189e-01,-1.920578566778648189e-01,-1.920578566778648189e-01,-1.920578566778648189e-01,-1.920578566778648189e-01,-1.620488165719484452e-01,-1.300391737923043134e-01,-9.802953101266018154e-02,-6.601988823301604969e-02,-3.401024545337191785e-02,-2.000602673727785996e-03,-2.775557561562891351e-17,-2.775557561562891351e-17,-2.775557561562891351e-17,-6.925163101365344742e-03,-1.431200374282168286e-02,-2.169884438427802098e-02,-2.885484625568884853e-02,-3.624168689714518665e-02,-4.362852753860152477e-02,-5.101536818005786289e-02,-5.840220882151420101e-02,-6.578904946297053913e-02,-7.317589010442687725e-02,-8.056273074588321537e-02,-8.794957138733955349e-02,-9.533641202879589160e-02,-1.027232526702522297e-01,-1.101100933117085678e-01,-1.174969339531649060e-01,-1.248837745946212441e-01,-1.322706152360775822e-01,-1.396574558775339203e-01,-1.470442965189902584e-01,-1.544311371604465966e-01,-1.618179778019029347e-01,-1.692048184433592728e-01,-1.765916590848156109e-01,-1.839784997262719490e-01,-1.913653403677282872e-01,-1.920578566778648189e-01,-1.920578566778648189e-01,-1.920578566778648189e-01,-1.920578566778648189e-01,-1.920578566778648189e-01
-1.920578566778648189e-01,-1.920578566778648189e-01,-1.920578566778648189e-01,-1.920578566778648189e-01,-1.920578566778648189e-01,-1.920578566778648189e-01,-1.920578566778648189e-01,-1.610485152350845661e-01,-1.290388724554404343e-01,-9.702922967579630242e-02,-6.501958689615217057e-02,-3.300994411650803873e-02,-1.000301336863879120e-03,-2.775557561562891351e-17,-2.775557561562891351e-17,-2.775557561562891351e-17,-7.156001871410855308e-03,-1.454284251286719343e-02,-2.192968315432353155e-02,-2.931652379577986967e-02,-3.670336443723620778e-02,-4.409020507869254590e-02,-5.147704572014888402e-02,-5.886388636160522214e-02,-6.625072700306156026e-02,-7.363756764451789838e-02,-8.102440828597423650e-02,-8.841124892743057462e-02,-9.579808956888691274e-02,-1.031849302103432509e-01,-1.105717708517995890e-01,-1.179586114932559271e-01,-1.253454521347122652e-01,-1.327322927761686033e-01,-1.398882946475794309e-01,-1.472751352890357690e-01,-1.546619759304921071e-01,-1.620488165719484452e-01,-1.694356572134047834e-01,-1.768224978548611215e-01,-1.842093384963174596e-01,-1.915961791377737977e-01,-1.920578566778648189e-01,-1.920578566778648189e-01,-1.920578566778648189e-01,-1.920578566778648189e-01,-1.920578566778648189e-01
-1.920578566778648189e-01,-1.920578566778648189e-01,-1.920578566778648189e-01,-1.920578566778648189e-01,-1.920578566778648189e-01,-1.920578566778648189e-01,-1.910575553410009397e-01,-1.590479125613568079e-01,-1.270382697817126760e-01,-9.502862700206854418e-02,-6.301898422242441233e-02,-3.100934144278028048e-02,-2.775557561562891351e-17,-2.775557561562891351e-17,-2.775557561562891351e-17,-2.308387700455383218e-04,-7.617679411501848685e-03,-1.500452005295821456e-02,-2.239136069441455268e-02,-2.977820133587089080e-02,-3.716504197732722892e-02,-4.455188261878356704e-02,-5.170788449019439459e-02,-5.909472513165073271e-02,-6.648156577310707083e-02,-7.386840641456340895e-02,-8.125524705601974707e-02,-8.864208769747608518e-02,-9.602892833893242330e-02,-1.034157689803887614e-01,-1.108026096218450995e-01,-1.181894502633014377e-01,-1.255762909047577758e-01,-1.329631315462141139e-01,-1.403499721876704520e-01,-1.477368128291267901e-01,-1.551236534705831283e-01,-1.625104941120394664e-01,-1.698973347534958045e-01,-1.772841753949521426e-01,-1.846710160364084807e-01,-1.920578566778648189e-01,-1.920578566778648189e-01,-1.920578566778648189e-01,-1.920578566778648189e-01,-1.920578566778648189e-01,-1.920578566778648189e-01
-1.920578566778648189e-01,-1.920578566778648189e-01,-1.920578566778648189e-01,-1.920578566778648189e-01,-1.920578566778648189e-01,-1.920578566778648189e-01,-1.890569526672731815e-01,-1.570473098876290496e-01,-1.250376671079849178e-01,-9.402832566520466506e-02,-6.201868288556053321e-02,-3.000904010591640136e-02,-2.775557561562891351e-17,-2.775557561562891351e-17,-2.775557561562891351e-17,-4.616775400910488880e-04,-7.848518181547387007e-03,-1.523535882300372513e-02,-2.262219946446006325e-02,-3.000904010591640136e-02,-3.739588074737273948e-02,-4.478272138882907760e-02,-5.216956203028541572e-02,-5.955640267174175384e-02,-6.694324331319809196e-02,-7.433008395465443008e-02,-8.171692459611076820e-02,-8.910376523756710632e-02,-9.649060587902344444e-02,-1.038774465204797826e-01,-1.112642871619361207e-01,-1.186511278033924588e-01,-1.260379684448487969e-01,-1.334248090863051350e-01,-1.408116497277614731e-01,-1.481984903692178113e-01,-1.553544922406286388e-01,-1.627413328820849769e-01,-1.701281735235413151e-01,-1.775150141649976532e-01,-1.849018548064539913e-01,-1.920578566778648189e-01,-1.920578566778648189e-01,-1.920578566778648189e-01,-1.920578566778648189e-01,-1.920578566778648189e-01,-1.920578566778648189e-01
-1.920578566778648189e-01,-1.920578566778648189e-01,-1.920578566778648189e-01,-1.920578566778648189e-01,-1.920578566778648189e-01,-1.920578566778648189e-01,-1.911825930081089142e-01,-1.830551446460899068e-01,-1.708014532695073806e-01,-1.576724982231689776e-01,-1.384166974885392976e-01,-1.202862357578814989e-01,-9.602892833893242330e-02,-9.002712031774914858e-02,-7.802350427538259914e-02,-7.259879317931310083e-02,-6.573133977045916843e-02,-5.978724144178726441e-02,-6.004693505808847420e-02,-5.571870811973514415e-02,-5.713259558626390677e-02,-5.442024003822915068e-02,-5.698832135498543838e-02,-6.001808021183277497e-02,-6.717408208324360253e-02,-7.456092272469994064e-02,-8.194776336615627876e-02,-8.933460400761261688e-02,-9.672144464906895500e-02,-1.041082852905252931e-01,-1.114951259319816312e-01,-1.188819665734379694e-01,-1.262688072148943075e-01,-1.336556478563506456e-01,-1.410424884978069837e-01,-1.484293291392633218e-01,-1.558161697807196600e-01,-1.632030104221759981e-01,-1.705898510636323362e-01,-1.779766917050886743e-01,-1.853635323465450124e-01,-1.920578566778648189e-01,-1.920578566778648189e-01,-1.920578566778648189e-01,-1.920578566778648189e-01,-1.920578566778648189e-01,-1.920578566778648189e-01
