-2.775180276454448647e-01,-2.775180276454448647e-01,-2.775180276454448647e-01,-2.775180276454448647e-01,-2.775180276454448647e-01,-2.775180276454448647e-01,-2.775180276454448647e-01,-2.775180276454448647e-01,-2.775180276454448647e-01,-2.775180276454448647e-01,-2.775180276454448647e-01,-2.775180276454448647e-01,-2.775180276454448647e-01,-2.775180276454448647e-01,-2.775180276454448647e-01,-2.775180276454448647e-01,-2.775180276454448647e-01,-2.775180276454448647e-01,-2.775180276454448647e-01,-2.775180276454448647e-01,-2.775180276454448647e-01,-2.775180276454448647e-01,-2.775180276454448647e-01,-2.775180276454448647e-01,-2.775180276454448647e-01,-2.775180276454448647e-01,-2.775180276454448647e-01,-2.775180276454448647e-01,-2.775180276454448647e-01,-2.775180276454448647e-01,-2.699296440770147520e-01,-2.623412605085845839e-01,-2.547528769401544713e-01,-2.466224659739793268e-01,-2.390340824055491864e-01,-2.314456988371190738e-01,-2.238573152686889334e-01,-2.162689317002587930e-01,-2.495528015930382759e-01,-2.775180276454448647e-01,-2.775180276454448647e-01,-2.775180276454448647e-01,-2.775180276454448647e-01,-2.775180276454448647e-01,-2.775180276454448647e-01,-2.775180276454448647e-01,-2.775180276454448647e-01
-2.775180276454448647e-01,-2.775180276454448647e-01,-2.775180276454448647e-01,-2.775180276454448647e-01,-2.775180276454448647e-01,-2.775180276454448647e-01,-2.775180276454448647e-01,-2.775180276454448647e-01,-2.775180276454448647e-01,-2.775180276454448647e-01,-2.775180276454448647e-01,-2.775180276454448647e-01,-2.775180276454448647e-01,-2.775180276454448647e-01,-2.775180276454448647e-01,-2.775180276454448647e-01,-2.775180276454448647e-01,-2.775180276454448647e-01,-2.775180276454448647e-01,-2.775180276454448647e-01,-2.775180276454448647e-01,-2.775180276454448647e-01,-2.775180276454448647e-01,-2.775180276454448647e-01,-2.775180276454448647e-01,-2.775180276454448647e-01,-2.775180276454448647e-01,-2.769760002476998606e-01,-2.693876166792697480e-01,-2.617992331108395798e-01,-2.542108495424094672e-01,-2.466224659739793268e-01,-2.390340824055491864e-01,-2.314456988371190738e-01,-2.238573152686889334e-01,-2.157269043025137889e-01,-2.081385207340836763e-01,-2.005501371656535081e-01,-2.061736714172580087e-01,-2.775180276454448647e-01,-2.775180276454448647e-01,-2.775180276454448647e-01,-2.775180276454448647e-01,-2.775180276454448647e-01,-2.775180276454448647e-01,-2.775180276454448647e-01,-2.775180276454448647e-01
-2.775180276454448647e-01,-2.775180276454448647e-01,-2.775180276454448647e-01,-2.775180276454448647e-01,-2.775180276454448647e-01,-2.775180276454448647e-01,-2.775180276454448647e-01,-2.775180276454448647e-01,-2.775180276454448647e-01,-2.775180276454448647e-01,-2.775180276454448647e-01,-2.775180276454448647e-01,-2.775180276454448647e-01,-2.775180276454448647e-01,-2.775180276454448647e-01,-2.775180276454448647e-01,-2.775180276454448647e-01,-2.775180276454448647e-01,-2.775180276454448647e-01,-2.775180276454448647e-01,-2.775180276454448647e-01,-2.775180276454448647e-01,-2.775180276454448647e-01,-2.775180276454448647e-01,-2.775180276454448647e-01,-2.769760002476998606e-01,-2.693876166792697480e-01,-2.617992331108395798e-01,-2.542108495424094672e-01,-2.460804385762343227e-01,-2.384920550078041823e-01,-2.309036714393740419e-01,-2.233152878709439015e-01,-2.157269043025137889e-01,-2.081385207340836763e-01,-2.005501371656535359e-01,-1.929617535972233955e-01,-1.853733700287932828e-01,-1.772429590626181106e-01,-2.370692330887235189e-01,-2.775180276454448647e-01,-2.775180276454448647e-01,-2.775180276454448647e-01,-2.775180276454448647e-01,-2.775180276454448647e-01,-2.775180276454448647e-01,-2.775180276454448647e-01
-2.775180276454448647e-01,-2.775180276454448647e-01,-2.775180276454448647e-01,-2.775180276454448647e-01,-2.775180276454448647e-01,-2.775180276454448647e-01,-2.775180276454448647e-01,-2.775180276454448647e-01,-2.775180276454448647e-01,-2.775180276454448647e-01,-2.775180276454448647e-01,-2.775180276454448647e-01,-2.775180276454448647e-01,-2.775180276454448647e-01,-2.775180276454448647e-01,-2.775180276454448647e-01,-2.775180276454448647e-01,-2.775180276454448647e-01,-2.775180276454448647e-01,-2.775180276454448647e-01,-2.775180276454448647e-01,-2.775180276454448647e-01,-2.775180276454448647e-01,-2.764339728499548565e-01,-2.688455892815246884e-01,-2.612572057130945757e-01,-2.536688221446644631e-01,-2.460804385762343227e-01,-2.384920550078041823e-01,-2.309036714393740697e-01,-2.233152878709439015e-01,-2.151848769047687848e-01,-2.075964933363386722e-01,-2.000081097679085040e-01,-1.924197261994783914e-01,-1.848313426310482510e-01,-1.772429590626181106e-01,-1.696545754941879980e-01,-1.620661919257578854e-01,-1.775478494738496893e-01,-2.775180276454448647e-01,-2.775180276454448647e-01,-2.775180276454448647e-01,-2.775180276454448647e-01,-2.775180276454448647e-01,-2.775180276454448647e-01,-2.775180276454448647e-01
-2.775180276454448647e-01,-2.775180276454448647e-01,-2.775180276454448647e-01,-2.775180276454448647e-01,-2.775180276454448647e-01,-2.775180276454448647e-01,-2.775180276454448647e-01,-2.775180276454448647e-01,-2.775180276454448647e-01,-2.775180276454448647e-01,-2.775180276454448647e-01,-2.775180276454448647e-01,-2.775180276454448647e-01,-2.775180276454448647e-01,-2.775180276454448647e-01,-2.775180276454448647e-01,-2.775180276454448647e-01,-2.775180276454448647e-01,-2.775180276454448647e-01,-2.775180276454448647e-01,-2.775180276454448647e-01,-2.764339728499548565e-01,-2.688455892815246884e-01,-2.612572057130945757e-01,-2.536688221446644631e-01,-2.455384111784893186e-01,-2.379500276100591782e-01,-2.303616440416290378e-01,-2.227732604731988975e-01,-2.151848769047687848e-01,-2.075964933363386722e-01,-2.000081097679085318e-01,-1.924197261994783914e-01,-1.848313426310482510e-01,-1.767009316648731065e-01,-1.691125480964429939e-01,-1.615241645280128535e-01,-1.539357809595827131e-01,-1.463473973911526005e-01,-1.387590138227224601e-01,-2.226377536237626464e-01,-2.775180276454448647e-01,-2.775180276454448647e-01,-2.775180276454448647e-01,-2.775180276454448647e-01,-2.775180276454448647e-01,-2.775180276454448647e-01
-2.775180276454448647e-01,-2.775180276454448647e-01,-2.775180276454448647e-01,-2.775180276454448647e-01,-2.775180276454448647e-01,-2.775180276454448647e-01,-2.775180276454448647e-01,-2.775180276454448647e-01,-2.775180276454448647e-01,-2.775180276454448647e-01,-4.600053602884798254e-01,-4.600053602884798254e-01,-4.600053602884798254e-01,-2.775180276454448647e-01,-2.775180276454448647e-01,-2.775180276454448647e-01,-2.775180276454448647e-01,-2.775180276454448647e-01,-2.775180276454448647e-01,-2.758919454522098524e-01,-2.683035618837796843e-01,-2.607151783153495717e-01,-2.531267947469194590e-01,-2.455384111784893186e-01,-2.379500276100591782e-01,-2.303616440416290378e-01,-2.227732604731988975e-01,-2.151848769047687848e-01,-2.070544659385936404e-01,-1.994660823701635000e-01,-1.918776988017333873e-01,-1.842893152333032469e-01,-1.767009316648731065e-01,-1.691125480964429939e-01,-1.615241645280128535e-01,-1.539357809595827131e-01,-1.458053699934075964e-01,-1.382169864249774838e-01,-1.306286028565473156e-01,-1.230402192881172030e-01,-1.458392467057666453e-01,-2.775180276454448647e-01,-2.775180276454448647e-01,-2.775180276454448647e-01,-2.775180276454448647e-01,-2.775180276454448647e-01,-2.775180276454448647e-01
-2.775180276454448647e-01,-2.775180276454448647e-01,-2.775180276454448647e-01,-2.775180276454448647e-01,-2.775180276454448647e-01,-2.775180276454448647e-01,-2.775180276454448647e-01,-2.775180276454448647e-01,-2.775180276454448647e-01,-2.775180276454448647e-01,-4.600053602884798254e-01,-4.600053602884798254e-01,-4.600053602884798254e-01,-2.775180276454448647e-01,-2.775180276454448647e-01,-2.775180276454448647e-01,-2.775180276454448647e-01,-2.758919454522098524e-01,-2.683035618837796843e-01,-2.607151783153495717e-01,-2.531267947469194590e-01,-2.449963837807442868e-01,-2.374080002123141742e-01,-2.298196166438840338e-01,-2.222312330754538934e-01,-2.146428495070237807e-01,-2.070544659385936404e-01,-1.994660823701635000e-01,-1.918776988017333873e-01,-1.842893152333032192e-01,-1.761589042671281025e-01,-1.685705206986979898e-01,-1.609821371302678217e-01,-1.533937535618377090e-01,-1.458053699934075964e-01,-1.382169864249774560e-01,-1.306286028565473156e-01,-1.230402192881172030e-01,-1.154518357196870626e-01,-1.073214247535119181e-01,-9.973304118508180549e-02,-2.137959316980471980e-01,-2.775180276454448647e-01,-2.775180276454448647e-01,-2.775180276454448647e-01,-2.775180276454448647e-01,-2.775180276454448647e-01
-2.775180276454448647e-01,-2.775180276454448647e-01,-2.775180276454448647e-01,-2.775180276454448647e-01,-2.775180276454448647e-01,-2.775180276454448647e-01,-2.775180276454448647e-01,-2.775180276454448647e-01,-2.775180276454448647e-01,-2.775180276454448647e-01,-4.600053602884798254e-01,-4.600053602884798254e-01,-4.600053602884798254e-01,-2.775180276454448647e-01,-2.775180276454448647e-01,-2.753499180544648484e-01,-2.677615344860346802e-01,-2.601731509176045676e-01,-2.525847673491744549e-01,-2.449963837807442868e-01,-2.374080002123141742e-01,-2.298196166438840338e-01,-2.222312330754538934e-01,-2.146428495070237807e-01,-2.065124385408486363e-01,-1.989240549724184959e-01,-1.913356714039883832e-01,-1.837472878355582151e-01,-1.761589042671281025e-01,-1.685705206986979621e-01,-1.609821371302678217e-01,-1.533937535618377090e-01,-1.452633425956625646e-01,-1.376749590272324242e-01,-1.300865754588023115e-01,-1.224981918903721712e-01,-1.149098083219420585e-01,-1.073214247535119181e-01,-9.973304118508180549e-02,-9.214465761665166510e-02,-8.455627404822152471e-02,-1.204147740802897770e-01,-2.775180276454448647e-01,-2.775180276454448647e-01,-2.775180276454448647e-01,-2.775180276454448647e-01,-2.775180276454448647e-01
-2.775180276454448647e-01,-2.775180276454448647e-01,-2.775180276454448647e-01,-2.775180276454448647e-01,-2.775180276454448647e-01,-2.775180276454448647e-01,-2.775180276454448647e-01,-2.775180276454448647e-01,-2.775180276454448647e-01,-2.775180276454448647e-01,-2.775180276454448647e-01,-2.775180276454448647e-01,-2.775180276454448647e-01,-2.753499180544648484e-01,-2.677615344860346802e-01,-2.601731509176045676e-01,-2.525847673491744549e-01,-2.449963837807442868e-01,-2.368659728145691701e-01,-2.292775892461390297e-01,-2.216892056777088893e-01,-2.141008221092787767e-01,-2.065124385408486363e-01,-1.989240549724184959e-01,-1.913356714039883832e-01,-1.837472878355582429e-01,-1.756168768693830984e-01,-1.680284933009529580e-01,-1.604401097325228176e-01,-1.528517261640927050e-01,-1.452633425956625923e-01,-1.376749590272324242e-01,-1.300865754588023115e-01,-1.224981918903721712e-01,-1.149098083219420585e-01,-1.067793973557669418e-01,-9.919101378733680141e-02,-9.160263021890666102e-02,-8.401424665047652063e-02,-7.642586308204635248e-02,-6.883747951361621209e-02,-6.124909594518609945e-02,-2.005670755218330603e-01,-2.775180276454448647e-01,-2.775180276454448647e-01,-2.775180276454448647e-01,-2.775180276454448647e-01
-2.775180276454448647e-01,-2.775180276454448647e-01,-2.775180276454448647e-01,-2.775180276454448647e-01,-2.775180276454448647e-01,-2.775180276454448647e-01,-2.775180276454448647e-01,-2.775180276454448647e-01,-2.775180276454448647e-01,-2.775180276454448647e-01,-2.775180276454448647e-01,-2.748078906567198443e-01,-2.672195070882896761e-01,-2.596311235198595635e-01,-2.520427399514294509e-01,-2.444543563829992827e-01,-2.368659728145691701e-01,-2.292775892461390297e-01,-2.216892056777088893e-01,-2.141008221092787767e-01,-2.059704111431036322e-01,-1.983820275746734918e-01,-1.907936440062433792e-01,-1.832052604378132110e-01,-1.756168768693830984e-01,-1.680284933009529580e-01,-1.604401097325228454e-01,-1.528517261640927050e-01,-1.452633425956625923e-01,-1.371329316294874201e-01,-1.295445480610573075e-01,-1.219561644926271671e-01,-1.143677809241970267e-01,-1.067793973557668863e-01,-9.919101378733680141e-02,-9.160263021890666102e-02,-8.401424665047654838e-02,-7.588383568430137616e-02,-6.829545211587123577e-02,-6.070706854744109537e-02,-5.311868497901095498e-02,-4.553030141058084235e-02,-9.034919186162129745e-02,-2.775180276454448647e-01,-2.775180276454448647e-01,-2.775180276454448647e-01,-2.775180276454448647e-01
-2.775180276454448647e-01,-2.775180276454448647e-01,-2.775180276454448647e-01,-2.775180276454448647e-01,-2.775180276454448647e-01,-2.775180276454448647e-01,-2.775180276454448647e-01,-2.775180276454448647e-01,-2.775180276454448647e-01,-2.748078906567198443e-01,-2.672195070882896761e-01,-2.596311235198595635e-01,-2.520427399514294509e-01,-2.444543563829992827e-01,-2.363239454168241660e-01,-2.287355618483940256e-01,-2.211471782799638852e-01,-2.135587947115337726e-01,-2.059704111431036322e-01,-1.983820275746734918e-01,-1.907936440062433792e-01,-1.832052604378132388e-01,-1.750748494716380943e-01,-1.674864659032079262e-01,-1.598980823347778135e-01,-1.523096987663477009e-01,-1.447213151979175605e-01,-1.371329316294874201e-01,-1.295445480610573075e-01,-1.219561644926271671e-01,-1.143677809241970267e-01,-1.062373699580219100e-01,-9.864898638959176957e-02,-9.106060282116165694e-02,-8.347221925273151655e-02,-7.588383568430140391e-02,-6.829545211587123577e-02,-6.070706854744106762e-02,-5.311868497901095498e-02,-4.553030141058084235e-02,-3.739989044440567012e-02,-2.981150687597555748e-02,-2.222312330754544485e-02,-1.953670001747168650e-01,-2.775180276454448647e-01,-2.775180276454448647e-01,-2.775180276454448647e-01
-2.775180276454448647e-01,-2.775180276454448647e-01,-2.775180276454448647e-01,-2.775180276454448647e-01,-2.775180276454448647e-01,-2.775180276454448647e-01,-2.775180276454448647e-01,-2.742658632589747847e-01,-2.666774796905446721e-01,-2.590890961221145594e-01,-2.515007125536843913e-01,-2.439123289852542786e-01,-2.363239454168241382e-01,-2.287355618483940256e-01,-2.211471782799638852e-01,-2.135587947115337726e-01,-2.054283837453586004e-01,-1.978400001769284877e-01,-1.902516166084983751e-01,-1.826632330400682069e-01,-1.750748494716380943e-01,-1.674864659032079539e-01,-1.598980823347778135e-01,-1.523096987663477009e-01,-1.447213151979175882e-01,-1.365909042317424160e-01,-1.290025206633123034e-01,-1.214141370948821630e-01,-1.138257535264520504e-01,-1.062373699580219100e-01,-9.864898638959179733e-02,-9.106060282116165694e-02,-8.347221925273151655e-02,-7.588383568430137616e-02,-6.775342471812620393e-02,-6.016504114969606354e-02,-5.257665758126597866e-02,-4.498827401283581051e-02,-3.739989044440572563e-02,-2.981150687597555748e-02,-2.222312330754544485e-02,-1.463473973911533221e-02,-6.504328772940159986e-03,-6.937950691136124393e-02,-2.775180276454448647e-01,-2.775180276454448647e-01,-2.775180276454448647e-01
-2.775180276454448647e-01,-2.775180276454448647e-01,-2.775180276454448647e-01,-2.775180276454448647e-01,-2.775180276454448647e-01,-2.742658632589747847e-01,-2.666774796905446721e-01,-2.590890961221145594e-01,-2.515007125536843913e-01,-2.439123289852542786e-01,-2.357819180190791342e-01,-2.281935344506489938e-01,-2.206051508822188811e-01,-2.130167673137887407e-01,-2.054283837453586004e-01,-1.978400001769284877e-01,-1.902516166084983473e-01,-1.826632330400682069e-01,-1.750748494716380943e-01,-1.669444385054629498e-01,-1.593560549370328094e-01,-1.517676713686026968e-01,-1.441792878001725564e-01,-1.365909042317424160e-01,-1.290025206633123034e-01,-1.214141370948821630e-01,-1.138257535264520226e-01,-1.056953425602769059e-01,-9.810695899184676549e-02,-9.051857542341665286e-02,-8.293019185498648471e-02,-7.534180828655634432e-02,-6.775342471812623169e-02,-6.016504114969611905e-02,-5.257665758126592315e-02,-4.498827401283581051e-02,-3.685786304666066604e-02,-2.926947947823055340e-02,-2.168109590980044077e-02,-1.409271234137032813e-02,-6.504328772940159986e-03,-5.551115123125782702e-17,-1.110223024625156540e-16,-5.551115123125782702e-17,-1.907936440062433514e-01,-2.775180276454448647e-01,-2.775180276454448647e-01
-2.775180276454448647e-01,-2.775180276454448647e-01,-2.775180276454448647e-01,-2.742658632589747847e-01,-2.661354522927996680e-01,-2.585470687243695553e-01,-2.509586851559393872e-01,-2.433703015875092746e-01,-2.357819180190791342e-01,-2.281935344506489938e-01,-2.206051508822188811e-01,-2.130167673137887407e-01,-2.048863563476135963e-01,-1.972979727791834836e-01,-1.897095892107533432e-01,-1.821212056423232029e-01,-1.745328220738930902e-01,-1.669444385054629498e-01,-1.593560549370328094e-01,-1.517676713686026968e-01,-1.441792878001725564e-01,-1.360488768339974119e-01,-1.284604932655672993e-01,-1.208721096971371312e-01,-1.132837261287070185e-01,-1.056953425602769059e-01,-9.810695899184676549e-02,-9.051857542341665286e-02,-8.293019185498651247e-02,-7.534180828655634432e-02,-6.721139732038119985e-02,-5.962301375195108721e-02,-5.203463018352094682e-02,-4.444624661509083419e-02,-3.685786304666069380e-02,-2.926947947823055340e-02,-2.168109590980044077e-02,-1.409271234137027262e-02,-5.962301375195211417e-03,-5.551115123125782702e-17,-5.551115123125782702e-17,-5.551115123125782702e-17,0.000000000000000000e+00,-5.551115123125782702e-17,-6.937950691136124393e-02,-2.775180276454448647e-01,-2.775180276454448647e-01
-2.775180276454448647e-01,-2.737238358612297806e-01,-2.661354522927996680e-01,-2.585470687243695553e-01,-2.509586851559393872e-01,-2.433703015875092746e-01,-2.352398906213341301e-01,-2.276515070529039897e-01,-2.200631234844738771e-01,-2.124747399160437367e-01,-2.048863563476135963e-01,-1.972979727791834836e-01,-1.897095892107533432e-01,-1.821212056423232029e-01,-1.745328220738930902e-01,-1.664024111077179180e-01,-1.588140275392878054e-01,-1.512256439708576650e-01,-1.436372604024275523e-01,-1.360488768339974119e-01,-1.284604932655672993e-01,-1.208721096971371312e-01,-1.132837261287070185e-01,-1.051533151625318740e-01,-9.756493159410176141e-02,-8.997654802567162102e-02,-8.238816445724148063e-02,-7.479978088881134024e-02,-6.721139732038119985e-02,-5.962301375195108721e-02,-5.203463018352094682e-02,-4.444624661509083419e-02,-3.631583564891566196e-02,-2.872745208048554932e-02,-2.113906851205543669e-02,-1.355068494362526854e-02,-5.962301375195155906e-03,-5.551115123125782702e-17,-5.551115123125782702e-17,-5.551115123125782702e-17,-5.551115123125782702e-17,-5.551115123125782702e-17,-5.551115123125782702e-17,-5.551115123125782702e-17,0.000000000000000000e+00,-1.994660823701635000e-01,-2.775180276454448647e-01
-2.655934248950546639e-01,-2.580050413266245513e-01,-2.504166577581943831e-01,-2.428282741897642705e-01,-2.352398906213341301e-01,-2.276515070529039897e-01,-2.200631234844738771e-01,-2.124747399160437367e-01,-2.048863563476135963e-01,-1.967559453814384796e-01,-1.891675618130083392e-01,-1.815791782445781988e-01,-1.739907946761480584e-01,-1.664024111077179180e-01,-1.588140275392878054e-01,-1.512256439708576927e-01,-1.436372604024275523e-01,-1.355068494362524079e-01,-1.279184658678222675e-01,-1.203300822993921548e-01,-1.127416987309620422e-01,-1.051533151625319018e-01,-9.756493159410176141e-02,-8.997654802567164878e-02,-8.238816445724148063e-02,-7.479978088881134024e-02,-6.666936992263619577e-02,-5.908098635420605538e-02,-5.149260278577591499e-02,-4.390421921734580235e-02,-3.631583564891566196e-02,-2.872745208048557708e-02,-2.113906851205538118e-02,-1.355068494362526854e-02,-5.962301375195155906e-03,-5.551115123125782702e-17,-5.551115123125782702e-17,-5.551115123125782702e-17,-5.551115123125782702e-17,-5.551115123125782702e-17,-5.551115123125782702e-17,-5.551115123125782702e-17,-5.551115123125782702e-17,-5.551115123125782702e-17,0.000000000000000000e+00,-7.805194527528142023e-02,-2.775180276454448647e-01
-2.504166577581943831e-01,-2.428282741897642705e-01,-2.346978632235891260e-01,-2.271094796551589856e-01,-2.195210960867288730e-01,-2.119327125182987048e-01,-2.043443289498685922e-01,-1.967559453814384796e-01,-1.891675618130083392e-01,-1.815791782445781988e-01,-1.739907946761480584e-01,-1.658603837099729139e-01,-1.582720001415428013e-01,-1.506836165731126609e-01,-1.430952330046825205e-01,-1.355068494362524079e-01,-1.279184658678222675e-01,-1.203300822993921271e-01,-1.127416987309620144e-01,-1.051533151625318740e-01,-9.702290419635675733e-02,-8.943452062792661694e-02,-8.184613705949647655e-02,-7.425775349106633616e-02,-6.666936992263622352e-02,-5.908098635420605538e-02,-5.149260278577594274e-02,-4.390421921734583011e-02,-3.577380825117068563e-02,-2.818542468274054524e-02,-2.059704111431037710e-02,-1.300865754588026446e-02,-5.420273977450151826e-03,-5.551115123125782702e-17,-5.551115123125782702e-17,-5.551115123125782702e-17,-5.551115123125782702e-17,-5.551115123125782702e-17,-5.551115123125782702e-17,-1.110223024625156540e-16,-5.551115123125782702e-17,-5.551115123125782702e-17,-5.551115123125782702e-17,-5.551115123125782702e-17,-5.551115123125782702e-17,-5.551115123125782702e-17,-1.994660823701635000e-01
-2.346978632235891260e-01,-2.271094796551589856e-01,-2.195210960867288452e-01,-2.119327125182987048e-01,-2.043443289498685922e-01,-1.962139179836934477e-01,-1.886255344152633351e-01,-1.810371508468331947e-01,-1.734487672784030543e-01,-1.658603837099729139e-01,-1.582720001415428013e-01,-1.506836165731126609e-01,-1.430952330046825483e-01,-1.349648220385074038e-01,-1.273764384700772634e-01,-1.197880549016471230e-01,-1.121996713332170104e-01,-1.046112877647868977e-01,-9.702290419635675733e-02,-8.943452062792661694e-02,-8.184613705949647655e-02,-7.425775349106633616e-02,-6.612734252489119169e-02,-5.853895895646105130e-02,-5.095057538803093866e-02,-4.336219181960082603e-02,-3.577380825117068563e-02,-2.818542468274054524e-02,-2.059704111431043261e-02,-1.300865754588026446e-02,-5.420273977450151826e-03,-5.551115123125782702e-17,-5.551115123125782702e-17,-5.551115123125782702e-17,-5.551115123125782702e-17,-5.551115123125782702e-17,-5.551115123125782702e-17,-5.551115123125782702e-17,-5.551115123125782702e-17,-5.551115123125782702e-17,-5.551115123125782702e-17,-5.551115123125782702e-17,-5.551115123125782702e-17,-5.551115123125782702e-17,-5.551115123125782702e-17,-8.672438363920176307e-03,-9.301190145304366608e-02
-2.189790686889838411e-01,-2.113906851205537007e-01,-2.038023015521235881e-01,-1.962139179836934477e-01,-1.886255344152633351e-01,-1.810371508468331947e-01,-1.734487672784030543e-01,-1.653183563122279098e-01,-1.577299727437977972e-01,-1.501415891753676290e-01,-1.425532056069375442e-01,-1.349648220385074038e-01,-1.273764384700772634e-01,-1.197880549016471230e-01,-1.121996713332170104e-01,-1.046112877647868977e-01,-9.648087679861172550e-02,-8.889249323018161286e-02,-8.130410966175144472e-02,-7.371572609332133208e-02,-6.612734252489119169e-02,-5.853895895646105130e-02,-5.095057538803091091e-02,-4.336219181960079827e-02,-3.577380825117068563e-02,-2.764339728499554116e-02,-2.005501371656537302e-02,-1.246663014813526038e-02,-4.878246579705147745e-03,-5.551115123125782702e-17,-5.551115123125782702e-17,-5.551115123125782702e-17,-5.551115123125782702e-17,0.000000000000000000e+00,-5.551115123125782702e-17,-5.551115123125782702e-17,-5.551115123125782702e-17,-5.551115123125782702e-17,-5.551115123125782702e-17,-5.551115123125782702e-17,-5.551115123125782702e-17,-5.551115123125782702e-17,-1.110223024625156540e-16,-9.539682200312205040e-03,-2.168109590980044077e-02,-3.382250961928862099e-02,-4.596392332877682896e-02
-2.038023015521235881e-01,-1.956718905859484714e-01,-1.880835070175183033e-01,-1.804951234490881906e-01,-1.729067398806580225e-01,-1.653183563122279098e-01,-1.577299727437977694e-01,-1.501415891753676568e-01,-1.425532056069375164e-01,-1.349648220385074038e-01,-1.268344110723322316e-01,-1.192460275039021189e-01,-1.116576439354720063e-01,-1.040692603670418659e-01,-9.648087679861172550e-02,-8.889249323018158511e-02,-8.130410966175147247e-02,-7.371572609332133208e-02,-6.558531512714615985e-02,-5.799693155871604722e-02,-5.040854799028593458e-02,-4.282016442185579419e-02,-3.523178085342568155e-02,-2.764339728499551341e-02,-2.005501371656537302e-02,-1.246663014813526038e-02,-4.878246579705147745e-03,-5.551115123125782702e-17,-5.551115123125782702e-17,-5.551115123125782702e-17,-5.551115123125782702e-17,-5.551115123125782702e-17,-5.551115123125782702e-17,-5.551115123125782702e-17,-5.551115123125782702e-17,-5.551115123125782702e-17,0.000000000000000000e+00,-5.551115123125782702e-17,-5.551115123125782702e-17,-5.551115123125782702e-17,-1.110223024625156540e-16,-9.539682200312260552e-03,-2.168109590980044077e-02,-3.382250961928862099e-02,-4.683116716516885769e-02,-5.897258087465706566e-02,-7.111399458414527364e-02
-1.880835070175183033e-01,-1.804951234490881906e-01,-1.729067398806580502e-01,-1.647763289144829058e-01,-1.571879453460527931e-01,-1.495995617776226527e-01,-1.420111782091925123e-01,-1.344227946407623997e-01,-1.268344110723322316e-01,-1.192460275039021189e-01,-1.116576439354720063e-01,-1.040692603670418659e-01,-9.593884940086672142e-02,-8.835046583243663654e-02,-8.076208226400644064e-02,-7.317369869557630024e-02,-6.558531512714618761e-02,-5.799693155871601946e-02,-5.040854799028593458e-02,-4.282016442185579419e-02,-3.523178085342565380e-02,-2.710136988725053708e-02,-1.951298631882036894e-02,-1.192460275039025630e-02,-4.336219181960143665e-03,-5.551115123125782702e-17,-5.551115123125782702e-17,-5.551115123125782702e-17,-5.551115123125782702e-17,-1.110223024625156540e-16,-5.551115123125782702e-17,-5.551115123125782702e-17,-5.551115123125782702e-17,-5.551115123125782702e-17,-5.551115123125782702e-17,-5.551115123125782702e-17,-5.551115123125782702e-17,-5.551115123125782702e-17,-5.551115123125782702e-17,-1.040692603670423377e-02,-2.254833974619246950e-02,-3.468975345568064972e-02,-4.683116716516885769e-02,-5.897258087465706566e-02,-7.111399458414527364e-02,-8.325540829363348161e-02,-9.539682200312168958e-02
-1.723647124829130461e-01,-1.647763289144829058e-01,-1.571879453460527654e-01,-1.495995617776226527e-01,-1.420111782091925123e-01,-1.344227946407623997e-01,-1.262923836745872552e-01,-1.187040001061571148e-01,-1.111156165377270022e-01,-1.035272329692968618e-01,-9.593884940086672142e-02,-8.835046583243658103e-02,-8.076208226400644064e-02,-7.317369869557632800e-02,-6.558531512714618761e-02,-5.745490416097104314e-02,-4.986652059254093050e-02,-4.227813702411076235e-02,-3.468975345568064972e-02,-2.710136988725053708e-02,-1.951298631882042445e-02,-1.192460275039025630e-02,-4.336219181960143665e-03,-5.551115123125782702e-17,-5.551115123125782702e-17,-5.551115123125782702e-17,-5.551115123125782702e-17,0.000000000000000000e+00,-5.551115123125782702e-17,-1.110223024625156540e-16,-5.551115123125782702e-17,-5.551115123125782702e-17,-5.551115123125782702e-17,-5.551115123125782702e-17,-5.551115123125782702e-17,-5.551115123125782702e-17,-5.551115123125782702e-17,-1.040692603670423377e-02,-2.254833974619241399e-02,-3.468975345568064972e-02,-4.683116716516888545e-02,-5.983982471104909440e-02,-7.198123842053730237e-02,-8.412265213002551034e-02,-9.626406583951369056e-02,-1.084054795490018985e-01,-1.205468932584901343e-01
-1.566459179483077613e-01,-1.490575343798776209e-01,-1.414691508114475360e-01,-1.338807672430173956e-01,-1.262923836745872552e-01,-1.187040001061571148e-01,-1.111156165377270022e-01,-1.035272329692968618e-01,-9.539682200312171734e-02,-8.780843843469160470e-02,-8.022005486626143655e-02,-7.263167129783129616e-02,-6.504328772940115577e-02,-5.745490416097104314e-02,-4.986652059254090275e-02,-4.227813702411079011e-02,-3.468975345568064972e-02,-2.655934248950553300e-02,-1.897095892107542037e-02,-1.138257535264525222e-02,-3.794191784215139585e-03,-5.551115123125782702e-17,-5.551115123125782702e-17,-5.551115123125782702e-17,-5.551115123125782702e-17,-1.110223024625156540e-16,-5.551115123125782702e-17,-5.551115123125782702e-17,-5.551115123125782702e-17,-5.551115123125782702e-17,-5.551115123125782702e-17,-5.551115123125782702e-17,-5.551115123125782702e-17,-5.551115123125782702e-17,-1.110223024625156540e-16,-1.127416987309626251e-02,-2.341558358258444272e-02,-3.555699729207267845e-02,-4.769841100156085867e-02,-5.983982471104906664e-02,-7.198123842053727461e-02,-8.412265213002551034e-02,-9.626406583951369056e-02,-1.092727233853939273e-01,-1.214141370948821352e-01,-1.335555508043703710e-01,-1.456969645138585789e-01
-1.414691508114475083e-01,-1.338807672430173956e-01,-1.257503562768422234e-01,-1.181619727084121108e-01,-1.105735891399819981e-01,-1.029852055715518577e-01,-9.539682200312171734e-02,-8.780843843469160470e-02,-8.022005486626143655e-02,-7.263167129783132392e-02,-6.504328772940115577e-02,-5.691287676322601130e-02,-4.932449319479589867e-02,-4.173610962636578603e-02,-3.414772605793564564e-02,-2.655934248950553300e-02,-1.897095892107542037e-02,-1.138257535264525222e-02,-3.794191784215139585e-03,-5.551115123125782702e-17,-5.551115123125782702e-17,-5.551115123125782702e-17,-5.551115123125782702e-17,-5.551115123125782702e-17,-5.551115123125782702e-17,-5.551115123125782702e-17,-1.110223024625156540e-16,-5.551115123125782702e-17,-5.551115123125782702e-17,-5.551115123125782702e-17,-5.551115123125782702e-17,-5.551115123125782702e-17,-5.551115123125782702e-17,-1.127416987309626251e-02,-2.341558358258444272e-02,-3.555699729207267845e-02,-4.769841100156088642e-02,-6.070706854744109537e-02,-7.284848225692930335e-02,-8.498989596641751132e-02,-9.713130967590571929e-02,-1.092727233853939273e-01,-1.214141370948821352e-01,-1.335555508043703710e-01,-1.456969645138585789e-01,-1.578383782233467869e-01,-1.708470357692270236e-01
-1.257503562768422511e-01,-1.181619727084121108e-01,-1.105735891399819704e-01,-1.029852055715518577e-01,-9.485479460537671326e-02,-8.726641103694657287e-02,-7.967802746851643247e-02,-7.208964390008629208e-02,-6.450126033165615169e-02,-5.691287676322601130e-02,-4.932449319479589867e-02,-4.173610962636575827e-02,-3.414772605793564564e-02,-2.601731509176047341e-02,-1.842893152333036078e-02,-1.084054795490024814e-02,-3.252164386470135504e-03,-5.551115123125782702e-17,-5.551115123125782702e-17,-5.551115123125782702e-17,-5.551115123125782702e-17,-5.551115123125782702e-17,-5.551115123125782702e-17,-5.551115123125782702e-17,-5.551115123125782702e-17,-1.110223024625156540e-16,-8.388606057184561093e-02,-8.388606057184561093e-02,-8.388606057184561093e-02,-5.551115123125782702e-17,-1.110223024625156540e-16,-1.214141370948823573e-02,-2.428282741897647146e-02,-3.642424112846470718e-02,-4.856565483795288740e-02,-6.070706854744109537e-02,-7.284848225692930335e-02,-8.498989596641751132e-02,-9.713130967590571929e-02,-1.101399672217859282e-01,-1.222813809312741640e-01,-1.344227946407623719e-01,-1.465642083502506077e-01,-1.587056220597388156e-01,-1.708470357692269959e-01,-1.829884494787152316e-01,-1.951298631882034118e-01
-1.100315617422369663e-01,-1.024431781738068259e-01,-9.485479460537671326e-02,-8.726641103694657287e-02,-7.967802746851643247e-02,-7.208964390008631984e-02,-6.450126033165612394e-02,-5.637084936548100722e-02,-4.878246579705089458e-02,-4.119408222862075419e-02,-3.360569866019064156e-02,-2.601731509176052892e-02,-1.842893152333036078e-02,-1.084054795490019263e-02,-3.252164386470079993e-03,-5.551115123125782702e-17,-5.551115123125782702e-17,-5.551115123125782702e-17,-5.551115123125782702e-17,-5.551115123125782702e-17,-5.551115123125782702e-17,-1.110223024625156540e-16,-5.551115123125782702e-17,-5.551115123125782702e-17,-5.551115123125782702e-17,-5.551115123125782702e-17,-8.388606057184561093e-02,-8.388606057184561093e-02,-8.388606057184561093e-02,-1.214141370948823573e-02,-2.428282741897647146e-02,-3.642424112846465167e-02,-4.856565483795291516e-02,-6.157431238383309635e-02,-7.371572609332133208e-02,-8.585713980280954005e-02,-9.799855351229772027e-02,-1.101399672217859282e-01,-1.222813809312741640e-01,-1.344227946407623719e-01,-1.465642083502505799e-01,-1.595728658961308166e-01,-1.717142796056190246e-01,-1.838556933151072326e-01,-1.959971070245954405e-01,-2.081385207340836485e-01,-2.202799344435718565e-01
-9.431276720763170918e-02,-8.672438363920156879e-02,-7.913600007077142839e-02,-7.154761650234128800e-02,-6.395923293391114761e-02,-5.637084936548100722e-02,-4.878246579705089458e-02,-4.119408222862075419e-02,-3.360569866019064156e-02,-2.547528769401546933e-02,-1.788690412558535670e-02,-1.029852055715518855e-02,-2.710136988725075913e-03,-5.551115123125782702e-17,-5.551115123125782702e-17,-5.551115123125782702e-17,-5.551115123125782702e-17,-5.551115123125782702e-17,-5.551115123125782702e-17,-5.551115123125782702e-17,-5.551115123125782702e-17,-5.551115123125782702e-17,-5.551115123125782702e-17,-5.551115123125782702e-17,-5.551115123125782702e-17,0.000000000000000000e+00,-8.475330440823763967e-02,-9.689471811772581988e-02,-1.090361318272140556e-01,-3.729148496485668041e-02,-4.943289867434488838e-02,-6.157431238383309635e-02,-7.371572609332130432e-02,-8.585713980280954005e-02,-9.799855351229774802e-02,-1.110072110581779570e-01,-1.231486247676661649e-01,-1.352900384771544007e-01,-1.474314521866426086e-01,-1.595728658961308166e-01,-1.717142796056190246e-01,-1.838556933151072048e-01,-1.959971070245954405e-01,-2.081385207340836763e-01,-2.211471782799638852e-01,-2.332885919894520932e-01,-2.454300056989403012e-01
-7.913600007077140064e-02,-7.154761650234128800e-02,-6.395923293391114761e-02,-5.582882196773597538e-02,-4.824043839930589050e-02,-4.065205483087575011e-02,-3.306367126244560972e-02,-2.547528769401546933e-02,-1.788690412558530118e-02,-1.029852055715524406e-02,-2.710136988725131424e-03,-5.551115123125782702e-17,-5.551115123125782702e-17,-5.551115123125782702e-17,0.000000000000000000e+00,-5.551115123125782702e-17,0.000000000000000000e+00,-5.551115123125782702e-17,-5.551115123125782702e-17,-5.551115123125782702e-17,0.000000000000000000e+00,-5.551115123125782702e-17,-5.551115123125782702e-17,-5.551115123125782702e-17,-8.672438363920842441e-04,-1.300865754588031997e-02,-2.515007125536850019e-02,-3.729148496485670816e-02,-4.943289867434491613e-02,-6.244155622022512508e-02,-7.458296992971336081e-02,-8.672438363920154103e-02,-9.886579734868974900e-02,-1.110072110581779570e-01,-1.231486247676661927e-01,-1.352900384771544007e-01,-1.474314521866426086e-01,-1.595728658961308166e-01,-1.725815234420110533e-01,-1.847229371514992613e-01,-1.968643508609874693e-01,-2.090057645704756772e-01,-2.211471782799638852e-01,-2.332885919894520932e-01,-2.454300056989403012e-01,-2.575714194084285369e-01,-2.705800769543087458e-01
-6.341720553616614353e-02,-5.582882196773603090e-02,-4.824043839930589050e-02,-4.065205483087575011e-02,-3.306367126244563748e-02,-2.493326029627046525e-02,-1.734487672784035261e-02,-9.756493159410239979e-03,-2.168109590980127344e-03,0.000000000000000000e+00,-5.551115123125782702e-17,-5.551115123125782702e-17,-5.551115123125782702e-17,-5.551115123125782702e-17,-5.551115123125782702e-17,-5.551115123125782702e-17,-5.551115123125782702e-17,-5.551115123125782702e-17,-5.551115123125782702e-17,-5.551115123125782702e-17,-5.551115123125782702e-17,-5.551115123125782702e-17,-8.672438363920842441e-04,-1.387590138227229319e-02,-2.601731509176052892e-02,-3.815872880124870914e-02,-5.030014251073688936e-02,-6.244155622022512508e-02,-7.458296992971333306e-02,-8.672438363920154103e-02,-9.886579734868974900e-02,-1.118744548945699580e-01,-1.240158686040581937e-01,-1.361572823135464294e-01,-1.482986960230346374e-01,-1.604401097325228176e-01,-1.725815234420110533e-01,-1.847229371514992335e-01,-1.968643508609874693e-01,-2.090057645704756772e-01,-2.220144221163559139e-01,-2.341558358258440942e-01,-2.462972495353323299e-01,-2.584386632448205101e-01,-2.705800769543087458e-01,-2.775180276454448647e-01,-2.775180276454448647e-01
-1.123351781826532614e-01,-4.011002743313074603e-02,-3.252164386470063340e-02,-2.493326029627046525e-02,-1.734487672784035261e-02,-9.756493159410184468e-03,-2.168109590980071832e-03,-5.551115123125782702e-17,-5.551115123125782702e-17,-5.551115123125782702e-17,-5.551115123125782702e-17,-5.551115123125782702e-17,-5.551115123125782702e-17,-5.551115123125782702e-17,-5.551115123125782702e-17,-5.551115123125782702e-17,-5.551115123125782702e-17,-1.110223024625156540e-16,-5.551115123125782702e-17,-5.551115123125782702e-17,-1.734487672784112977e-03,-1.387590138227229319e-02,-2.601731509176047341e-02,-3.815872880124870914e-02,-5.030014251073691711e-02,-6.330880005661712606e-02,-7.545021376610533403e-02,-8.759162747559356976e-02,-9.973304118508177774e-02,-1.118744548945699857e-01,-1.240158686040581937e-01,-1.361572823135464017e-01,-1.482986960230346374e-01,-1.604401097325228176e-01,-1.734487672784030543e-01,-1.855901809878912623e-01,-1.977315946973794702e-01,-2.098730084068676782e-01,-2.220144221163559139e-01,-2.341558358258440942e-01,-2.462972495353323299e-01,-2.584386632448205101e-01,-2.705800769543087458e-01,-2.775180276454448647e-01,-2.775180276454448647e-01,-2.775180276454448647e-01,-2.775180276454448647e-01
-2.086127947071105271e-01,-2.439123289852546117e-02,-1.680284933009534853e-02,-9.214465761665235899e-03,-1.626082193235123263e-03,-5.551115123125782702e-17,-5.551115123125782702e-17,-5.551115123125782702e-17,-5.551115123125782702e-17,-5.551115123125782702e-17,-5.551115123125782702e-17,-5.551115123125782702e-17,-5.551115123125782702e-17,-1.110223024625156540e-16,-5.551115123125782702e-17,-5.551115123125782702e-17,-5.551115123125782702e-17,-5.551115123125782702e-17,-1.734487672784057466e-03,-1.474314521866432193e-02,-2.688455892815250214e-02,-3.902597263764073787e-02,-5.116738634712891809e-02,-6.330880005661715382e-02,-7.545021376610536179e-02,-8.759162747559356976e-02,-9.973304118508177774e-02,-1.118744548945699857e-01,-1.248831124404501947e-01,-1.370245261499384304e-01,-1.491659398594266384e-01,-1.613073535689148463e-01,-1.734487672784030543e-01,-1.855901809878912623e-01,-1.977315946973794702e-01,-2.098730084068676782e-01,-2.228816659527479149e-01,-2.350230796622361229e-01,-2.471644933717243309e-01,-2.593059070812125388e-01,-2.714473207907007746e-01,-2.775180276454448647e-01,-2.775180276454448647e-01,-2.775180276454448647e-01,-2.775180276454448647e-01,-2.775180276454448647e-01,-2.775180276454448647e-01
-2.775180276454448647e-01,-8.467484254147822353e-02,-1.626082193235067752e-03,-5.551115123125782702e-17,-5.551115123125782702e-17,0.000000000000000000e+00,0.000000000000000000e+00,-5.551115123125782702e-17,-5.551115123125782702e-17,-5.551115123125782702e-17,-5.551115123125782702e-17,-5.551115123125782702e-17,-5.551115123125782702e-17,-5.551115123125782702e-17,-1.110223024625156540e-16,-5.551115123125782702e-17,-2.601731509176086199e-03,-1.474314521866432193e-02,-2.688455892815255766e-02,-3.902597263764071012e-02,-5.116738634712891809e-02,-6.417604389300915479e-02,-7.631745760249736277e-02,-8.845887131198554298e-02,-1.006002850214737787e-01,-1.127416987309619867e-01,-1.248831124404501947e-01,-1.370245261499384304e-01,-1.491659398594266384e-01,-1.613073535689148463e-01,-1.743160111147950553e-01,-1.864574248242832910e-01,-1.985988385337714712e-01,-2.107402522432597070e-01,-2.228816659527479149e-01,-2.350230796622361229e-01,-2.471644933717243309e-01,-2.593059070812125388e-01,-2.714473207907007746e-01,-2.775180276454448647e-01,-2.775180276454448647e-01,-2.775180276454448647e-01,-2.775180276454448647e-01,-2.775180276454448647e-01,-2.775180276454448647e-01,-2.775180276454448647e-01,-2.775180276454448647e-01
-2.775180276454448647e-01,-1.994660823701635000e-01,-5.551115123125782702e-17,-5.551115123125782702e-17,-1.110223024625156540e-16,-5.551115123125782702e-17,-1.110223024625156540e-16,-5.551115123125782702e-17,0.000000000000000000e+00,-1.110223024625156540e-16,-5.551115123125782702e-17,-1.110223024625156540e-16,-5.551115123125782702e-17,-5.551115123125782702e-17,-2.601731509176086199e-03,-1.561038905505635066e-02,-2.775180276454453088e-02,-3.989321647403273885e-02,-5.203463018352094682e-02,-6.417604389300912704e-02,-7.631745760249736277e-02,-8.845887131198557074e-02,-1.006002850214737787e-01,-1.127416987309619867e-01,-1.257503562768422234e-01,-1.378917699863304591e-01,-1.500331836958186671e-01,-1.621745974053068473e-01,-1.743160111147950830e-01,-1.864574248242832910e-01,-1.985988385337714712e-01,-2.107402522432597070e-01,-2.237489097891399159e-01,-2.358903234986281516e-01,-2.480317372081163596e-01,-2.601731509176045676e-01,-2.723145646270927478e-01,-2.775180276454448647e-01,-2.775180276454448647e-01,-2.775180276454448647e-01,-2.775180276454448647e-01,-2.775180276454448647e-01,-2.775180276454448647e-01,-2.775180276454448647e-01,-2.775180276454448647e-01,-2.775180276454448647e-01,-2.775180276454448647e-01
-2.775180276454448647e-01,-2.775180276454448647e-01,-6.937950691136124393e-02,0.000000000000000000e+00,-5.551115123125782702e-17,-5.551115123125782702e-17,-5.551115123125782702e-17,-5.551115123125782702e-17,-5.551115123125782702e-17,-5.551115123125782702e-17,-5.551115123125782702e-17,-5.551115123125782702e-17,-3.468975345568114932e-03,-1.561038905505629515e-02,-2.775180276454453088e-02,-3.989321647403271109e-02,-5.203463018352094682e-02,-6.417604389300912704e-02,-7.718470143888939150e-02,-8.932611514837757172e-02,-1.014675288578657797e-01,-1.136089425673539877e-01,-1.257503562768422234e-01,-1.378917699863304591e-01,-1.500331836958186393e-01,-1.621745974053068473e-01,-1.751832549511870840e-01,-1.873246686606752920e-01,-1.994660823701635000e-01,-2.116074960796517079e-01,-2.237489097891399159e-01,-2.358903234986281516e-01,-2.480317372081163596e-01,-2.601731509176045676e-01,-2.723145646270927478e-01,-2.775180276454448647e-01,-2.775180276454448647e-01,-2.775180276454448647e-01,-2.775180276454448647e-01,-2.775180276454448647e-01,-2.775180276454448647e-01,-2.775180276454448647e-01,-2.775180276454448647e-01,-2.775180276454448647e-01,-2.775180276454448647e-01,-2.775180276454448647e-01,-2.775180276454448647e-01
-2.775180276454448647e-01,-2.775180276454448647e-01,-1.907936440062433514e-01,-5.551115123125782702e-17,-5.551115123125782702e-17,-5.551115123125782702e-17,-5.551115123125782702e-17,-5.551115123125782702e-17,0.000000000000000000e+00,-5.551115123125782702e-17,-3.468975345568114932e-03,-1.647763289144832388e-02,-2.861904660093655961e-02,-4.076046031042473983e-02,-5.290187401991294780e-02,-6.504328772940118353e-02,-7.718470143888936374e-02,-8.932611514837757172e-02,-1.014675288578658074e-01,-1.136089425673540154e-01,-1.266176001132342244e-01,-1.387590138227224601e-01,-1.509004275322106681e-01,-1.630418412416988760e-01,-1.751832549511870840e-01,-1.873246686606752920e-01,-1.994660823701635000e-01,-2.116074960796517357e-01,-2.237489097891399159e-01,-2.367575673350201526e-01,-2.488989810445083606e-01,-2.610403947539965963e-01,-2.731818084634847765e-01,-2.775180276454448647e-01,-2.775180276454448647e-01,-2.775180276454448647e-01,-2.775180276454448647e-01,-2.775180276454448647e-01,-2.775180276454448647e-01,-2.775180276454448647e-01,-2.775180276454448647e-01,-2.775180276454448647e-01,-2.775180276454448647e-01,-2.775180276454448647e-01,-2.775180276454448647e-01,-2.775180276454448647e-01,-2.775180276454448647e-01
-2.775180276454448647e-01,-2.775180276454448647e-01,-2.775180276454448647e-01,-6.937950691136124393e-02,-5.551115123125782702e-17,-5.551115123125782702e-17,-5.551115123125782702e-17,-5.551115123125782702e-17,-4.336219181960143665e-03,-1.647763289144837939e-02,-2.861904660093655961e-02,-4.076046031042473983e-02,-5.290187401991297556e-02,-6.504328772940115577e-02,-7.805194527528142023e-02,-9.019335898476960045e-02,-1.023347726942578362e-01,-1.144761864037460164e-01,-1.266176001132342521e-01,-1.387590138227224601e-01,-1.509004275322106681e-01,-1.630418412416988760e-01,-1.760504987875790850e-01,-1.881919124970673207e-01,-2.003333262065555287e-01,-2.124747399160437367e-01,-2.246161536255319446e-01,-2.367575673350201526e-01,-2.488989810445083606e-01,-2.610403947539965963e-01,-2.731818084634847765e-01,-2.775180276454448647e-01,-2.775180276454448647e-01,-2.775180276454448647e-01,-2.775180276454448647e-01,-2.775180276454448647e-01,-2.775180276454448647e-01,-2.775180276454448647e-01,-2.775180276454448647e-01,-2.775180276454448647e-01,-2.775180276454448647e-01,-2.775180276454448647e-01,-2.775180276454448647e-01,-2.775180276454448647e-01,-2.775180276454448647e-01,-2.775180276454448647e-01,-2.775180276454448647e-01
-2.775180276454448647e-01,-2.775180276454448647e-01,-2.775180276454448647e-01,-1.907936440062433514e-01,-5.551115123125782702e-17,-5.551115123125782702e-17,-4.336219181960143665e-03,-1.734487672784035261e-02,-2.948629043732858834e-02,-4.162770414681676856e-02,-5.376911785630497653e-02,-6.591053156579318451e-02,-7.805194527528142023e-02,-9.019335898476960045e-02,-1.023347726942577807e-01,-1.144761864037460164e-01,-1.274848439496262253e-01,-1.396262576591144888e-01,-1.517676713686026690e-01,-1.639090850780908770e-01,-1.760504987875791127e-01,-1.881919124970673207e-01,-2.003333262065555287e-01,-2.124747399160437367e-01,-2.246161536255319446e-01,-2.376248111714121536e-01,-2.497662248809003893e-01,-2.619076385903885695e-01,-2.740490522998768053e-01,-2.775180276454448647e-01,-2.775180276454448647e-01,-2.775180276454448647e-01,-2.775180276454448647e-01,-2.775180276454448647e-01,-2.775180276454448647e-01,-2.775180276454448647e-01,-2.775180276454448647e-01,-2.775180276454448647e-01,-2.775180276454448647e-01,-2.775180276454448647e-01,-2.775180276454448647e-01,-2.775180276454448647e-01,-2.775180276454448647e-01,-2.775180276454448647e-01,-2.775180276454448647e-01,-2.775180276454448647e-01,-2.775180276454448647e-01
-2.775180276454448647e-01,-2.775180276454448647e-01,-2.775180276454448647e-01,-2.775180276454448647e-01,-6.477227403052868149e-02,-1.734487672784035261e-02,-2.948629043732853283e-02,-4.162770414681676856e-02,-5.376911785630497653e-02,-6.591053156579318451e-02,-7.891918911167342121e-02,-9.106060282116160143e-02,-1.032020165306498094e-01,-1.153434302401380174e-01,-1.274848439496262809e-01,-1.396262576591144888e-01,-1.517676713686026968e-01,-1.639090850780908770e-01,-1.760504987875791127e-01,-1.890591563334593217e-01,-2.012005700429475297e-01,-2.133419837524357376e-01,-2.254833974619239734e-01,-2.376248111714121536e-01,-2.497662248809003893e-01,-2.619076385903885695e-01,-2.740490522998768053e-01,-2.775180276454448647e-01,-2.775180276454448647e-01,-2.775180276454448647e-01,-2.775180276454448647e-01,-2.775180276454448647e-01,-2.775180276454448647e-01,-2.775180276454448647e-01,-2.775180276454448647e-01,-2.775180276454448647e-01,-2.775180276454448647e-01,-2.775180276454448647e-01,-2.775180276454448647e-01,-2.775180276454448647e-01,-2.775180276454448647e-01,-2.775180276454448647e-01,-2.775180276454448647e-01,-2.775180276454448647e-01,-2.775180276454448647e-01,-2.775180276454448647e-01,-2.775180276454448647e-01
-2.775180276454448647e-01,-2.775180276454448647e-01,-2.775180276454448647e-01,-2.775180276454448647e-01,-1.925552330489146424e-01,-4.249494798320879729e-02,-5.463636169269697751e-02,-6.677777540218518548e-02,-7.891918911167339346e-02,-9.106060282116160143e-02,-1.032020165306498372e-01,-1.153434302401380451e-01,-1.283520877860182818e-01,-1.404935014955064898e-01,-1.526349152049946978e-01,-1.647763289144829058e-01,-1.769177426239711137e-01,-1.890591563334593217e-01,-2.012005700429475574e-01,-2.133419837524357376e-01,-2.254833974619239734e-01,-2.384920550078041823e-01,-2.506334687172924180e-01,-2.627748824267805983e-01,-2.749162961362688340e-01,-2.775180276454448647e-01,-2.775180276454448647e-01,-2.775180276454448647e-01,-2.775180276454448647e-01,-2.775180276454448647e-01,-2.775180276454448647e-01,-2.775180276454448647e-01,-2.775180276454448647e-01,-2.775180276454448647e-01,-2.775180276454448647e-01,-2.775180276454448647e-01,-2.775180276454448647e-01,-2.775180276454448647e-01,-2.775180276454448647e-01,-2.775180276454448647e-01,-2.775180276454448647e-01,-2.775180276454448647e-01,-2.775180276454448647e-01,-2.775180276454448647e-01,-2.775180276454448647e-01,-2.775180276454448647e-01,-2.775180276454448647e-01
-2.775180276454448647e-01,-2.775180276454448647e-01,-2.775180276454448647e-01,-2.775180276454448647e-01,-2.775180276454448647e-01,-1.128772055803982655e-01,-7.978643294806542219e-02,-9.192784665755365792e-02,-1.040692603670418381e-01,-1.162106740765300461e-01,-1.283520877860182818e-01,-1.404935014955064898e-01,-1.526349152049946978e-01,-1.647763289144829058e-01,-1.769177426239711137e-01,-1.899264001698513504e-01,-2.020678138793395584e-01,-2.142092275888277664e-01,-2.263506412983159743e-01,-2.384920550078041823e-01,-2.506334687172924180e-01,-2.627748824267805983e-01,-2.749162961362688340e-01,-2.775180276454448647e-01,-2.775180276454448647e-01,-2.775180276454448647e-01,-2.775180276454448647e-01,-2.775180276454448647e-01,-2.775180276454448647e-01,-2.775180276454448647e-01,-2.775180276454448647e-01,-2.775180276454448647e-01,-2.775180276454448647e-01,-2.775180276454448647e-01,-2.775180276454448647e-01,-2.775180276454448647e-01,-2.775180276454448647e-01,-2.775180276454448647e-01,-2.775180276454448647e-01,-2.775180276454448647e-01,-2.775180276454448647e-01,-2.775180276454448647e-01,-2.775180276454448647e-01,-2.775180276454448647e-01,-2.775180276454448647e-01,-2.775180276454448647e-01,-2.775180276454448647e-01
-2.775180276454448647e-01,-2.775180276454448647e-01,-2.775180276454448647e-01,-2.775180276454448647e-01,-2.775180276454448647e-01,-2.137214029308572572e-01,-1.040692603670418381e-01,-1.162106740765300461e-01,-1.777899347208905523e-01,-1.907985922667707612e-01,-2.029400059762589692e-01,-2.150814196857471772e-01,-1.777849864603631147e-01,-1.899264001698513504e-01,-2.020678138793395584e-01,-2.142092275888277664e-01,-2.263506412983159743e-01,-2.393592988441962111e-01,-2.515007125536843913e-01,-2.636421262631726270e-01,-2.757835399726608072e-01,-2.775180276454448647e-01,-2.775180276454448647e-01,-2.775180276454448647e-01,-2.775180276454448647e-01,-2.775180276454448647e-01,-2.775180276454448647e-01,-2.775180276454448647e-01,-2.775180276454448647e-01,-2.775180276454448647e-01,-2.775180276454448647e-01,-2.775180276454448647e-01,-2.775180276454448647e-01,-2.775180276454448647e-01,-2.775180276454448647e-01,-2.775180276454448647e-01,-2.775180276454448647e-01,-2.775180276454448647e-01,-2.775180276454448647e-01,-2.775180276454448647e-01,-2.775180276454448647e-01,-2.775180276454448647e-01,-2.775180276454448647e-01,-2.775180276454448647e-01,-2.775180276454448647e-01,-2.775180276454448647e-01,-2.775180276454448647e-01
-2.775180276454448647e-01,-2.775180276454448647e-01,-2.775180276454448647e-01,-2.775180276454448647e-01,-2.775180276454448647e-01,-2.775180276454448647e-01,-1.570253371267292808e-01,-1.413607453318985185e-01,-2.029400059762589692e-01,-2.150814196857471772e-01,-2.272228333952353851e-01,-2.402314909411155941e-01,-2.029350577157315594e-01,-2.150764714252197951e-01,-2.272178851347079753e-01,-2.393592988441962111e-01,-2.515007125536843913e-01,-2.636421262631726270e-01,-2.757835399726608072e-01,-2.775180276454448647e-01,-2.775180276454448647e-01,-2.775180276454448647e-01,-2.775180276454448647e-01,-2.775180276454448647e-01,-2.775180276454448647e-01,-2.775180276454448647e-01,-2.775180276454448647e-01,-2.775180276454448647e-01,-2.775180276454448647e-01,-2.775180276454448647e-01,-2.775180276454448647e-01,-2.775180276454448647e-01,-2.775180276454448647e-01,-2.775180276454448647e-01,-2.775180276454448647e-01,-2.775180276454448647e-01,-2.775180276454448647e-01,-2.775180276454448647e-01,-2.775180276454448647e-01,-2.775180276454448647e-01,-2.775180276454448647e-01,-2.775180276454448647e-01,-2.775180276454448647e-01,-2.775180276454448647e-01,-2.775180276454448647e-01,-2.775180276454448647e-01,-2.775180276454448647e-01
-2.775180276454448647e-01,-2.775180276454448647e-01,-2.775180276454448647e-01,-2.775180276454448647e-01,-2.775180276454448647e-01,-2.775180276454448647e-01,-2.313372933575700563e-01,-1.665108165872669355e-01,-2.280900772316274139e-01,-2.402314909411156219e-01,-2.523729046506038021e-01,-2.645143183600920378e-01,-2.272178851347079753e-01,-2.402265426805882120e-01,-2.523679563900764200e-01,-2.645093700995646557e-01,-2.766507838090528359e-01,-2.775180276454448647e-01,-2.775180276454448647e-01,-2.775180276454448647e-01,-2.775180276454448647e-01,-2.775180276454448647e-01,-2.775180276454448647e-01,-2.775180276454448647e-01,-2.775180276454448647e-01,-2.775180276454448647e-01,-2.775180276454448647e-01,-2.775180276454448647e-01,-2.775180276454448647e-01,-2.775180276454448647e-01,-2.775180276454448647e-01,-2.775180276454448647e-01,-2.775180276454448647e-01,-2.775180276454448647e-01,-2.775180276454448647e-01,-2.775180276454448647e-01,-2.775180276454448647e-01,-2.775180276454448647e-01,-2.775180276454448647e-01,-2.775180276454448647e-01,-2.775180276454448647e-01,-2.775180276454448647e-01,-2.775180276454448647e-01,-2.775180276454448647e-01,-2.775180276454448647e-01,-2.775180276454448647e-01,-2.775180276454448647e-01
-2.775180276454448647e-01,-2.775180276454448647e-01,-2.775180276454448647e-01,-2.775180276454448647e-01,-2.775180276454448647e-01,-2.775180276454448647e-01,-2.775180276454448647e-01,-2.077591015556621290e-01,-2.532401484869958308e-01,-2.653815621964840665e-01,-2.775229759059722467e-01,-2.896643896154604825e-01,-2.523679563900764200e-01,-2.645093700995646557e-01,-2.766507838090528359e-01,-2.775180276454448647e-01,-2.775180276454448647e-01,-2.775180276454448647e-01,-2.775180276454448647e-01,-2.775180276454448647e-01,-2.775180276454448647e-01,-2.775180276454448647e-01,-2.775180276454448647e-01,-2.775180276454448647e-01,-2.775180276454448647e-01,-2.775180276454448647e-01,-2.775180276454448647e-01,-2.775180276454448647e-01,-2.775180276454448647e-01,-2.775180276454448647e-01,-2.775180276454448647e-01,-2.775180276454448647e-01,-2.775180276454448647e-01,-2.775180276454448647e-01,-2.775180276454448647e-01,-2.775180276454448647e-01,-2.775180276454448647e-01,-2.775180276454448647e-01,-2.775180276454448647e-01,-2.775180276454448647e-01,-2.775180276454448647e-01,-2.775180276454448647e-01,-2.775180276454448647e-01,-2.775180276454448647e-01,-2.775180276454448647e-01,-2.775180276454448647e-01,-2.775180276454448647e-01
-2.775180276454448647e-01,-2.775180276454448647e-01,-2.775180276454448647e-01,-2.775180276454448647e-01,-2.775180276454448647e-01,-2.775180276454448647e-01,-2.775180276454448647e-01,-2.544276605015074466e-01,-2.280851289711000041e-01,-2.402265426805882120e-01,-2.532352002264684487e-01,-2.653766139359566290e-01,-2.775180276454448647e-01,-2.775180276454448647e-01,-2.775180276454448647e-01,-2.775180276454448647e-01,-2.775180276454448647e-01,-2.775180276454448647e-01,-2.775180276454448647e-01,-2.775180276454448647e-01,-2.775180276454448647e-01,-2.775180276454448647e-01,-2.775180276454448647e-01,-2.775180276454448647e-01,-2.775180276454448647e-01,-2.775180276454448647e-01,-2.775180276454448647e-01,-2.775180276454448647e-01,-2.775180276454448647e-01,-2.775180276454448647e-01,-2.775180276454448647e-01,-2.775180276454448647e-01,-2.775180276454448647e-01,-2.775180276454448647e-01,-2.775180276454448647e-01,-2.775180276454448647e-01,-2.775180276454448647e-01,-2.775180276454448647e-01,-2.775180276454448647e-01,-2.775180276454448647e-01,-2.775180276454448647e-01,-2.775180276454448647e-01,-2.775180276454448647e-01,-2.775180276454448647e-01,-2.775180276454448647e-01,-2.775180276454448647e-01,-2.775180276454448647e-01
-2.775180276454448647e-01,-2.775180276454448647e-01,-2.775180276454448647e-01,-2.775180276454448647e-01,-2.775180276454448647e-01,-2.775180276454448647e-01,-2.775180276454448647e-01,-2.775180276454448647e-01,-2.570293920106835328e-01,-2.653766139359566290e-01,-2.775180276454448647e-01,-2.775180276454448647e-01,-2.775180276454448647e-01,-2.775180276454448647e-01,-2.775180276454448647e-01,-2.775180276454448647e-01,-2.775180276454448647e-01,-2.775180276454448647e-01,-2.775180276454448647e-01,-2.775180276454448647e-01,-2.775180276454448647e-01,-2.775180276454448647e-01,-2.775180276454448647e-01,-2.775180276454448647e-01,-2.775180276454448647e-01,-2.775180276454448647e-01,-2.775180276454448647e-01,-2.775180276454448647e-01,-2.775180276454448647e-01,-2.775180276454448647e-01,-2.775180276454448647e-01,-2.775180276454448647e-01,-2.775180276454448647e-01,-2.775180276454448647e-01,-2.775180276454448647e-01,-2.775180276454448647e-01,-2.775180276454448647e-01,-2.775180276454448647e-01,-2.775180276454448647e-01,-2.775180276454448647e-01,-2.775180276454448647e-01,-2.775180276454448647e-01,-2.775180276454448647e-01,-2.775180276454448647e-01,-2.775180276454448647e-01,-2.775180276454448647e-01,-2.775180276454448647e-01
-2.775180276454448647e-01,-2.775180276454448647e-01,-2.775180276454448647e-01,-2.775180276454448647e-01,-2.775180276454448647e-01,-2.775180276454448647e-01,-2.775180276454448647e-01,-2.775180276454448647e-01,-2.775180276454448647e-01,-2.775180276454448647e-01,-2.775180276454448647e-01,-2.775180276454448647e-01,-2.775180276454448647e-01,-2.775180276454448647e-01,-2.775180276454448647e-01,-2.775180276454448647e-01,-2.775180276454448647e-01,-2.775180276454448647e-01,-2.775180276454448647e-01,-2.775180276454448647e-01,-2.775180276454448647e-01,-2.775180276454448647e-01,-2.775180276454448647e-01,-2.775180276454448647e-01,-2.775180276454448647e-01,-2.775180276454448647e-01,-2.775180276454448647e-01,-2.775180276454448647e-01,-2.775180276454448647e-01,-2.775180276454448647e-01,-2.775180276454448647e-01,-2.775180276454448647e-01,-2.775180276454448647e-01,-2.775180276454448647e-01,-2.775180276454448647e-01,-2.775180276454448647e-01,-2.775180276454448647e-01,-2.775180276454448647e-01,-2.775180276454448647e-01,-2.775180276454448647e-01,-2.775180276454448647e-01,-2.775180276454448647e-01,-2.775180276454448647e-01,-2.775180276454448647e-01,-2.775180276454448647e-01,-2.775180276454448647e-01,-2.775180276454448647e-01
