3.263371273597966832e-02,3.263371273597966832e-02,3.263371273597966832e-02,3.263371273597966832e-02,3.263371273597966832e-02,3.263371273597966832e-02,3.263371273597966832e-02,3.263371273597966832e-02,3.263371273597966832e-02,3.263371273597966832e-02,3.263371273597966832e-02,3.263371273597966832e-02,3.263371273597966832e-02,3.263371273597966832e-02,3.263371273597966832e-02,3.263371273597966832e-02,3.263371273597966832e-02,3.263371273597966832e-02,3.263371273597966832e-02,3.263371273597966832e-02,3.263371273597966832e-02,3.263371273597966832e-02,3.263371273597966832e-02,3.263371273597966832e-02,3.263371273597966832e-02,3.263371273597966832e-02,3.263371273597966832e-02,3.263371273597966832e-02,3.263371273597966832e-02,3.263371273597966832e-02,3.263371273597966832e-02,3.263371273597966832e-02,3.263371273597966832e-02,3.263371273597966832e-02,3.263371273597966832e-02,3.263371273597966832e-02,3.263371273597966832e-02,3.263371273597966832e-02,3.263371273597966832e-02,3.263371273597966832e-02,3.263371273597966832e-02,3.263371273597966832e-02,3.263371273597966832e-02,3.263371273597966832e-02,3.263371273597966832e-02,3.263371273597966832e-02,3.263371273597966832e-02
3.263371273597966832e-02,3.263371273597966832e-02,3.263371273597966832e-02,3.263371273597966832e-02,3.263371273597966832e-02,3.263371273597966832e-02,3.263371273597966832e-02,3.263371273597966832e-02,3.263371273597966832e-02,3.263371273597966832e-02,3.263371273597966832e-02,3.263371273597966832e-02,3.263371273597966832e-02,3.263371273597966832e-02,3.263371273597966832e-02,3.263371273597966832e-02,3.263371273597966832e-02,3.263371273597966832e-02,3.263371273597966832e-02,3.263371273597966832e-02,3.263371273597966832e-02,3.263371273597966832e-02,3.263371273597966832e-02,3.263371273597966832e-02,3.263371273597966832e-02,3.263371273597966832e-02,3.263371273597966832e-02,3.263371273597966832e-02,3.263371273597966832e-02,3.263371273597966832e-02,3.263371273597966832e-02,3.263371273597966832e-02,3.263371273597966832e-02,3.263371273597966832e-02,3.263371273597966832e-02,3.263371273597966832e-02,3.263371273597966832e-02,3.263371273597966832e-02,3.263371273597966832e-02,3.263371273597966832e-02,3.263371273597966832e-02,3.263371273597966832e-02,3.263371273597966832e-02,3.263371273597966832e-02,3.263371273597966832e-02,3.263371273597966832e-02,3.263371273597966832e-02
3.263371273597966832e-02,3.263371273597966832e-02,3.263371273597966832e-02,3.263371273597966832e-02,3.263371273597966832e-02,3.263371273597966832e-02,3.263371273597966832e-02,3.263371273597966832e-02,3.263371273597966832e-02,3.263371273597966832e-02,3.263371273597966832e-02,3.263371273597966832e-02,3.263371273597966832e-02,3.263371273597966832e-02,3.263371273597966832e-02,3.263371273597966832e-02,3.263371273597966832e-02,3.263371273597966832e-02,3.263371273597966832e-02,3.263371273597966832e-02,3.263371273597966832e-02,3.263371273597966832e-02,3.263371273597966832e-02,3.263371273597966832e-02,3.263371273597966832e-02,3.263371273597966832e-02,3.263371273597966832e-02,3.263371273597966832e-02,3.263371273597966832e-02,3.263371273597966832e-02,3.263371273597966832e-02,3.263371273597966832e-02,3.263371273597966832e-02,3.263371273597966832e-02,3.263371273597966832e-02,3.263371273597966832e-02,3.263371273597966832e-02,3.263371273597966832e-02,3.263371273597966832e-02,3.263371273597966832e-02,3.263371273597966832e-02,3.263371273597966832e-02,3.263371273597966832e-02,3.263371273597966832e-02,3.263371273597966832e-02,3.263371273597966832e-02,3.263371273597966832e-02
3.263371273597966832e-02,3.263371273597966832e-02,3.263371273597966832e-02,3.263371273597966832e-02,3.263371273597966832e-02,3.263371273597966832e-02,3.263371273597966832e-02,3.263371273597966832e-02,3.263371273597966832e-02,3.263371273597966832e-02,3.263371273597966832e-02,3.263371273597966832e-02,3.263371273597966832e-02,3.263371273597966832e-02,3.263371273597966832e-02,3.263371273597966832e-02,3.263371273597966832e-02,3.263371273597966832e-02,3.263371273597966832e-02,3.263371273597966832e-02,3.263371273597966832e-02,3.263371273597966832e-02,3.263371273597966832e-02,3.263371273597966832e-02,3.263371273597966832e-02,3.263371273597966832e-02,3.263371273597966832e-02,3.263371273597966832e-02,3.263371273597966832e-02,3.263371273597966832e-02,3.263371273597966832e-02,3.263371273597966832e-02,3.263371273597966832e-02,3.263371273597966832e-02,3.263371273597966832e-02,3.263371273597966832e-02,3.263371273597966832e-02,3.263371273597966832e-02,3.263371273597966832e-02,3.263371273597966832e-02,3.263371273597966832e-02,3.263371273597966832e-02,3.263371273597966832e-02,3.263371273597966832e-02,3.263371273597966832e-02,3.263371273597966832e-02,3.263371273597966832e-02
3.263371273597966832e-02,3.263371273597966832e-02,3.263371273597966832e-02,3.005896126702087626e-02,2.972575813574385509e-02,3.198750060259393513e-02,3.263371273597966832e-02,3.263371273597966832e-02,3.263371273597966832e-02,3.263371273597966832e-02,3.263371273597966832e-02,3.263371273597966832e-02,3.263371273597966832e-02,3.263371273597966832e-02,3.263371273597966832e-02,3.263371273597966832e-02,3.263371273597966832e-02,3.263371273597966832e-02,3.263371273597966832e-02,3.263371273597966832e-02,3.263371273597966832e-02,3.263371273597966832e-02,3.263371273597966832e-02,3.263371273597966832e-02,3.263371273597966832e-02,3.263371273597966832e-02,3.263371273597966832e-02,3.263371273597966832e-02,3.263371273597966832e-02,3.263371273597966832e-02,3.263371273597966832e-02,3.263371273597966832e-02,3.263371273597966832e-02,3.263371273597966832e-02,3.263371273597966832e-02,3.263371273597966832e-02,3.263371273597966832e-02,3.263371273597966832e-02,3.263371273597966832e-02,3.263371273597966832e-02,3.263371273597966832e-02,3.263371273597966832e-02,3.263371273597966832e-02,3.263371273597966832e-02,3.263371273597966832e-02,3.263371273597966832e-02,3.263371273597966832e-02
3.263371273597966832e-02,3.263371273597966832e-02,3.263371273597966832e-02,2.124422388505606968e-02,1.970947006826494902e-02,2.164810646842215552e-02,2.390984893527223210e-02,2.584848533542943860e-02,2.811022780227951517e-02,3.004886420243672515e-02,3.231060666928679825e-02,3.263371273597966832e-02,3.263371273597966832e-02,3.263371273597966832e-02,3.263371273597966832e-02,3.263371273597966832e-02,3.263371273597966832e-02,3.263371273597966832e-02,3.263371273597966832e-02,3.263371273597966832e-02,3.263371273597966832e-02,3.263371273597966832e-02,3.263371273597966832e-02,3.263371273597966832e-02,3.263371273597966832e-02,3.263371273597966832e-02,3.263371273597966832e-02,3.263371273597966832e-02,3.263371273597966832e-02,3.263371273597966832e-02,3.263371273597966832e-02,3.263371273597966832e-02,3.263371273597966832e-02,3.263371273597966832e-02,3.263371273597966832e-02,3.263371273597966832e-02,3.263371273597966832e-02,3.263371273597966832e-02,3.263371273597966832e-02,3.263371273597966832e-02,3.263371273597966832e-02,3.263371273597966832e-02,3.263371273597966832e-02,3.263371273597966832e-02,3.263371273597966832e-02,3.263371273597966832e-02,3.263371273597966832e-02
3.263371273597966832e-02,3.263371273597966832e-02,3.263371273597966832e-02,9.006581609063694926e-03,9.370075934093169412e-03,1.163181840094324251e-02,1.389356086779332256e-02,1.583219726795053253e-02,1.809393973480060910e-02,2.003257613495781908e-02,2.229431860180789218e-02,2.423295500196510216e-02,2.649469746881517526e-02,2.843333386897238524e-02,3.069507633582246181e-02,3.263371273597966832e-02,3.263371273597966832e-02,3.263371273597966832e-02,3.263371273597966832e-02,3.263371273597966832e-02,3.263371273597966832e-02,3.263371273597966832e-02,3.263371273597966832e-02,3.263371273597966832e-02,3.263371273597966832e-02,3.263371273597966832e-02,3.263371273597966832e-02,3.263371273597966832e-02,3.263371273597966832e-02,3.263371273597966832e-02,3.263371273597966832e-02,3.263371273597966832e-02,3.263371273597966832e-02,3.263371273597966832e-02,3.263371273597966832e-02,3.263371273597966832e-02,3.263371273597966832e-02,3.263371273597966832e-02,3.263371273597966832e-02,3.263371273597966832e-02,3.263371273597966832e-02,3.263371273597966832e-02,3.263371273597966832e-02,3.263371273597966832e-02,3.263371273597966832e-02,3.263371273597966832e-02,3.263371273597966832e-02
3.263371273597966832e-02,3.263371273597966832e-02,2.560615578540979126e-02,-2.584848533542939697e-03,-6.462121333857331895e-04,1.615530333464339913e-03,3.554166733621546420e-03,5.815909200471619522e-03,7.754545600628829499e-03,1.001628806747890954e-02,1.195492446763611605e-02,1.421666693448619262e-02,1.615530333464339913e-02,1.841704580149347570e-02,2.035568220165068221e-02,2.261742466850075878e-02,2.487916713535083535e-02,2.681780353550804186e-02,2.907954600235812190e-02,3.101818240251532841e-02,3.263371273597966832e-02,3.263371273597966832e-02,3.263371273597966832e-02,3.263371273597966832e-02,3.263371273597966832e-02,3.263371273597966832e-02,3.263371273597966832e-02,3.263371273597966832e-02,3.263371273597966832e-02,3.263371273597966832e-02,3.263371273597966832e-02,3.263371273597966832e-02,3.263371273597966832e-02,3.263371273597966832e-02,3.263371273597966832e-02,3.263371273597966832e-02,3.263371273597966832e-02,3.263371273597966832e-02,3.263371273597966832e-02,3.263371273597966832e-02,3.263371273597966832e-02,3.263371273597966832e-02,3.263371273597966832e-02,3.263371273597966832e-02,3.263371273597966832e-02,3.263371273597966832e-02,3.263371273597966832e-02
3.263371273597966832e-02,3.263371273597966832e-02,1.482249080953531792e-02,-1.292424266771472624e-02,-1.066250020086464967e-02,-8.723863800707436222e-03,-6.462121333857359651e-03,-4.523484933700146204e-03,-2.261742466850069633e-03,-3.231060666928700642e-04,1.938636400157209977e-03,4.200378867007286549e-03,6.139015267164493056e-03,8.400757734014566158e-03,1.033939413417177267e-02,1.260113660102185271e-02,1.453977300117906268e-02,1.680151546802913579e-02,1.874015186818634576e-02,2.100189433503642233e-02,2.294053073519362884e-02,2.520227320204370541e-02,2.714090960220091192e-02,2.940265206905098849e-02,3.134128846920819500e-02,3.263371273597966832e-02,3.263371273597966832e-02,3.263371273597966832e-02,3.263371273597966832e-02,3.263371273597966832e-02,3.263371273597966832e-02,3.263371273597966832e-02,3.263371273597966832e-02,3.263371273597966832e-02,3.263371273597966832e-02,3.263371273597966832e-02,3.263371273597966832e-02,3.263371273597966832e-02,3.263371273597966832e-02,3.263371273597966832e-02,3.263371273597966832e-02,3.263371273597966832e-02,3.263371273597966832e-02,3.263371273597966832e-02,3.263371273597966832e-02,3.263371273597966832e-02,3.263371273597966832e-02
3.263371273597966832e-02,3.263371273597966832e-02,-1.706403914721710269e-03,-2.294053073519362190e-02,-2.067878826834355921e-02,-1.874015186818634576e-02,-1.647840940133627613e-02,-1.453977300117905574e-02,-1.227803053432898611e-02,-1.033939413417177960e-02,-8.077651667321696094e-03,-6.139015267164489587e-03,-3.877272800314419954e-03,-1.938636400157206507e-03,3.231060666928700642e-04,2.261742466850076572e-03,4.523484933700153143e-03,6.462121333857359651e-03,8.723863800707436222e-03,1.066250020086464273e-02,1.292424266771472277e-02,1.518598513456479587e-02,1.712462153472200238e-02,1.938636400157207895e-02,2.132500040172928893e-02,2.358674286857936550e-02,2.552537926873657201e-02,2.778712173558664858e-02,2.972575813574385509e-02,3.198750060259393513e-02,3.263371273597966832e-02,3.263371273597966832e-02,3.263371273597966832e-02,3.263371273597966832e-02,3.263371273597966832e-02,3.263371273597966832e-02,3.263371273597966832e-02,3.263371273597966832e-02,3.263371273597966832e-02,3.263371273597966832e-02,3.263371273597966832e-02,3.263371273597966832e-02,3.263371273597966832e-02,3.263371273597966832e-02,3.263371273597966832e-02,3.263371273597966832e-02,3.263371273597966832e-02
3.263371273597966832e-02,3.263371273597966832e-02,-2.037587633081899136e-02,-3.295681880267254532e-02,-3.101818240251532494e-02,-2.875643993566524836e-02,-2.681780353550804880e-02,-2.455606106865797222e-02,-2.261742466850076572e-02,-2.035568220165068914e-02,-1.841704580149347570e-02,-1.615530333464339913e-02,-1.421666693448619262e-02,-1.195492446763611605e-02,-1.001628806747890954e-02,-7.754545600628832969e-03,-5.492803133778756397e-03,-3.554166733621549890e-03,-1.292424266771473318e-03,6.462121333857331895e-04,2.907954600235813231e-03,4.846591000393019738e-03,7.108333467243096310e-03,9.046969867400302817e-03,-6.534929765376179533e-02,-6.341066125360458883e-02,-6.114891878675452613e-02,-5.921028238659731963e-02,1.970947006826494902e-02,2.164810646842215552e-02,2.390984893527223210e-02,2.584848533542943860e-02,2.811022780227951517e-02,3.037197026912959175e-02,3.231060666928679825e-02,3.263371273597966832e-02,3.263371273597966832e-02,3.263371273597966832e-02,3.263371273597966832e-02,3.263371273597966832e-02,3.263371273597966832e-02,3.263371273597966832e-02,3.263371273597966832e-02,3.263371273597966832e-02,3.263371273597966832e-02,3.263371273597966832e-02,3.263371273597966832e-02
3.263371273597966832e-02,3.263371273597966832e-02,-4.523484933700152449e-02,-4.329621293684431799e-02,-4.103447046999423448e-02,-3.909583406983702797e-02,-3.683409160298695834e-02,-3.489545520282975183e-02,-3.263371273597966832e-02,-3.069507633582246181e-02,-2.843333386897238524e-02,-2.617159140212230867e-02,-2.423295500196510216e-02,-2.197121253511501865e-02,-2.003257613495781214e-02,-1.777083366810774251e-02,-1.583219726795053600e-02,-1.357045480110045249e-02,-1.163181840094325292e-02,-9.370075934093169412e-03,-7.431439533935962904e-03,-5.169697067085886333e-03,-3.231060666928679825e-03,-9.693182000786101926e-04,-7.568869178793358188e-02,-7.342694932108351225e-02,-7.116520685423341486e-02,-6.922657045407620835e-02,9.693182000786042946e-03,1.163181840094324945e-02,1.389356086779332256e-02,1.583219726795053253e-02,1.809393973480060910e-02,2.003257613495781561e-02,2.229431860180789218e-02,2.423295500196510216e-02,2.649469746881517526e-02,2.843333386897238524e-02,3.069507633582246181e-02,3.263371273597966832e-02,3.263371273597966832e-02,3.263371273597966832e-02,3.263371273597966832e-02,3.263371273597966832e-02,3.263371273597966832e-02,3.263371273597966832e-02,3.263371273597966832e-02
3.263371273597966832e-02,1.291414560313056473e-02,-5.557424347117329716e-02,-5.331250100432322753e-02,-5.105075853747313014e-02,-4.911212213731592363e-02,-4.685037967046585400e-02,-4.491174327030864749e-02,-4.265000080345857786e-02,-4.071136440330137135e-02,-3.844962193645128784e-02,-3.651098553629409521e-02,-3.424924306944401170e-02,-3.231060666928679131e-02,-3.004886420243672168e-02,-2.811022780227951517e-02,-2.584848533542944554e-02,-2.390984893527223903e-02,-2.164810646842215552e-02,-1.970947006826495596e-02,-1.744772760141487244e-02,-1.518598513456479587e-02,-1.324734873440758937e-02,-1.098560626755750586e-02,-8.570497985541247754e-02,-8.344323738856240791e-02,-8.150460098840520140e-02,-7.924285852155513177e-02,-6.462121333857331895e-04,1.615530333464343382e-03,3.554166733621549890e-03,5.815909200471626461e-03,7.754545600628832969e-03,1.001628806747890607e-02,1.195492446763611605e-02,1.421666693448619262e-02,1.615530333464339913e-02,1.841704580149347570e-02,2.067878826834355227e-02,2.261742466850075878e-02,2.487916713535083535e-02,2.681780353550804186e-02,2.907954600235811843e-02,3.101818240251532841e-02,3.263371273597966832e-02,3.263371273597966832e-02,3.263371273597966832e-02
3.263371273597966832e-02,-1.118754755924055572e-02,-6.559053153865221364e-02,-6.332878907180211625e-02,-6.139015267164491668e-02,-5.912841020479486093e-02,-5.718977380463764054e-02,-5.492803133778757091e-02,-5.298939493763035052e-02,-5.072765247078028089e-02,-4.878901607062306051e-02,-4.652727360377299087e-02,-4.458863720361579824e-02,-4.232689473676571473e-02,-4.038825833660850823e-02,-3.812651586975843859e-02,-3.586477340290835508e-02,-3.392613700275114857e-02,-3.166439453590106506e-02,-2.972575813574385162e-02,-2.746401566889378199e-02,-2.552537926873656854e-02,-2.326363680188649891e-02,-2.132500040172928546e-02,-9.572126792289140096e-02,-9.378263152273416670e-02,-9.152088905588412482e-02,-8.958225265572691831e-02,-1.066250020086464273e-02,-8.723863800707436222e-03,-6.462121333857359651e-03,-4.523484933700153143e-03,-2.261742466850076572e-03,0.000000000000000000e+00,1.938636400157206507e-03,4.200378867007283079e-03,6.139015267164493056e-03,8.400757734014566158e-03,1.033939413417177614e-02,1.260113660102185271e-02,1.453977300117905921e-02,1.680151546802913579e-02,1.874015186818634576e-02,2.100189433503641886e-02,2.294053073519362884e-02,2.520227320204370541e-02,2.714090960220091192e-02
3.263371273597966832e-02,-3.643020901962087249e-02,-7.560681960613110930e-02,-7.366818320597390279e-02,-7.140644073912383316e-02,-6.946780433896662665e-02,-6.720606187211655702e-02,-6.526742547195932276e-02,-6.300568300510925313e-02,-6.106704660495206743e-02,-5.880530413810198392e-02,-5.654356167125190041e-02,-5.460492527109470778e-02,-5.234318280424462427e-02,-5.040454640408740389e-02,-4.814280393723733426e-02,-4.620416753708012775e-02,-4.394242507023005812e-02,-4.200378867007285161e-02,-3.974204620322276810e-02,-3.780340980306556159e-02,-3.554166733621547808e-02,-3.360303093605827157e-02,-3.134128846920820194e-02,-2.940265206905098849e-02,-2.714090960220091192e-02,-2.487916713535084229e-02,-2.294053073519363578e-02,-2.067878826834355921e-02,-1.874015186818635270e-02,-1.647840940133627613e-02,-1.453977300117906268e-02,-1.227803053432898611e-02,-1.033939413417177960e-02,-8.077651667321696094e-03,-6.139015267164489587e-03,-3.877272800314419954e-03,-1.938636400157213446e-03,3.231060666928700642e-04,2.261742466850076572e-03,4.523484933700153143e-03,6.462121333857359651e-03,8.723863800707436222e-03,1.098560626755751279e-02,1.292424266771471930e-02,1.518598513456479587e-02,1.712462153472200238e-02
3.263371273597966832e-02,-6.905382469101636889e-02,-8.594621374030289584e-02,-8.368447127345279846e-02,-8.142272880660272882e-02,-7.948409240644552232e-02,-7.722234993959545268e-02,-7.528371353943824618e-02,-7.302197107258817654e-02,-7.108333467243097004e-02,-6.882159220558087265e-02,-6.688295580542369390e-02,-6.462121333857362426e-02,-6.268257693841641776e-02,-6.042083447156632731e-02,-5.848219807140912080e-02,-5.622045560455903729e-02,-5.428181920440183078e-02,-5.202007673755176115e-02,-5.008144033739454076e-02,-4.781969787054447113e-02,-4.555795540369438762e-02,-4.361931900353718111e-02,-4.135757653668711148e-02,-3.941894013652989109e-02,-3.715719766967982146e-02,-3.521856126952261495e-02,-3.295681880267253144e-02,-3.101818240251533881e-02,-2.875643993566525530e-02,-2.681780353550804186e-02,-2.455606106865797222e-02,-2.261742466850075878e-02,-2.035568220165068914e-02,-1.841704580149348264e-02,-1.615530333464341300e-02,-1.421666693448619262e-02,-1.195492446763611605e-02,-9.693182000786032537e-03,-7.754545600628832969e-03,-5.492803133778756397e-03,-3.554166733621549890e-03,-1.292424266771473318e-03,6.462121333857401284e-04,2.907954600235809761e-03,4.846591000393019738e-03,7.108333467243092840e-03
2.433392564780662015e-02,-9.790113820793899801e-02,-9.596250180778179151e-02,-9.370075934093172187e-02,-9.176212294077448761e-02,-8.950038047392444573e-02,-8.756174407376723923e-02,-8.530000160691714184e-02,-8.336136520675996309e-02,-8.109962273990986570e-02,-7.916098633975265919e-02,-7.689924387290258956e-02,-7.496060747274538305e-02,-7.269886500589531342e-02,-7.076022860573810691e-02,-6.849848613888800952e-02,-6.623674367203793989e-02,-6.429810727188073338e-02,-6.203636480503067069e-02,-6.009772840487346418e-02,-5.783598593802338067e-02,-5.589734953786616029e-02,-5.363560707101609065e-02,-5.169697067085888414e-02,-4.943522820400881451e-02,-4.749659180385160800e-02,-4.523484933700152449e-02,-4.329621293684431799e-02,-4.103447046999423448e-02,-3.909583406983702797e-02,-3.683409160298695834e-02,-3.489545520282975183e-02,-3.263371273597966832e-02,-3.037197026912959869e-02,-2.843333386897239218e-02,-2.617159140212230867e-02,-2.423295500196510910e-02,-2.197121253511502559e-02,-2.003257613495781908e-02,-1.777083366810774251e-02,-1.583219726795052906e-02,-1.357045480110045943e-02,-1.163181840094324598e-02,-9.370075934093169412e-03,-7.431439533935962904e-03,-5.169697067085886333e-03,-3.231060666928679825e-03
-3.069507633582248263e-03,-1.082405323421107846e-01,-1.059787898752606872e-01,-1.040401534751035084e-01,-1.017784110082534110e-01,-9.983977460809620452e-02,-9.757803214124613489e-02,-9.563939574108892838e-02,-9.337765327423885875e-02,-9.111591080738878912e-02,-8.917727440723155485e-02,-8.691553194038148522e-02,-8.497689554022427871e-02,-8.271515307337420908e-02,-8.077651667321700257e-02,-7.851477420636693294e-02,-7.657613780620972643e-02,-7.431439533935962904e-02,-7.237575893920242254e-02,-7.011401647235235290e-02,-6.817538007219517415e-02,-6.591363760534507676e-02,-6.397500120518787026e-02,-6.171325873833780756e-02,-5.977462233818060106e-02,-5.751287987133051754e-02,-5.525113740448043403e-02,-5.331250100432322753e-02,-5.105075853747314402e-02,-4.911212213731593751e-02,-4.685037967046585400e-02,-4.491174327030866137e-02,-4.265000080345857786e-02,-4.071136440330138523e-02,-3.844962193645130172e-02,-3.651098553629409521e-02,-3.424924306944401170e-02,-3.231060666928680519e-02,-3.004886420243672168e-02,-2.811022780227951517e-02,-2.584848533542944554e-02,-2.390984893527223903e-02,-2.164810646842216246e-02,-1.938636400157209283e-02,-1.744772760141487938e-02,-1.518598513456479587e-02,-1.324734873440759630e-02
-3.915641645734193460e-02,-1.182568204095896802e-01,-1.159950779427395828e-01,-1.140564415425823763e-01,-1.117946990757323344e-01,-1.098560626755751002e-01,-1.075943202087250306e-01,-1.056556838085678240e-01,-1.033939413417177822e-01,-1.014553049415605479e-01,-9.919356247471047827e-02,-9.725492607455327176e-02,-9.499318360770317438e-02,-9.305454720754596787e-02,-9.079280474069589824e-02,-8.885416834053869173e-02,-8.659242587368862210e-02,-8.465378947353141559e-02,-8.239204700668134596e-02,-8.013030453983124857e-02,-7.819166813967406982e-02,-7.592992567282400018e-02,-7.399128927266679367e-02,-7.172954680581669629e-02,-6.979091040565948978e-02,-6.752916793880942015e-02,-6.559053153865221364e-02,-6.332878907180214401e-02,-6.139015267164494444e-02,-5.912841020479486093e-02,-5.718977380463764054e-02,-5.492803133778757091e-02,-5.298939493763036440e-02,-5.072765247078026701e-02,-4.878901607062306051e-02,-4.652727360377299087e-02,-4.426553113692292124e-02,-4.232689473676571473e-02,-4.006515226991561734e-02,-3.812651586975842471e-02,-3.586477340290835508e-02,-3.392613700275113470e-02,-3.166439453590106506e-02,-2.972575813574385162e-02,-2.746401566889378199e-02,-2.552537926873656854e-02,-2.326363680188649891e-02
-7.444565717895360035e-02,-1.282731084770686036e-01,-1.263344720769113694e-01,-1.240727296100612997e-01,-1.221340932099040655e-01,-1.198723507430540236e-01,-1.179337143428968171e-01,-1.156719718760467475e-01,-1.137333354758895410e-01,-1.114715930090394436e-01,-1.095329566088822371e-01,-1.072712141420321674e-01,-1.053325777418749609e-01,-1.030708352750248913e-01,-1.008090928081748217e-01,-9.887045640801758739e-02,-9.660871394116751776e-02,-9.467007754101031125e-02,-9.240833507416024162e-02,-9.046969867400303511e-02,-8.820795620715296548e-02,-8.626931980699575897e-02,-8.400757734014568934e-02,-8.206894093998848283e-02,-7.980719847313838544e-02,-7.786856207298117893e-02,-7.560681960613110930e-02,-7.366818320597390279e-02,-7.140644073912383316e-02,-6.946780433896662665e-02,-6.720606187211655702e-02,-6.494431940526645963e-02,-6.300568300510925313e-02,-6.074394053825920431e-02,-5.880530413810198392e-02,-5.654356167125191429e-02,-5.460492527109470778e-02,-5.234318280424462427e-02,-5.040454640408741777e-02,-4.814280393723733426e-02,-4.620416753708012775e-02,-4.394242507023004424e-02,-4.200378867007283773e-02,-3.974204620322276810e-02,-3.780340980306554771e-02,-3.554166733621547808e-02,-3.360303093605827157e-02
-1.189030325429754342e-01,-1.386125026112403624e-01,-1.363507601443902928e-01,-1.344121237442330863e-01,-1.321503812773830167e-01,-1.302117448772257824e-01,-1.279500024103757128e-01,-1.256882599435256431e-01,-1.237496235433684089e-01,-1.214878810765183392e-01,-1.195492446763611605e-01,-1.172875022095110908e-01,-1.153488658093538566e-01,-1.130871233425038147e-01,-1.111484869423466082e-01,-1.088867444754965108e-01,-1.069481080753393043e-01,-1.046863656084892347e-01,-1.027477292083320282e-01,-1.004859867414819308e-01,-9.854735034132472427e-02,-9.628560787447465463e-02,-9.434697147431744813e-02,-9.208522900746737849e-02,-8.982348654061730886e-02,-8.788485014046010235e-02,-8.562310767361003272e-02,-8.368447127345279846e-02,-8.142272880660272882e-02,-7.948409240644555007e-02,-7.722234993959545268e-02,-7.528371353943824618e-02,-7.302197107258817654e-02,-7.108333467243097004e-02,-6.882159220558090040e-02,-6.688295580542369390e-02,-6.462121333857359651e-02,-6.268257693841639000e-02,-6.042083447156632731e-02,-5.848219807140910692e-02,-5.622045560455903729e-02,-5.395871313770895378e-02,-5.202007673755174727e-02,-4.975833427070167764e-02,-4.781969787054447113e-02,-4.555795540369438762e-02,-4.361931900353718111e-02
-1.508905331455693832e-01,-1.486287906787192858e-01,-1.463670482118692162e-01,-1.444284118117120097e-01,-1.421666693448619123e-01,-1.402280329447047336e-01,-1.379662904778546362e-01,-1.360276540776974297e-01,-1.337659116108473323e-01,-1.318272752106901258e-01,-1.295655327438400561e-01,-1.276268963436828496e-01,-1.253651538768327522e-01,-1.234265174766755735e-01,-1.211647750098255039e-01,-1.192261386096682974e-01,-1.169643961428182000e-01,-1.150257597426609935e-01,-1.127640172758109238e-01,-1.105022748089608542e-01,-1.085636384088036477e-01,-1.063018959419535781e-01,-1.043632595417963438e-01,-1.021015170749462742e-01,-1.001628806747890676e-01,-9.790113820793899801e-02,-9.596250180778179151e-02,-9.370075934093172187e-02,-9.176212294077451537e-02,-8.950038047392444573e-02,-8.756174407376723923e-02,-8.530000160691714184e-02,-8.336136520675993533e-02,-8.109962273990986570e-02,-7.916098633975265919e-02,-7.689924387290258956e-02,-7.463750140605251993e-02,-7.269886500589531342e-02,-7.043712253904521603e-02,-6.849848613888800952e-02,-6.623674367203793989e-02,-6.429810727188073338e-02,-6.203636480503067069e-02,-6.009772840487346418e-02,-5.783598593802339455e-02,-5.589734953786617416e-02,-5.363560707101609065e-02
-1.609068212130482511e-01,-1.586450787461981815e-01,-1.567064423460410028e-01,-1.544446998791909331e-01,-1.525060634790336989e-01,-1.502443210121836015e-01,-1.483056846120264227e-01,-1.460439421451763531e-01,-1.441053057450191466e-01,-1.418435632781690214e-01,-1.399049268780118427e-01,-1.376431844111617731e-01,-1.357045480110045388e-01,-1.334428055441544692e-01,-1.311810630773043995e-01,-1.292424266771471653e-01,-1.269806842102971234e-01,-1.250420478101399169e-01,-1.227803053432898195e-01,-1.208416689431326130e-01,-1.185799264762825433e-01,-1.166412900761253368e-01,-1.143795476092752672e-01,-1.124409112091180885e-01,-1.101791687422679911e-01,-1.082405323421107846e-01,-1.059787898752606872e-01,-1.040401534751034807e-01,-1.017784110082534110e-01,-9.983977460809620452e-02,-9.757803214124613489e-02,-9.531628967439606526e-02,-9.337765327423885875e-02,-9.111591080738876136e-02,-8.917727440723158261e-02,-8.691553194038148522e-02,-8.497689554022430647e-02,-8.271515307337420908e-02,-8.077651667321700257e-02,-7.851477420636693294e-02,-7.657613780620972643e-02,-7.431439533935965680e-02,-7.237575893920242254e-02,-7.011401647235235290e-02,-6.817538007219514640e-02,-6.591363760534507676e-02,-6.397500120518787026e-02
-1.709231092805271746e-01,-1.689844728803699681e-01,-1.667227304135198984e-01,-1.647840940133626919e-01,-1.625223515465125945e-01,-1.605837151463553880e-01,-1.583219726795053461e-01,-1.560602302126552210e-01,-1.541215938124980700e-01,-1.518598513456479726e-01,-1.499212149454907661e-01,-1.476594724786406687e-01,-1.457208360784834622e-01,-1.434590936116333926e-01,-1.415204572114761861e-01,-1.392587147446261164e-01,-1.373200783444688822e-01,-1.350583358776188125e-01,-1.331196994774616338e-01,-1.308579570106115364e-01,-1.289193206104543299e-01,-1.266575781436042603e-01,-1.247189417434470260e-01,-1.224571992765969564e-01,-1.201954568097468867e-01,-1.182568204095896802e-01,-1.159950779427396106e-01,-1.140564415425824041e-01,-1.117946990757323344e-01,-1.098560626755751279e-01,-1.075943202087250306e-01,-1.056556838085678518e-01,-1.033939413417177544e-01,-1.014553049415605479e-01,-9.919356247471047827e-02,-9.725492607455324401e-02,-9.499318360770317438e-02,-9.305454720754596787e-02,-9.079280474069589824e-02,-8.885416834053869173e-02,-8.659242587368862210e-02,-8.433068340683855246e-02,-8.239204700668134596e-02,-8.013030453983127632e-02,-7.819166813967406982e-02,-7.592992567282397243e-02,-7.399128927266676592e-02
-1.812625034146989333e-01,-1.790007609478488637e-01,-1.767390184809987941e-01,-1.748003820808415876e-01,-1.725386396139915179e-01,-1.706000032138343114e-01,-1.683382607469842140e-01,-1.663996243468270075e-01,-1.641378818799769379e-01,-1.621992454798197314e-01,-1.599375030129696340e-01,-1.579988666128124553e-01,-1.557371241459624134e-01,-1.537984877458051791e-01,-1.515367452789551095e-01,-1.495981088787979030e-01,-1.473363664119478056e-01,-1.453977300117905991e-01,-1.431359875449405294e-01,-1.408742450780904598e-01,-1.389356086779332256e-01,-1.366738662110831559e-01,-1.347352298109259494e-01,-1.324734873440759075e-01,-1.305348509439186733e-01,-1.282731084770685759e-01,-1.263344720769113694e-01,-1.240727296100612997e-01,-1.221340932099040655e-01,-1.198723507430539958e-01,-1.179337143428968171e-01,-1.156719718760467475e-01,-1.137333354758895410e-01,-1.114715930090394713e-01,-1.095329566088822648e-01,-1.072712141420321952e-01,-1.050094716751820978e-01,-1.030708352750248913e-01,-1.008090928081748217e-01,-9.887045640801758739e-02,-9.660871394116751776e-02,-9.467007754101031125e-02,-9.240833507416024162e-02,-9.046969867400303511e-02,-8.820795620715296548e-02,-8.626931980699575897e-02,-8.400757734014566158e-02
-1.912787914821778568e-01,-1.890170490153277871e-01,-1.870784126151705806e-01,-1.848166701483204832e-01,-1.828780337481632767e-01,-1.806162912813132071e-01,-1.786776548811560283e-01,-1.764159124143059032e-01,-1.744772760141487244e-01,-1.722155335472986548e-01,-1.702768971471414206e-01,-1.680151546802913787e-01,-1.660765182801341444e-01,-1.638147758132840748e-01,-1.615530333464340051e-01,-1.596143969462767986e-01,-1.573526544794267290e-01,-1.554140180792694947e-01,-1.531522756124194529e-01,-1.512136392122622464e-01,-1.489518967454121767e-01,-1.470132603452549425e-01,-1.447515178784048728e-01,-1.428128814782476663e-01,-1.405511390113975689e-01,-1.386125026112403624e-01,-1.363507601443902928e-01,-1.344121237442330863e-01,-1.321503812773829889e-01,-1.302117448772258101e-01,-1.279500024103757128e-01,-1.256882599435256431e-01,-1.237496235433684366e-01,-1.214878810765183392e-01,-1.195492446763611605e-01,-1.172875022095110908e-01,-1.153488658093538843e-01,-1.130871233425038147e-01,-1.111484869423465804e-01,-1.088867444754965108e-01,-1.069481080753393043e-01,-1.046863656084892069e-01,-1.027477292083320004e-01,-1.004859867414819308e-01,-9.854735034132472427e-02,-9.628560787447468239e-02,-9.434697147431744813e-02
-2.012950795496567802e-01,-1.993564431494995737e-01,-1.970947006826494485e-01,-1.951560642824922975e-01,-1.928943218156422001e-01,-1.909556854154849936e-01,-1.886939429486349240e-01,-1.864322004817848544e-01,-1.844935640816276201e-01,-1.822318216147775505e-01,-1.802931852146203440e-01,-1.780314427477702743e-01,-1.760928063476130678e-01,-1.738310638807629982e-01,-1.718924274806057639e-01,-1.696306850137556943e-01,-1.676920486135985155e-01,-1.654303061467483904e-01,-1.634916697465912117e-01,-1.612299272797411420e-01,-1.592912908795839633e-01,-1.570295484127338659e-01,-1.550909120125766594e-01,-1.528291695457265897e-01,-1.505674270788765201e-01,-1.486287906787192858e-01,-1.463670482118692162e-01,-1.444284118117120097e-01,-1.421666693448619123e-01,-1.402280329447047058e-01,-1.379662904778546362e-01,-1.360276540776974297e-01,-1.337659116108473600e-01,-1.318272752106901535e-01,-1.295655327438400561e-01,-1.276268963436828496e-01,-1.253651538768327800e-01,-1.234265174766755735e-01,-1.211647750098254761e-01,-1.192261386096682696e-01,-1.169643961428182000e-01,-1.147026536759681581e-01,-1.127640172758109238e-01,-1.105022748089608542e-01,-1.085636384088036754e-01,-1.063018959419535503e-01,-8.723863800707434835e-02
-2.051723523499711654e-01,-2.051723523499711932e-01,-2.051723523499711932e-01,-2.051723523499711654e-01,-2.029106098831210681e-01,-2.009719734829639171e-01,-1.987102310161138474e-01,-1.967715946159566132e-01,-1.945098521491065435e-01,-1.925712157489493370e-01,-1.903094732820992396e-01,-1.883708368819420331e-01,-1.861090944150919357e-01,-1.841704580149347570e-01,-1.819087155480846596e-01,-1.799700791479274808e-01,-1.777083366810774112e-01,-1.757697002809202047e-01,-1.735079578140701351e-01,-1.712462153472200377e-01,-1.693075789470628589e-01,-1.670458364802127893e-01,-1.651072000800555550e-01,-1.628454576132054854e-01,-1.609068212130482511e-01,-1.586450787461981815e-01,-1.567064423460410028e-01,-1.544446998791909054e-01,-1.525060634790336989e-01,-1.502443210121836292e-01,-1.483056846120264227e-01,-1.460439421451763531e-01,-1.441053057450191466e-01,-1.418435632781690769e-01,-1.399049268780118427e-01,-1.376431844111617731e-01,-1.353814419443117034e-01,-1.334428055441544692e-01,-1.311810630773043995e-01,-1.292424266771471930e-01,-1.269806842102970956e-01,-1.250420478101399169e-01,-1.227803053432898195e-01,-1.208416689431326130e-01,-1.185799264762825433e-01,-1.166412900761253368e-01,-6.384373936559387119e-02
-2.051723523499711654e-01,-2.051723523499711377e-01,-2.051723523499711932e-01,-2.051723523499711654e-01,-2.051723523499711654e-01,-2.051723523499711654e-01,-2.051723523499711932e-01,-2.051723523499711654e-01,-2.048492462832783023e-01,-2.025875038164282327e-01,-2.006488674162710262e-01,-1.983871249494209288e-01,-1.961253824825708592e-01,-1.941867460824136526e-01,-1.919250036155635830e-01,-1.899863672154063765e-01,-1.877246247485562791e-01,-1.857859883483990726e-01,-1.835242458815490030e-01,-1.815856094813918242e-01,-1.793238670145417268e-01,-1.773852306143845203e-01,-1.751234881475344785e-01,-1.731848517473772442e-01,-1.709231092805272023e-01,-1.689844728803699681e-01,-1.667227304135198984e-01,-1.647840940133626642e-01,-1.625223515465125945e-01,-1.602606090796625249e-01,-1.583219726795053461e-01,-1.560602302126552487e-01,-1.541215938124980145e-01,-1.518598513456479726e-01,-1.499212149454907661e-01,-1.476594724786406687e-01,-1.457208360784834622e-01,-1.434590936116333926e-01,-1.415204572114761861e-01,-1.392587147446261164e-01,-1.373200783444689099e-01,-1.350583358776188125e-01,-1.331196994774616338e-01,-1.308579570106115364e-01,-1.289193206104543299e-01,-1.266575781436042603e-01,-4.097388808248931397e-02
-2.051723523499711654e-01,-2.051723523499711377e-01,-2.051723523499711654e-01,-2.051723523499711932e-01,-4.840472184998210747e-01,-4.840472184998210747e-01,-4.840472184998210747e-01,-4.840472184998210747e-01,-4.840472184998210747e-01,-2.051723523499711377e-01,-2.051723523499711932e-01,-2.051723523499711654e-01,-2.051723523499711932e-01,-2.042030341498925761e-01,-2.022643977497353973e-01,-2.000026552828852999e-01,-1.980640188827280934e-01,-1.958022764158779960e-01,-1.938636400157207895e-01,-1.916018975488707199e-01,-1.896632611487134856e-01,-1.874015186818634437e-01,-1.851397762150133464e-01,-1.832011398148561399e-01,-1.809393973480060980e-01,-1.790007609478488915e-01,-1.767390184809988218e-01,-1.748003820808415876e-01,-1.725386396139915179e-01,-1.706000032138343114e-01,-1.683382607469842418e-01,-1.663996243468270075e-01,-1.641378818799769379e-01,-1.621992454798197314e-01,-1.599375030129696618e-01,-1.579988666128124553e-01,-1.557371241459623856e-01,-1.537984877458051791e-01,-1.515367452789550817e-01,-1.492750028121050121e-01,-1.473363664119478333e-01,-1.450746239450977360e-01,-1.431359875449405294e-01,-1.408742450780904598e-01,-1.389356086779332256e-01,-1.366738662110831559e-01,-9.208522900746737849e-03
-2.051723523499711377e-01,-2.051723523499711654e-01,-2.051723523499711932e-01,-2.051723523499711654e-01,-4.840472184998210747e-01,-4.840472184998210747e-01,-4.840472184998210747e-01,-4.840472184998210747e-01,-4.840472184998210747e-01,-2.051723523499711377e-01,-2.051723523499711932e-01,-2.051723523499711654e-01,-2.051723523499711654e-01,-2.051723523499711654e-01,-2.051723523499711932e-01,-2.051723523499711932e-01,-2.051723523499711654e-01,-2.051723523499711654e-01,-2.038799280831997129e-01,-2.016181856163496156e-01,-1.996795492161924368e-01,-1.974178067493423394e-01,-1.954791703491851329e-01,-1.932174278823350633e-01,-1.912787914821778568e-01,-1.890170490153277594e-01,-1.870784126151705806e-01,-1.848166701483204555e-01,-1.828780337481633045e-01,-1.806162912813132071e-01,-1.786776548811560283e-01,-1.764159124143059310e-01,-1.744772760141487244e-01,-1.722155335472986548e-01,-1.699537910804485852e-01,-1.680151546802913509e-01,-1.657534122134412813e-01,-1.638147758132840748e-01,-1.615530333464340051e-01,-1.596143969462767986e-01,-1.573526544794267568e-01,-1.554140180792694947e-01,-1.531522756124194529e-01,-1.512136392122622464e-01,-1.489518967454121767e-01,-1.470132603452549425e-01,2.154713582258063406e-02
-2.051723523499711377e-01,-2.051723523499711654e-01,-2.051723523499711654e-01,-2.051723523499711377e-01,-4.840472184998210747e-01,-4.840472184998210747e-01,-4.840472184998210747e-01,-4.840472184998210747e-01,-4.840472184998210747e-01,-2.051723523499711932e-01,-2.051723523499711654e-01,-2.051723523499711654e-01,-2.051723523499711654e-01,-2.051723523499711932e-01,-2.051723523499711654e-01,-2.051723523499711654e-01,-2.051723523499711654e-01,-2.051723523499711932e-01,-2.051723523499711654e-01,-2.051723523499711654e-01,-2.051723523499711377e-01,-2.051723523499711932e-01,-2.051723523499711654e-01,-2.035568220165068221e-01,-2.012950795496567524e-01,-1.993564431494995459e-01,-1.970947006826494763e-01,-1.951560642824922698e-01,-1.928943218156421724e-01,-1.906325793487921305e-01,-1.886939429486348963e-01,-1.864322004817848544e-01,-1.844935640816276201e-01,-1.822318216147775505e-01,-1.802931852146203717e-01,-1.780314427477702466e-01,-1.760928063476130678e-01,-1.738310638807629982e-01,-1.718924274806057917e-01,-1.696306850137557221e-01,-1.676920486135984878e-01,-1.654303061467483904e-01,-1.634916697465912117e-01,-1.612299272797411143e-01,-1.589681848128910446e-01,-1.273946638582473811e-01,3.263371273597966832e-02
-2.051723523499711654e-01,-2.051723523499711932e-01,-2.051723523499711932e-01,-2.051723523499711654e-01,-4.840472184998210747e-01,-4.840472184998210747e-01,-4.840472184998210747e-01,-4.840472184998210747e-01,-4.840472184998210747e-01,-2.051723523499711654e-01,-2.051723523499711932e-01,-2.051723523499711654e-01,-2.051723523499711654e-01,-2.051723523499711654e-01,-2.051723523499711654e-01,-2.051723523499711932e-01,-2.051723523499711377e-01,-2.051723523499711654e-01,-2.051723523499711932e-01,-2.051723523499711654e-01,-2.051723523499711932e-01,-2.051723523499711932e-01,-2.051723523499711654e-01,-2.051723523499711377e-01,-2.051723523499711654e-01,-2.051723523499711932e-01,-2.051723523499711654e-01,-2.051723523499711654e-01,-2.029106098831210681e-01,-2.009719734829638893e-01,-1.987102310161138197e-01,-1.967715946159566132e-01,-1.945098521491065158e-01,-1.925712157489493370e-01,-1.903094732820992674e-01,-1.883708368819420331e-01,-1.861090944150919635e-01,-1.841704580149347570e-01,-1.819087155480846874e-01,-1.796469730812346177e-01,-1.777083366810773835e-01,-1.754465942142273138e-01,-1.735079578140701073e-01,-1.712462153472200654e-01,-1.693075789470628589e-01,-9.216600552414058733e-02,3.263371273597966832e-02
-2.051723523499711654e-01,-2.051723523499711932e-01,-2.051723523499711654e-01,-2.051723523499711654e-01,-4.840472184998210747e-01,-4.840472184998210747e-01,-4.840472184998210747e-01,-4.840472184998210747e-01,-4.840472184998210747e-01,-2.051723523499711654e-01,-2.051723523499711377e-01,-2.051723523499711654e-01,-2.051723523499711654e-01,-2.051723523499711377e-01,-2.051723523499711654e-01,-2.051723523499711377e-01,-2.051723523499711654e-01,-2.051723523499711654e-01,-2.051723523499711377e-01,-2.051723523499711654e-01,-2.051723523499711654e-01,-2.051723523499711377e-01,-2.051723523499711654e-01,-2.051723523499711377e-01,-2.051723523499711654e-01,-2.051723523499711932e-01,-2.051723523499711377e-01,-2.051723523499711654e-01,-2.051723523499711654e-01,-2.051723523499711654e-01,-2.051723523499711654e-01,-2.051723523499711654e-01,-2.048492462832783023e-01,-2.025875038164282327e-01,-2.003257613495781631e-01,-1.983871249494209288e-01,-1.961253824825708592e-01,-1.941867460824136804e-01,-1.919250036155635830e-01,-1.899863672154063765e-01,-1.877246247485563069e-01,-1.857859883483991004e-01,-1.835242458815490307e-01,-1.815856094813918242e-01,-1.793238670145417546e-01,-5.268648300010578961e-02,3.263371273597966832e-02
-2.051723523499711932e-01,-2.051723523499711377e-01,-2.051723523499711932e-01,-2.051723523499711654e-01,-2.051723523499711654e-01,-2.051723523499711377e-01,-2.051723523499711377e-01,-2.051723523499711654e-01,-2.051723523499711654e-01,-2.051723523499711377e-01,-2.051723523499711377e-01,-2.051723523499711932e-01,-2.051723523499711932e-01,-2.051723523499711654e-01,-2.051723523499711654e-01,-2.051723523499711654e-01,-2.051723523499711654e-01,-2.051723523499711932e-01,-2.051723523499711654e-01,-2.051723523499711654e-01,-2.051723523499711377e-01,-2.051723523499711654e-01,-2.051723523499711932e-01,-2.051723523499711654e-01,-2.051723523499711377e-01,-2.051723523499711654e-01,-2.051723523499711377e-01,-2.051723523499711654e-01,-2.051723523499711654e-01,-2.051723523499711377e-01,-2.051723523499711654e-01,-2.051723523499711654e-01,-2.051723523499711654e-01,-2.051723523499711654e-01,-2.051723523499711932e-01,-2.051723523499711932e-01,-2.051723523499711654e-01,-2.042030341498925483e-01,-2.022643977497353418e-01,-2.000026552828852722e-01,-1.980640188827280934e-01,-1.958022764158780238e-01,-1.938636400157208173e-01,-1.916018975488707476e-01,-1.893401550820206503e-01,-1.549899413667351483e-02,3.263371273597966832e-02
-2.051723523499711654e-01,-2.051723523499711654e-01,-2.051723523499711654e-01,-2.051723523499711932e-01,-2.051723523499711377e-01,-2.051723523499711654e-01,-2.051723523499711654e-01,-2.051723523499711654e-01,-2.051723523499711654e-01,-2.051723523499711654e-01,-2.051723523499711932e-01,-2.051723523499711932e-01,-2.051723523499711932e-01,-2.051723523499711377e-01,-2.051723523499711654e-01,-2.051723523499711932e-01,-2.051723523499711654e-01,-2.051723523499711654e-01,-2.051723523499711377e-01,-2.051723523499711654e-01,-2.051723523499711654e-01,-2.051723523499711932e-01,-2.051723523499711932e-01,-2.051723523499711932e-01,-2.051723523499711377e-01,-2.051723523499711932e-01,-2.051723523499711932e-01,-2.051723523499711654e-01,-2.051723523499711654e-01,-2.051723523499711932e-01,-2.051723523499711932e-01,-2.051723523499711654e-01,-2.051723523499711654e-01,-2.051723523499711932e-01,-2.051723523499711654e-01,-2.051723523499711654e-01,-2.051723523499711654e-01,-2.051723523499711654e-01,-2.051723523499711377e-01,-2.051723523499711932e-01,-2.051723523499711932e-01,-2.051723523499711654e-01,-2.038799280831997129e-01,-2.016181856163496433e-01,-1.996795492161924368e-01,3.263371273597966832e-02,3.263371273597966832e-02
-2.051723523499711654e-01,-2.051723523499711654e-01,-2.051723523499711654e-01,-2.051723523499711654e-01,-2.051723523499711932e-01,-2.051723523499711654e-01,-2.051723523499711654e-01,-2.051723523499711654e-01,-2.051723523499711377e-01,-2.051723523499711654e-01,-2.051723523499711654e-01,-2.051723523499711377e-01,-2.051723523499711654e-01,-2.051723523499711654e-01,-2.051723523499711654e-01,-2.051723523499711932e-01,-2.051723523499711377e-01,-2.051723523499711654e-01,-2.051723523499711932e-01,-2.051723523499711377e-01,-2.051723523499711654e-01,-2.051723523499711377e-01,-2.051723523499711932e-01,-2.051723523499711654e-01,-2.051723523499711654e-01,-2.051723523499711377e-01,-2.051723523499711654e-01,-2.051723523499711654e-01,-2.051723523499711654e-01,-2.051723523499711932e-01,-2.051723523499711654e-01,-2.051723523499711932e-01,-2.051723523499711377e-01,-2.051723523499711654e-01,-2.051723523499711932e-01,-2.051723523499711654e-01,-2.051723523499711654e-01,-2.051723523499711654e-01,-2.051723523499711654e-01,-2.051723523499711932e-01,-2.051723523499711654e-01,-3.874814849362469560e-01,-3.874814849362469560e-01,-3.874814849362470115e-01,-1.531522756124194251e-01,3.263371273597966832e-02,3.263371273597966832e-02
-2.051723523499711932e-01,-2.051723523499711932e-01,-2.051723523499711932e-01,-2.051723523499711377e-01,-2.051723523499711377e-01,-2.051723523499711654e-01,-2.051723523499711654e-01,-2.051723523499711377e-01,-2.051723523499711654e-01,-2.051723523499711377e-01,-2.051723523499711654e-01,-2.051723523499711654e-01,-2.051723523499711377e-01,-2.051723523499711654e-01,-2.051723523499711654e-01,-2.051723523499711932e-01,-2.051723523499711654e-01,-2.051723523499711654e-01,-2.051723523499711932e-01,-2.051723523499711932e-01,-2.051723523499711377e-01,-2.051723523499711654e-01,-2.051723523499711654e-01,-2.051723523499711654e-01,-2.051723523499711654e-01,-2.051723523499711654e-01,-2.051723523499711654e-01,-2.051723523499711377e-01,-2.051723523499711654e-01,-2.051723523499711932e-01,-2.051723523499711932e-01,-2.051723523499711932e-01,-2.051723523499711654e-01,-2.051723523499711654e-01,-2.051723523499711377e-01,-2.051723523499711377e-01,-2.051723523499711654e-01,-2.051723523499711654e-01,-2.051723523499711654e-01,-2.051723523499711377e-01,-2.051723523499711654e-01,-3.874814849362470115e-01,-3.874814849362470670e-01,-3.874814849362469560e-01,-1.085636384088036477e-01,3.263371273597966832e-02,3.263371273597966832e-02
-1.828780337481632767e-01,-1.940251930490672350e-01,-2.051723523499711654e-01,-2.051723523499711932e-01,-2.051723523499711932e-01,-2.051723523499711932e-01,-2.051723523499711654e-01,-2.051723523499711654e-01,-2.051723523499711932e-01,-2.051723523499711932e-01,-2.051723523499711932e-01,-2.051723523499711377e-01,-2.051723523499711377e-01,-2.051723523499711377e-01,-2.051723523499711654e-01,-2.051723523499711654e-01,-2.051723523499711654e-01,-2.051723523499711377e-01,-2.051723523499711654e-01,-2.051723523499711932e-01,-2.051723523499711377e-01,-2.051723523499711654e-01,-2.051723523499711654e-01,-2.051723523499711932e-01,-2.051723523499711654e-01,-2.051723523499711932e-01,-2.051723523499711654e-01,-2.051723523499711654e-01,-2.051723523499711932e-01,-2.051723523499711932e-01,-2.051723523499711654e-01,-2.051723523499711377e-01,-2.051723523499711932e-01,-2.051723523499711654e-01,-2.051723523499711654e-01,-2.051723523499711932e-01,-2.051723523499711654e-01,-2.051723523499711654e-01,-2.051723523499711932e-01,-2.051723523499711932e-01,-2.051723523499711377e-01,-3.874814849362470670e-01,-3.874814849362470115e-01,-3.874814849362470115e-01,-5.654356167125188654e-02,3.263371273597966832e-02,3.263371273597966832e-02
-1.252843773601595434e-01,-1.364315366610635294e-01,-1.494365558454514298e-01,-1.605837151463553880e-01,-1.735887343307433162e-01,-1.847358936316472744e-01,-1.977409128160352025e-01,-2.051723523499711654e-01,-2.051723523499711932e-01,-2.051723523499711654e-01,-2.051723523499711654e-01,-2.051723523499711932e-01,-2.051723523499711654e-01,-2.051723523499711377e-01,-2.051723523499711932e-01,-2.051723523499711654e-01,-2.051723523499711654e-01,-2.051723523499711932e-01,-2.051723523499711654e-01,-2.051723523499711932e-01,-2.051723523499711654e-01,-2.051723523499711932e-01,-2.051723523499711654e-01,-2.051723523499711654e-01,-2.051723523499711654e-01,-2.051723523499711654e-01,-2.051723523499711654e-01,-2.051723523499711377e-01,-2.051723523499711654e-01,-2.051723523499711377e-01,-2.051723523499711654e-01,-2.051723523499711654e-01,-2.051723523499711654e-01,-2.051723523499711932e-01,-2.051723523499711654e-01,-2.051723523499711654e-01,-2.051723523499711654e-01,-2.051723523499711377e-01,-2.051723523499711654e-01,-2.051723523499711654e-01,-2.051723523499711377e-01,-2.051723523499711654e-01,-2.051723523499711654e-01,-2.051723523499711377e-01,-1.195492446763611605e-02,3.263371273597966832e-02,3.263371273597966832e-02
-6.583286108867186792e-02,-7.883788027305979607e-02,-8.998503957396372654e-02,-1.029900587583516824e-01,-1.141372180592556129e-01,-1.271422372436435688e-01,-1.382893965445474993e-01,-1.512944157289354274e-01,-1.642994349133233556e-01,-1.754465942142273416e-01,-1.884516133986152420e-01,-1.995987726995192002e-01,-2.051723523499711654e-01,-2.051723523499711654e-01,-2.051723523499711932e-01,-2.051723523499711654e-01,-2.051723523499711654e-01,-2.051723523499711932e-01,-2.051723523499711654e-01,-2.051723523499711932e-01,-2.051723523499711377e-01,-2.051723523499711654e-01,-2.051723523499711654e-01,-2.051723523499711654e-01,-2.051723523499711377e-01,-2.051723523499711654e-01,-2.051723523499711654e-01,-2.051723523499711932e-01,-2.051723523499711654e-01,-2.051723523499711932e-01,-2.051723523499711654e-01,-2.051723523499711932e-01,-2.051723523499711654e-01,-2.051723523499711377e-01,-2.051723523499711932e-01,-2.051723523499711654e-01,-2.051723523499711654e-01,-2.051723523499711654e-01,-2.051723523499711377e-01,-2.051723523499711932e-01,-2.051723523499711654e-01,-2.051723523499711654e-01,-2.051723523499711654e-01,-1.903094732820992396e-01,3.263371273597966832e-02,3.263371273597966832e-02,3.263371273597966832e-02
-8.239204700668127657e-03,-1.938636400157207895e-02,-3.239138318596001404e-02,-4.539640237034795606e-02,-5.654356167125190041e-02,-6.954858085563983550e-02,-8.069574015654379373e-02,-9.370075934093172187e-02,-1.048479186418356524e-01,-1.178529378262236083e-01,-1.290000971271275387e-01,-1.420051163115154669e-01,-1.531522756124194251e-01,-1.661572947968073533e-01,-1.773044540977113115e-01,-1.903094732820992119e-01,-2.014566325830031979e-01,-2.051723523499711377e-01,-2.051723523499711377e-01,-2.051723523499711932e-01,-2.051723523499711654e-01,-2.051723523499711654e-01,-2.051723523499711654e-01,-2.051723523499711932e-01,-2.051723523499711654e-01,-2.051723523499711654e-01,-2.051723523499711932e-01,-2.051723523499711654e-01,-2.051723523499711932e-01,-2.051723523499711932e-01,-2.051723523499711932e-01,-2.051723523499711654e-01,-2.051723523499711932e-01,-2.051723523499711654e-01,-2.051723523499711377e-01,-2.051723523499711654e-01,-2.051723523499711654e-01,-2.051723523499711932e-01,-2.051723523499711654e-01,-2.051723523499711932e-01,-2.051723523499711654e-01,-2.051723523499711377e-01,-2.051723523499711377e-01,-1.457208360784834345e-01,3.263371273597966832e-02,3.263371273597966832e-02,3.263371273597966832e-02
3.263371273597966832e-02,3.263371273597966832e-02,2.520227320204370541e-02,1.405511390113976106e-02,1.050094716751819035e-03,-1.009706458415212532e-02,-2.310208376854006040e-02,-3.424924306944399782e-02,-4.725426225383193984e-02,-5.840142155473589808e-02,-7.140644073912380541e-02,-8.255360004002776364e-02,-9.555861922441569178e-02,-1.067057785253196223e-01,-1.197107977097075782e-01,-1.327158168940955341e-01,-1.438629761949994645e-01,-1.568679953793873927e-01,-1.680151546802913509e-01,-1.810201738646793068e-01,-1.921673331655832373e-01,-2.051723523499711654e-01,-2.051723523499711377e-01,-2.051723523499711932e-01,-2.051723523499711654e-01,-2.051723523499711377e-01,-2.051723523499711654e-01,-2.051723523499711377e-01,-2.051723523499711654e-01,-2.051723523499711932e-01,-2.051723523499711654e-01,-2.051723523499711932e-01,-2.051723523499711654e-01,-2.051723523499711654e-01,-2.051723523499711654e-01,-2.051723523499711932e-01,-2.051723523499711654e-01,-2.051723523499711654e-01,-2.051723523499711654e-01,-2.051723523499711932e-01,-2.051723523499711932e-01,-2.051723523499711932e-01,-2.051723523499711377e-01,-9.370075934093172187e-02,3.263371273597966832e-02,3.263371273597966832e-02,3.263371273597966832e-02
3.263371273597966832e-02,3.263371273597966832e-02,3.263371273597966832e-02,3.263371273597966832e-02,3.263371273597966832e-02,3.263371273597966832e-02,3.263371273597966832e-02,2.334441331855971469e-02,1.033939413417177960e-02,-8.077651667321647522e-04,-1.381278435112010677e-02,-2.495994365202405113e-02,-3.796496283641197927e-02,-4.911212213731592363e-02,-6.211714132170387953e-02,-7.326430062260783083e-02,-8.626931980699575897e-02,-9.741647910789971720e-02,-1.104214982922876176e-01,-1.215686575931916036e-01,-1.345736767775795040e-01,-1.457208360784834622e-01,-1.587258552628713903e-01,-1.698730145637753208e-01,-1.828780337481632767e-01,-1.958830529325512049e-01,-2.051723523499711654e-01,-2.051723523499711654e-01,-2.051723523499711654e-01,-2.051723523499711932e-01,-2.051723523499711654e-01,-2.051723523499711377e-01,-2.051723523499711654e-01,-2.051723523499711654e-01,-2.051723523499711654e-01,-2.051723523499711654e-01,-2.051723523499711654e-01,-2.051723523499711377e-01,-2.051723523499711377e-01,-2.051723523499711932e-01,-2.051723523499711654e-01,-2.051723523499711377e-01,-2.051723523499711654e-01,-4.911212213731593751e-02,3.263371273597966832e-02,3.263371273597966832e-02,3.263371273597966832e-02
3.263371273597966832e-02,3.263371273597966832e-02,3.263371273597966832e-02,3.263371273597966832e-02,3.263371273597966832e-02,3.263371273597966832e-02,3.263371273597966832e-02,3.263371273597966832e-02,3.263371273597966832e-02,3.263371273597966832e-02,3.263371273597966832e-02,3.263371273597966832e-02,2.148655343507572396e-02,8.481534250687785409e-03,-2.665625050216162417e-03,-1.567064423460409750e-02,-2.681780353550804880e-02,-3.982282271989597694e-02,-5.096998202079993517e-02,-6.397500120518787026e-02,-7.698002038957579840e-02,-8.812717969047975664e-02,-1.011321988748676570e-01,-1.122793581757716153e-01,-1.252843773601595434e-01,-1.364315366610635294e-01,-1.494365558454514298e-01,-1.605837151463553880e-01,-1.735887343307433162e-01,-1.847358936316472744e-01,-1.977409128160352025e-01,-2.051723523499711654e-01,-2.051723523499711932e-01,-2.051723523499711654e-01,-2.051723523499711932e-01,-2.051723523499711654e-01,-2.051723523499711654e-01,-2.051723523499711932e-01,-2.051723523499711654e-01,-2.051723523499711377e-01,-2.051723523499711932e-01,-2.051723523499711654e-01,-2.051723523499711654e-01,2.907954600235809761e-03,3.263371273597966832e-02,3.263371273597966832e-02,3.263371273597966832e-02
3.263371273597966832e-02,3.263371273597966832e-02,3.263371273597966832e-02,3.263371273597966832e-02,3.263371273597966832e-02,3.263371273597966832e-02,3.263371273597966832e-02,3.263371273597966832e-02,3.263371273597966832e-02,3.263371273597966832e-02,3.263371273597966832e-02,3.263371273597966832e-02,3.263371273597966832e-02,3.263371273597966832e-02,3.263371273597966832e-02,3.263371273597966832e-02,3.077585285249567759e-02,1.777083366810773904e-02,6.623674367203794683e-03,-6.381344817184143869e-03,-1.752850411808808823e-02,-3.053352330247603025e-02,-4.168068260337997460e-02,-5.468570178776790275e-02,-6.583286108867184017e-02,-7.883788027305976831e-02,-8.998503957396372654e-02,-1.029900587583516824e-01,-1.141372180592556129e-01,-1.271422372436435688e-01,-1.382893965445474993e-01,-1.512944157289354274e-01,-1.642994349133233833e-01,-1.754465942142273138e-01,-1.884516133986152697e-01,-1.995987726995192002e-01,-2.051723523499711377e-01,-2.051723523499711377e-01,-2.051723523499711932e-01,-2.051723523499711654e-01,-2.051723523499711654e-01,-2.051723523499711654e-01,-1.828780337481632767e-01,3.263371273597966832e-02,3.263371273597966832e-02,3.263371273597966832e-02,3.263371273597966832e-02
3.263371273597966832e-02,3.263371273597966832e-02,3.263371273597966832e-02,3.263371273597966832e-02,3.263371273597966832e-02,3.263371273597966832e-02,3.263371273597966832e-02,3.263371273597966832e-02,3.263371273597966832e-02,3.263371273597966832e-02,3.263371273597966832e-02,3.263371273597966832e-02,3.263371273597966832e-02,3.263371273597966832e-02,3.263371273597966832e-02,3.263371273597966832e-02,3.263371273597966832e-02,3.263371273597966832e-02,3.263371273597966832e-02,3.263371273597966832e-02,3.263371273597966832e-02,2.891799296901168687e-02,1.591297378462375178e-02,4.765814483719800487e-03,-8.239204700668134596e-03,-2.124422388505606968e-02,-3.239138318596001404e-02,-4.539640237034795606e-02,-5.654356167125191429e-02,-6.954858085563983550e-02,-8.069574015654379373e-02,-9.370075934093172187e-02,-1.048479186418356524e-01,-1.178529378262236083e-01,-1.290000971271275387e-01,-1.420051163115154669e-01,-1.531522756124194251e-01,-1.661572947968073533e-01,-1.773044540977113115e-01,-1.903094732820992119e-01,-2.014566325830031979e-01,-2.051723523499711377e-01,-1.382893965445474993e-01,3.263371273597966832e-02,3.263371273597966832e-02,3.263371273597966832e-02,3.263371273597966832e-02
