2.104958222097228979e-02,2.104958222097228979e-02,2.104958222097228979e-02,2.104958222097228979e-02,2.104958222097228979e-02,2.104958222097228979e-02,2.104958222097228979e-02,2.104958222097228979e-02,2.104958222097228979e-02,1.889346181986575196e-02,-5.710064621574518356e-03,-3.508263703495384522e-03,1.169421234498462664e-03,6.139461481116919445e-03,1.110950172773537623e-02,1.578718666572921647e-02,2.075722691234767325e-02,2.104958222097228979e-02,2.104958222097228979e-02,2.104958222097228979e-02,2.104958222097228979e-02,2.104958222097228979e-02,2.104958222097228979e-02,2.104958222097228979e-02,2.104958222097228979e-02,2.104958222097228979e-02,2.104958222097228979e-02,2.104958222097228979e-02,2.104958222097228979e-02,2.104958222097228979e-02,2.104958222097228979e-02,2.104958222097228979e-02,2.104958222097228979e-02,2.104958222097228979e-02,2.104958222097228979e-02,2.104958222097228979e-02,2.104958222097228979e-02,2.104958222097228979e-02,2.104958222097228979e-02,2.104958222097228979e-02,2.104958222097228979e-02,2.104958222097228979e-02,2.104958222097228979e-02,2.104958222097228979e-02,2.104958222097228979e-02,2.104958222097228979e-02,2.104958222097228979e-02
2.104958222097228979e-02,2.104958222097228979e-02,2.104958222097228979e-02,2.104958222097228979e-02,2.104958222097228979e-02,2.104958222097228979e-02,2.104958222097228979e-02,2.104958222097228979e-02,2.104958222097228979e-02,-4.120382630928166173e-03,-1.637189728297844607e-02,-1.169421234498460929e-02,-6.724172098366152511e-03,-1.754131851747692261e-03,2.923553086246151456e-03,7.893593332864609971e-03,1.286363357948306675e-02,1.783367382610152180e-02,2.104958222097228979e-02,2.104958222097228979e-02,2.104958222097228979e-02,2.104958222097228979e-02,2.104958222097228979e-02,2.104958222097228979e-02,2.104958222097228979e-02,2.104958222097228979e-02,2.104958222097228979e-02,2.104958222097228979e-02,2.104958222097228979e-02,2.104958222097228979e-02,2.104958222097228979e-02,2.104958222097228979e-02,2.104958222097228979e-02,2.104958222097228979e-02,2.104958222097228979e-02,2.104958222097228979e-02,2.104958222097228979e-02,2.104958222097228979e-02,2.104958222097228979e-02,2.104958222097228979e-02,2.104958222097228979e-02,2.104958222097228979e-02,2.104958222097228979e-02,2.104958222097228979e-02,2.104958222097228979e-02,2.104958222097228979e-02,2.104958222097228979e-02
2.104958222097228979e-02,2.104958222097228979e-02,2.104958222097228979e-02,2.104958222097228979e-02,2.104958222097228979e-02,2.104958222097228979e-02,2.104958222097228979e-02,2.104958222097228979e-02,7.235793888459223638e-03,-2.923553086246151803e-02,-2.455784592446766737e-02,-1.958780567784921059e-02,-1.461776543123075381e-02,-9.940080493236917031e-03,-4.970040246618460250e-03,-3.469446951953614189e-18,4.970040246618456781e-03,9.647725184612298763e-03,1.461776543123075728e-02,1.958780567784921406e-02,2.104958222097228979e-02,2.104958222097228979e-02,2.104958222097228979e-02,2.104958222097228979e-02,2.104958222097228979e-02,2.104958222097228979e-02,2.104958222097228979e-02,2.104958222097228979e-02,2.104958222097228979e-02,2.104958222097228979e-02,2.104958222097228979e-02,2.104958222097228979e-02,2.104958222097228979e-02,2.104958222097228979e-02,2.104958222097228979e-02,2.104958222097228979e-02,2.104958222097228979e-02,2.104958222097228979e-02,2.104958222097228979e-02,2.104958222097228979e-02,2.104958222097228979e-02,2.104958222097228979e-02,2.104958222097228979e-02,2.104958222097228979e-02,2.104958222097228979e-02,2.104958222097228979e-02,2.104958222097228979e-02
2.104958222097228979e-02,2.104958222097228979e-02,2.104958222097228979e-02,2.104958222097228979e-02,2.104958222097228979e-02,2.104958222097228979e-02,2.104958222097228979e-02,2.104958222097228979e-02,-2.828537610943152383e-02,-3.742147950395073586e-02,-3.245143925733227908e-02,-2.748139901071381883e-02,-2.280371407271997511e-02,-1.783367382610151833e-02,-1.286363357948306849e-02,-7.893593332864611706e-03,-3.215908394870767989e-03,1.754131851747692261e-03,6.724172098366149042e-03,1.140185703635999102e-02,1.637189728297844954e-02,2.104958222097228979e-02,2.104958222097228979e-02,2.104958222097228979e-02,2.104958222097228979e-02,2.104958222097228979e-02,2.104958222097228979e-02,2.104958222097228979e-02,2.104958222097228979e-02,2.104958222097228979e-02,2.104958222097228979e-02,2.104958222097228979e-02,2.104958222097228979e-02,2.104958222097228979e-02,2.104958222097228979e-02,2.104958222097228979e-02,2.104958222097228979e-02,2.104958222097228979e-02,2.104958222097228979e-02,2.104958222097228979e-02,2.104958222097228979e-02,2.104958222097228979e-02,2.104958222097228979e-02,2.104958222097228979e-02,2.104958222097228979e-02,2.104958222097228979e-02,2.104958222097228979e-02
2.104958222097228979e-02,2.104958222097228979e-02,2.104958222097228979e-02,2.104958222097228979e-02,2.104958222097228979e-02,2.104958222097228979e-02,2.104958222097228979e-02,-1.220583413507768042e-02,-5.028511308343379393e-02,-4.531507283681535103e-02,-4.034503259019689425e-02,-3.566734765220305747e-02,-3.069730740558459028e-02,-2.572726715896612656e-02,-2.075722691234766978e-02,-1.607954197435382607e-02,-1.110950172773537623e-02,-6.139461481116919445e-03,-1.461776543123079197e-03,3.508263703495381053e-03,8.478303950113839568e-03,1.315598888810768155e-02,1.812602913472613833e-02,2.104958222097228979e-02,2.104958222097228979e-02,2.104958222097228979e-02,2.104958222097228979e-02,2.104958222097228979e-02,2.104958222097228979e-02,2.104958222097228979e-02,2.104958222097228979e-02,2.104958222097228979e-02,2.104958222097228979e-02,2.104958222097228979e-02,2.104958222097228979e-02,2.104958222097228979e-02,2.104958222097228979e-02,2.104958222097228979e-02,2.104958222097228979e-02,2.104958222097228979e-02,2.104958222097228979e-02,2.104958222097228979e-02,2.104958222097228979e-02,2.104958222097228979e-02,2.104958222097228979e-02,2.104958222097228979e-02,2.104958222097228979e-02
2.104958222097228979e-02,2.104958222097228979e-02,2.104958222097228979e-02,2.104958222097228979e-02,2.104958222097228979e-02,2.104958222097228979e-02,1.271745592517075849e-02,-6.051754888529532750e-02,-5.817870641629840911e-02,-5.320866616967995233e-02,-4.853098123168610167e-02,-4.356094098506765877e-02,-3.859090073844920199e-02,-3.362086049183074521e-02,-2.894317555383689802e-02,-2.397313530721843430e-02,-1.900309506059998446e-02,-1.432541012260614074e-02,-9.355369875987683964e-03,-4.385329629369227183e-03,2.923553086246165333e-04,5.262395555243073314e-03,1.023243580186153009e-02,1.491012073985537208e-02,1.988016098647383059e-02,2.104958222097228979e-02,2.104958222097228979e-02,2.104958222097228979e-02,2.104958222097228979e-02,2.104958222097228979e-02,2.104958222097228979e-02,2.104958222097228979e-02,2.104958222097228979e-02,2.104958222097228979e-02,2.104958222097228979e-02,2.104958222097228979e-02,2.104958222097228979e-02,2.104958222097228979e-02,2.104958222097228979e-02,2.104958222097228979e-02,2.104958222097228979e-02,2.104958222097228979e-02,2.104958222097228979e-02,2.104958222097228979e-02,2.104958222097228979e-02,2.104958222097228979e-02,2.104958222097228979e-02
2.104958222097228979e-02,2.104958222097228979e-02,2.104958222097228979e-02,2.104958222097228979e-02,2.104958222097228979e-02,2.104958222097228979e-02,-3.961414431863534424e-02,-7.104233999578145331e-02,-6.607229974916301041e-02,-6.139461481116917363e-02,-5.642457456455071685e-02,-5.145453431793226007e-02,-4.648449407131380329e-02,-4.180680913331996651e-02,-3.683676888670150973e-02,-3.186672864008305295e-02,-2.718904370208920576e-02,-2.221900345547074898e-02,-1.724896320885229220e-02,-1.257127827085844848e-02,-7.601238024239995172e-03,-2.631197777621538392e-03,2.046487160372305325e-03,7.016527406990765575e-03,1.198656765360922062e-02,1.695660790022767914e-02,2.104958222097228979e-02,2.104958222097228979e-02,2.104958222097228979e-02,2.104958222097228979e-02,2.104958222097228979e-02,2.104958222097228979e-02,2.104958222097228979e-02,2.104958222097228979e-02,2.104958222097228979e-02,2.104958222097228979e-02,2.104958222097228979e-02,2.104958222097228979e-02,2.104958222097228979e-02,2.104958222097228979e-02,2.104958222097228979e-02,2.104958222097228979e-02,2.104958222097228979e-02,2.104958222097228979e-02,2.104958222097228979e-02,2.104958222097228979e-02,2.104958222097228979e-02
2.104958222097228979e-02,2.104958222097228979e-02,2.104958222097228979e-02,2.104958222097228979e-02,2.104958222097228979e-02,-9.866991666080762030e-03,-8.390597357526455302e-02,-7.893593332864608236e-02,-7.396589308202762558e-02,-6.928820814403377493e-02,-6.431816789741533202e-02,-5.934812765079686137e-02,-5.467044271280302459e-02,-4.970040246618456781e-02,-4.473036221956612490e-02,-4.005267728157227425e-02,-3.508263703495381747e-02,-3.011259678833535722e-02,-2.543491185034150656e-02,-2.046487160372305672e-02,-1.549483135710459300e-02,-1.081714641911076316e-02,-5.847106172492306381e-03,-8.770659258738461306e-04,4.092974320744610650e-03,8.770659258738454367e-03,1.374069950535691115e-02,1.871073975197536793e-02,2.104958222097228979e-02,2.104958222097228979e-02,2.104958222097228979e-02,2.104958222097228979e-02,2.104958222097228979e-02,2.104958222097228979e-02,2.104958222097228979e-02,2.104958222097228979e-02,2.104958222097228979e-02,2.104958222097228979e-02,2.104958222097228979e-02,2.104958222097228979e-02,2.104958222097228979e-02,2.104958222097228979e-02,2.104958222097228979e-02,2.104958222097228979e-02,2.104958222097228979e-02,2.104958222097228979e-02,2.104958222097228979e-02
2.104958222097228979e-02,2.104958222097228979e-02,2.104958222097228979e-02,2.104958222097228979e-02,2.104958222097228979e-02,-7.467850914680013164e-02,-9.179956690812916820e-02,-8.682952666151071142e-02,-8.215184172351686076e-02,-7.718180147689839010e-02,-7.221176123027991944e-02,-6.753407629228608267e-02,-6.256403604566765364e-02,-5.759399579904918298e-02,-5.291631086105531845e-02,-4.794627061443687555e-02,-4.297623036781843264e-02,-3.829854542982458199e-02,-3.332850518320612521e-02,-2.835846493658766496e-02,-2.368077999859382818e-02,-1.871073975197536446e-02,-1.374069950535690768e-02,-8.770659258738457836e-03,-4.092974320744614120e-03,8.770659258738496000e-04,5.847106172492301177e-03,1.052479111048614663e-02,1.549483135710460341e-02,2.046487160372306019e-02,2.104958222097228979e-02,2.104958222097228979e-02,2.104958222097228979e-02,2.104958222097228979e-02,2.104958222097228979e-02,2.104958222097228979e-02,2.104958222097228979e-02,2.104958222097228979e-02,2.104958222097228979e-02,2.104958222097228979e-02,2.104958222097228979e-02,2.104958222097228979e-02,2.104958222097228979e-02,2.104958222097228979e-02,2.104958222097228979e-02,2.104958222097228979e-02,2.104958222097228979e-02
2.104958222097228979e-02,2.104958222097228979e-02,2.104958222097228979e-02,2.104958222097228979e-02,-4.429182925662919490e-02,-1.046632004876122263e-01,-9.969316024099375562e-02,-9.501547530299991884e-02,-9.004543505638147594e-02,-8.507539480976300528e-02,-8.039770987176915462e-02,-7.542766962515069784e-02,-7.045762937853224106e-02,-6.577994444053840428e-02,-6.080990419391993362e-02,-5.583986394730147684e-02,-5.116217900930762619e-02,-4.619213876268919716e-02,-4.122209851607074038e-02,-3.654441357807688973e-02,-3.157437333145843295e-02,-2.660433308483997963e-02,-2.163429283822151591e-02,-1.695660790022767914e-02,-1.198656765360921542e-02,-7.016527406990765575e-03,-2.338842468996921858e-03,2.631197777621534922e-03,7.601238024239993438e-03,1.227892296223383542e-02,1.724896320885229220e-02,2.104958222097228979e-02,2.104958222097228979e-02,2.104958222097228979e-02,2.104958222097228979e-02,2.104958222097228979e-02,2.104958222097228979e-02,2.104958222097228979e-02,2.104958222097228979e-02,2.104958222097228979e-02,2.104958222097228979e-02,2.104958222097228979e-02,2.104958222097228979e-02,2.104958222097228979e-02,2.104958222097228979e-02,2.104958222097228979e-02,2.104958222097228979e-02
2.104958222097228979e-02,2.104958222097228979e-02,2.104958222097228979e-02,-1.379551612572398750e-03,-1.175268340670952566e-01,-1.125567938204768276e-01,-1.078791088824829908e-01,-1.029090686358645201e-01,-9.793902838924606336e-02,-9.326134345125222658e-02,-8.829130320463378367e-02,-8.332126295801531302e-02,-7.864357802002146236e-02,-7.367353777340300558e-02,-6.870349752678454880e-02,-6.402581258879071202e-02,-5.905577234217225524e-02,-5.408573209555378458e-02,-4.940804715755994780e-02,-4.443800691094150490e-02,-3.946796666432304812e-02,-3.449792641770457746e-02,-2.982024147971074415e-02,-2.485020123309228737e-02,-1.988016098647383059e-02,-1.520247604847997994e-02,-1.023243580186153009e-02,-5.262395555243073314e-03,-5.847106172492295972e-04,4.385329629369227183e-03,9.355369875987683964e-03,1.403305481398152768e-02,1.900309506059998446e-02,2.104958222097228979e-02,2.104958222097228979e-02,2.104958222097228979e-02,2.104958222097228979e-02,2.104958222097228979e-02,2.104958222097228979e-02,2.104958222097228979e-02,2.104958222097228979e-02,2.104958222097228979e-02,2.104958222097228979e-02,2.104958222097228979e-02,2.104958222097228979e-02,2.104958222097228979e-02,2.104958222097228979e-02
2.104958222097228979e-02,2.104958222097228979e-02,2.104958222097228979e-02,-8.306545206296876704e-02,-1.254204273999598995e-01,-1.207427424619660489e-01,-1.157727022153475921e-01,-1.108026619687291353e-01,-1.061249770307352985e-01,-1.011549367841168279e-01,-9.618489653749837109e-02,-9.150721159950454819e-02,-8.653717135288609141e-02,-8.156713110626760688e-02,-7.688944616827377010e-02,-7.191940592165529944e-02,-6.694936567503685654e-02,-6.197932542841841363e-02,-5.730164049042456298e-02,-5.233160024380610620e-02,-4.736155999718764942e-02,-4.268387505919381264e-02,-3.771383481257535586e-02,-3.274379456595689908e-02,-2.806610962796305189e-02,-2.309606938134459511e-02,-1.812602913472613833e-02,-1.344834419673230155e-02,-8.478303950113841303e-03,-3.508263703495381053e-03,1.169421234498459194e-03,6.139461481116917710e-03,1.110950172773537623e-02,1.607954197435383301e-02,2.075722691234767325e-02,2.104958222097228979e-02,2.104958222097228979e-02,2.104958222097228979e-02,2.104958222097228979e-02,2.104958222097228979e-02,2.104958222097228979e-02,2.104958222097228979e-02,2.104958222097228979e-02,2.104958222097228979e-02,2.104958222097228979e-02,2.104958222097228979e-02,2.104958222097228979e-02
2.104958222097228979e-02,2.104958222097228979e-02,-3.542980896394554158e-02,-1.382840609794429854e-01,-1.336063760414491208e-01,-1.286363357948306640e-01,-1.236662955482121934e-01,-1.189886106102183011e-01,-1.140185703635998998e-01,-1.090485301169814430e-01,-1.043708451789876063e-01,-9.940080493236913561e-02,-9.443076468575069271e-02,-8.975307974775684206e-02,-8.478303950113839915e-02,-7.981299925451992849e-02,-7.484295900790147171e-02,-7.016527406990762106e-02,-6.519523382328916428e-02,-6.022519357667072137e-02,-5.554750863867687072e-02,-5.057746839205841394e-02,-4.560742814543995716e-02,-4.092974320744612038e-02,-3.595970296082766360e-02,-3.098966271420921029e-02,-2.631197777621535963e-02,-2.134193752959690285e-02,-1.637189728297844607e-02,-1.169421234498460929e-02,-6.724172098366149042e-03,-1.754131851747692261e-03,3.215908394870764520e-03,7.893593332864608236e-03,1.286363357948306502e-02,1.783367382610152180e-02,2.104958222097228979e-02,2.104958222097228979e-02,2.104958222097228979e-02,2.104958222097228979e-02,2.104958222097228979e-02,2.104958222097228979e-02,2.104958222097228979e-02,2.104958222097228979e-02,2.104958222097228979e-02,2.104958222097228979e-02,2.104958222097228979e-02
2.104958222097228979e-02,2.104958222097228979e-02,-1.296230349614387600e-01,-1.464700096209321789e-01,-1.414999693743137499e-01,-1.365299291276952931e-01,-1.318522441897014286e-01,-1.268822039430829718e-01,-1.219121636964645011e-01,-1.172344787584706644e-01,-1.122644385118522353e-01,-1.072943982652337508e-01,-1.026167133272399140e-01,-9.764667308062145723e-02,-9.267663283400300045e-02,-8.770659258738454367e-02,-8.302890764939069301e-02,-7.805886740277223623e-02,-7.308882715615376557e-02,-6.841114221815994267e-02,-6.344110197154148589e-02,-5.847106172492301523e-02,-5.379337678692917846e-02,-4.882333654031073555e-02,-4.385329629369226490e-02,-3.917561135569842812e-02,-3.420557110907997134e-02,-2.923553086246150415e-02,-2.455784592446766737e-02,-1.958780567784921059e-02,-1.461776543123076075e-02,-9.647725184612300497e-03,-4.970040246618456781e-03,0.000000000000000000e+00,4.970040246618456781e-03,9.647725184612298763e-03,1.461776543123075728e-02,1.958780567784921406e-02,2.104958222097228979e-02,2.104958222097228979e-02,2.104958222097228979e-02,2.104958222097228979e-02,2.104958222097228979e-02,2.104958222097228979e-02,2.104958222097228979e-02,2.104958222097228979e-02,2.104958222097228979e-02
2.104958222097228979e-02,-7.726402640744904626e-02,-1.593336432004152370e-01,-1.543636029537968080e-01,-1.493935627071783512e-01,-1.447158777691845144e-01,-1.397458375225660576e-01,-1.347757972759476008e-01,-1.300981123379537363e-01,-1.251280720913352795e-01,-1.201580318447168089e-01,-1.154803469067229721e-01,-1.105103066601045431e-01,-1.055402664134860585e-01,-1.005702261668676017e-01,-9.589254122887376497e-02,-9.092250098225530819e-02,-8.595246073563685141e-02,-8.127477579764301463e-02,-7.630473555102454397e-02,-7.133469530440608719e-02,-6.665701036641223654e-02,-6.168697011979379363e-02,-5.671692987317532297e-02,-5.203924493518148620e-02,-4.706920468856304329e-02,-4.209916444194458651e-02,-3.712912419532612973e-02,-3.245143925733227908e-02,-2.748139901071382576e-02,-2.251135876409536205e-02,-1.783367382610151833e-02,-1.286363357948306849e-02,-7.893593332864611706e-03,-3.215908394870771458e-03,1.754131851747692261e-03,6.724172098366149042e-03,1.140185703635999102e-02,-1.576929618835295199e-01,-1.530152769455356832e-01,-1.530152769455356832e-01,-1.530152769455356832e-01,2.104958222097228979e-02,2.104958222097228979e-02,2.104958222097228979e-02,2.104958222097228979e-02,2.104958222097228979e-02
-2.192664814684613592e-02,-1.721972767798983228e-01,-1.672272365332798383e-01,-1.622571962866614093e-01,-1.575795113486675725e-01,-1.526094711020491157e-01,-1.476394308554306589e-01,-1.429617459174368221e-01,-1.379917056708183654e-01,-1.330216654241998808e-01,-1.283439804862060440e-01,-1.233739402395875456e-01,-1.184038999929691166e-01,-1.134338597463506598e-01,-1.087561748083568230e-01,-1.037861345617383663e-01,-9.881609431511992336e-02,-9.413840937712607271e-02,-8.916836913050761593e-02,-8.419832888388915915e-02,-7.952064394589532237e-02,-7.455060369927683783e-02,-6.958056345265838105e-02,-6.490287851466454427e-02,-5.993283826804610137e-02,-5.496279802142763071e-02,-4.999275777480918781e-02,-4.531507283681535103e-02,-4.034503259019689425e-02,-3.537499234357843747e-02,-3.069730740558458335e-02,-2.572726715896612656e-02,-2.075722691234766978e-02,-1.607954197435383301e-02,-1.110950172773537623e-02,-6.139461481116919445e-03,-1.461776543123075728e-03,3.508263703495381053e-03,-1.655865552163941212e-01,-1.609088702784002844e-01,-1.559388300317818277e-01,-1.530152769455356832e-01,2.104958222097228979e-02,2.104958222097228979e-02,2.104958222097228979e-02,2.104958222097228979e-02,2.104958222097228979e-02
-1.201580318447168366e-01,-1.754131851747690873e-01,-1.751208298661444396e-01,-1.704431449281506306e-01,-1.654731046815321460e-01,-1.605030644349137170e-01,-1.558253794969198525e-01,-1.508553392503014234e-01,-1.458852990036829667e-01,-1.412076140656891299e-01,-1.362375738190706731e-01,-1.312675335724522163e-01,-1.262974933258337318e-01,-1.216198083878398811e-01,-1.166497681412214243e-01,-1.116797278946029676e-01,-1.070020429566091585e-01,-1.020320027099906740e-01,-9.706196246337221722e-02,-9.238427752537839432e-02,-8.741423727875992367e-02,-8.244419703214146689e-02,-7.776651209414761623e-02,-7.279647184752914557e-02,-6.782643160091070267e-02,-6.285639135429224589e-02,-5.817870641629840911e-02,-5.320866616967995233e-02,-4.823862592306149555e-02,-4.356094098506765877e-02,-3.859090073844920199e-02,-3.362086049183074521e-02,-2.894317555383689802e-02,-2.397313530721843430e-02,-1.900309506059997752e-02,-1.432541012260614768e-02,-9.355369875987683964e-03,-4.385329629369227183e-03,-1.737725038578833703e-01,-1.688024636112649135e-01,-1.638324233646464567e-01,-1.588623831180279722e-01,1.988016098647383059e-02,2.104958222097228979e-02,2.104958222097228979e-02,2.104958222097228979e-02,2.104958222097228979e-02
-1.754131851747690873e-01,-1.754131851747690873e-01,-1.754131851747690596e-01,-1.754131851747690873e-01,-1.733666980143967751e-01,-1.686890130764029105e-01,-1.637189728297844538e-01,-1.587489325831660247e-01,-1.540712476451721880e-01,-1.491012073985537312e-01,-1.441311671519353022e-01,-1.391611269053168176e-01,-1.344834419673229808e-01,-1.295134017207044963e-01,-1.245433614740860256e-01,-1.198656765360921889e-01,-1.148956362894737598e-01,-1.099255960428553031e-01,-1.052479111048614663e-01,-1.002778708582429817e-01,-9.530783061162453884e-02,-9.063014567363070206e-02,-8.566010542701223140e-02,-1.732475422636501339e-01,-1.682775020170316493e-01,-1.635998170790378126e-01,-1.586297768324193835e-01,-1.536597365858009268e-01,-5.642457456455071685e-02,-5.145453431793226007e-02,-4.648449407131380329e-02,-4.180680913331996651e-02,-3.683676888670150973e-02,-3.186672864008305295e-02,-2.718904370208920576e-02,-2.221900345547074898e-02,-1.724896320885228526e-02,-1.227892296223383542e-02,-1.816660971907479716e-01,-1.766960569441295148e-01,-1.717260166975110580e-01,-1.670483317595172212e-01,1.198656765360922236e-02,1.695660790022767914e-02,2.104958222097228979e-02,2.104958222097228979e-02,2.104958222097228979e-02
-1.754131851747690596e-01,-1.754131851747690873e-01,-1.754131851747690873e-01,-1.754131851747690873e-01,-1.754131851747690596e-01,-1.754131851747690873e-01,-1.716125661626490828e-01,-1.669348812246552460e-01,-1.619648409780367893e-01,-1.569948007314183325e-01,-1.520247604847998757e-01,-1.473470755468060389e-01,-1.423770353001875821e-01,-1.374069950535691254e-01,-1.327293101155752886e-01,-1.277592698689568040e-01,-1.227892296223383334e-01,-1.181115446843444966e-01,-1.131415044377260398e-01,-1.081714641911076108e-01,-1.034937792531137463e-01,-9.852373900649528948e-02,-9.355369875987684658e-02,-1.811411355965147629e-01,-1.764634506585208984e-01,-1.714934104119024416e-01,-1.665233701652839848e-01,-1.618456852272901203e-01,-6.431816789741533202e-02,-5.934812765079687524e-02,-5.467044271280302459e-02,-4.970040246618458168e-02,-4.473036221956612490e-02,-4.005267728157228813e-02,-3.508263703495381747e-02,-3.011259678833535722e-02,-2.514255654171689350e-02,-2.046487160372305672e-02,-1.549483135710459994e-02,-1.052479111048614316e-02,-5.847106172492306381e-03,-8.770659258738461306e-04,4.092974320744614120e-03,8.770659258738454367e-03,1.374069950535691115e-02,1.871073975197536793e-02,2.104958222097228979e-02
-1.754131851747690873e-01,-1.754131851747690873e-01,-1.754131851747690873e-01,-1.754131851747690873e-01,-1.754131851747690873e-01,-1.754131851747690596e-01,-1.754131851747690596e-01,-1.748284745575198751e-01,-1.698584343109013906e-01,-1.648883940642829060e-01,-1.602107091262890970e-01,-1.552406688796706402e-01,-1.502706286330521834e-01,-1.455929436950583744e-01,-1.406229034484398899e-01,-1.356528632018214331e-01,-1.309751782638275963e-01,-1.260051380172091395e-01,-1.210350977705906411e-01,-1.163574128325968043e-01,-1.113873725859783753e-01,-1.064173323393599185e-01,-1.014472920927414479e-01,-1.893270842380039565e-01,-1.843570439913854997e-01,-1.793870037447670429e-01,-1.747093188067732339e-01,-1.697392785601547216e-01,-7.221176123027993332e-02,-6.753407629228608267e-02,-6.256403604566763976e-02,-5.759399579904918298e-02,-5.291631086105533233e-02,-4.794627061443688942e-02,-4.297623036781843264e-02,-3.800619012119997586e-02,-3.332850518320612521e-02,-2.835846493658767190e-02,-2.338842468996920818e-02,-1.871073975197536446e-02,-1.374069950535690768e-02,-8.770659258738454367e-03,-4.092974320744614120e-03,8.770659258738461306e-04,5.847106172492304646e-03,1.052479111048614316e-02,1.549483135710460341e-02
-1.754131851747690873e-01,-1.754131851747690873e-01,-1.754131851747690873e-01,-1.754131851747690873e-01,-1.754131851747690873e-01,-1.754131851747690873e-01,-1.754131851747690873e-01,-1.754131851747690873e-01,-1.754131851747690873e-01,-1.730743427057721828e-01,-1.681043024591536705e-01,-1.631342622125352415e-01,-1.584565772745414047e-01,-1.534865370279229480e-01,-1.485164967813044912e-01,-1.438388118433106544e-01,-1.388687715966922254e-01,-1.338987313500737408e-01,-1.292210464120799041e-01,-1.242510061654614056e-01,-1.192809659188429489e-01,-1.143109256722245198e-01,-1.096332407342306831e-01,-1.972206775708685855e-01,-1.922506373242501287e-01,-1.875729523862562920e-01,-1.826029121396378352e-01,-1.776328718930193784e-01,-8.039770987176916850e-02,-7.542766962515069784e-02,-7.045762937853224106e-02,-6.577994444053840428e-02,-6.080990419391993362e-02,-5.583986394730149072e-02,-5.086982370068303394e-02,-4.619213876268919716e-02,-4.122209851607074038e-02,-3.625205826945228360e-02,-3.157437333145843295e-02,-2.660433308483997270e-02,-2.163429283822152285e-02,-1.695660790022767220e-02,-1.198656765360922236e-02,-7.016527406990765575e-03,-2.338842468996921858e-03,2.631197777621538392e-03,7.601238024239995172e-03
-1.754131851747690873e-01,-1.754131851747690873e-01,-1.754131851747690873e-01,-1.754131851747690873e-01,-1.754131851747690873e-01,-1.754131851747690873e-01,-1.754131851747690873e-01,-1.754131851747690873e-01,-1.754131851747690873e-01,-1.754131851747690873e-01,-1.754131851747690873e-01,-1.713202108540244628e-01,-1.663501706074060060e-01,-1.613801303607875492e-01,-1.567024454227937125e-01,-1.517324051761752834e-01,-1.467623649295567989e-01,-1.420846799915629899e-01,-1.371146397449445054e-01,-1.321445994983260486e-01,-1.271745592517075918e-01,-1.224968743137137134e-01,-1.175268340670952566e-01,-2.051142709037331868e-01,-2.004365859657393500e-01,-1.954665457191208933e-01,-1.904965054725024365e-01,-1.858188205345085720e-01,-8.829130320463376980e-02,-8.332126295801531302e-02,-7.864357802002146236e-02,-7.367353777340300558e-02,-6.870349752678453492e-02,-6.373345728016609202e-02,-5.905577234217225524e-02,-5.408573209555379846e-02,-4.911569184893534168e-02,-4.443800691094150490e-02,-3.946796666432304812e-02,-3.449792641770459134e-02,-2.982024147971074415e-02,-2.485020123309228043e-02,-1.988016098647382365e-02,-1.520247604847998688e-02,-1.023243580186153009e-02,-5.262395555243073314e-03,-2.923553086246130639e-04
-1.754131851747690596e-01,-1.754131851747690873e-01,-1.754131851747690873e-01,-1.754131851747690873e-01,-1.754131851747690873e-01,-1.754131851747690873e-01,-1.754131851747690873e-01,-1.754131851747690873e-01,-1.754131851747690873e-01,-1.754131851747690596e-01,-1.754131851747691151e-01,-1.754131851747690873e-01,-1.742437639402706351e-01,-1.695660790022767983e-01,-1.645960387556582860e-01,-1.596259985090398570e-01,-1.549483135710460202e-01,-1.499782733244275634e-01,-1.450082330778091344e-01,-1.400381928311906776e-01,-1.353605078931968131e-01,-1.303904676465783563e-01,-1.254204273999598718e-01,-1.207427424619660211e-01,-1.157727022153475921e-01,-1.108026619687291353e-01,-1.061249770307352708e-01,-1.011549367841168279e-01,-9.618489653749837109e-02,-9.150721159950454819e-02,-8.653717135288609141e-02,-8.156713110626760688e-02,-7.659709085964915010e-02,-7.191940592165531332e-02,-6.694936567503685654e-02,-6.197932542841841363e-02,-5.730164049042456298e-02,-5.233160024380610620e-02,-4.736155999718764942e-02,-4.268387505919381264e-02,-3.771383481257535586e-02,-3.274379456595689908e-02,-2.806610962796305189e-02,-2.309606938134458817e-02,-1.812602913472613833e-02,-1.315598888810768155e-02,-8.478303950113841303e-03
-1.754131851747690873e-01,-1.754131851747690873e-01,-1.754131851747690873e-01,-1.754131851747690596e-01,-1.754131851747690873e-01,-1.754131851747690873e-01,-1.754131851747691151e-01,-1.754131851747690873e-01,-1.754131851747690873e-01,-1.754131851747690873e-01,-1.754131851747690873e-01,-1.754131851747690873e-01,-1.754131851747690873e-01,-1.754131851747690873e-01,-1.724896320885229151e-01,-1.675195918419044583e-01,-1.628419069039106215e-01,-1.578718666572921925e-01,-1.529018264106737079e-01,-1.482241414726798989e-01,-1.432541012260614144e-01,-1.382840609794429854e-01,-1.336063760414491208e-01,-1.286363357948306640e-01,-1.236662955482121934e-01,-1.189886106102183289e-01,-1.140185703635998998e-01,-1.090485301169814430e-01,-1.043708451789876063e-01,-9.940080493236913561e-02,-9.443076468575069271e-02,-8.946072443913224981e-02,-8.478303950113839915e-02,-7.981299925451994237e-02,-7.484295900790145784e-02,-7.016527406990762106e-02,-6.519523382328916428e-02,-6.022519357667070750e-02,-5.554750863867687072e-02,-5.057746839205841394e-02,-4.560742814543997103e-02,-4.092974320744612038e-02,-3.595970296082766360e-02,-3.098966271420920335e-02,-2.601962246759073963e-02,-2.134193752959689591e-02,-1.637189728297844607e-02
-1.754131851747690873e-01,-1.754131851747690596e-01,-1.754131851747690596e-01,-1.754131851747690873e-01,-1.754131851747690596e-01,-1.754131851747690873e-01,-1.754131851747691151e-01,-1.754131851747690873e-01,-1.754131851747690873e-01,-1.754131851747690873e-01,-1.754131851747690873e-01,-1.754131851747690873e-01,-1.754131851747690873e-01,-1.754131851747690873e-01,-1.754131851747690873e-01,-1.754131851747690873e-01,-1.707355002367752228e-01,-1.657654599901567660e-01,-1.610877750521629292e-01,-1.561177348055444447e-01,-1.511476945589260157e-01,-1.464700096209322067e-01,-1.414999693743137499e-01,-1.365299291276952931e-01,-1.318522441897014286e-01,-1.268822039430829718e-01,-1.219121636964644734e-01,-1.172344787584706644e-01,-1.122644385118522353e-01,-1.072943982652337508e-01,-1.023243580186152940e-01,-9.764667308062145723e-02,-9.267663283400300045e-02,-8.770659258738454367e-02,-8.302890764939070689e-02,-7.805886740277225011e-02,-7.308882715615377945e-02,-6.841114221815994267e-02,-6.344110197154148589e-02,-5.847106172492301523e-02,-5.379337678692917846e-02,-4.882333654031073555e-02,-4.385329629369227877e-02,-3.888325604707382199e-02,-3.420557110907997134e-02,-2.923553086246151803e-02,-2.426549061584305431e-02
-1.754131851747690873e-01,-1.754131851747690873e-01,-1.754131851747690873e-01,-1.754131851747690873e-01,-1.754131851747690873e-01,-1.754131851747690873e-01,-1.754131851747690596e-01,-1.754131851747690873e-01,-1.754131851747690873e-01,-1.754131851747690873e-01,-1.754131851747690596e-01,-1.754131851747690873e-01,-1.754131851747690873e-01,-1.754131851747690596e-01,-1.754131851747690873e-01,-1.754131851747690873e-01,-1.754131851747690873e-01,-1.739514086316459873e-01,-1.689813683850275305e-01,-1.640113281384091015e-01,-1.593336432004152370e-01,-1.543636029537968080e-01,-1.493935627071783234e-01,-1.447158777691845144e-01,-1.397458375225660299e-01,-1.347757972759475731e-01,-1.300981123379537363e-01,-1.251280720913352795e-01,-1.201580318447168089e-01,-1.151879915980983521e-01,-1.105103066601045431e-01,-1.055402664134860863e-01,-1.005702261668676017e-01,-9.589254122887377885e-02,-9.092250098225530819e-02,-8.595246073563685141e-02,-8.127477579764301463e-02,-7.630473555102454397e-02,-7.133469530440607331e-02,-6.665701036641225041e-02,-6.168697011979379363e-02,-5.671692987317532297e-02,-5.174688962655688007e-02,-4.706920468856304329e-02,-4.209916444194457263e-02,-3.712912419532612973e-02,-3.245143925733227908e-02
-1.754131851747690873e-01,-1.754131851747690596e-01,-1.754131851747690873e-01,-1.754131851747690873e-01,-1.754131851747690873e-01,-1.754131851747690873e-01,-1.754131851747690873e-01,-1.754131851747690873e-01,-1.754131851747690873e-01,-1.754131851747690873e-01,-1.754131851747690873e-01,-1.754131851747690873e-01,-1.754131851747690873e-01,-1.754131851747690596e-01,-1.754131851747690873e-01,-1.754131851747690873e-01,-1.754131851747690873e-01,-1.754131851747690873e-01,-1.754131851747690873e-01,-1.721972767798983228e-01,-1.672272365332798383e-01,-1.622571962866613815e-01,-1.575795113486675447e-01,-1.526094711020491157e-01,-1.476394308554306589e-01,-1.426693906088122021e-01,-1.379917056708183654e-01,-1.330216654241999086e-01,-1.280516251775814518e-01,-1.233739402395875734e-01,-1.184038999929690889e-01,-1.134338597463506876e-01,-1.087561748083568508e-01,-1.037861345617383801e-01,-9.881609431511992336e-02,-9.413840937712607271e-02,-8.916836913050761593e-02,-8.419832888388915915e-02,-7.952064394589530849e-02,-7.455060369927683783e-02,-6.958056345265838105e-02,-6.461052320603993815e-02,-5.993283826804610137e-02,-5.496279802142764459e-02,-4.999275777480918781e-02,-4.531507283681535103e-02,-4.034503259019689425e-02
-1.754131851747690596e-01,-1.754131851747691151e-01,-1.754131851747690873e-01,-1.754131851747690873e-01,-1.754131851747691151e-01,-1.754131851747690596e-01,-1.754131851747690873e-01,-1.754131851747691151e-01,-1.754131851747690873e-01,-1.754131851747690873e-01,-1.754131851747690873e-01,-1.754131851747690873e-01,-1.754131851747690873e-01,-1.754131851747690873e-01,-1.754131851747690873e-01,-1.754131851747690873e-01,-1.754131851747690873e-01,-1.754131851747690596e-01,-1.754131851747690873e-01,-1.754131851747690873e-01,-1.751208298661444396e-01,-1.704431449281506306e-01,-1.654731046815321738e-01,-1.605030644349137170e-01,-1.558253794969198525e-01,-1.508553392503014234e-01,-1.458852990036829667e-01,-1.409152587570645099e-01,-1.362375738190706731e-01,-1.312675335724522163e-01,-1.262974933258337318e-01,-1.216198083878398811e-01,-1.166497681412214243e-01,-1.116797278946029953e-01,-1.070020429566091585e-01,-1.020320027099906740e-01,-9.706196246337223110e-02,-9.238427752537838045e-02,-8.741423727875992367e-02,-8.244419703214148076e-02,-7.747415678552301010e-02,-7.279647184752914557e-02,-6.782643160091070267e-02,-6.285639135429224589e-02,-5.817870641629839523e-02,-5.320866616967995233e-02,-4.823862592306150943e-02
-1.754131851747690873e-01,-1.754131851747690873e-01,-1.754131851747690873e-01,-1.754131851747690873e-01,-1.754131851747690873e-01,-1.754131851747691151e-01,-1.754131851747690873e-01,-1.754131851747691151e-01,-1.754131851747690873e-01,-1.754131851747690873e-01,-1.754131851747690873e-01,-1.754131851747690873e-01,-1.754131851747690873e-01,-1.754131851747690873e-01,-1.754131851747690873e-01,-1.754131851747690596e-01,-1.754131851747690873e-01,-1.754131851747690873e-01,-1.754131851747690873e-01,-1.754131851747690873e-01,-1.754131851747690596e-01,-1.754131851747690873e-01,-1.733666980143968028e-01,-1.686890130764029105e-01,-1.637189728297845093e-01,-1.587489325831660247e-01,-1.537788923365475680e-01,-1.491012073985537312e-01,-1.441311671519352744e-01,-1.391611269053168176e-01,-1.344834419673229531e-01,-1.295134017207044963e-01,-1.245433614740860256e-01,-1.198656765360921889e-01,-1.148956362894737598e-01,-1.099255960428553031e-01,-1.052479111048614663e-01,-1.002778708582429817e-01,-9.530783061162452496e-02,-9.033779036500609594e-02,-8.566010542701223140e-02,-8.069006518039377462e-02,-7.572002493377531784e-02,-7.104233999578146719e-02,-6.607229974916302429e-02,-6.110225950254456750e-02,-5.642457456455071685e-02
-1.754131851747690873e-01,-1.754131851747690873e-01,-1.754131851747690873e-01,-1.754131851747690873e-01,-1.754131851747690873e-01,-1.754131851747691151e-01,-1.754131851747690873e-01,-1.754131851747690596e-01,-1.754131851747690873e-01,-1.754131851747690873e-01,-1.754131851747690873e-01,-1.754131851747690873e-01,-1.754131851747690873e-01,-1.754131851747690873e-01,-1.754131851747690873e-01,-1.754131851747690873e-01,-1.754131851747691151e-01,-1.754131851747690873e-01,-1.754131851747690873e-01,-1.754131851747690873e-01,-1.754131851747690873e-01,-1.754131851747690873e-01,-1.754131851747690873e-01,-1.754131851747690873e-01,-1.716125661626490828e-01,-1.666425259160306260e-01,-1.619648409780367893e-01,-1.569948007314183325e-01,-1.520247604847998757e-01,-1.473470755468060389e-01,-1.423770353001875821e-01,-1.374069950535691531e-01,-1.327293101155752886e-01,-1.277592698689568040e-01,-1.227892296223383611e-01,-1.178191893757198766e-01,-1.131415044377260398e-01,-1.081714641911076108e-01,-1.032014239444891401e-01,-9.852373900649528948e-02,-9.355369875987683270e-02,-8.858365851325840368e-02,-8.390597357526453914e-02,-7.893593332864608236e-02,-7.396589308202761170e-02,-6.928820814403377493e-02,-6.431816789741531815e-02
-1.754131851747690873e-01,-1.754131851747690873e-01,-1.754131851747690596e-01,-1.754131851747690873e-01,-1.754131851747690596e-01,-1.754131851747690873e-01,-1.754131851747690596e-01,-1.754131851747690873e-01,-1.754131851747691151e-01,-1.754131851747690873e-01,-1.754131851747691151e-01,-1.754131851747690873e-01,-1.754131851747690873e-01,-1.754131851747690873e-01,-1.754131851747691151e-01,-1.754131851747690873e-01,-1.754131851747690873e-01,-1.754131851747690873e-01,-1.754131851747690873e-01,-1.754131851747690873e-01,-1.754131851747690873e-01,-1.754131851747690873e-01,-1.754131851747690873e-01,-1.754131851747691151e-01,-1.754131851747690873e-01,-1.748284745575198751e-01,-1.698584343109013906e-01,-1.648883940642829338e-01,-1.602107091262890970e-01,-1.552406688796706125e-01,-1.502706286330521557e-01,-1.455929436950583467e-01,-1.406229034484398899e-01,-1.356528632018214331e-01,-1.309751782638275963e-01,-1.260051380172091118e-01,-1.210350977705906411e-01,-1.160650575239721843e-01,-1.113873725859783753e-01,-1.064173323393599185e-01,-1.014472920927414618e-01,-9.676960715474759722e-02,-9.179956690812915432e-02,-8.682952666151069754e-02,-8.215184172351684688e-02,-7.718180147689839010e-02,-4.598200838461523332e-02
-1.754131851747690873e-01,-1.754131851747690873e-01,-1.754131851747690873e-01,-1.754131851747690873e-01,-1.754131851747690873e-01,-1.754131851747690873e-01,-1.754131851747690873e-01,-1.754131851747690873e-01,-1.754131851747690873e-01,-1.754131851747690873e-01,-1.754131851747690873e-01,-1.754131851747690873e-01,-1.754131851747690873e-01,-1.754131851747690873e-01,-1.754131851747690873e-01,-1.754131851747690873e-01,-1.754131851747690873e-01,-1.754131851747690873e-01,-1.754131851747690873e-01,-1.754131851747690873e-01,-1.754131851747690873e-01,-1.754131851747690596e-01,-1.754131851747690873e-01,-1.754131851747690873e-01,-1.754131851747690873e-01,-1.754131851747690873e-01,-1.754131851747690873e-01,-1.730743427057721273e-01,-1.681043024591536705e-01,-1.631342622125352138e-01,-1.584565772745414047e-01,-1.534865370279229480e-01,-1.485164967813044912e-01,-1.438388118433106821e-01,-1.388687715966922254e-01,-1.338987313500737408e-01,-1.289286911034552841e-01,-1.242510061654614056e-01,-1.192809659188429489e-01,-1.143109256722244921e-01,-1.096332407342306831e-01,-1.046632004876122263e-01,-9.969316024099375562e-02,-9.501547530299990496e-02,-9.004543505638147594e-02,-8.507539480976300528e-02,-1.142012924314903671e-03
-1.754131851747690873e-01,-1.754131851747690873e-01,-1.754131851747690873e-01,-1.754131851747690873e-01,-1.754131851747690873e-01,-1.754131851747690873e-01,-1.754131851747690873e-01,-1.754131851747690873e-01,-1.754131851747690873e-01,-1.754131851747690873e-01,-1.754131851747690873e-01,-1.754131851747690596e-01,-1.754131851747690873e-01,-1.754131851747690873e-01,-1.754131851747690873e-01,-1.754131851747690873e-01,-1.754131851747690873e-01,-1.754131851747690873e-01,-1.754131851747690873e-01,-1.754131851747690873e-01,-1.754131851747690873e-01,-1.754131851747690873e-01,-1.754131851747690873e-01,-1.754131851747690873e-01,-1.754131851747690873e-01,-1.754131851747690873e-01,-1.754131851747690873e-01,-1.754131851747690873e-01,-1.754131851747690873e-01,-1.713202108540244628e-01,-1.663501706074060060e-01,-1.613801303607875492e-01,-1.564100901141691202e-01,-1.517324051761752834e-01,-1.467623649295567989e-01,-1.417923246829383421e-01,-1.371146397449445331e-01,-1.321445994983260486e-01,-1.271745592517075918e-01,-1.224968743137137134e-01,-1.175268340670952566e-01,-1.125567938204768553e-01,-1.078791088824829908e-01,-1.029090686358645340e-01,-9.793902838924606336e-02,-3.952278328469016611e-02,2.104958222097228979e-02
-1.493204738800222031e-01,-1.754131851747690873e-01,-1.754131851747690873e-01,-1.754131851747690596e-01,-1.754131851747690873e-01,-1.754131851747690873e-01,-1.754131851747690873e-01,-1.754131851747690596e-01,-1.754131851747690873e-01,-1.754131851747691151e-01,-1.754131851747690873e-01,-1.754131851747690596e-01,-1.754131851747690873e-01,-1.754131851747690596e-01,-1.754131851747690873e-01,-1.754131851747690873e-01,-1.754131851747690873e-01,-1.754131851747691151e-01,-1.754131851747690596e-01,-1.754131851747690873e-01,-1.754131851747690873e-01,-1.754131851747690873e-01,-1.754131851747690873e-01,-1.754131851747690873e-01,-1.754131851747690873e-01,-1.754131851747690873e-01,-1.754131851747690596e-01,-1.754131851747690873e-01,-1.754131851747690596e-01,-1.754131851747690873e-01,-1.742437639402706073e-01,-1.692737236936521505e-01,-1.645960387556582860e-01,-1.596259985090398570e-01,-1.546559582624214280e-01,-1.499782733244275634e-01,-1.450082330778091066e-01,-1.400381928311906499e-01,-1.353605078931968131e-01,-1.303904676465783563e-01,-1.254204273999598995e-01,-1.207427424619660211e-01,-1.157727022153475921e-01,-1.108026619687291353e-01,-9.022815712427184609e-02,2.104958222097228979e-02,2.104958222097228979e-02
-1.078791088824829908e-01,-1.324369548069506963e-01,-1.585296661016975528e-01,-1.754131851747690873e-01,-1.754131851747690873e-01,-1.754131851747690873e-01,-1.754131851747690873e-01,-1.754131851747690873e-01,-1.754131851747690873e-01,-1.754131851747690873e-01,-1.754131851747690873e-01,-1.754131851747690873e-01,-1.754131851747690873e-01,-1.754131851747690873e-01,-1.754131851747690873e-01,-1.754131851747690873e-01,-1.754131851747690873e-01,-1.754131851747690873e-01,-1.754131851747690873e-01,-1.754131851747690873e-01,-1.754131851747690873e-01,-1.754131851747690873e-01,-1.754131851747690873e-01,-1.754131851747690873e-01,-1.754131851747691151e-01,-1.754131851747690873e-01,-1.754131851747690873e-01,-1.754131851747690873e-01,-1.754131851747690873e-01,-1.754131851747690873e-01,-1.754131851747690873e-01,-1.754131851747690873e-01,-1.724896320885229428e-01,-1.675195918419044583e-01,-1.628419069039106215e-01,-1.578718666572921647e-01,-1.529018264106737357e-01,-1.482241414726798989e-01,-1.432541012260614144e-01,-1.382840609794429854e-01,-1.336063760414491208e-01,-1.286363357948306640e-01,-1.236662955482121934e-01,-1.189886106102183289e-01,-2.538009522997439552e-02,2.104958222097228979e-02,2.104958222097228979e-02
-6.643774388494377847e-02,-9.099558980941145625e-02,-1.170883011041583682e-01,-1.431810123989052663e-01,-1.677388583233729580e-01,-1.754131851747691151e-01,-1.754131851747690873e-01,-1.754131851747690873e-01,-1.754131851747690873e-01,-1.754131851747690873e-01,-1.754131851747690873e-01,-1.754131851747690873e-01,-1.754131851747691151e-01,-1.754131851747690873e-01,-1.754131851747690873e-01,-1.754131851747690873e-01,-1.754131851747690873e-01,-1.754131851747690873e-01,-1.754131851747690873e-01,-1.754131851747690873e-01,-1.754131851747690873e-01,-1.754131851747690873e-01,-1.754131851747690596e-01,-1.754131851747690873e-01,-1.754131851747690873e-01,-1.754131851747690873e-01,-1.754131851747690873e-01,-1.754131851747690873e-01,-1.754131851747690873e-01,-1.754131851747690873e-01,-1.754131851747690873e-01,-1.754131851747690873e-01,-1.754131851747690596e-01,-1.754131851747690596e-01,-1.707355002367752228e-01,-1.657654599901567938e-01,-1.610877750521629292e-01,-1.561177348055445002e-01,-1.511476945589260434e-01,-1.464700096209322067e-01,-1.414999693743137221e-01,-1.365299291276952931e-01,-1.315598888810768086e-01,-8.065352076681568672e-02,2.104958222097228979e-02,2.104958222097228979e-02,2.104958222097228979e-02
-2.346151351712536318e-02,-4.955422481187225781e-02,-7.564693610661916978e-02,-1.002047820310868337e-01,-1.262974933258337595e-01,-1.523902046205806438e-01,-1.754131851747691151e-01,-1.754131851747690873e-01,-1.754131851747690873e-01,-1.754131851747690873e-01,-1.754131851747691151e-01,-1.754131851747690873e-01,-1.754131851747690873e-01,-1.754131851747690873e-01,-1.754131851747690873e-01,-1.754131851747690873e-01,-1.754131851747690873e-01,-1.754131851747690873e-01,-1.754131851747690873e-01,-1.754131851747690873e-01,-1.754131851747690873e-01,-1.754131851747690873e-01,-1.754131851747690873e-01,-1.754131851747690873e-01,-1.754131851747690873e-01,-1.754131851747690873e-01,-1.754131851747690873e-01,-1.754131851747690873e-01,-1.754131851747690873e-01,-1.754131851747690873e-01,-1.754131851747690873e-01,-1.754131851747690873e-01,-1.754131851747690596e-01,-1.754131851747691151e-01,-1.754131851747690873e-01,-1.739514086316459873e-01,-1.689813683850275305e-01,-1.640113281384091015e-01,-1.593336432004152647e-01,-1.543636029537968080e-01,-1.493935627071783234e-01,-1.444235224605598944e-01,-1.397458375225660576e-01,-3.298133325421438028e-03,2.104958222097228979e-02,2.104958222097228979e-02,2.104958222097228979e-02
1.797985148041383180e-02,-8.112859814333069769e-03,-3.267070573880073714e-02,-5.876341703354763524e-02,-8.485612832829454721e-02,-1.094139742527622389e-01,-1.355066855475091370e-01,-1.615993968422560212e-01,-1.754131851747691151e-01,-1.754131851747690873e-01,-1.754131851747690873e-01,-1.754131851747690873e-01,-1.754131851747690873e-01,-1.754131851747690873e-01,-1.754131851747690873e-01,-1.754131851747690873e-01,-1.754131851747690873e-01,-1.754131851747690873e-01,-1.754131851747690873e-01,-1.754131851747690873e-01,-1.754131851747690873e-01,-1.754131851747690873e-01,-1.754131851747690596e-01,-1.754131851747690873e-01,-1.754131851747690873e-01,-1.754131851747690873e-01,-1.754131851747690873e-01,-1.754131851747691151e-01,-1.754131851747690873e-01,-1.754131851747690596e-01,-1.754131851747690873e-01,-1.754131851747690873e-01,-1.754131851747690873e-01,-1.754131851747690873e-01,-1.754131851747690873e-01,-1.754131851747690873e-01,-1.754131851747690873e-01,-1.721972767798983228e-01,-1.672272365332798383e-01,-1.622571962866613815e-01,-1.572871560400429525e-01,-1.526094711020490879e-01,-6.329492431722917589e-02,2.104958222097228979e-02,2.104958222097228979e-02,2.104958222097228979e-02,2.104958222097228979e-02
2.104958222097228979e-02,2.104958222097228979e-02,8.770659258738454367e-03,-1.732205203600844720e-02,-4.187989796047611457e-02,-6.797260925522301267e-02,-9.406532054996991077e-02,-1.186231664744376163e-01,-1.447158777691845144e-01,-1.708085890639313986e-01,-1.754131851747690873e-01,-1.754131851747690873e-01,-1.754131851747690596e-01,-1.754131851747690873e-01,-1.754131851747690873e-01,-1.754131851747690873e-01,-1.754131851747690873e-01,-1.754131851747690596e-01,-1.754131851747691151e-01,-1.754131851747691151e-01,-1.754131851747690873e-01,-1.754131851747690873e-01,-1.754131851747690873e-01,-1.754131851747690873e-01,-1.754131851747690873e-01,-1.754131851747691151e-01,-1.754131851747690873e-01,-1.754131851747690873e-01,-1.754131851747690873e-01,-1.754131851747691151e-01,-1.754131851747690873e-01,-1.754131851747690873e-01,-1.754131851747690873e-01,-1.754131851747690873e-01,-1.754131851747690873e-01,-1.754131851747690873e-01,-1.754131851747690873e-01,-1.754131851747691151e-01,-1.751208298661444673e-01,-1.701507896195259828e-01,-1.654731046815321460e-01,-1.264619431869350719e-01,2.104958222097228979e-02,2.104958222097228979e-02,2.104958222097228979e-02,2.104958222097228979e-02,2.104958222097228979e-02
2.104958222097228979e-02,2.104958222097228979e-02,2.104958222097228979e-02,2.104958222097228979e-02,-4.385329629369230653e-04,-2.653124425768382463e-02,-5.108909018215149200e-02,-7.718180147689839010e-02,-1.032745127716453021e-01,-1.293672240663922279e-01,-1.539250699908598918e-01,-1.754131851747690873e-01,-1.754131851747690873e-01,-1.754131851747690873e-01,-1.754131851747690873e-01,-1.754131851747690873e-01,-1.754131851747690873e-01,-1.754131851747690873e-01,-1.754131851747690873e-01,-1.754131851747691151e-01,-1.754131851747690873e-01,-1.754131851747690873e-01,-1.754131851747690873e-01,-1.754131851747690873e-01,-1.754131851747690873e-01,-1.754131851747690873e-01,-1.754131851747690873e-01,-1.754131851747691151e-01,-1.754131851747690873e-01,-1.754131851747690596e-01,-1.754131851747690873e-01,-1.754131851747690873e-01,-1.754131851747690873e-01,-1.754131851747690873e-01,-1.754131851747690873e-01,-1.754131851747690873e-01,-1.754131851747690596e-01,-1.754131851747690873e-01,-1.754131851747690596e-01,-1.754131851747690873e-01,-1.733666980143967751e-01,-3.815236777551227199e-02,2.104958222097228979e-02,2.104958222097228979e-02,2.104958222097228979e-02,2.104958222097228979e-02,2.104958222097228979e-02
2.104958222097228979e-02,2.104958222097228979e-02,2.104958222097228979e-02,2.104958222097228979e-02,2.104958222097228979e-02,1.644498611013460107e-02,-9.647725184612297028e-03,-3.574043647935920553e-02,-6.183314777410610363e-02,-8.639099369857376753e-02,-1.124837049933206795e-01,-1.385764162880675776e-01,-1.631342622125352693e-01,-1.754131851747690873e-01,-1.754131851747690873e-01,-1.754131851747690873e-01,-1.754131851747691151e-01,-1.754131851747690873e-01,-1.754131851747690873e-01,-1.754131851747690873e-01,-1.754131851747690873e-01,-1.754131851747690873e-01,-1.754131851747690873e-01,-1.754131851747691151e-01,-1.754131851747691151e-01,-1.754131851747690873e-01,-1.754131851747690873e-01,-1.754131851747690873e-01,-1.754131851747690873e-01,-1.754131851747690873e-01,-1.754131851747690596e-01,-1.754131851747690596e-01,-1.754131851747690873e-01,-1.754131851747690873e-01,-1.754131851747690873e-01,-1.754131851747690873e-01,-1.754131851747691151e-01,-1.754131851747690873e-01,-1.754131851747690873e-01,-1.754131851747690873e-01,-1.017396474013660540e-01,2.104958222097228979e-02,2.104958222097228979e-02,2.104958222097228979e-02,2.104958222097228979e-02,2.104958222097228979e-02,2.104958222097228979e-02
2.104958222097228979e-02,2.104958222097228979e-02,2.104958222097228979e-02,2.104958222097228979e-02,2.104958222097228979e-02,2.104958222097228979e-02,2.104958222097228979e-02,5.700928518179996379e-03,-1.885691740628767446e-02,-4.494962870103456909e-02,-7.104233999578148107e-02,-9.560018592024914497e-02,-1.216928972149960569e-01,-1.477856085097429828e-01,-1.723434544342106189e-01,-1.754131851747690596e-01,-1.754131851747690873e-01,-1.754131851747690873e-01,-1.754131851747691151e-01,-1.754131851747690596e-01,-1.754131851747690596e-01,-1.754131851747690873e-01,-1.754131851747690596e-01,-1.754131851747690873e-01,-1.754131851747690873e-01,-1.754131851747690873e-01,-1.754131851747690873e-01,-1.754131851747690873e-01,-1.754131851747690873e-01,-1.754131851747690873e-01,-1.754131851747690873e-01,-1.754131851747690873e-01,-1.754131851747690873e-01,-1.754131851747691151e-01,-1.754131851747690873e-01,-1.754131851747690873e-01,-1.754131851747690873e-01,-1.754131851747690873e-01,-1.754131851747690873e-01,-1.692737236936521783e-01,2.631197777621534922e-03,2.104958222097228979e-02,2.104958222097228979e-02,2.104958222097228979e-02,2.104958222097228979e-02,2.104958222097228979e-02,2.104958222097228979e-02
2.104958222097228979e-02,2.104958222097228979e-02,2.104958222097228979e-02,2.104958222097228979e-02,2.104958222097228979e-02,2.104958222097228979e-02,2.104958222097228979e-02,2.104958222097228979e-02,2.104958222097228979e-02,-3.508263703495381053e-03,-2.806610962796305189e-02,-5.415882092270994652e-02,-8.025153221745684462e-02,-1.048093781419245502e-01,-1.309020894366714483e-01,-1.569948007314183325e-01,-1.754131851747690596e-01,-1.754131851747690873e-01,-1.754131851747690596e-01,-1.754131851747690873e-01,-1.754131851747690873e-01,-1.754131851747690873e-01,-1.754131851747690596e-01,-1.754131851747690873e-01,-1.754131851747690873e-01,-1.754131851747690873e-01,-1.754131851747691151e-01,-1.754131851747690873e-01,-1.754131851747690873e-01,-1.754131851747690873e-01,-1.754131851747690596e-01,-1.754131851747690873e-01,-1.754131851747690873e-01,-1.754131851747690873e-01,-1.754131851747690873e-01,-1.754131851747690596e-01,-1.754131851747690873e-01,-1.754131851747690873e-01,-1.754131851747690873e-01,-6.490287851466455815e-02,2.104958222097228979e-02,2.104958222097228979e-02,2.104958222097228979e-02,2.104958222097228979e-02,2.104958222097228979e-02,2.104958222097228979e-02,2.104958222097228979e-02
2.104958222097228979e-02,2.104958222097228979e-02,2.104958222097228979e-02,2.104958222097228979e-02,2.104958222097228979e-02,2.104958222097228979e-02,2.104958222097228979e-02,2.104958222097228979e-02,2.104958222097228979e-02,2.104958222097228979e-02,1.337525536957614308e-02,-1.271745592517075849e-02,-3.727530184963842586e-02,-6.336801314438532395e-02,-8.946072443913223593e-02,-1.140185703635999276e-01,-1.401112816583468257e-01,-1.662039929530937099e-01,-1.754131851747690873e-01,-1.754131851747690873e-01,-1.754131851747690873e-01,-1.754131851747690873e-01,-1.754131851747690873e-01,-1.754131851747690873e-01,-1.754131851747690873e-01,-1.754131851747690873e-01,-1.754131851747690873e-01,-1.754131851747690596e-01,-1.754131851747691151e-01,-1.754131851747690873e-01,-1.754131851747690873e-01,-1.754131851747690873e-01,-1.754131851747690873e-01,-1.754131851747690596e-01,-1.754131851747690873e-01,-1.754131851747690596e-01,-1.754131851747690873e-01,-1.754131851747690873e-01,-1.324369548069506686e-01,2.104958222097228979e-02,2.104958222097228979e-02,2.104958222097228979e-02,2.104958222097228979e-02,2.104958222097228979e-02,2.104958222097228979e-02,2.104958222097228979e-02,2.104958222097228979e-02
2.104958222097228979e-02,2.104958222097228979e-02,2.104958222097228979e-02,2.104958222097228979e-02,2.104958222097228979e-02,2.104958222097228979e-02,2.104958222097228979e-02,2.104958222097228979e-02,2.104958222097228979e-02,2.104958222097228979e-02,2.104958222097228979e-02,2.104958222097228979e-02,4.166063147900765651e-03,-2.192664814684613592e-02,-4.648449407131380329e-02,-7.257720536606070139e-02,-9.866991666080761336e-02,-1.247626279555545253e-01,-1.493204738800222031e-01,-1.754131851747690873e-01,-1.754131851747690596e-01,-1.754131851747690873e-01,-1.754131851747690873e-01,-1.754131851747690873e-01,-1.754131851747690596e-01,-1.754131851747690873e-01,-1.754131851747690873e-01,-1.754131851747690873e-01,-1.754131851747690873e-01,-1.754131851747690873e-01,-1.754131851747690873e-01,-1.754131851747690873e-01,-1.754131851747690873e-01,-1.754131851747690873e-01,-1.754131851747690873e-01,-1.754131851747690596e-01,-1.754131851747690873e-01,-1.754131851747691151e-01,-2.806610962796305189e-02,2.104958222097228979e-02,2.104958222097228979e-02,2.104958222097228979e-02,2.104958222097228979e-02,2.104958222097228979e-02,2.104958222097228979e-02,2.104958222097228979e-02,2.104958222097228979e-02
2.104958222097228979e-02,2.104958222097228979e-02,2.104958222097228979e-02,2.104958222097228979e-02,2.104958222097228979e-02,2.104958222097228979e-02,2.104958222097228979e-02,2.104958222097228979e-02,2.104958222097228979e-02,2.104958222097228979e-02,2.104958222097228979e-02,2.104958222097228979e-02,2.104958222097228979e-02,2.104958222097228979e-02,-5.043129073774611781e-03,-3.113584036852151335e-02,-5.722855166326841492e-02,-8.178639758773607882e-02,-1.078791088824829908e-01,-1.339718201772298889e-01,-1.585296661016975528e-01,-1.754131851747690873e-01,-1.754131851747691151e-01,-1.754131851747690873e-01,-1.754131851747690873e-01,-1.754131851747690596e-01,-1.754131851747690873e-01,-1.754131851747691151e-01,-1.754131851747690873e-01,-1.754131851747690873e-01,-1.754131851747690873e-01,-1.754131851747690873e-01,-1.754131851747690873e-01,-1.754131851747690873e-01,-1.754131851747690873e-01,-1.754131851747690873e-01,-1.754131851747690873e-01,-9.560018592024914497e-02,2.104958222097228979e-02,2.104958222097228979e-02,2.104958222097228979e-02,2.104958222097228979e-02,2.104958222097228979e-02,2.104958222097228979e-02,2.104958222097228979e-02,2.104958222097228979e-02,2.104958222097228979e-02
2.104958222097228979e-02,2.104958222097228979e-02,2.104958222097228979e-02,2.104958222097228979e-02,2.104958222097228979e-02,2.104958222097228979e-02,2.104958222097228979e-02,2.104958222097228979e-02,2.104958222097228979e-02,2.104958222097228979e-02,2.104958222097228979e-02,2.104958222097228979e-02,2.104958222097228979e-02,2.104958222097228979e-02,2.104958222097228979e-02,1.030552462901768336e-02,-1.425232129544999268e-02,-4.034503259019689425e-02,-6.643774388494379235e-02,-9.099558980941145625e-02,-1.170883011041583682e-01,-1.431810123989052663e-01,-1.677388583233729302e-01,-1.754131851747690873e-01,-1.754131851747690873e-01,-1.754131851747690873e-01,-1.754131851747690873e-01,-1.754131851747690873e-01,-1.754131851747690873e-01,-1.754131851747690873e-01,-1.754131851747690873e-01,-1.754131851747690873e-01,-1.754131851747690873e-01,-1.754131851747690873e-01,-1.754131851747690873e-01,-1.754131851747690873e-01,-1.569948007314183325e-01,8.770659258738454367e-03,2.104958222097228979e-02,2.104958222097228979e-02,2.104958222097228979e-02,2.104958222097228979e-02,2.104958222097228979e-02,2.104958222097228979e-02,2.104958222097228979e-02,2.104958222097228979e-02,2.104958222097228979e-02
