-2.078286955931446245e-01,-1.915717829788761706e-01,-1.519747336524870096e-01,-1.532736629999441602e-01,-1.552220570211299000e-01,-1.565209863685870506e-01,-1.584693803897727904e-01,-1.597683097372299410e-01,-1.617167037584156808e-01,-1.630156331058728036e-01,-1.649640271270585434e-01,-1.662629564745157218e-01,-1.682113504957014338e-01,-1.695102798431585844e-01,-1.708092091906157350e-01,-1.727576032118014748e-01,-1.740565325592586254e-01,-1.760049265804443652e-01,-1.773038559279015158e-01,-1.792522499490872556e-01,-1.805511792965444062e-01,-1.824995733177301183e-01,-1.837985026651872689e-01,-1.857468966863730087e-01,-1.870458260338301593e-01,-1.889942200550158991e-01,-1.902931494024730497e-01,-1.922415434236587894e-01,-1.935404727711159401e-01,-1.954888667923016521e-01,-1.967877961397588304e-01,-1.987361901609445425e-01,-2.000351195084016931e-01,-2.019835135295874329e-01,-2.032824428770445835e-01,-2.052308368982303233e-01,-2.065297662456874739e-01,-2.078286955931446245e-01,-2.078286955931446245e-01,-2.078286955931446245e-01,-2.078286955931446245e-01,-2.078286955931446245e-01,-2.078286955931446245e-01,-2.078286955931446245e-01,-2.078286955931446245e-01,-2.078286955931446245e-01,-2.078286955931446245e-01
-2.078286955931446245e-01,-1.783592360227104490e-01,-1.311918640931725721e-01,-1.324907934406296950e-01,-1.344391874618154348e-01,-3.848248227111767950e-01,-3.867732167323625347e-01,-3.880721460798196576e-01,-3.900205401010053974e-01,-3.913194694484625757e-01,-1.441811575677440782e-01,-1.454800869152012566e-01,-1.474284809363869686e-01,-1.487274102838441192e-01,-1.506758043050298590e-01,-1.519747336524870096e-01,-1.539231276736727494e-01,-1.552220570211299000e-01,-1.565209863685870506e-01,-1.584693803897727904e-01,-1.597683097372299410e-01,-1.617167037584156808e-01,-1.630156331058728036e-01,-1.649640271270585434e-01,-1.662629564745157218e-01,-1.682113504957014338e-01,-1.695102798431585844e-01,-1.714586738643443242e-01,-1.727576032118014748e-01,-1.747059972329872146e-01,-1.760049265804443652e-01,-1.779533206016301050e-01,-1.792522499490872279e-01,-1.812006439702729677e-01,-1.824995733177301183e-01,-1.844479673389158580e-01,-1.857468966863730087e-01,-1.876952907075587484e-01,-1.889942200550158991e-01,-1.909426140762016388e-01,-1.922415434236587894e-01,-1.935404727711159401e-01,-1.954888667923016521e-01,-1.967877961397588304e-01,-1.987361901609445425e-01,-2.000351195084016931e-01,-2.019835135295874329e-01
-2.078286955931446245e-01,-1.643551539954380136e-01,-1.104089945338581069e-01,-1.117079238813152575e-01,-1.136563179025009973e-01,-3.640419531518623297e-01,-3.659903471730480695e-01,-3.672892765205052479e-01,-3.692376705416909877e-01,-3.705365998891481105e-01,-1.233982880084296407e-01,-1.246972173558867913e-01,-1.266456113770725311e-01,-1.279445407245296540e-01,-1.298929347457153938e-01,-1.311918640931725721e-01,-1.331402581143583119e-01,-1.344391874618154348e-01,-1.363875814830011746e-01,-1.376865108304583252e-01,-1.396349048516440650e-01,-1.409338341991012156e-01,-1.428822282202869554e-01,-1.441811575677440782e-01,-1.454800869152012566e-01,-1.474284809363869686e-01,-1.487274102838441192e-01,-1.506758043050298590e-01,-1.519747336524870096e-01,-1.539231276736727494e-01,-1.552220570211299000e-01,-1.571704510423156398e-01,-1.584693803897727904e-01,-1.604177744109585024e-01,-1.617167037584156808e-01,-1.636650977796013928e-01,-1.649640271270585434e-01,-1.669124211482442832e-01,-1.682113504957014338e-01,-1.701597445168871736e-01,-1.714586738643443242e-01,-1.734070678855300640e-01,-1.747059972329872146e-01,-1.766543912541729267e-01,-1.779533206016301050e-01,-1.799017146228158170e-01,-1.812006439702729677e-01
-2.078286955931446245e-01,-1.443435237361762324e-01,-8.962612497454362781e-02,-9.157451899572936760e-02,-9.287344834318650433e-02,-3.432590835925478645e-01,-3.452074776137336043e-01,-3.465064069611907271e-01,-3.484548009823764669e-01,-3.497537303298337008e-01,-1.026154184491151755e-01,-1.039143477965723261e-01,-1.058627418177580382e-01,-1.071616711652152165e-01,-1.091100651864009285e-01,-1.104089945338580930e-01,-1.123573885550438328e-01,-1.136563179025009834e-01,-1.156047119236867093e-01,-1.169036412711438738e-01,-1.188520352923295997e-01,-1.201509646397867503e-01,-1.220993586609724901e-01,-1.233982880084296407e-01,-1.253466820296153528e-01,-1.266456113770725311e-01,-1.285940053982582432e-01,-1.298929347457153938e-01,-1.311918640931725721e-01,-1.331402581143582842e-01,-1.344391874618154348e-01,-1.363875814830011746e-01,-1.558011245176566528e-01,-2.099914312897753765e-01,-2.112903606372324994e-01,-2.132387546584182392e-01,-1.964230703186770621e-01,-1.461295515889298180e-01,-1.474284809363869686e-01,-1.493768749575727084e-01,-1.506758043050298590e-01,-1.526241983262155988e-01,-1.539231276736727494e-01,-1.558715216948584614e-01,-1.571704510423156398e-01,-1.591188450635013796e-01,-1.604177744109585024e-01
-2.078286955931446245e-01,-1.245348511874546371e-01,-6.884325541522917646e-02,-7.079164943641488850e-02,-7.209057878387206686e-02,-3.231256787069619607e-01,-3.244246080544191391e-01,-3.263730020756048789e-01,-3.276719314230620572e-01,-3.296203254442477415e-01,-8.183254888980071029e-02,-8.313147823725786090e-02,-8.507987225844358681e-02,-8.637880160590075129e-02,-8.832719562708649108e-02,-8.962612497454361393e-02,-9.157451899572935372e-02,-9.287344834318650433e-02,-9.482184236437224412e-02,-9.612077171182939472e-02,-9.806916573301513451e-02,-9.936809508047228512e-02,-1.013164891016580249e-01,-1.026154184491151755e-01,-1.045638124703009014e-01,-1.058627418177580382e-01,-1.078111358389438057e-01,-1.091100651864009285e-01,-1.110584592075866822e-01,-1.123573885550438328e-01,-1.143057825762295587e-01,-1.156047119236867093e-01,-1.356677196320707768e-01,-1.892085617304609113e-01,-1.905074910779180619e-01,-1.924558850991038017e-01,-1.756402007593626247e-01,-1.253466820296153528e-01,-1.266456113770725311e-01,-1.285940053982582432e-01,-1.298929347457153938e-01,-1.318413287669011336e-01,-1.331402581143582842e-01,-1.350886521355440240e-01,-1.363875814830011746e-01,-1.383359755041869144e-01,-1.396349048516440372e-01
-2.078286955931446245e-01,-1.021283199438187406e-01,-4.806038585591473900e-02,-5.000877987710042327e-02,-5.130770922455760163e-02,-3.023428091476475510e-01,-3.036417384951046738e-01,-3.055901325162904136e-01,-3.068890618637475365e-01,-3.088374558849332763e-01,-6.104967933048624507e-02,-6.299807335167198485e-02,-6.429700269912913546e-02,-6.624539672031484749e-02,-6.754432606777199810e-02,-6.884325541522914871e-02,-7.079164943641488850e-02,-7.209057878387206686e-02,-7.403897280505777889e-02,-7.533790215251492950e-02,-7.728629617370066929e-02,-7.858522552115781989e-02,-8.053361954234355968e-02,-8.183254888980071029e-02,-8.378094291098643620e-02,-8.507987225844358681e-02,-8.702826627962932660e-02,-8.832719562708649108e-02,-9.027558964827221699e-02,-9.157451899572936760e-02,-9.352291301691509351e-02,-9.482184236437225799e-02,-1.148848500727562838e-01,-1.684256921711464461e-01,-1.703740861923321581e-01,-1.716730155397893365e-01,-1.555067958737767486e-01,-1.045638124703009014e-01,-1.058627418177580520e-01,-1.078111358389437779e-01,-1.091100651864009285e-01,-1.110584592075866683e-01,-1.123573885550438328e-01,-1.143057825762295587e-01,-1.156047119236867093e-01,-1.175531059448724491e-01,-1.188520352923295997e-01
-2.078286955931446245e-01,-7.144111411014347768e-02,-2.727751629660027377e-02,-2.922591031778601356e-02,-3.052483966524313641e-02,-3.247323368642887620e-02,-3.377216303388605456e-02,-3.572055705507176659e-02,-3.701948640252891720e-02,-3.896788042371462923e-02,-4.026680977117180760e-02,-4.221520379235751963e-02,-4.351413313981467024e-02,-4.546252716100041003e-02,-4.676145650845756063e-02,-4.870985052964330042e-02,-5.000877987710045103e-02,-5.195717389828616306e-02,-5.325610324574331367e-02,-5.455503259320049203e-02,-5.650342661438620406e-02,-5.780235596184335467e-02,-5.975074998302909446e-02,-6.104967933048624507e-02,-6.299807335167195710e-02,-6.429700269912913546e-02,-6.624539672031484749e-02,-6.754432606777202586e-02,-6.949272008895773789e-02,-7.079164943641488850e-02,-7.274004345760062828e-02,-7.403897280505777889e-02,-9.410198051344184633e-02,-1.476428226118319809e-01,-1.495912166330176929e-01,-1.508901459804748713e-01,-1.347239263144622556e-01,-8.378094291098643620e-02,-8.572933693217217599e-02,-8.702826627962931272e-02,-8.897666030081505251e-02,-9.027558964827220311e-02,-9.157451899572935372e-02,-9.352291301691509351e-02,-9.482184236437224412e-02,-9.677023638555798390e-02,-9.806916573301513451e-02
-2.078286955931446245e-01,-4.318940080295038952e-02,-6.494646737285808547e-03,-8.443040758471520579e-03,-9.741970105928671186e-03,-1.169036412711441097e-02,-1.298929347457158934e-02,-1.493768749575730137e-02,-1.623661684321445198e-02,-1.818501086440019177e-02,-1.948394021185731462e-02,-2.143233423304305441e-02,-2.273126358050020501e-02,-2.467965760168594480e-02,-2.597858694914309541e-02,-2.792698097032883520e-02,-2.922591031778601356e-02,-3.117430433897169784e-02,-3.247323368642887620e-02,-3.442162770761461599e-02,-3.572055705507176659e-02,-3.766895107625750638e-02,-3.896788042371465699e-02,-4.026680977117180760e-02,-4.221520379235754739e-02,-4.351413313981469799e-02,-4.546252716100041003e-02,-4.676145650845756063e-02,-4.870985052964330042e-02,-5.000877987710047878e-02,-5.195717389828616306e-02,-5.325610324574331367e-02,-5.520449726692905346e-02,-5.650342661438620406e-02,-5.845182063557194385e-02,-5.975074998302909446e-02,-6.169914400421480649e-02,-6.299807335167198485e-02,-6.494646737285769689e-02,-6.624539672031484749e-02,-6.819379074150058728e-02,-6.949272008895776565e-02,-7.144111411014347768e-02,-7.274004345760062828e-02,-7.468843747878636807e-02,-7.598736682624351868e-02,-7.728629617370066929e-02
-2.078286955931446245e-01,-1.948394021185734237e-02,-2.775557561562891351e-17,-2.775557561562891351e-17,0.000000000000000000e+00,-2.775557561562891351e-17,-2.775557561562891351e-17,-2.775557561562891351e-17,-2.775557561562891351e-17,-2.775557561562891351e-17,-2.775557561562891351e-17,-6.494646737286169369e-04,-1.948394021185739788e-03,-3.896788042371479577e-03,-5.195717389828630184e-03,-7.144111411014369972e-03,-8.443040758471520579e-03,-1.039143477965723261e-02,-1.169036412711441097e-02,-1.363875814830015076e-02,-1.493768749575730137e-02,-1.688608151694301340e-02,-1.818501086440019177e-02,-2.013340488558590380e-02,-2.143233423304308216e-02,-2.338072825422879419e-02,-2.467965760168594480e-02,-2.597858694914309541e-02,-2.792698097032883520e-02,-2.922591031778598580e-02,-3.117430433897172559e-02,-3.247323368642887620e-02,-3.442162770761461599e-02,-3.572055705507176659e-02,-3.766895107625747863e-02,-3.896788042371465699e-02,-4.091627444490036902e-02,-4.221520379235754739e-02,-4.416359781354325942e-02,-4.546252716100043778e-02,-4.741092118218612206e-02,-4.870985052964327267e-02,-5.065824455082901245e-02,-5.195717389828616306e-02,-5.390556791947190285e-02,-5.520449726692905346e-02,-5.715289128811479324e-02
-2.078286955931446245e-01,-6.494646737285808547e-03,-2.775557561562891351e-17,-5.551115123125782702e-17,-2.775557561562891351e-17,-5.551115123125782702e-17,-2.775557561562891351e-17,-2.775557561562891351e-17,-2.775557561562891351e-17,-5.551115123125782702e-17,-2.775557561562891351e-17,-2.775557561562891351e-17,-2.775557561562891351e-17,0.000000000000000000e+00,-2.775557561562891351e-17,-2.775557561562891351e-17,0.000000000000000000e+00,-2.775557561562891351e-17,0.000000000000000000e+00,-2.775557561562891351e-17,-2.775557561562891351e-17,-2.775557561562891351e-17,-2.775557561562891351e-17,-2.775557561562891351e-17,-6.494646737286169369e-04,-2.597858694914328970e-03,-3.896788042371507332e-03,-5.845182063557219365e-03,-7.144111411014369972e-03,-9.092505432200109761e-03,-1.039143477965728812e-02,-1.169036412711441097e-02,-1.363875814830015076e-02,-1.493768749575730137e-02,-1.688608151694304116e-02,-1.818501086440019177e-02,-2.013340488558590380e-02,-2.143233423304305441e-02,-2.338072825422879419e-02,-2.467965760168597256e-02,-2.662805162287168459e-02,-2.792698097032883520e-02,-2.987537499151454723e-02,-3.117430433897172559e-02,-3.312269836015746538e-02,-3.442162770761461599e-02,-3.637002172880032802e-02
-1.948394021185730907e-01,-2.775557561562891351e-17,-2.775557561562891351e-17,-2.775557561562891351e-17,-2.775557561562891351e-17,-2.775557561562891351e-17,-2.775557561562891351e-17,-2.775557561562891351e-17,-2.775557561562891351e-17,-2.775557561562891351e-17,-2.775557561562891351e-17,0.000000000000000000e+00,-5.551115123125782702e-17,-2.775557561562891351e-17,-5.551115123125782702e-17,-2.775557561562891351e-17,-2.775557561562891351e-17,-2.775557561562891351e-17,-2.775557561562891351e-17,-2.775557561562891351e-17,-2.775557561562891351e-17,-2.775557561562891351e-17,-2.775557561562891351e-17,-2.775557561562891351e-17,-2.775557561562891351e-17,-2.775557561562891351e-17,0.000000000000000000e+00,-2.775557561562891351e-17,-2.775557561562891351e-17,-5.551115123125782702e-17,-2.775557561562891351e-17,-2.775557561562891351e-17,-2.775557561562891351e-17,-5.551115123125782702e-17,-2.775557561562891351e-17,-2.775557561562891351e-17,0.000000000000000000e+00,-6.494646737286169369e-04,-2.597858694914328970e-03,-3.896788042371479577e-03,-5.845182063557219365e-03,-7.144111411014369972e-03,-9.092505432200109761e-03,-1.039143477965726037e-02,-1.233982880084300016e-02,-1.363875814830015076e-02,-1.558715216948589055e-02
-1.818501086440015568e-01,0.000000000000000000e+00,-2.775557561562891351e-17,-2.775557561562891351e-17,-2.775557561562891351e-17,-2.775557561562891351e-17,-2.775557561562891351e-17,-2.775557561562891351e-17,-2.775557561562891351e-17,-2.775557561562891351e-17,-2.775557561562891351e-17,-5.551115123125782702e-17,0.000000000000000000e+00,-5.551115123125782702e-17,-2.775557561562891351e-17,-2.775557561562891351e-17,-2.775557561562891351e-17,-2.775557561562891351e-17,-2.775557561562891351e-17,-2.775557561562891351e-17,-2.775557561562891351e-17,-2.775557561562891351e-17,-2.775557561562891351e-17,-2.775557561562891351e-17,-2.775557561562891351e-17,-2.775557561562891351e-17,0.000000000000000000e+00,-2.775557561562891351e-17,-2.775557561562891351e-17,-2.775557561562891351e-17,-2.775557561562891351e-17,-2.775557561562891351e-17,-2.775557561562891351e-17,-2.775557561562891351e-17,-2.775557561562891351e-17,-2.775557561562891351e-17,-2.775557561562891351e-17,-2.775557561562891351e-17,-5.551115123125782702e-17,-2.775557561562891351e-17,-2.775557561562891351e-17,-2.775557561562891351e-17,-2.775557561562891351e-17,-2.775557561562891351e-17,-2.775557561562891351e-17,-2.775557561562891351e-17,-2.775557561562891351e-17
-1.623661684321442422e-01,0.000000000000000000e+00,0.000000000000000000e+00,-2.775557561562891351e-17,-2.775557561562891351e-17,-2.775557561562891351e-17,-2.775557561562891351e-17,-2.775557561562891351e-17,-2.775557561562891351e-17,-2.775557561562891351e-17,-2.775557561562891351e-17,-2.775557561562891351e-17,-2.775557561562891351e-17,-2.775557561562891351e-17,-2.775557561562891351e-17,-2.775557561562891351e-17,-2.775557561562891351e-17,-2.775557561562891351e-17,-2.775557561562891351e-17,-2.775557561562891351e-17,-2.775557561562891351e-17,-2.775557561562891351e-17,-2.775557561562891351e-17,-2.775557561562891351e-17,0.000000000000000000e+00,-2.775557561562891351e-17,-2.775557561562891351e-17,-2.775557561562891351e-17,-2.775557561562891351e-17,-2.775557561562891351e-17,-2.775557561562891351e-17,-2.775557561562891351e-17,-2.775557561562891351e-17,-2.775557561562891351e-17,-2.775557561562891351e-17,-2.775557561562891351e-17,-2.775557561562891351e-17,-2.775557561562891351e-17,0.000000000000000000e+00,-2.775557561562891351e-17,-2.775557561562891351e-17,-2.775557561562891351e-17,-2.775557561562891351e-17,-2.775557561562891351e-17,-2.775557561562891351e-17,-2.775557561562891351e-17,-2.775557561562891351e-17
-1.493768749575727084e-01,-2.775557561562891351e-17,-2.775557561562891351e-17,-2.775557561562891351e-17,-2.775557561562891351e-17,-2.775557561562891351e-17,-2.775557561562891351e-17,-2.775557561562891351e-17,-2.775557561562891351e-17,-2.775557561562891351e-17,-2.775557561562891351e-17,-5.551115123125782702e-17,0.000000000000000000e+00,-5.551115123125782702e-17,-2.775557561562891351e-17,-2.775557561562891351e-17,-2.775557561562891351e-17,-2.775557561562891351e-17,-2.775557561562891351e-17,-2.775557561562891351e-17,-2.775557561562891351e-17,-2.775557561562891351e-17,-2.775557561562891351e-17,-2.775557561562891351e-17,-2.775557561562891351e-17,-2.775557561562891351e-17,-2.775557561562891351e-17,-2.775557561562891351e-17,0.000000000000000000e+00,-2.775557561562891351e-17,-2.775557561562891351e-17,-2.775557561562891351e-17,-2.775557561562891351e-17,-2.775557561562891351e-17,-2.775557561562891351e-17,-2.775557561562891351e-17,-2.775557561562891351e-17,0.000000000000000000e+00,-2.775557561562891351e-17,-2.775557561562891351e-17,-2.775557561562891351e-17,-2.775557561562891351e-17,-2.775557561562891351e-17,-2.775557561562891351e-17,-2.775557561562891351e-17,-2.775557561562891351e-17,-2.775557561562891351e-17
-1.298929347457153938e-01,-2.775557561562891351e-17,-2.775557561562891351e-17,-2.775557561562891351e-17,-2.775557561562891351e-17,-2.775557561562891351e-17,-2.775557561562891351e-17,-2.775557561562891351e-17,-2.775557561562891351e-17,-2.775557561562891351e-17,-2.775557561562891351e-17,-2.775557561562891351e-17,-2.775557561562891351e-17,-2.775557561562891351e-17,-2.775557561562891351e-17,-2.775557561562891351e-17,-2.775557561562891351e-17,-2.775557561562891351e-17,-2.775557561562891351e-17,-2.775557561562891351e-17,-2.775557561562891351e-17,-2.775557561562891351e-17,-2.775557561562891351e-17,-2.775557561562891351e-17,-2.775557561562891351e-17,-2.775557561562891351e-17,-2.775557561562891351e-17,-2.775557561562891351e-17,-2.775557561562891351e-17,-2.775557561562891351e-17,-2.775557561562891351e-17,-2.775557561562891351e-17,-2.775557561562891351e-17,-2.775557561562891351e-17,-2.775557561562891351e-17,-2.775557561562891351e-17,-2.775557561562891351e-17,-2.775557561562891351e-17,0.000000000000000000e+00,-2.775557561562891351e-17,-2.775557561562891351e-17,-2.775557561562891351e-17,-2.775557561562891351e-17,-2.775557561562891351e-17,-2.775557561562891351e-17,-2.775557561562891351e-17,-2.775557561562891351e-17
-1.169036412711438599e-01,-2.775557561562891351e-17,-2.775557561562891351e-17,-5.551115123125782702e-17,-2.775557561562891351e-17,-2.775557561562891351e-17,-2.775557561562891351e-17,-2.775557561562891351e-17,-2.775557561562891351e-17,-2.775557561562891351e-17,-2.775557561562891351e-17,-5.551115123125782702e-17,0.000000000000000000e+00,-5.551115123125782702e-17,-2.775557561562891351e-17,-5.551115123125782702e-17,-2.775557561562891351e-17,-2.775557561562891351e-17,-2.775557561562891351e-17,-2.775557561562891351e-17,-2.775557561562891351e-17,-2.775557561562891351e-17,-2.775557561562891351e-17,-2.775557561562891351e-17,-2.775557561562891351e-17,-2.775557561562891351e-17,-2.775557561562891351e-17,-2.775557561562891351e-17,-2.775557561562891351e-17,-2.775557561562891351e-17,-2.775557561562891351e-17,-2.775557561562891351e-17,-2.775557561562891351e-17,-2.775557561562891351e-17,-2.775557561562891351e-17,-2.775557561562891351e-17,-2.775557561562891351e-17,-2.775557561562891351e-17,-2.775557561562891351e-17,-2.775557561562891351e-17,-2.775557561562891351e-17,-2.775557561562891351e-17,-2.775557561562891351e-17,-2.775557561562891351e-17,-2.775557561562891351e-17,-2.775557561562891351e-17,-2.775557561562891351e-17
-9.741970105928655921e-02,-2.775557561562891351e-17,-5.551115123125782702e-17,-2.775557561562891351e-17,-2.775557561562891351e-17,-2.775557561562891351e-17,-2.775557561562891351e-17,0.000000000000000000e+00,-2.775557561562891351e-17,-2.775557561562891351e-17,-2.775557561562891351e-17,0.000000000000000000e+00,-2.775557561562891351e-17,-2.775557561562891351e-17,-2.775557561562891351e-17,-2.775557561562891351e-17,-2.775557561562891351e-17,-2.775557561562891351e-17,-2.775557561562891351e-17,-2.775557561562891351e-17,-2.775557561562891351e-17,-2.775557561562891351e-17,-2.775557561562891351e-17,-2.775557561562891351e-17,-2.775557561562891351e-17,-2.775557561562891351e-17,-2.775557561562891351e-17,-2.775557561562891351e-17,-2.775557561562891351e-17,-5.551115123125782702e-17,-2.775557561562891351e-17,-2.775557561562891351e-17,-2.775557561562891351e-17,-2.775557561562891351e-17,-2.775557561562891351e-17,-2.775557561562891351e-17,-2.775557561562891351e-17,-2.775557561562891351e-17,-2.775557561562891351e-17,-2.775557561562891351e-17,-2.775557561562891351e-17,-2.775557561562891351e-17,-2.775557561562891351e-17,-2.775557561562891351e-17,-2.775557561562891351e-17,-2.775557561562891351e-17,-2.775557561562891351e-17
-8.443040758471502538e-02,-2.775557561562891351e-17,-5.551115123125782702e-17,-2.775557561562891351e-17,-2.775557561562891351e-17,-2.775557561562891351e-17,-5.551115123125782702e-17,-2.775557561562891351e-17,-2.775557561562891351e-17,-2.775557561562891351e-17,-2.775557561562891351e-17,-2.775557561562891351e-17,0.000000000000000000e+00,-2.775557561562891351e-17,0.000000000000000000e+00,-2.775557561562891351e-17,-2.775557561562891351e-17,-2.775557561562891351e-17,-2.775557561562891351e-17,-2.775557561562891351e-17,-2.775557561562891351e-17,-2.775557561562891351e-17,-2.775557561562891351e-17,-2.775557561562891351e-17,-2.775557561562891351e-17,-2.775557561562891351e-17,-2.775557561562891351e-17,-2.775557561562891351e-17,-2.775557561562891351e-17,-2.775557561562891351e-17,-2.775557561562891351e-17,-2.775557561562891351e-17,-5.551115123125782702e-17,0.000000000000000000e+00,-2.775557561562891351e-17,-2.775557561562891351e-17,-2.775557561562891351e-17,0.000000000000000000e+00,-2.775557561562891351e-17,-2.775557561562891351e-17,-2.775557561562891351e-17,-2.775557561562891351e-17,-2.775557561562891351e-17,-2.775557561562891351e-17,-2.775557561562891351e-17,-2.775557561562891351e-17,-2.775557561562891351e-17
-6.494646737285772464e-02,-2.775557561562891351e-17,-2.775557561562891351e-17,-2.775557561562891351e-17,-2.775557561562891351e-17,-2.775557561562891351e-17,-2.775557561562891351e-17,-2.775557561562891351e-17,-2.775557561562891351e-17,-2.775557561562891351e-17,-2.775557561562891351e-17,-2.775557561562891351e-17,-2.775557561562891351e-17,-2.775557561562891351e-17,-2.775557561562891351e-17,-2.775557561562891351e-17,-2.775557561562891351e-17,-2.775557561562891351e-17,-2.775557561562891351e-17,-2.775557561562891351e-17,-2.775557561562891351e-17,-2.775557561562891351e-17,-2.775557561562891351e-17,-2.775557561562891351e-17,-2.775557561562891351e-17,-2.775557561562891351e-17,-2.775557561562891351e-17,-2.775557561562891351e-17,-2.775557561562891351e-17,-2.775557561562891351e-17,-2.775557561562891351e-17,-2.775557561562891351e-17,-2.775557561562891351e-17,-2.775557561562891351e-17,-2.775557561562891351e-17,-2.775557561562891351e-17,-2.775557561562891351e-17,-2.775557561562891351e-17,-2.775557561562891351e-17,-2.775557561562891351e-17,-2.775557561562891351e-17,-2.775557561562891351e-17,-2.775557561562891351e-17,-2.775557561562891351e-17,-2.775557561562891351e-17,-2.775557561562891351e-17,-2.775557561562891351e-17
-5.195717389828616306e-02,-2.775557561562891351e-17,-2.775557561562891351e-17,-2.775557561562891351e-17,0.000000000000000000e+00,-5.551115123125782702e-17,-2.775557561562891351e-17,-2.775557561562891351e-17,-2.775557561562891351e-17,-2.775557561562891351e-17,0.000000000000000000e+00,-2.775557561562891351e-17,-5.551115123125782702e-17,-5.551115123125782702e-17,-2.775557561562891351e-17,-2.775557561562891351e-17,-2.775557561562891351e-17,-2.775557561562891351e-17,-2.775557561562891351e-17,-2.775557561562891351e-17,-2.775557561562891351e-17,-2.775557561562891351e-17,0.000000000000000000e+00,-2.775557561562891351e-17,-2.775557561562891351e-17,-2.775557561562891351e-17,-2.775557561562891351e-17,-2.775557561562891351e-17,-2.775557561562891351e-17,-2.775557561562891351e-17,-2.775557561562891351e-17,-2.775557561562891351e-17,-5.551115123125782702e-17,-2.775557561562891351e-17,-2.775557561562891351e-17,-2.775557561562891351e-17,-2.775557561562891351e-17,-2.775557561562891351e-17,-2.775557561562891351e-17,-2.775557561562891351e-17,-2.775557561562891351e-17,-2.775557561562891351e-17,-2.775557561562891351e-17,-2.775557561562891351e-17,-2.775557561562891351e-17,-2.775557561562891351e-17,-2.775557561562891351e-17
-3.247323368642887620e-02,-2.775557561562891351e-17,-2.775557561562891351e-17,-2.775557561562891351e-17,-2.775557561562891351e-17,-5.551115123125782702e-17,-2.775557561562891351e-17,-5.551115123125782702e-17,-2.775557561562891351e-17,-2.775557561562891351e-17,-2.775557561562891351e-17,0.000000000000000000e+00,-2.775557561562891351e-17,-2.775557561562891351e-17,-2.775557561562891351e-17,-2.775557561562891351e-17,-2.775557561562891351e-17,-2.775557561562891351e-17,-5.551115123125782702e-17,-2.775557561562891351e-17,-2.775557561562891351e-17,-2.775557561562891351e-17,-2.775557561562891351e-17,-2.775557561562891351e-17,-2.775557561562891351e-17,-2.775557561562891351e-17,-2.775557561562891351e-17,-2.775557561562891351e-17,-2.775557561562891351e-17,-2.775557561562891351e-17,0.000000000000000000e+00,-2.775557561562891351e-17,-2.775557561562891351e-17,-2.775557561562891351e-17,-2.775557561562891351e-17,-2.775557561562891351e-17,-2.775557561562891351e-17,-2.775557561562891351e-17,-2.775557561562891351e-17,-5.551115123125782702e-17,-2.775557561562891351e-17,-2.775557561562891351e-17,0.000000000000000000e+00,-2.775557561562891351e-17,-2.775557561562891351e-17,-2.775557561562891351e-17,-2.775557561562891351e-17
-1.948394021185734237e-02,0.000000000000000000e+00,-2.775557561562891351e-17,-2.775557561562891351e-17,-2.775557561562891351e-17,-2.775557561562891351e-17,0.000000000000000000e+00,-2.775557561562891351e-17,-2.775557561562891351e-17,0.000000000000000000e+00,-2.775557561562891351e-17,-2.775557561562891351e-17,-2.775557561562891351e-17,-2.775557561562891351e-17,-2.775557561562891351e-17,-2.775557561562891351e-17,-2.775557561562891351e-17,-2.775557561562891351e-17,0.000000000000000000e+00,-2.775557561562891351e-17,-2.775557561562891351e-17,-2.775557561562891351e-17,-2.775557561562891351e-17,-2.775557561562891351e-17,-2.775557561562891351e-17,-2.775557561562891351e-17,-2.775557561562891351e-17,-2.775557561562891351e-17,-2.775557561562891351e-17,-2.775557561562891351e-17,-2.775557561562891351e-17,-2.775557561562891351e-17,-2.775557561562891351e-17,-2.775557561562891351e-17,-2.775557561562891351e-17,-2.775557561562891351e-17,-2.775557561562891351e-17,-5.551115123125782702e-17,-2.775557561562891351e-17,-2.775557561562891351e-17,-2.775557561562891351e-17,-2.775557561562891351e-17,-2.775557561562891351e-17,-2.775557561562891351e-17,-2.775557561562891351e-17,-2.775557561562891351e-17,-2.775557561562891351e-17
-2.775557561562891351e-17,-2.775557561562891351e-17,-2.775557561562891351e-17,-5.551115123125782702e-17,0.000000000000000000e+00,-2.775557561562891351e-17,-2.775557561562891351e-17,-5.551115123125782702e-17,0.000000000000000000e+00,-2.775557561562891351e-17,-2.775557561562891351e-17,-2.775557561562891351e-17,0.000000000000000000e+00,-2.775557561562891351e-17,-2.775557561562891351e-17,-5.551115123125782702e-17,-2.775557561562891351e-17,-2.775557561562891351e-17,-2.775557561562891351e-17,-5.551115123125782702e-17,-2.775557561562891351e-17,-2.775557561562891351e-17,-2.775557561562891351e-17,-2.775557561562891351e-17,-2.775557561562891351e-17,-2.775557561562891351e-17,-2.775557561562891351e-17,0.000000000000000000e+00,-2.775557561562891351e-17,0.000000000000000000e+00,-2.775557561562891351e-17,-2.775557561562891351e-17,0.000000000000000000e+00,-2.775557561562891351e-17,-2.775557561562891351e-17,-2.775557561562891351e-17,-2.775557561562891351e-17,0.000000000000000000e+00,-2.775557561562891351e-17,0.000000000000000000e+00,-2.775557561562891351e-17,-2.775557561562891351e-17,-2.775557561562891351e-17,-2.775557561562891351e-17,-2.775557561562891351e-17,-2.775557561562891351e-17,-2.775557561562891351e-17
-9.550951084243780587e-03,-8.786874997504301454e-03,-7.640760867395041123e-03,-6.876684780655534235e-03,-5.730570650546301659e-03,-4.966494563806794771e-03,-3.820380433697534439e-03,-3.056304346958055307e-03,-1.910190216848767220e-03,-1.146114130109288087e-03,-2.775557561562891351e-17,-2.775557561562891351e-17,0.000000000000000000e+00,-2.775557561562891351e-17,-2.775557561562891351e-17,-2.775557561562891351e-17,-2.775557561562891351e-17,-2.775557561562891351e-17,-2.775557561562891351e-17,-2.775557561562891351e-17,-2.775557561562891351e-17,-2.775557561562891351e-17,-2.775557561562891351e-17,-2.775557561562891351e-17,-2.775557561562891351e-17,-2.775557561562891351e-17,-2.775557561562891351e-17,-2.775557561562891351e-17,-2.775557561562891351e-17,-2.775557561562891351e-17,0.000000000000000000e+00,-2.775557561562891351e-17,-2.775557561562891351e-17,-2.775557561562891351e-17,0.000000000000000000e+00,-2.775557561562891351e-17,-2.775557561562891351e-17,-5.551115123125782702e-17,0.000000000000000000e+00,-2.775557561562891351e-17,-2.775557561562891351e-17,0.000000000000000000e+00,-2.775557561562891351e-17,0.000000000000000000e+00,-2.775557561562891351e-17,-2.775557561562891351e-17,-2.775557561562891351e-17
-2.177616847207583528e-02,-2.063005434196657495e-02,-1.986597825522706806e-02,-1.871986412511780773e-02,-1.795578803837832860e-02,-1.680967390826906827e-02,-1.604559782152956138e-02,-1.528152173479005449e-02,-1.413540760468082191e-02,-1.337133151794131503e-02,-1.222521738783205469e-02,-1.146114130109254781e-02,-1.031502717098328747e-02,-9.550951084243808342e-03,-8.404836954134548010e-03,-7.640760867395041123e-03,-6.494646737285780791e-03,-5.730570650546301659e-03,-4.584456520437013571e-03,-3.820380433697534439e-03,-2.674266303588274107e-03,-1.910190216848794975e-03,-7.640760867395346434e-04,-2.775557561562891351e-17,-2.775557561562891351e-17,-2.775557561562891351e-17,-2.775557561562891351e-17,-2.775557561562891351e-17,-2.775557561562891351e-17,-2.775557561562891351e-17,-2.775557561562891351e-17,-2.775557561562891351e-17,-2.775557561562891351e-17,-2.775557561562891351e-17,-2.775557561562891351e-17,-2.775557561562891351e-17,-2.775557561562891351e-17,-5.551115123125782702e-17,0.000000000000000000e+00,-5.551115123125782702e-17,-2.775557561562891351e-17,-2.775557561562891351e-17,-2.775557561562891351e-17,-2.775557561562891351e-17,-2.775557561562891351e-17,-2.775557561562891351e-17,-2.775557561562891351e-17
-3.400138585990788997e-02,-3.285527172979862964e-02,-3.209119564305912276e-02,-3.094508151294986242e-02,-3.018100542621035554e-02,-2.903489129610112296e-02,-2.827081520936161607e-02,-2.712470107925232798e-02,-2.636062499251284885e-02,-2.521451086240358852e-02,-2.445043477566408163e-02,-2.368635868892457474e-02,-2.254024455881534217e-02,-2.177616847207583528e-02,-2.063005434196657495e-02,-1.986597825522706806e-02,-1.871986412511780773e-02,-1.795578803837830084e-02,-1.680967390826906827e-02,-1.604559782152956138e-02,-1.489948369142032880e-02,-1.413540760468082191e-02,-1.298929347457156158e-02,-1.222521738783205469e-02,-1.107910325772279436e-02,-1.031502717098328747e-02,-9.168913040874054898e-03,-8.404836954134548010e-03,-7.258722824025287679e-03,-6.494646737285808547e-03,-5.348532607176548215e-03,-4.584456520437013571e-03,-3.438342390327780995e-03,-2.674266303588274107e-03,-1.910190216848767220e-03,-7.640760867395346434e-04,-2.775557561562891351e-17,0.000000000000000000e+00,-2.775557561562891351e-17,-2.775557561562891351e-17,0.000000000000000000e+00,-2.775557561562891351e-17,-2.775557561562891351e-17,-2.775557561562891351e-17,-2.775557561562891351e-17,-2.775557561562891351e-17,-1.948394021185734237e-02
-4.622660324773991691e-02,-4.508048911763065658e-02,-4.431641303089114969e-02,-4.317029890078191712e-02,-4.240622281404241023e-02,-4.126010868393314990e-02,-4.049603259719364301e-02,-3.934991846708438268e-02,-3.858584238034487579e-02,-3.743972825023564321e-02,-3.667565216349613633e-02,-3.552953803338687599e-02,-3.476546194664736911e-02,-3.361934781653810878e-02,-3.285527172979862964e-02,-3.209119564305912276e-02,-3.094508151294986242e-02,-3.018100542621035554e-02,-2.903489129610109520e-02,-2.827081520936161607e-02,-2.712470107925232798e-02,-2.636062499251284885e-02,-2.521451086240358852e-02,-2.445043477566408163e-02,-2.330432064555482130e-02,-2.254024455881534217e-02,-2.139413042870605408e-02,-2.063005434196660270e-02,-1.948394021185731462e-02,-1.871986412511780773e-02,-1.757374999500857515e-02,-1.680967390826906827e-02,-1.566355977815983569e-02,-1.489948369142032880e-02,-1.375336956131106847e-02,-1.298929347457156158e-02,-1.184317934446230125e-02,-1.107910325772282212e-02,-1.031502717098328747e-02,-9.168913040874054898e-03,-8.404836954134548010e-03,-7.258722824025287679e-03,-6.494646737285808547e-03,-5.348532607176548215e-03,-4.584456520437013571e-03,-3.438342390327780995e-03,-3.472964588008145559e-02
-5.845182063557191610e-02,-5.730570650546268352e-02,-5.654163041872317663e-02,-5.539551628861394406e-02,-5.463144020187440941e-02,-5.348532607176517684e-02,-5.272124998502566995e-02,-5.157513585491643737e-02,-5.081105976817693048e-02,-4.966494563806764240e-02,-4.890086955132816326e-02,-4.775475542121890293e-02,-4.699067933447939605e-02,-4.584456520437016347e-02,-4.508048911763065658e-02,-4.393437498752139625e-02,-4.317029890078188936e-02,-4.202418477067265679e-02,-4.126010868393314990e-02,-4.049603259719364301e-02,-3.934991846708438268e-02,-3.858584238034487579e-02,-3.743972825023564321e-02,-3.667565216349613633e-02,-3.552953803338690375e-02,-3.476546194664736911e-02,-3.361934781653810878e-02,-3.285527172979860189e-02,-3.170915759968936931e-02,-3.094508151294986242e-02,-2.979896738284060209e-02,-2.903489129610109520e-02,-2.788877716599183487e-02,-2.712470107925232798e-02,-2.597858694914309541e-02,-2.521451086240358852e-02,-2.406839673229430043e-02,-2.330432064555484906e-02,-2.215820651544556097e-02,-2.139413042870608184e-02,-2.024801629859682151e-02,-1.948394021185731462e-02,-1.871986412511780773e-02,-1.757374999500857515e-02,-1.680967390826906827e-02,-1.566355977815980793e-02,-6.313178666685137497e-02
-7.067703802340397079e-02,-6.953092389329473821e-02,-6.876684780655523133e-02,-6.762073367644597099e-02,-6.685665758970646411e-02,-6.571054345959720377e-02,-6.494646737285772464e-02,-6.380035324274846431e-02,-6.303627715600892967e-02,-6.189016302589969709e-02,-6.112608693916019020e-02,-5.997997280905095763e-02,-5.921589672231145074e-02,-5.806978259220219041e-02,-5.730570650546268352e-02,-5.615959237535342319e-02,-5.539551628861391630e-02,-5.424940215850468372e-02,-5.348532607176517684e-02,-5.233921194165591650e-02,-5.157513585491643737e-02,-5.042902172480717704e-02,-4.966494563806767015e-02,-4.890086955132816326e-02,-4.775475542121890293e-02,-4.699067933447939605e-02,-3.209186625933101444e-01,-3.201545865065706931e-01,-3.190084723764614605e-01,-3.182443962897218981e-01,-4.202418477067262903e-02,-4.126010868393314990e-02,-4.011399455382388957e-02,-3.934991846708438268e-02,-3.820380433697515010e-02,-3.743972825023564321e-02,-3.629361412012638288e-02,-3.552953803338690375e-02,-3.438342390327761566e-02,-3.361934781653810878e-02,-3.247323368642887620e-02,-3.170915759968936931e-02,-3.056304346958010898e-02,-2.979896738284062985e-02,-2.865285325273134176e-02,-2.788877716599183487e-02,-8.359469936484367758e-02
-8.252021736786629980e-02,-8.175614128112676515e-02,-8.061002715101750482e-02,-7.984595106427802569e-02,-7.908187497753851880e-02,-7.793576084742928622e-02,-7.717168476068975158e-02,-7.602557063058049125e-02,-7.526149454384101212e-02,-7.411538041373175179e-02,-7.335130432699224490e-02,-7.310959003969735859e-02,-7.234551395295785170e-02,-7.119939982284856361e-02,-6.953092389329471046e-02,-6.838480976318547788e-02,-6.762073367644597099e-02,-6.647461954633671066e-02,-6.571054345959720377e-02,-6.456442932948794344e-02,-6.380035324274843656e-02,-6.265423911263920398e-02,-6.189016302589969709e-02,-6.074404889579043676e-02,-5.997997280905092987e-02,-5.883385867894169730e-02,-3.331438799811421991e-01,-3.323798038944026922e-01,-3.312336897642934597e-01,-3.304696136775539528e-01,-5.424940215850468372e-02,-5.348532607176517684e-02,-5.233921194165591650e-02,-5.157513585491643737e-02,-5.042902172480717704e-02,-4.966494563806767015e-02,-4.851883150795840982e-02,-4.775475542121887518e-02,-4.660864129110967036e-02,-4.584456520437016347e-02,-4.469845107426090314e-02,-4.393437498752142401e-02,-4.278826085741213592e-02,-4.202418477067265679e-02,-4.087807064056339645e-02,-4.011399455382388957e-02,-1.075675865862955743e-01
-9.474543475569831286e-02,-9.398135866895880597e-02,-9.283524453884954564e-02,-9.207116845211005263e-02,-9.092505432200079230e-02,-9.016097823526128541e-02,-8.901486410515202508e-02,-8.825078801841253207e-02,-8.710467388830328561e-02,-8.634059780156377872e-02,-8.557652171482429959e-02,-8.533480742752938553e-02,-8.457073134078987864e-02,-8.342461721068061831e-02,-8.175614128112676515e-02,-8.061002715101750482e-02,-7.984595106427802569e-02,-7.869983693416873760e-02,-7.793576084742925847e-02,-7.678964671731999814e-02,-7.602557063058049125e-02,-7.487945650047125867e-02,-7.411538041373175179e-02,-7.296926628362249145e-02,-7.220519019688301232e-02,-7.105907606677375199e-02,-3.453690973689742538e-01,-3.442229832388650212e-01,-3.434589071521254589e-01,-3.423127930220162263e-01,-6.647461954633671066e-02,-6.532850541622745033e-02,-6.456442932948794344e-02,-6.380035324274843656e-02,-6.265423911263920398e-02,-6.189016302589969709e-02,-6.074404889579043676e-02,-5.997997280905092987e-02,-5.883385867894166954e-02,-5.806978259220216265e-02,-5.692366846209293008e-02,-5.615959237535342319e-02,-5.501347824524419061e-02,-5.424940215850468372e-02,-5.310328802839542339e-02,-5.233921194165591650e-02,-1.246160342716707142e-01
-1.069706521435303398e-01,-1.062065760567908329e-01,-1.050604619266815865e-01,-1.042963858399420796e-01,-1.031502717098328331e-01,-1.023861956230933123e-01,-1.012400814929840659e-01,-1.004760054062445729e-01,-9.932989127613531255e-02,-9.856581518939581954e-02,-9.741970105928657309e-02,-9.756002481536139859e-02,-9.641391068525215213e-02,-9.564983459851265912e-02,-9.398135866895881985e-02,-9.283524453884955951e-02,-9.207116845211005263e-02,-9.092505432200079230e-02,-9.016097823526129929e-02,-8.901486410515205283e-02,-8.825078801841254594e-02,-8.710467388830328561e-02,-8.634059780156377872e-02,-8.519448367145454615e-02,-8.443040758471503926e-02,-8.328429345460577893e-02,-3.575943147568063085e-01,-3.564482006266970204e-01,-3.556841245399575691e-01,-3.545380104098482810e-01,-7.869983693416876536e-02,-7.755372280405950502e-02,-7.678964671731999814e-02,-7.564353258721076556e-02,-7.487945650047125867e-02,-7.373334237036199834e-02,-7.296926628362249145e-02,-7.220519019688298457e-02,-7.105907606677372423e-02,-7.029499998003421735e-02,-6.914888584992498477e-02,-6.838480976318547788e-02,-6.723869563307621755e-02,-6.647461954633671066e-02,-6.532850541622745033e-02,-6.456442932948797120e-02,-1.446491541708720407e-01
-1.191958695313623667e-01,-1.184317934446228598e-01,-1.172856793145136134e-01,-1.165216032277741065e-01,-1.153754890976648462e-01,-1.146114130109253532e-01,-1.134652988808161067e-01,-1.127012227940765998e-01,-1.115551086639673395e-01,-1.107910325772278326e-01,-1.096449184471186000e-01,-1.088808423603790931e-01,-1.077347282302698328e-01,-1.069706521435303259e-01,-1.058245380134210795e-01,-1.050604619266815865e-01,-1.039143477965723261e-01,-1.031502717098328192e-01,-1.023861956230933262e-01,-1.012400814929840659e-01,-1.004760054062445729e-01,-9.932989127613532643e-02,-9.856581518939581954e-02,-9.741970105928657309e-02,-9.665562497254705232e-02,-9.550951084243781974e-02,-9.474543475569829898e-02,-9.359932062558905252e-02,-9.283524453884954564e-02,-9.168913040874029918e-02,-9.092505432200079230e-02,-8.977894019189155972e-02,-8.901486410515203895e-02,-8.786874997504279250e-02,-8.710467388830328561e-02,-8.595855975819403916e-02,-8.519448367145451839e-02,-8.404836954134528582e-02,-8.328429345460579281e-02,-8.213817932449654635e-02,-8.137410323775701171e-02,-8.061002715101753258e-02,-7.946391302090827224e-02,-7.869983693416876536e-02,-7.755372280405950502e-02,-7.678964671731999814e-02,-1.582592594659194274e-01
-1.314210869191944075e-01,-1.306570108324549007e-01,-1.295108967023456681e-01,-1.287468206156061612e-01,-1.276007064854968731e-01,-1.268366303987573940e-01,-1.256905162686481336e-01,-1.249264401819086406e-01,-1.237803260517993942e-01,-1.230162499650598734e-01,-1.218701358349506270e-01,-1.211060597482111201e-01,-1.199599456181018875e-01,-1.191958695313623667e-01,-1.180497554012531203e-01,-1.172856793145136134e-01,-1.161395651844043669e-01,-1.153754890976648462e-01,-1.142293749675556136e-01,-1.134652988808160928e-01,-1.123191847507068603e-01,-1.115551086639673395e-01,-1.104089945338580792e-01,-1.096449184471185861e-01,-1.088808423603790793e-01,-1.077347282302698328e-01,-1.069706521435303259e-01,-1.058245380134210795e-01,-1.050604619266815865e-01,-1.039143477965723261e-01,-1.031502717098328192e-01,-1.020041575797235589e-01,-1.012400814929840659e-01,-1.000939673628748194e-01,-9.932989127613531255e-02,-9.818377714602605222e-02,-9.741970105928654533e-02,-9.627358692917731275e-02,-9.550951084243780587e-02,-9.436339671232854553e-02,-9.359932062558905252e-02,-9.245320649547980607e-02,-9.168913040874029918e-02,-9.054301627863103885e-02,-8.977894019189154584e-02,-8.863282606178229939e-02,-1.740899608880534799e-01
-1.436463043070264622e-01,-1.425001901769171742e-01,-1.417361140901776673e-01,-1.405899999600684347e-01,-1.398259238733289278e-01,-1.390618477865894209e-01,-1.379157336564801606e-01,-1.371516575697406815e-01,-1.360055434396313934e-01,-1.352414673528919142e-01,-1.340953532227826539e-01,-1.333312771360431470e-01,-1.321851630059339144e-01,-1.314210869191944075e-01,-1.302749727890851472e-01,-1.295108967023456681e-01,-1.283647825722363800e-01,-1.276007064854968731e-01,-1.264545923553876405e-01,-1.256905162686481336e-01,-1.245444021385388872e-01,-1.237803260517993942e-01,-1.226342119216901339e-01,-1.218701358349506408e-01,-1.207240217048413805e-01,-1.199599456181018736e-01,-1.188138314879926133e-01,-1.180497554012531203e-01,-1.172856793145135995e-01,-1.161395651844043531e-01,-1.153754890976648600e-01,-1.142293749675555997e-01,-1.134652988808160928e-01,-1.123191847507068464e-01,-1.115551086639673534e-01,-1.104089945338580930e-01,-1.096449184471185861e-01,-1.084988043170093536e-01,-1.077347282302698189e-01,-1.065886141001605725e-01,-1.058245380134210795e-01,-1.046784238833118191e-01,-1.039143477965723261e-01,-1.027682336664630658e-01,-1.020041575797235867e-01,-1.008580434496143263e-01,-1.842617237927731133e-01
-1.558715216948584614e-01,-1.547254075647492289e-01,-1.539613314780097220e-01,-1.528152173479004616e-01,-1.520511412611609825e-01,-1.509050271310517222e-01,-1.501409510443122153e-01,-1.489948369142029549e-01,-1.482307608274634481e-01,-1.474666847407239412e-01,-1.463205706106147086e-01,-1.455564945238752017e-01,-1.444103803937659414e-01,-1.436463043070264345e-01,-1.425001901769171742e-01,-1.417361140901776950e-01,-1.405899999600684347e-01,-1.398259238733289278e-01,-1.386798097432196675e-01,-1.379157336564801883e-01,-1.367696195263709003e-01,-1.360055434396313934e-01,-1.348594293095221608e-01,-2.021453790132543560e-01,-2.009992648831450957e-01,-2.002351887964055888e-01,-1.310390488758246264e-01,-1.302749727890851472e-01,-1.291288586589758869e-01,-1.283647825722363800e-01,-1.272186684421271474e-01,-1.264545923553876405e-01,-1.256905162686481336e-01,-1.245444021385388733e-01,-1.237803260517993803e-01,-1.226342119216901339e-01,-1.218701358349506270e-01,-1.207240217048413805e-01,-1.199599456181018736e-01,-1.188138314879926272e-01,-1.180497554012531203e-01,-1.169036412711438599e-01,-1.161395651844043669e-01,-1.149934510542951066e-01,-1.142293749675556136e-01,-1.130832608374463533e-01,-1.958900067378399057e-01
-1.680967390826905161e-01,-1.669506249525812558e-01,-1.661865488658417489e-01,-1.650404347357324886e-01,-1.642763586489929817e-01,-1.631302445188837491e-01,-1.623661684321442422e-01,-1.612200543020349819e-01,-1.604559782152954750e-01,-1.593098640851862424e-01,-1.585457879984467355e-01,-1.573996738683374752e-01,-1.566355977815979683e-01,-1.558715216948584614e-01,-1.547254075647492289e-01,-1.539613314780097220e-01,-1.528152173479004616e-01,-1.520511412611609825e-01,-1.509050271310517222e-01,-1.501409510443122153e-01,-1.489948369142029549e-01,-1.482307608274634481e-01,-1.470846466973542155e-01,-2.143705964010863829e-01,-2.132244822709771226e-01,-2.124604061842376157e-01,-1.432642662636566810e-01,-1.425001901769171742e-01,-1.413540760468079416e-01,-1.405899999600684347e-01,-1.394438858299591744e-01,-1.386798097432196675e-01,-1.375336956131104071e-01,-1.367696195263709280e-01,-1.356235053962616677e-01,-1.348594293095221608e-01,-1.340953532227826539e-01,-1.329492390926734213e-01,-1.321851630059339144e-01,-1.310390488758246541e-01,-1.302749727890851195e-01,-1.291288586589758869e-01,-1.283647825722363800e-01,-1.272186684421271474e-01,-1.264545923553876405e-01,-1.253084782252784080e-01,-2.026234272522317581e-01
-1.803219564705225431e-01,-1.791758423404132827e-01,-1.784117662536737758e-01,-1.772656521235645433e-01,-1.765015760368250364e-01,-1.753554619067157760e-01,-1.745913858199762692e-01,-1.734452716898670088e-01,-1.726811956031275297e-01,-1.715350814730182694e-01,-1.707710053862787625e-01,-1.696248912561695299e-01,-1.688608151694300230e-01,-1.677147010393207627e-01,-1.669506249525812558e-01,-1.658045108224719955e-01,-1.650404347357324886e-01,-1.642763586489929817e-01,-1.631302445188837491e-01,-1.623661684321442422e-01,-1.612200543020349819e-01,-1.604559782152955028e-01,-1.593098640851862147e-01,-2.265958137889184099e-01,-2.254496996588091773e-01,-2.246856235720696704e-01,-1.554894836514887357e-01,-1.547254075647492289e-01,-1.535792934346399685e-01,-1.528152173479004616e-01,-1.516691032177912013e-01,-1.509050271310517222e-01,-1.497589130009424618e-01,-1.489948369142029549e-01,-1.478487227840937224e-01,-1.470846466973542155e-01,-1.459385325672449552e-01,-1.451744564805054483e-01,-1.440283423503961879e-01,-1.432642662636566810e-01,-1.425001901769171742e-01,-1.413540760468079416e-01,-1.405899999600684347e-01,-1.394438858299591744e-01,-1.386798097432196675e-01,-1.397304143624864825e-01,-2.078286955931446245e-01
-1.925471738583545700e-01,-1.914010597282453374e-01,-1.906369836415058305e-01,-1.894908695113965702e-01,-1.887267934246570633e-01,-1.875806792945478030e-01,-1.868166032078083238e-01,-1.856704890776990635e-01,-1.849064129909595566e-01,-1.837602988608502963e-01,-1.829962227741108172e-01,-1.818501086440015568e-01,-1.810860325572620499e-01,-1.799399184271527896e-01,-1.791758423404132827e-01,-1.780297282103040502e-01,-1.772656521235645433e-01,-1.761195379934552829e-01,-1.753554619067157760e-01,-1.742093477766065157e-01,-1.734452716898670088e-01,-1.726811956031275019e-01,-1.715350814730182694e-01,-1.707710053862787625e-01,-1.696248912561695299e-01,-1.688608151694300230e-01,-1.677147010393207627e-01,-1.669506249525812558e-01,-1.658045108224719955e-01,-1.650404347357324886e-01,-1.638943206056232560e-01,-1.631302445188837491e-01,-1.619841303887744888e-01,-1.612200543020350096e-01,-1.600739401719257216e-01,-1.593098640851862147e-01,-1.581637499550769821e-01,-1.573996738683374752e-01,-1.562535597382282149e-01,-1.554894836514887357e-01,-1.543433695213794754e-01,-1.535792934346399685e-01,-1.524331793045307082e-01,-1.516691032177912013e-01,-1.509050271310517222e-01,-1.552029551189614276e-01,-2.078286955931446245e-01
-2.043903532028168712e-01,-2.036262771160773644e-01,-2.024801629859681040e-01,-2.017160868992285971e-01,-2.009520108124890903e-01,-1.998058966823798577e-01,-1.990418205956403508e-01,-1.978957064655310905e-01,-1.971316303787915836e-01,-1.959855162486823510e-01,-1.952214401619428441e-01,-1.940753260318335838e-01,-1.933112499450940769e-01,-1.921651358149848443e-01,-1.914010597282453374e-01,-1.902549455981360771e-01,-1.894908695113965702e-01,-1.883447553812873099e-01,-1.875806792945478030e-01,-1.864345651644385704e-01,-1.856704890776990635e-01,-1.845243749475898032e-01,-1.837602988608502963e-01,-1.826141847307410360e-01,-1.818501086440015568e-01,-1.807039945138922965e-01,-1.799399184271527896e-01,-1.791758423404132827e-01,-1.780297282103040502e-01,-1.772656521235645433e-01,-1.761195379934552829e-01,-1.753554619067157760e-01,-1.742093477766065157e-01,-1.734452716898670088e-01,-1.722991575597577762e-01,-1.715350814730182694e-01,-1.703889673429090090e-01,-1.696248912561695021e-01,-1.684787771260602696e-01,-1.677147010393207627e-01,-1.665685869092115023e-01,-1.658045108224719955e-01,-1.646583966923627629e-01,-1.638943206056232560e-01,-1.627482064755139957e-01,-1.705799863645938719e-01,-2.078286955931446245e-01
-2.078286955931446245e-01,-2.078286955931446245e-01,-2.078286955931446245e-01,-2.078286955931446245e-01,-2.078286955931446245e-01,-2.078286955931446245e-01,-2.078286955931446245e-01,-2.078286955931446245e-01,-2.078286955931446245e-01,-2.078286955931446245e-01,-2.074466575497748710e-01,-2.063005434196656107e-01,-2.055364673329261316e-01,-2.043903532028168712e-01,-2.036262771160773644e-01,-2.024801629859681040e-01,-2.017160868992285971e-01,-2.005699727691193646e-01,-1.998058966823798577e-01,-1.986597825522705973e-01,-1.978957064655310905e-01,-1.967495923354218301e-01,-1.959855162486823510e-01,-1.948394021185730907e-01,-1.940753260318335838e-01,-1.929292119017243234e-01,-1.921651358149848166e-01,-1.910190216848755840e-01,-1.902549455981360771e-01,-1.891088314680268168e-01,-1.883447553812873099e-01,-1.875806792945478030e-01,-1.864345651644385704e-01,-1.856704890776990635e-01,-1.845243749475898032e-01,-1.837602988608502963e-01,-1.826141847307410360e-01,-1.818501086440015568e-01,-1.807039945138922965e-01,-1.799399184271527896e-01,-1.787938042970435293e-01,-1.780297282103040502e-01,-1.768836140801947898e-01,-1.761195379934552829e-01,-1.749734238633460226e-01,-1.826141847307410360e-01,-2.078286955931446245e-01
-2.078286955931446245e-01,-2.078286955931446245e-01,-2.078286955931446245e-01,-2.078286955931446245e-01,-2.078286955931446245e-01,-2.078286955931446245e-01,-2.078286955931446245e-01,-2.078286955931446245e-01,-2.078286955931446245e-01,-2.078286955931446245e-01,-2.078286955931446245e-01,-2.078286955931446245e-01,-2.078286955931446245e-01,-2.078286955931446245e-01,-2.078286955931446245e-01,-2.078286955931446245e-01,-2.078286955931446245e-01,-2.078286955931446245e-01,-2.078286955931446245e-01,-2.078286955931446245e-01,-2.078286955931446245e-01,-2.078286955931446245e-01,-2.078286955931446245e-01,-2.070646195064051176e-01,-2.063005434196656107e-01,-2.051544292895563781e-01,-2.043903532028168712e-01,-2.032442390727076109e-01,-2.024801629859681040e-01,-2.013340488558588437e-01,-2.005699727691193646e-01,-1.994238586390101042e-01,-1.986597825522705973e-01,-1.975136684221613370e-01,-1.967495923354218301e-01,-1.959855162486823510e-01,-1.948394021185730907e-01,-1.940753260318335838e-01,-1.929292119017243234e-01,-1.921651358149848443e-01,-1.910190216848755840e-01,-1.902549455981360771e-01,-1.891088314680268168e-01,-1.883447553812873099e-01,-1.871986412511780773e-01,-1.931202309234092140e-01,-2.078286955931446245e-01
-2.078286955931446245e-01,-2.078286955931446245e-01,-2.078286955931446245e-01,-2.078286955931446245e-01,-2.078286955931446245e-01,-2.078286955931446245e-01,-2.078286955931446245e-01,-2.078286955931446245e-01,-2.078286955931446245e-01,-2.078286955931446245e-01,-2.078286955931446245e-01,-2.078286955931446245e-01,-2.078286955931446245e-01,-2.078286955931446245e-01,-2.078286955931446245e-01,-2.078286955931446245e-01,-2.078286955931446245e-01,-2.078286955931446245e-01,-2.078286955931446245e-01,-2.078286955931446245e-01,-2.078286955931446245e-01,-2.078286955931446245e-01,-2.078286955931446245e-01,-2.078286955931446245e-01,-2.078286955931446245e-01,-2.078286955931446245e-01,-2.078286955931446245e-01,-2.078286955931446245e-01,-2.078286955931446245e-01,-2.078286955931446245e-01,-2.078286955931446245e-01,-2.078286955931446245e-01,-2.078286955931446245e-01,-2.078286955931446245e-01,-2.078286955931446245e-01,-2.078286955931446245e-01,-2.070646195064051176e-01,-2.059185053762958573e-01,-2.051544292895563781e-01,-2.043903532028168712e-01,-2.032442390727076109e-01,-2.024801629859681040e-01,-2.013340488558588437e-01,-2.005699727691193646e-01,-1.994238586390101042e-01,-2.023846534751256587e-01,-2.078286955931446245e-01
-2.078286955931446245e-01,-2.078286955931446245e-01,-2.078286955931446245e-01,-2.078286955931446245e-01,-2.078286955931446245e-01,-2.078286955931446245e-01,-2.078286955931446245e-01,-2.078286955931446245e-01,-2.078286955931446245e-01,-2.078286955931446245e-01,-2.078286955931446245e-01,-2.078286955931446245e-01,-2.078286955931446245e-01,-2.078286955931446245e-01,-2.078286955931446245e-01,-2.078286955931446245e-01,-2.078286955931446245e-01,-2.078286955931446245e-01,-2.078286955931446245e-01,-2.078286955931446245e-01,-2.078286955931446245e-01,-2.078286955931446245e-01,-2.078286955931446245e-01,-2.078286955931446245e-01,-2.078286955931446245e-01,-2.078286955931446245e-01,-2.078286955931446245e-01,-2.078286955931446245e-01,-2.078286955931446245e-01,-2.078286955931446245e-01,-2.078286955931446245e-01,-2.078286955931446245e-01,-2.078286955931446245e-01,-2.078286955931446245e-01,-2.078286955931446245e-01,-2.078286955931446245e-01,-2.078286955931446245e-01,-2.078286955931446245e-01,-2.078286955931446245e-01,-2.078286955931446245e-01,-2.078286955931446245e-01,-2.078286955931446245e-01,-2.078286955931446245e-01,-2.078286955931446245e-01,-2.078286955931446245e-01,-2.078286955931446245e-01,-2.078286955931446245e-01
-2.078286955931446245e-01,-2.078286955931446245e-01,-2.078286955931446245e-01,-2.078286955931446245e-01,-2.078286955931446245e-01,-2.078286955931446245e-01,-2.078286955931446245e-01,-2.078286955931446245e-01,-2.078286955931446245e-01,-2.078286955931446245e-01,-2.078286955931446245e-01,-2.078286955931446245e-01,-2.078286955931446245e-01,-2.078286955931446245e-01,-2.078286955931446245e-01,-2.078286955931446245e-01,-2.078286955931446245e-01,-2.078286955931446245e-01,-2.078286955931446245e-01,-2.078286955931446245e-01,-2.078286955931446245e-01,-2.078286955931446245e-01,-2.078286955931446245e-01,-2.078286955931446245e-01,-2.078286955931446245e-01,-2.078286955931446245e-01,-2.078286955931446245e-01,-2.078286955931446245e-01,-2.078286955931446245e-01,-2.078286955931446245e-01,-2.078286955931446245e-01,-2.078286955931446245e-01,-2.078286955931446245e-01,-2.078286955931446245e-01,-2.078286955931446245e-01,-2.078286955931446245e-01,-2.078286955931446245e-01,-2.078286955931446245e-01,-2.078286955931446245e-01,-2.078286955931446245e-01,-2.078286955931446245e-01,-2.078286955931446245e-01,-2.078286955931446245e-01,-2.078286955931446245e-01,-2.078286955931446245e-01,-2.078286955931446245e-01,-2.078286955931446245e-01
-2.078286955931446245e-01,-2.078286955931446245e-01,-2.078286955931446245e-01,-2.078286955931446245e-01,-2.078286955931446245e-01,-2.078286955931446245e-01,-2.078286955931446245e-01,-2.078286955931446245e-01,-2.078286955931446245e-01,-2.078286955931446245e-01,-2.078286955931446245e-01,-2.078286955931446245e-01,-2.078286955931446245e-01,-2.078286955931446245e-01,-2.078286955931446245e-01,-2.078286955931446245e-01,-2.078286955931446245e-01,-2.078286955931446245e-01,-2.078286955931446245e-01,-2.078286955931446245e-01,-2.078286955931446245e-01,-2.078286955931446245e-01,-2.078286955931446245e-01,-2.078286955931446245e-01,-2.078286955931446245e-01,-2.078286955931446245e-01,-2.078286955931446245e-01,-2.078286955931446245e-01,-2.078286955931446245e-01,-2.078286955931446245e-01,-2.078286955931446245e-01,-2.078286955931446245e-01,-2.078286955931446245e-01,-2.078286955931446245e-01,-2.078286955931446245e-01,-2.078286955931446245e-01,-2.078286955931446245e-01,-2.078286955931446245e-01,-2.078286955931446245e-01,-2.078286955931446245e-01,-2.078286955931446245e-01,-2.078286955931446245e-01,-2.078286955931446245e-01,-2.078286955931446245e-01,-2.078286955931446245e-01,-2.078286955931446245e-01,-2.078286955931446245e-01
-2.078286955931446245e-01,-2.078286955931446245e-01,-2.078286955931446245e-01,-2.078286955931446245e-01,-2.078286955931446245e-01,-2.078286955931446245e-01,-2.078286955931446245e-01,-2.078286955931446245e-01,-2.078286955931446245e-01,-2.078286955931446245e-01,-2.078286955931446245e-01,-2.078286955931446245e-01,-2.078286955931446245e-01,-2.078286955931446245e-01,-2.078286955931446245e-01,-2.078286955931446245e-01,-2.078286955931446245e-01,-2.078286955931446245e-01,-2.078286955931446245e-01,-2.078286955931446245e-01,-2.078286955931446245e-01,-2.078286955931446245e-01,-2.078286955931446245e-01,-2.078286955931446245e-01,-2.078286955931446245e-01,-2.078286955931446245e-01,-2.078286955931446245e-01,-2.078286955931446245e-01,-2.078286955931446245e-01,-2.078286955931446245e-01,-2.078286955931446245e-01,-2.078286955931446245e-01,-2.078286955931446245e-01,-2.078286955931446245e-01,-2.078286955931446245e-01,-2.078286955931446245e-01,-2.078286955931446245e-01,-2.078286955931446245e-01,-2.078286955931446245e-01,-2.078286955931446245e-01,-2.078286955931446245e-01,-2.078286955931446245e-01,-2.078286955931446245e-01,-2.078286955931446245e-01,-2.078286955931446245e-01,-2.078286955931446245e-01,-2.078286955931446245e-01
