-1.566772930002413300e-01,-1.566772930002413300e-01,-1.566772930002413300e-01,-1.566772930002413300e-01,-1.566772930002413300e-01,-1.566772930002413300e-01,-1.566772930002413300e-01,-1.566772930002413300e-01,-1.566772930002413300e-01,-1.566772930002413300e-01,-1.566772930002413300e-01,-1.566772930002413300e-01,-5.385781946883297366e-02,-2.775557561562891351e-17,-2.775557561562891351e-17,-1.142438594793429574e-02,-4.569754379173707193e-02,-7.997070163553986200e-02,-1.126118043439234551e-01,-1.468849621877262590e-01,-1.566772930002413300e-01,-1.566772930002413300e-01,-1.566772930002413300e-01,-1.566772930002413300e-01,-1.566772930002413300e-01,-1.566772930002413300e-01,-1.566772930002413300e-01,-1.566772930002413300e-01,-1.566772930002413300e-01,-1.566772930002413300e-01,-1.566772930002413300e-01,-1.566772930002413300e-01,-1.566772930002413300e-01,-1.566772930002413300e-01,-1.566772930002413300e-01,-1.566772930002413300e-01,-1.566772930002413300e-01,-1.566772930002413300e-01,-1.566772930002413300e-01,-1.566772930002413300e-01,-1.566772930002413300e-01,-1.566772930002413300e-01,-1.566772930002413300e-01,-1.566772930002413300e-01,-1.566772930002413300e-01,-1.566772930002413300e-01,-1.566772930002413300e-01
-1.566772930002413300e-01,-1.566772930002413300e-01,-1.566772930002413300e-01,-1.566772930002413300e-01,-1.566772930002413300e-01,-1.566772930002413300e-01,-1.566772930002413300e-01,-1.566772930002413300e-01,-1.566772930002413300e-01,-1.566772930002413300e-01,-1.566772930002413300e-01,-6.854631568760559401e-02,-2.775557561562891351e-17,-2.775557561562891351e-17,-2.775557561562891351e-17,-2.775557561562891351e-17,-4.896165406257563246e-03,-3.916932325006035331e-02,-7.344248109386314338e-02,-1.077156389376659196e-01,-1.419887967814686958e-01,-1.566772930002413300e-01,-1.566772930002413300e-01,-1.566772930002413300e-01,-1.944991659059659983e-01,-1.944991659059659983e-01,-1.944991659059659983e-01,-1.944991659059659983e-01,-1.566772930002413300e-01,-1.566772930002413300e-01,-1.566772930002413300e-01,-1.566772930002413300e-01,-1.566772930002413300e-01,-1.566772930002413300e-01,-1.566772930002413300e-01,-1.566772930002413300e-01,-1.566772930002413300e-01,-1.566772930002413300e-01,-1.566772930002413300e-01,-1.566772930002413300e-01,-1.566772930002413300e-01,-1.566772930002413300e-01,-1.566772930002413300e-01,-1.566772930002413300e-01,-1.566772930002413300e-01,-1.566772930002413300e-01,-1.566772930002413300e-01
-1.566772930002413300e-01,-1.566772930002413300e-01,-1.566772930002413300e-01,-1.566772930002413300e-01,-1.566772930002413300e-01,-1.566772930002413300e-01,-1.566772930002413300e-01,-1.566772930002413300e-01,-1.566772930002413300e-01,-1.566772930002413300e-01,-8.813097731263576373e-02,-2.775557561562891351e-17,-2.775557561562891351e-17,-2.775557561562891351e-17,-2.775557561562891351e-17,-2.775557561562891351e-17,-2.775557561562891351e-17,-2.775557561562891351e-17,-3.427315784380281782e-02,-6.854631568760559401e-02,-1.028194735314083841e-01,-1.370926313752111603e-01,-1.566772930002413300e-01,-1.566772930002413300e-01,-1.944991659059659983e-01,-1.944991659059659983e-01,-1.944991659059659983e-01,-1.944991659059659983e-01,-1.566772930002413300e-01,-1.566772930002413300e-01,-1.566772930002413300e-01,-1.566772930002413300e-01,-1.566772930002413300e-01,-1.566772930002413300e-01,-1.566772930002413300e-01,-1.566772930002413300e-01,-1.566772930002413300e-01,-1.566772930002413300e-01,-1.566772930002413300e-01,-1.566772930002413300e-01,-1.566772930002413300e-01,-1.566772930002413300e-01,-1.566772930002413300e-01,-1.566772930002413300e-01,-1.566772930002413300e-01,-1.566772930002413300e-01,-1.566772930002413300e-01
-1.566772930002413300e-01,-1.566772930002413300e-01,-1.566772930002413300e-01,-1.566772930002413300e-01,-1.566772930002413300e-01,-1.566772930002413300e-01,-1.566772930002413300e-01,-1.566772930002413300e-01,-1.566772930002413300e-01,-1.028194735314083841e-01,-5.551115123125782702e-17,-2.775557561562891351e-17,-2.775557561562891351e-17,-2.775557561562891351e-17,-2.775557561562891351e-17,-2.775557561562891351e-17,-2.775557561562891351e-17,-2.775557561562891351e-17,-2.775557561562891351e-17,-2.937699243754526846e-02,-6.201809514592887540e-02,-9.629125298973165159e-02,-1.305644108335344555e-01,-1.566772930002413300e-01,-1.944991659059659983e-01,-1.944991659059659983e-01,-1.944991659059659983e-01,-1.944991659059659983e-01,-1.566772930002413300e-01,-1.566772930002413300e-01,-1.566772930002413300e-01,-1.566772930002413300e-01,-1.566772930002413300e-01,-1.566772930002413300e-01,-1.566772930002413300e-01,-1.566772930002413300e-01,-1.566772930002413300e-01,-1.566772930002413300e-01,-1.566772930002413300e-01,-1.566772930002413300e-01,-1.566772930002413300e-01,-1.566772930002413300e-01,-1.566772930002413300e-01,-1.566772930002413300e-01,-1.566772930002413300e-01,-1.566772930002413300e-01,-1.566772930002413300e-01
-1.566772930002413300e-01,-1.566772930002413300e-01,-1.566772930002413300e-01,-1.566772930002413300e-01,-1.566772930002413300e-01,-1.566772930002413300e-01,-1.566772930002413300e-01,-1.566772930002413300e-01,-1.175079697501810044e-01,-2.775557561562891351e-17,-2.775557561562891351e-17,-2.775557561562891351e-17,-2.775557561562891351e-17,-2.775557561562891351e-17,-2.775557561562891351e-17,-2.775557561562891351e-17,-2.775557561562891351e-17,-2.775557561562891351e-17,-2.775557561562891351e-17,-2.775557561562891351e-17,-2.284877189586853596e-02,-5.712192973967133991e-02,-9.139508758347411610e-02,-1.256682454272768923e-01,-1.944991659059659983e-01,-1.944991659059659983e-01,-1.944991659059659983e-01,-1.944991659059659983e-01,-1.566772930002413300e-01,-1.566772930002413300e-01,-1.566772930002413300e-01,-1.566772930002413300e-01,-1.566772930002413300e-01,-1.566772930002413300e-01,-1.566772930002413300e-01,-1.566772930002413300e-01,-1.566772930002413300e-01,-1.566772930002413300e-01,-1.566772930002413300e-01,-1.566772930002413300e-01,-1.566772930002413300e-01,-1.566772930002413300e-01,-1.566772930002413300e-01,-1.566772930002413300e-01,-1.566772930002413300e-01,-1.566772930002413300e-01,-1.566772930002413300e-01
-1.566772930002413300e-01,-1.566772930002413300e-01,-1.566772930002413300e-01,-1.566772930002413300e-01,-1.566772930002413300e-01,-1.566772930002413300e-01,-1.566772930002413300e-01,-1.370926313752111603e-01,-1.958466162503019747e-02,-2.775557561562891351e-17,-2.775557561562891351e-17,-2.775557561562891351e-17,-2.775557561562891351e-17,-2.775557561562891351e-17,-2.775557561562891351e-17,-2.775557561562891351e-17,-2.775557561562891351e-17,-2.775557561562891351e-17,-2.775557561562891351e-17,-2.775557561562891351e-17,-2.775557561562891351e-17,-1.795260648961100047e-02,-5.222576433341379054e-02,-8.649892217721658061e-02,-1.191400248856001876e-01,-1.534131827294029637e-01,-1.566772930002413300e-01,-1.566772930002413300e-01,-1.566772930002413300e-01,-1.566772930002413300e-01,-1.566772930002413300e-01,-1.566772930002413300e-01,-1.566772930002413300e-01,-1.566772930002413300e-01,-1.566772930002413300e-01,-1.566772930002413300e-01,-1.566772930002413300e-01,-1.566772930002413300e-01,-1.566772930002413300e-01,-1.566772930002413300e-01,-1.566772930002413300e-01,-1.566772930002413300e-01,-1.566772930002413300e-01,-1.566772930002413300e-01,-1.566772930002413300e-01,-1.566772930002413300e-01,-1.566772930002413300e-01
-1.566772930002413300e-01,-1.566772930002413300e-01,-1.566772930002413300e-01,-1.566772930002413300e-01,-1.566772930002413300e-01,-1.566772930002413300e-01,-1.517811275939837945e-01,-3.427315784380280395e-02,-2.775557561562891351e-17,-2.775557561562891351e-17,-2.775557561562891351e-17,-2.775557561562891351e-17,-2.775557561562891351e-17,-2.775557561562891351e-17,-2.775557561562891351e-17,-2.775557561562891351e-17,-2.775557561562891351e-17,-2.775557561562891351e-17,-2.775557561562891351e-17,-2.775557561562891351e-17,0.000000000000000000e+00,-2.775557561562891351e-17,-1.142438594793429574e-02,-4.569754379173705805e-02,-7.997070163553984812e-02,-1.142438594793426382e-01,-1.485170173231454283e-01,-1.566772930002413300e-01,-1.566772930002413300e-01,-1.566772930002413300e-01,-1.566772930002413300e-01,-1.566772930002413300e-01,-1.566772930002413300e-01,-1.566772930002413300e-01,-1.566772930002413300e-01,-1.566772930002413300e-01,-1.566772930002413300e-01,-1.566772930002413300e-01,-1.566772930002413300e-01,-1.566772930002413300e-01,-1.566772930002413300e-01,-1.566772930002413300e-01,-1.566772930002413300e-01,-1.566772930002413300e-01,-1.566772930002413300e-01,-1.566772930002413300e-01,-1.566772930002413300e-01
-1.566772930002413300e-01,-1.566772930002413300e-01,-1.566772930002413300e-01,-1.566772930002413300e-01,-1.566772930002413300e-01,-1.566772930002413300e-01,-4.896165406257543817e-02,-2.775557561562891351e-17,-2.775557561562891351e-17,-2.775557561562891351e-17,-2.775557561562891351e-17,-2.775557561562891351e-17,-2.775557561562891351e-17,-2.775557561562891351e-17,-2.775557561562891351e-17,-5.551115123125782702e-17,-2.775557561562891351e-17,-2.775557561562891351e-17,-5.551115123125782702e-17,-2.775557561562891351e-17,-2.775557561562891351e-17,0.000000000000000000e+00,-2.775557561562891351e-17,-6.528220541676760247e-03,-4.080137838547953644e-02,-7.507453622928231263e-02,-1.093476940730851027e-01,-1.436208519168878928e-01,-1.566772930002413300e-01,-1.566772930002413300e-01,-1.566772930002413300e-01,-1.566772930002413300e-01,-1.566772930002413300e-01,-1.566772930002413300e-01,-1.566772930002413300e-01,-1.566772930002413300e-01,-1.566772930002413300e-01,-1.566772930002413300e-01,-1.566772930002413300e-01,-1.566772930002413300e-01,-1.566772930002413300e-01,-1.566772930002413300e-01,-1.566772930002413300e-01,-1.566772930002413300e-01,-1.566772930002413300e-01,-1.566772930002413300e-01,-1.566772930002413300e-01
-1.566772930002413300e-01,-1.566772930002413300e-01,-1.566772930002413300e-01,-1.566772930002413300e-01,-1.566772930002413300e-01,-6.854631568760560789e-02,-2.775557561562891351e-17,0.000000000000000000e+00,-2.775557561562891351e-17,-2.775557561562891351e-17,0.000000000000000000e+00,-2.775557561562891351e-17,-2.775557561562891351e-17,-2.775557561562891351e-17,-2.775557561562891351e-17,-2.775557561562891351e-17,-2.775557561562891351e-17,-2.775557561562891351e-17,-2.775557561562891351e-17,-2.775557561562891351e-17,-2.775557561562891351e-17,-2.775557561562891351e-17,-2.775557561562891351e-17,-2.775557561562891351e-17,-1.632055135419197001e-03,-3.590521297922198707e-02,-6.854631568760559401e-02,-1.028194735314083841e-01,-1.370926313752111603e-01,-1.566772930002413300e-01,-1.566772930002413300e-01,-1.566772930002413300e-01,-1.566772930002413300e-01,-1.566772930002413300e-01,-1.566772930002413300e-01,-1.566772930002413300e-01,-1.566772930002413300e-01,-1.566772930002413300e-01,-1.566772930002413300e-01,-1.566772930002413300e-01,-1.566772930002413300e-01,-1.566772930002413300e-01,-1.566772930002413300e-01,-1.566772930002413300e-01,-1.566772930002413300e-01,-1.566772930002413300e-01,-1.566772930002413300e-01
-1.566772930002413300e-01,-1.566772930002413300e-01,-1.566772930002413300e-01,-1.566772930002413300e-01,-8.323481190637821436e-02,-5.551115123125782702e-17,-2.775557561562891351e-17,-2.775557561562891351e-17,0.000000000000000000e+00,-2.775557561562891351e-17,-2.775557561562891351e-17,-2.775557561562891351e-17,-2.775557561562891351e-17,-2.775557561562891351e-17,-2.775557561562891351e-17,-2.775557561562891351e-17,-2.775557561562891351e-17,-2.775557561562891351e-17,0.000000000000000000e+00,-2.775557561562891351e-17,-2.775557561562891351e-17,-2.775557561562891351e-17,-2.775557561562891351e-17,-2.775557561562891351e-17,-2.775557561562891351e-17,-2.775557561562891351e-17,-2.937699243754526846e-02,-6.365015028134805852e-02,-9.792330812515084859e-02,-1.321964659689536248e-01,-1.566772930002413300e-01,-1.566772930002413300e-01,-1.566772930002413300e-01,-1.566772930002413300e-01,-1.566772930002413300e-01,-1.566772930002413300e-01,-1.566772930002413300e-01,-1.566772930002413300e-01,-1.566772930002413300e-01,-1.566772930002413300e-01,-1.566772930002413300e-01,-1.566772930002413300e-01,-1.566772930002413300e-01,-1.566772930002413300e-01,-1.566772930002413300e-01,-1.566772930002413300e-01,-1.566772930002413300e-01
-1.566772930002413300e-01,-1.566772930002413300e-01,-1.566772930002413300e-01,-9.792330812515084859e-02,-2.775557561562891351e-17,-2.775557561562891351e-17,0.000000000000000000e+00,-2.775557561562891351e-17,-2.775557561562891351e-17,-2.775557561562891351e-17,-2.775557561562891351e-17,-2.775557561562891351e-17,-2.775557561562891351e-17,-2.775557561562891351e-17,-2.775557561562891351e-17,-2.775557561562891351e-17,-2.775557561562891351e-17,-2.775557561562891351e-17,-2.775557561562891351e-17,-2.775557561562891351e-17,-2.775557561562891351e-17,-2.775557561562891351e-17,-2.775557561562891351e-17,-2.775557561562891351e-17,-2.775557561562891351e-17,-2.775557561562891351e-17,-2.775557561562891351e-17,-2.448082703128773296e-02,-5.875398487509050915e-02,-9.302714271889329922e-02,-1.256682454272768923e-01,-1.566772930002413300e-01,-1.566772930002413300e-01,-1.566772930002413300e-01,-1.566772930002413300e-01,-1.566772930002413300e-01,-1.566772930002413300e-01,-1.566772930002413300e-01,-1.566772930002413300e-01,-1.566772930002413300e-01,-1.566772930002413300e-01,-1.566772930002413300e-01,-1.566772930002413300e-01,-1.566772930002413300e-01,-1.566772930002413300e-01,-1.566772930002413300e-01,-1.566772930002413300e-01
-1.566772930002413300e-01,-1.566772930002413300e-01,-1.175079697501810044e-01,-2.775557561562891351e-17,-2.775557561562891351e-17,-2.775557561562891351e-17,-2.775557561562891351e-17,-2.775557561562891351e-17,-2.775557561562891351e-17,-2.775557561562891351e-17,-5.551115123125782702e-17,-2.775557561562891351e-17,-2.775557561562891351e-17,-2.775557561562891351e-17,-2.775557561562891351e-17,-5.551115123125782702e-17,-2.775557561562891351e-17,-2.775557561562891351e-17,-2.775557561562891351e-17,-2.775557561562891351e-17,-2.775557561562891351e-17,-2.775557561562891351e-17,0.000000000000000000e+00,-2.775557561562891351e-17,-2.775557561562891351e-17,-2.775557561562891351e-17,-2.775557561562891351e-17,-2.775557561562891351e-17,-1.795260648961102823e-02,-5.222576433341379054e-02,-8.649892217721658061e-02,-1.207720800210193568e-01,-1.550452378648221607e-01,-1.566772930002413300e-01,-1.566772930002413300e-01,-1.566772930002413300e-01,-1.566772930002413300e-01,-1.566772930002413300e-01,-1.566772930002413300e-01,-1.566772930002413300e-01,-1.566772930002413300e-01,-1.566772930002413300e-01,-1.566772930002413300e-01,-1.566772930002413300e-01,-1.566772930002413300e-01,-1.566772930002413300e-01,-1.566772930002413300e-01
-1.566772930002413300e-01,-1.321964659689536248e-01,-1.468849621877266198e-02,-2.775557561562891351e-17,-2.775557561562891351e-17,-2.775557561562891351e-17,-2.775557561562891351e-17,-2.775557561562891351e-17,-2.775557561562891351e-17,-2.775557561562891351e-17,-2.775557561562891351e-17,-2.775557561562891351e-17,-2.775557561562891351e-17,-2.775557561562891351e-17,-2.775557561562891351e-17,-2.775557561562891351e-17,-2.775557561562891351e-17,-2.775557561562891351e-17,-5.551115123125782702e-17,-2.775557561562891351e-17,-2.775557561562891351e-17,-2.775557561562891351e-17,-2.775557561562891351e-17,-2.775557561562891351e-17,-2.775557561562891351e-17,0.000000000000000000e+00,-2.775557561562891351e-17,-2.775557561562891351e-17,-2.775557561562891351e-17,-1.305644108335346498e-02,-4.732959892715625505e-02,-8.160275677095904512e-02,-1.158759146147618213e-01,-1.501490724585645975e-01,-1.566772930002413300e-01,-1.566772930002413300e-01,-1.566772930002413300e-01,-1.566772930002413300e-01,-1.566772930002413300e-01,-1.566772930002413300e-01,-1.566772930002413300e-01,-1.566772930002413300e-01,-1.566772930002413300e-01,-1.566772930002413300e-01,-1.566772930002413300e-01,-1.566772930002413300e-01,-1.566772930002413300e-01
-1.517811275939837945e-01,-2.937699243754526846e-02,-2.775557561562891351e-17,-2.775557561562891351e-17,-2.775557561562891351e-17,-2.775557561562891351e-17,-2.775557561562891351e-17,-2.362995053402245083e-01,-2.362995053402245083e-01,-2.362995053402245083e-01,-2.775557561562891351e-17,0.000000000000000000e+00,-2.775557561562891351e-17,-2.775557561562891351e-17,-2.775557561562891351e-17,-2.775557561562891351e-17,-2.775557561562891351e-17,-2.775557561562891351e-17,-2.775557561562891351e-17,-2.775557561562891351e-17,-2.775557561562891351e-17,-2.775557561562891351e-17,-2.775557561562891351e-17,-2.775557561562891351e-17,-2.775557561562891351e-17,-2.775557561562891351e-17,-2.775557561562891351e-17,-2.775557561562891351e-17,-2.775557561562891351e-17,-2.775557561562891351e-17,-8.160275677095929492e-03,-4.243343352089870568e-02,-2.547556530954014353e-01,-2.890288109392041838e-01,-3.233019687830069877e-01,-1.566772930002413300e-01,-1.566772930002413300e-01,-1.566772930002413300e-01,-1.566772930002413300e-01,-1.566772930002413300e-01,-1.566772930002413300e-01,-1.566772930002413300e-01,-1.566772930002413300e-01,-1.566772930002413300e-01,-1.566772930002413300e-01,-1.566772930002413300e-01,-1.566772930002413300e-01
-4.896165406257543817e-02,-2.775557561562891351e-17,-2.775557561562891351e-17,-2.775557561562891351e-17,-2.775557561562891351e-17,-2.775557561562891351e-17,-2.775557561562891351e-17,-2.362995053402245083e-01,-2.362995053402245083e-01,-2.362995053402245360e-01,-2.775557561562891351e-17,-2.775557561562891351e-17,-2.775557561562891351e-17,-2.775557561562891351e-17,0.000000000000000000e+00,-2.775557561562891351e-17,-2.775557561562891351e-17,-2.775557561562891351e-17,-5.551115123125782702e-17,-2.775557561562891351e-17,-2.775557561562891351e-17,-2.775557561562891351e-17,-2.775557561562891351e-17,0.000000000000000000e+00,-2.775557561562891351e-17,-2.775557561562891351e-17,-5.551115123125782702e-17,-2.775557561562891351e-17,-2.775557561562891351e-17,-2.775557561562891351e-17,-2.775557561562891351e-17,-1.632055135419224756e-03,-2.155863298453410959e-01,-2.498594876891438998e-01,-2.841326455329467038e-01,-1.387246865106303573e-01,-1.566772930002413300e-01,-1.566772930002413300e-01,-1.566772930002413300e-01,-1.566772930002413300e-01,-1.566772930002413300e-01,-1.566772930002413300e-01,-1.566772930002413300e-01,-1.566772930002413300e-01,-1.566772930002413300e-01,-1.566772930002413300e-01,-1.566772930002413300e-01
-2.775557561562891351e-17,-2.775557561562891351e-17,-2.775557561562891351e-17,-2.775557561562891351e-17,-2.775557561562891351e-17,-2.775557561562891351e-17,-2.775557561562891351e-17,-2.362995053402245083e-01,-2.362995053402245083e-01,-2.362995053402245083e-01,-2.775557561562891351e-17,-2.775557561562891351e-17,-2.775557561562891351e-17,-2.775557561562891351e-17,-2.775557561562891351e-17,-2.775557561562891351e-17,-2.775557561562891351e-17,-2.775557561562891351e-17,-2.775557561562891351e-17,-2.775557561562891351e-17,-2.775557561562891351e-17,-2.775557561562891351e-17,-5.551115123125782702e-17,-2.775557561562891351e-17,-2.775557561562891351e-17,-2.775557561562891351e-17,-2.775557561562891351e-17,-2.775557561562891351e-17,-2.775557561562891351e-17,-2.775557561562891351e-17,-2.775557561562891351e-17,-2.775557561562891351e-17,-1.796811168661191227e-01,-2.106901644390835882e-01,-2.449633222828863643e-01,-9.955536326057001784e-02,-1.321964659689536248e-01,-1.566772930002413300e-01,-1.566772930002413300e-01,-1.566772930002413300e-01,-1.566772930002413300e-01,-1.566772930002413300e-01,-1.566772930002413300e-01,-1.566772930002413300e-01,-1.566772930002413300e-01,-1.566772930002413300e-01,-1.566772930002413300e-01
-2.775557561562891351e-17,0.000000000000000000e+00,-2.775557561562891351e-17,-2.775557561562891351e-17,-2.775557561562891351e-17,-2.775557561562891351e-17,-2.775557561562891351e-17,-2.775557561562891351e-17,-5.551115123125782702e-17,-2.775557561562891351e-17,-2.775557561562891351e-17,-2.775557561562891351e-17,-2.775557561562891351e-17,0.000000000000000000e+00,-2.775557561562891351e-17,-2.775557561562891351e-17,-2.775557561562891351e-17,-2.775557561562891351e-17,-2.775557561562891351e-17,-2.775557561562891351e-17,-2.775557561562891351e-17,-2.775557561562891351e-17,-2.775557561562891351e-17,-2.775557561562891351e-17,0.000000000000000000e+00,-2.775557561562891351e-17,-2.775557561562891351e-17,0.000000000000000000e+00,-2.775557561562891351e-17,-2.775557561562891351e-17,-2.775557561562891351e-17,-2.775557561562891351e-17,-2.775557561562891351e-17,-2.775557561562891351e-17,-2.448082703128770521e-02,-5.875398487509050915e-02,-9.302714271889329922e-02,-1.273003005626960893e-01,-1.566772930002413300e-01,-1.566772930002413300e-01,-1.566772930002413300e-01,-1.566772930002413300e-01,-1.566772930002413300e-01,-1.566772930002413300e-01,-1.566772930002413300e-01,-1.566772930002413300e-01,-1.566772930002413300e-01
-2.775557561562891351e-17,-2.775557561562891351e-17,-2.775557561562891351e-17,-2.775557561562891351e-17,-2.775557561562891351e-17,-2.775557561562891351e-17,-2.775557561562891351e-17,-2.775557561562891351e-17,-2.775557561562891351e-17,-2.775557561562891351e-17,-2.775557561562891351e-17,-2.775557561562891351e-17,-2.775557561562891351e-17,-2.775557561562891351e-17,-2.775557561562891351e-17,-2.775557561562891351e-17,-2.775557561562891351e-17,-2.775557561562891351e-17,-2.775557561562891351e-17,0.000000000000000000e+00,-2.775557561562891351e-17,-2.775557561562891351e-17,0.000000000000000000e+00,-2.775557561562891351e-17,-2.775557561562891351e-17,-2.775557561562891351e-17,-2.775557561562891351e-17,-2.775557561562891351e-17,-2.775557561562891351e-17,-2.775557561562891351e-17,-2.775557561562891351e-17,0.000000000000000000e+00,-2.775557561562891351e-17,-2.775557561562891351e-17,-2.775557561562891351e-17,-1.958466162503019747e-02,-5.385781946883297366e-02,-8.813097731263574985e-02,-1.224041351564385399e-01,-1.550452378648221607e-01,-1.566772930002413300e-01,-1.566772930002413300e-01,-1.566772930002413300e-01,-1.566772930002413300e-01,-1.566772930002413300e-01,-1.566772930002413300e-01,-1.566772930002413300e-01
-3.427315784380297048e-03,-2.775557561562891351e-17,-2.775557561562891351e-17,-5.551115123125782702e-17,-2.775557561562891351e-17,-2.775557561562891351e-17,-2.775557561562891351e-17,-2.775557561562891351e-17,-2.775557561562891351e-17,-2.775557561562891351e-17,-2.775557561562891351e-17,-2.775557561562891351e-17,-2.775557561562891351e-17,-2.775557561562891351e-17,0.000000000000000000e+00,-2.775557561562891351e-17,-2.775557561562891351e-17,0.000000000000000000e+00,-2.775557561562891351e-17,-2.775557561562891351e-17,-2.775557561562891351e-17,-2.775557561562891351e-17,-2.775557561562891351e-17,-2.775557561562891351e-17,-2.775557561562891351e-17,-2.775557561562891351e-17,-2.775557561562891351e-17,-2.775557561562891351e-17,-2.775557561562891351e-17,-2.775557561562891351e-17,-2.775557561562891351e-17,-2.775557561562891351e-17,-2.775557561562891351e-17,-2.775557561562891351e-17,-2.775557561562891351e-17,-2.775557561562891351e-17,-1.468849621877263423e-02,-4.732959892715625505e-02,-8.160275677095903124e-02,-1.158759146147618213e-01,-1.501490724585645975e-01,-1.566772930002413300e-01,-1.566772930002413300e-01,-1.566772930002413300e-01,-1.566772930002413300e-01,-1.566772930002413300e-01,-1.566772930002413300e-01
-1.517811275939842663e-02,-4.896165406257563246e-03,-2.775557561562891351e-17,-2.775557561562891351e-17,-2.775557561562891351e-17,-2.775557561562891351e-17,-2.775557561562891351e-17,-2.775557561562891351e-17,0.000000000000000000e+00,-2.775557561562891351e-17,-2.775557561562891351e-17,-2.775557561562891351e-17,-2.775557561562891351e-17,-2.775557561562891351e-17,-2.775557561562891351e-17,-2.775557561562891351e-17,-2.775557561562891351e-17,-2.775557561562891351e-17,-2.775557561562891351e-17,-2.775557561562891351e-17,-5.551115123125782702e-17,-2.775557561562891351e-17,-2.775557561562891351e-17,-2.775557561562891351e-17,-2.775557561562891351e-17,-2.775557561562891351e-17,-2.775557561562891351e-17,-2.775557561562891351e-17,-2.775557561562891351e-17,0.000000000000000000e+00,-2.775557561562891351e-17,-2.775557561562891351e-17,-2.775557561562891351e-17,-2.775557561562891351e-17,-2.775557561562891351e-17,-2.775557561562891351e-17,-2.775557561562891351e-17,-8.160275677095929492e-03,-4.243343352089870568e-02,-7.670659136470149575e-02,-1.109797492085042858e-01,-1.452529070523070620e-01,-1.566772930002413300e-01,-1.566772930002413300e-01,-1.566772930002413300e-01,-1.566772930002413300e-01,-1.566772930002413300e-01
-2.692890973441650071e-02,-1.713657892190140197e-02,-6.854631568760566340e-03,-2.775557561562891351e-17,-5.551115123125782702e-17,-2.775557561562891351e-17,-2.775557561562891351e-17,-2.775557561562891351e-17,-2.775557561562891351e-17,-2.775557561562891351e-17,-2.775557561562891351e-17,-2.775557561562891351e-17,-2.775557561562891351e-17,-2.775557561562891351e-17,-2.775557561562891351e-17,-2.775557561562891351e-17,-2.775557561562891351e-17,-2.775557561562891351e-17,-2.775557561562891351e-17,-2.775557561562891351e-17,-2.775557561562891351e-17,0.000000000000000000e+00,-2.775557561562891351e-17,-2.775557561562891351e-17,-2.775557561562891351e-17,-2.775557561562891351e-17,-2.775557561562891351e-17,-2.775557561562891351e-17,-2.775557561562891351e-17,-2.775557561562891351e-17,-5.551115123125782702e-17,-5.551115123125782702e-17,-2.775557561562891351e-17,-2.775557561562891351e-17,-2.775557561562891351e-17,-2.775557561562891351e-17,-2.775557561562891351e-17,-2.775557561562891351e-17,-3.264110270838394001e-03,-3.753726811464117019e-02,-7.181042595844394638e-02,-1.044515286668275533e-01,-1.387246865106303573e-01,-1.566772930002413300e-01,-1.566772930002413300e-01,-1.566772930002413300e-01,-1.566772930002413300e-01
-3.916932325006035331e-02,-2.888737589691953156e-02,-1.860542854377869593e-02,-8.323481190637860294e-03,-2.775557561562891351e-17,-2.775557561562891351e-17,-2.775557561562891351e-17,-2.775557561562891351e-17,-2.775557561562891351e-17,-2.775557561562891351e-17,-2.775557561562891351e-17,-2.775557561562891351e-17,-2.775557561562891351e-17,-2.775557561562891351e-17,-2.775557561562891351e-17,-2.775557561562891351e-17,0.000000000000000000e+00,-2.775557561562891351e-17,-2.775557561562891351e-17,0.000000000000000000e+00,-2.775557561562891351e-17,-2.775557561562891351e-17,-2.775557561562891351e-17,-2.775557561562891351e-17,-2.775557561562891351e-17,0.000000000000000000e+00,-2.775557561562891351e-17,-2.775557561562891351e-17,-2.775557561562891351e-17,-2.775557561562891351e-17,-2.775557561562891351e-17,-2.775557561562891351e-17,-2.775557561562891351e-17,-2.775557561562891351e-17,-2.775557561562891351e-17,-2.775557561562891351e-17,-2.775557561562891351e-17,-2.775557561562891351e-17,-2.775557561562891351e-17,-2.775557561562891351e-17,-3.100904757296443770e-02,-6.528220541676724165e-02,-9.955536326057001784e-02,-1.338285211043728218e-01,-1.566772930002413300e-01,-1.566772930002413300e-01,-1.566772930002413300e-01
-5.092012022507844127e-02,-4.063817287193763339e-02,-3.035622551879679776e-02,-2.007427816565596213e-02,-9.792330812515098737e-03,-2.775557561562891351e-17,-2.775557561562891351e-17,-2.775557561562891351e-17,-2.775557561562891351e-17,-2.775557561562891351e-17,-2.775557561562891351e-17,-2.775557561562891351e-17,-2.775557561562891351e-17,-2.775557561562891351e-17,-2.775557561562891351e-17,-2.775557561562891351e-17,0.000000000000000000e+00,-2.775557561562891351e-17,-2.775557561562891351e-17,-2.775557561562891351e-17,-2.775557561562891351e-17,-2.775557561562891351e-17,-2.775557561562891351e-17,-2.775557561562891351e-17,-2.775557561562891351e-17,-2.775557561562891351e-17,-2.775557561562891351e-17,-2.775557561562891351e-17,-2.775557561562891351e-17,-2.775557561562891351e-17,-2.775557561562891351e-17,-2.775557561562891351e-17,0.000000000000000000e+00,-2.775557561562891351e-17,-2.775557561562891351e-17,0.000000000000000000e+00,-2.775557561562891351e-17,-2.775557561562891351e-17,-2.775557561562891351e-17,-2.775557561562891351e-17,-2.775557561562891351e-17,-2.611288216670690221e-02,-6.038604001050969228e-02,-9.465919785431248235e-02,-1.289323556981152585e-01,-1.566772930002413300e-01,-1.566772930002413300e-01
-6.267091720009654310e-02,-5.238896984695570747e-02,-4.210702249381488571e-02,-3.231469168129981473e-02,-2.203274432815896522e-02,-1.175079697501812959e-02,-1.468849621877293954e-03,-2.775557561562891351e-17,-2.775557561562891351e-17,0.000000000000000000e+00,-2.775557561562891351e-17,-2.775557561562891351e-17,-2.775557561562891351e-17,-2.775557561562891351e-17,-2.775557561562891351e-17,-2.775557561562891351e-17,-2.775557561562891351e-17,-2.775557561562891351e-17,-2.775557561562891351e-17,-2.775557561562891351e-17,-2.775557561562891351e-17,-2.775557561562891351e-17,-2.775557561562891351e-17,-2.775557561562891351e-17,-2.775557561562891351e-17,-2.775557561562891351e-17,-2.775557561562891351e-17,-2.775557561562891351e-17,-2.775557561562891351e-17,0.000000000000000000e+00,-2.775557561562891351e-17,-2.775557561562891351e-17,0.000000000000000000e+00,-2.775557561562891351e-17,-2.775557561562891351e-17,-2.775557561562891351e-17,-2.775557561562891351e-17,-2.775557561562891351e-17,-2.775557561562891351e-17,-2.775557561562891351e-17,-2.775557561562891351e-17,-2.775557561562891351e-17,-2.121671676044936672e-02,-5.385781946883297366e-02,-8.813097731263576373e-02,-1.224041351564385399e-01,-1.566772930002413300e-01
-7.442171417511464493e-02,-6.462938336259956007e-02,-5.434743600945873832e-02,-4.406548865631790268e-02,-3.378354130317705317e-02,-2.350159395003623142e-02,-1.321964659689539578e-02,-2.937699243754560152e-03,-2.775557561562891351e-17,0.000000000000000000e+00,-2.775557561562891351e-17,-2.775557561562891351e-17,-2.775557561562891351e-17,-2.775557561562891351e-17,-2.775557561562891351e-17,-2.775557561562891351e-17,-2.775557561562891351e-17,-2.775557561562891351e-17,-2.775557561562891351e-17,-2.775557561562891351e-17,-2.775557561562891351e-17,-2.775557561562891351e-17,0.000000000000000000e+00,-2.775557561562891351e-17,-2.775557561562891351e-17,-2.775557561562891351e-17,-2.775557561562891351e-17,-2.775557561562891351e-17,-2.775557561562891351e-17,-2.775557561562891351e-17,-2.775557561562891351e-17,-2.775557561562891351e-17,-2.775557561562891351e-17,-2.775557561562891351e-17,-2.775557561562891351e-17,-2.775557561562891351e-17,-2.775557561562891351e-17,-2.775557561562891351e-17,-2.775557561562891351e-17,-2.775557561562891351e-17,-2.775557561562891351e-17,-2.775557561562891351e-17,0.000000000000000000e+00,-1.468849621877263423e-02,-4.896165406257542430e-02,-8.323481190637821436e-02,-1.175079697501809906e-01
-8.666212769075851141e-02,-7.638018033761764802e-02,-6.609823298447682627e-02,-5.581628563133597676e-02,-4.553433827819516888e-02,-3.525239092505433325e-02,-2.497044357191349762e-02,-1.517811275939839888e-02,-4.896165406257563246e-03,-2.775557561562891351e-17,-2.775557561562891351e-17,-2.775557561562891351e-17,-2.775557561562891351e-17,-2.775557561562891351e-17,-2.775557561562891351e-17,-2.775557561562891351e-17,-2.775557561562891351e-17,-2.775557561562891351e-17,-2.775557561562891351e-17,-2.775557561562891351e-17,-2.775557561562891351e-17,-2.775557561562891351e-17,-2.775557561562891351e-17,-2.775557561562891351e-17,-2.775557561562891351e-17,-1.644036451652429454e-01,-1.644036451652429176e-01,-1.644036451652429454e-01,-2.775557561562891351e-17,-2.775557561562891351e-17,-2.775557561562891351e-17,-2.775557561562891351e-17,-5.551115123125782702e-17,-2.775557561562891351e-17,-2.775557561562891351e-17,-2.775557561562891351e-17,-2.775557561562891351e-17,-2.775557561562891351e-17,-2.775557561562891351e-17,0.000000000000000000e+00,-2.775557561562891351e-17,-2.775557561562891351e-17,-2.775557561562891351e-17,-2.775557561562891351e-17,-9.792330812515098737e-03,-4.406548865631790268e-02,-7.833864650012067887e-02
-9.841292466577659936e-02,-8.813097731263576373e-02,-7.784902995949492810e-02,-6.756708260635407859e-02,-5.728513525321325683e-02,-4.749280444069818585e-02,-3.721085708755736410e-02,-2.692890973441650071e-02,-1.664696238127566508e-02,-6.365015028134801689e-03,-2.775557561562891351e-17,-5.551115123125782702e-17,-2.775557561562891351e-17,-2.775557561562891351e-17,-2.775557561562891351e-17,-2.775557561562891351e-17,-2.775557561562891351e-17,0.000000000000000000e+00,0.000000000000000000e+00,-2.775557561562891351e-17,-2.775557561562891351e-17,-2.775557561562891351e-17,-2.775557561562891351e-17,-2.775557561562891351e-17,-2.775557561562891351e-17,-1.644036451652429454e-01,-1.644036451652429454e-01,-1.644036451652429454e-01,-2.775557561562891351e-17,-2.775557561562891351e-17,-2.775557561562891351e-17,-5.551115123125782702e-17,-2.775557561562891351e-17,-2.775557561562891351e-17,-2.775557561562891351e-17,-2.775557561562891351e-17,-2.775557561562891351e-17,-2.775557561562891351e-17,-2.775557561562891351e-17,-2.775557561562891351e-17,-2.775557561562891351e-17,-2.775557561562891351e-17,-2.775557561562891351e-17,-2.775557561562891351e-17,-2.775557561562891351e-17,-3.264110270838394001e-03,-3.753726811464117019e-02
-1.101637216407946873e-01,-9.988177428765386556e-02,-8.959982693451302993e-02,-7.980749612199794507e-02,-6.952554876885710944e-02,-5.924360141571625993e-02,-4.896165406257545205e-02,-3.867970670943460254e-02,-2.839775935629376691e-02,-1.811581200315293128e-02,-7.833864650012095643e-03,-2.775557561562891351e-17,-2.775557561562891351e-17,-2.775557561562891351e-17,-2.775557561562891351e-17,-2.775557561562891351e-17,-2.775557561562891351e-17,-2.775557561562891351e-17,-2.775557561562891351e-17,-2.775557561562891351e-17,-2.775557561562891351e-17,-2.775557561562891351e-17,-2.775557561562891351e-17,-2.775557561562891351e-17,-2.775557561562891351e-17,-1.644036451652429454e-01,-1.644036451652429454e-01,-1.644036451652429731e-01,-2.775557561562891351e-17,-2.775557561562891351e-17,-2.775557561562891351e-17,-2.775557561562891351e-17,-2.775557561562891351e-17,0.000000000000000000e+00,-2.775557561562891351e-17,-2.775557561562891351e-17,-2.775557561562891351e-17,-2.775557561562891351e-17,-2.775557561562891351e-17,-2.775557561562891351e-17,-2.775557561562891351e-17,-2.775557561562891351e-17,-2.775557561562891351e-17,-2.775557561562891351e-17,-2.775557561562891351e-17,-2.775557561562891351e-17,-2.775557561562891351e-17
-1.219145186158127891e-01,-1.121221878032977182e-01,-1.018402404501568825e-01,-9.155829309701604690e-02,-8.127634574387519739e-02,-7.099439839073436176e-02,-6.071245103759352613e-02,-5.043050368445270437e-02,-4.014855633131186874e-02,-3.035622551879679776e-02,-2.007427816565593437e-02,-9.792330812515098737e-03,-2.775557561562891351e-17,-2.775557561562891351e-17,-2.775557561562891351e-17,-2.775557561562891351e-17,-2.775557561562891351e-17,-2.775557561562891351e-17,-2.775557561562891351e-17,-5.551115123125782702e-17,-2.775557561562891351e-17,-2.775557561562891351e-17,-2.775557561562891351e-17,-2.775557561562891351e-17,-2.775557561562891351e-17,-2.775557561562891351e-17,-2.775557561562891351e-17,-2.775557561562891351e-17,-2.775557561562891351e-17,-2.775557561562891351e-17,-2.775557561562891351e-17,-2.775557561562891351e-17,0.000000000000000000e+00,-2.775557561562891351e-17,-2.775557561562891351e-17,-2.775557561562891351e-17,-2.775557561562891351e-17,-2.775557561562891351e-17,-2.775557561562891351e-17,-2.775557561562891351e-17,0.000000000000000000e+00,0.000000000000000000e+00,-2.775557561562891351e-17,-2.775557561562891351e-17,0.000000000000000000e+00,-2.775557561562891351e-17,-2.775557561562891351e-17
-1.341549321314566556e-01,-1.238729847783158061e-01,-1.135910374251749705e-01,-1.033090900720341349e-01,-9.302714271889331310e-02,-8.274519536575247747e-02,-7.246324801261162796e-02,-6.267091720009654310e-02,-5.238896984695570747e-02,-4.210702249381487183e-02,-3.182507514067405008e-02,-2.154312778753320057e-02,-1.126118043439236494e-02,-9.792330812515015470e-04,-2.775557561562891351e-17,-2.775557561562891351e-17,-2.775557561562891351e-17,-2.775557561562891351e-17,-2.775557561562891351e-17,-2.775557561562891351e-17,-2.775557561562891351e-17,-2.775557561562891351e-17,-2.775557561562891351e-17,-2.775557561562891351e-17,-2.775557561562891351e-17,-2.775557561562891351e-17,-2.775557561562891351e-17,-2.775557561562891351e-17,-2.775557561562891351e-17,-2.775557561562891351e-17,-2.775557561562891351e-17,-2.775557561562891351e-17,-2.775557561562891351e-17,-2.775557561562891351e-17,0.000000000000000000e+00,-2.775557561562891351e-17,-2.775557561562891351e-17,-2.775557561562891351e-17,-2.775557561562891351e-17,-2.775557561562891351e-17,-2.775557561562891351e-17,-2.775557561562891351e-17,-2.775557561562891351e-17,-2.775557561562891351e-17,-2.775557561562891351e-17,-2.775557561562891351e-17,-2.775557561562891351e-17
-1.459057291064747297e-01,-1.356237817533338941e-01,-1.253418344001930862e-01,-1.150598870470522367e-01,-1.047779396939113872e-01,-9.498560888139631619e-02,-8.470366152825548056e-02,-7.442171417511464493e-02,-6.413976682197379542e-02,-5.385781946883297366e-02,-4.357587211569213803e-02,-3.329392476255133015e-02,-2.301197740941049452e-02,-1.321964659689539578e-02,-2.937699243754560152e-03,-2.775557561562891351e-17,-2.775557561562891351e-17,-2.775557561562891351e-17,-2.775557561562891351e-17,-2.775557561562891351e-17,-2.775557561562891351e-17,-2.775557561562891351e-17,-2.775557561562891351e-17,-2.775557561562891351e-17,-2.775557561562891351e-17,-2.775557561562891351e-17,-2.775557561562891351e-17,-2.775557561562891351e-17,-2.775557561562891351e-17,-2.775557561562891351e-17,-2.775557561562891351e-17,-2.775557561562891351e-17,-2.775557561562891351e-17,-2.775557561562891351e-17,-5.551115123125782702e-17,-2.775557561562891351e-17,-2.775557561562891351e-17,-2.775557561562891351e-17,-2.775557561562891351e-17,-2.775557561562891351e-17,-2.775557561562891351e-17,-2.775557561562891351e-17,-2.775557561562891351e-17,-2.775557561562891351e-17,-2.775557561562891351e-17,-2.775557561562891351e-17,-2.775557561562891351e-17
-1.566772930002413300e-01,-1.473745787283519959e-01,-1.370926313752111603e-01,-1.273003005626960893e-01,-1.170183532095552537e-01,-1.067364058564144180e-01,-9.645445850327358239e-02,-8.617251115013276064e-02,-7.589056379699191113e-02,-6.560861644385104774e-02,-5.532666909071023986e-02,-4.553433827819515500e-02,-3.525239092505433325e-02,-2.497044357191349762e-02,-1.468849621877263423e-02,-4.406548865631826351e-03,-2.775557561562891351e-17,-2.775557561562891351e-17,-2.775557561562891351e-17,-2.775557561562891351e-17,-2.775557561562891351e-17,-2.775557561562891351e-17,-2.775557561562891351e-17,-2.775557561562891351e-17,-2.775557561562891351e-17,-2.775557561562891351e-17,-5.551115123125782702e-17,-5.551115123125782702e-17,-2.775557561562891351e-17,-2.775557561562891351e-17,-2.775557561562891351e-17,-2.775557561562891351e-17,0.000000000000000000e+00,-2.775557561562891351e-17,-2.775557561562891351e-17,-2.775557561562891351e-17,-2.775557561562891351e-17,-2.775557561562891351e-17,-2.775557561562891351e-17,-2.775557561562891351e-17,-2.775557561562891351e-17,-2.775557561562891351e-17,-2.775557561562891351e-17,-2.775557561562891351e-17,-2.775557561562891351e-17,-2.775557561562891351e-17,0.000000000000000000e+00
-1.566772930002413300e-01,-1.566772930002413300e-01,-1.493330448908550268e-01,-1.390510975377141911e-01,-1.287691501845733555e-01,-1.184872028314325199e-01,-1.082052554782916703e-01,-9.792330812515084859e-02,-8.764136077201001296e-02,-7.784902995949491422e-02,-6.756708260635407859e-02,-5.728513525321324296e-02,-4.700318790007242120e-02,-3.672124054693159945e-02,-2.643929319379073606e-02,-1.615734584064990043e-02,-5.875398487509092549e-03,-2.775557561562891351e-17,0.000000000000000000e+00,-2.775557561562891351e-17,-2.775557561562891351e-17,-2.775557561562891351e-17,-2.775557561562891351e-17,-2.775557561562891351e-17,-2.775557561562891351e-17,-2.775557561562891351e-17,-2.775557561562891351e-17,-2.775557561562891351e-17,-2.775557561562891351e-17,-2.775557561562891351e-17,-2.775557561562891351e-17,-2.775557561562891351e-17,-2.775557561562891351e-17,-2.775557561562891351e-17,-2.775557561562891351e-17,-2.775557561562891351e-17,-2.775557561562891351e-17,-2.775557561562891351e-17,0.000000000000000000e+00,-2.775557561562891351e-17,-2.775557561562891351e-17,-5.551115123125782702e-17,-2.775557561562891351e-17,-2.775557561562891351e-17,-5.551115123125782702e-17,-2.775557561562891351e-17,-4.896165406257543817e-02
-1.566772930002413300e-01,-1.566772930002413300e-01,-1.566772930002413300e-01,-1.508018945127322930e-01,-1.405199471595914573e-01,-1.302379998064506217e-01,-1.199560524533097722e-01,-1.101637216407946873e-01,-9.988177428765385168e-02,-8.959982693451301605e-02,-7.931787958137219430e-02,-6.903593222823134479e-02,-5.875398487509050915e-02,-4.847203752194968740e-02,-3.819009016880883789e-02,-2.839775935629376691e-02,-1.811581200315295903e-02,-7.833864650012095643e-03,-2.775557561562891351e-17,0.000000000000000000e+00,-2.775557561562891351e-17,-2.775557561562891351e-17,-2.775557561562891351e-17,-2.775557561562891351e-17,-2.775557561562891351e-17,-2.775557561562891351e-17,-2.775557561562891351e-17,-2.775557561562891351e-17,-2.775557561562891351e-17,0.000000000000000000e+00,-2.775557561562891351e-17,-2.775557561562891351e-17,-2.775557561562891351e-17,0.000000000000000000e+00,-2.775557561562891351e-17,-2.775557561562891351e-17,-2.775557561562891351e-17,-2.775557561562891351e-17,-2.775557561562891351e-17,-2.775557561562891351e-17,-2.775557561562891351e-17,-2.775557561562891351e-17,-2.775557561562891351e-17,-2.775557561562891351e-17,-2.775557561562891351e-17,-2.937699243754526846e-02,-1.517811275939837945e-01
-1.566772930002413300e-01,-1.566772930002413300e-01,-1.566772930002413300e-01,-1.566772930002413300e-01,-1.522707441346095314e-01,-1.424784133220944604e-01,-1.321964659689536248e-01,-1.219145186158127891e-01,-1.116325712626719535e-01,-1.013506239095311179e-01,-9.106867655639028225e-02,-8.078672920324946050e-02,-7.050478185010861099e-02,-6.071245103759354000e-02,-5.043050368445269049e-02,-4.014855633131186874e-02,-2.986660897817103311e-02,-1.958466162503019747e-02,-9.302714271889361841e-03,-2.775557561562891351e-17,-2.775557561562891351e-17,-2.775557561562891351e-17,-2.775557561562891351e-17,-2.775557561562891351e-17,-2.775557561562891351e-17,-2.775557561562891351e-17,-2.775557561562891351e-17,-2.775557561562891351e-17,-2.775557561562891351e-17,-2.775557561562891351e-17,-2.775557561562891351e-17,-2.775557561562891351e-17,-2.775557561562891351e-17,-2.775557561562891351e-17,-2.775557561562891351e-17,-2.775557561562891351e-17,-2.775557561562891351e-17,-2.775557561562891351e-17,-2.775557561562891351e-17,-2.775557561562891351e-17,-2.775557561562891351e-17,-2.775557561562891351e-17,-2.775557561562891351e-17,-2.775557561562891351e-17,-1.468849621877266198e-02,-1.321964659689536248e-01,-1.566772930002413300e-01
-1.566772930002413300e-01,-1.566772930002413300e-01,-1.566772930002413300e-01,-1.566772930002413300e-01,-1.566772930002413300e-01,-1.542292102971125622e-01,-1.439472629439717266e-01,-1.336653155908308910e-01,-1.233833682376900553e-01,-1.131014208845492197e-01,-1.028194735314083841e-01,-9.302714271889331310e-02,-8.274519536575246359e-02,-7.246324801261162796e-02,-6.218130065947077845e-02,-5.189935330632995669e-02,-4.161740595318910718e-02,-3.133545860004829930e-02,-2.105351124690746367e-02,-1.126118043439236494e-02,-9.792330812515293026e-04,0.000000000000000000e+00,-5.551115123125782702e-17,-2.775557561562891351e-17,-2.775557561562891351e-17,-2.775557561562891351e-17,-5.551115123125782702e-17,-2.775557561562891351e-17,-2.775557561562891351e-17,-2.775557561562891351e-17,-2.775557561562891351e-17,-2.775557561562891351e-17,-2.775557561562891351e-17,0.000000000000000000e+00,-2.775557561562891351e-17,-2.775557561562891351e-17,-2.775557561562891351e-17,-2.775557561562891351e-17,-2.775557561562891351e-17,-2.775557561562891351e-17,-2.775557561562891351e-17,-2.775557561562891351e-17,-2.775557561562891351e-17,-2.775557561562891351e-17,-1.175079697501810044e-01,-1.566772930002413300e-01,-1.566772930002413300e-01
-1.566772930002413300e-01,-1.566772930002413300e-01,-1.566772930002413300e-01,-1.566772930002413300e-01,-1.566772930002413300e-01,-1.566772930002413300e-01,-1.556980599189898284e-01,-1.454161125658489928e-01,-1.351341652127081572e-01,-1.253418344001930862e-01,-1.150598870470522367e-01,-1.047779396939113872e-01,-9.449599234077056542e-02,-8.421404498762972979e-02,-7.393209763448889416e-02,-6.365015028134804465e-02,-5.336820292820722289e-02,-4.357587211569215191e-02,-3.329392476255131628e-02,-2.301197740941049452e-02,-1.273003005626965889e-02,-2.448082703128823256e-03,-2.775557561562891351e-17,-2.775557561562891351e-17,-2.775557561562891351e-17,-2.775557561562891351e-17,-2.775557561562891351e-17,-2.775557561562891351e-17,-2.775557561562891351e-17,-5.551115123125782702e-17,-2.775557561562891351e-17,-2.775557561562891351e-17,-2.775557561562891351e-17,-2.775557561562891351e-17,-2.775557561562891351e-17,-2.775557561562891351e-17,-2.775557561562891351e-17,-2.775557561562891351e-17,-2.775557561562891351e-17,-2.775557561562891351e-17,-2.775557561562891351e-17,-2.775557561562891351e-17,-2.775557561562891351e-17,-9.792330812515084859e-02,-1.566772930002413300e-01,-1.566772930002413300e-01,-1.566772930002413300e-01
-1.566772930002413300e-01,-1.566772930002413300e-01,-1.566772930002413300e-01,-1.566772930002413300e-01,-1.566772930002413300e-01,-1.566772930002413300e-01,-1.566772930002413300e-01,-1.566772930002413300e-01,-1.473745787283519959e-01,-1.370926313752111603e-01,-1.268106840220703246e-01,-1.165287366689295029e-01,-1.062467893157886534e-01,-9.596484196264783162e-02,-8.568289460950699599e-02,-7.589056379699191113e-02,-6.560861644385107549e-02,-5.532666909071023986e-02,-4.504472173756940423e-02,-3.476277438442858247e-02,-2.448082703128773296e-02,-1.419887967814689733e-02,-3.916932325006033944e-03,-2.775557561562891351e-17,-2.775557561562891351e-17,-2.775557561562891351e-17,-2.775557561562891351e-17,-2.775557561562891351e-17,-2.775557561562891351e-17,-2.775557561562891351e-17,-2.775557561562891351e-17,-2.775557561562891351e-17,-2.775557561562891351e-17,-2.775557561562891351e-17,-2.775557561562891351e-17,-2.775557561562891351e-17,-2.775557561562891351e-17,-2.775557561562891351e-17,-2.775557561562891351e-17,-2.775557561562891351e-17,-2.775557561562891351e-17,-2.775557561562891351e-17,-8.323481190637821436e-02,-1.566772930002413300e-01,-1.566772930002413300e-01,-1.566772930002413300e-01,-1.566772930002413300e-01
-1.566772930002413300e-01,-1.566772930002413300e-01,-1.566772930002413300e-01,-1.566772930002413300e-01,-1.566772930002413300e-01,-1.566772930002413300e-01,-1.566772930002413300e-01,-1.566772930002413300e-01,-1.566772930002413300e-01,-1.488434283502292621e-01,-1.385614809970884265e-01,-1.282795336439475908e-01,-1.179975862908067552e-01,-1.082052554782916703e-01,-9.792330812515084859e-02,-8.764136077201001296e-02,-7.735941341886917733e-02,-6.707746606572832782e-02,-5.679551871258749218e-02,-4.651357135944667043e-02,-3.623162400630584867e-02,-2.643929319379076381e-02,-1.615734584064992818e-02,-5.875398487509092549e-03,-2.775557561562891351e-17,0.000000000000000000e+00,-2.775557561562891351e-17,-2.775557561562891351e-17,0.000000000000000000e+00,-2.775557561562891351e-17,0.000000000000000000e+00,-2.775557561562891351e-17,-2.775557561562891351e-17,-2.775557561562891351e-17,0.000000000000000000e+00,-2.775557561562891351e-17,-2.775557561562891351e-17,-5.551115123125782702e-17,-2.775557561562891351e-17,-2.775557561562891351e-17,-2.775557561562891351e-17,-6.854631568760560789e-02,-1.566772930002413300e-01,-1.566772930002413300e-01,-1.566772930002413300e-01,-1.566772930002413300e-01,-1.566772930002413300e-01
-1.566772930002413300e-01,-1.566772930002413300e-01,-1.566772930002413300e-01,-1.566772930002413300e-01,-1.566772930002413300e-01,-1.566772930002413300e-01,-1.566772930002413300e-01,-1.566772930002413300e-01,-1.566772930002413300e-01,-1.566772930002413300e-01,-1.503122779721065283e-01,-1.405199471595914573e-01,-1.302379998064506217e-01,-1.199560524533097722e-01,-1.096741051001689365e-01,-9.939215774702811479e-02,-8.911021039388726528e-02,-7.882826304074644352e-02,-6.854631568760558014e-02,-5.875398487509050915e-02,-4.847203752194968740e-02,-3.819009016880883789e-02,-2.790814281566803001e-02,-1.762619546252716662e-02,-7.344248109386330992e-03,-2.775557561562891351e-17,-2.775557561562891351e-17,-2.775557561562891351e-17,-2.775557561562891351e-17,-2.775557561562891351e-17,-2.775557561562891351e-17,-2.775557561562891351e-17,-2.775557561562891351e-17,-5.551115123125782702e-17,-2.775557561562891351e-17,-5.551115123125782702e-17,-2.775557561562891351e-17,-2.775557561562891351e-17,-2.775557561562891351e-17,-2.775557561562891351e-17,-4.896165406257543817e-02,-1.566772930002413300e-01,-1.566772930002413300e-01,-1.566772930002413300e-01,-1.566772930002413300e-01,-1.566772930002413300e-01,-1.566772930002413300e-01
-1.566772930002413300e-01,-1.566772930002413300e-01,-1.566772930002413300e-01,-1.566772930002413300e-01,-1.566772930002413300e-01,-1.566772930002413300e-01,-1.566772930002413300e-01,-1.566772930002413300e-01,-1.566772930002413300e-01,-1.566772930002413300e-01,-1.566772930002413300e-01,-1.522707441346095314e-01,-1.419887967814686958e-01,-1.317068494283278879e-01,-1.214249020751870384e-01,-1.111429547220462166e-01,-1.008610073689053671e-01,-9.106867655639028225e-02,-8.078672920324944662e-02,-7.050478185010861099e-02,-6.022283449696777535e-02,-4.994088714382695360e-02,-3.965893979068610409e-02,-2.937699243754526846e-02,-1.909504508440443282e-02,-9.302714271889361841e-03,-2.775557561562891351e-17,-2.775557561562891351e-17,-2.775557561562891351e-17,-2.775557561562891351e-17,-2.775557561562891351e-17,-2.775557561562891351e-17,-2.775557561562891351e-17,-2.775557561562891351e-17,-2.775557561562891351e-17,-2.775557561562891351e-17,-2.775557561562891351e-17,-2.775557561562891351e-17,0.000000000000000000e+00,-3.427315784380280395e-02,-1.517811275939837945e-01,-1.566772930002413300e-01,-1.566772930002413300e-01,-1.566772930002413300e-01,-1.566772930002413300e-01,-1.566772930002413300e-01,-1.566772930002413300e-01
-1.566772930002413300e-01,-1.566772930002413300e-01,-1.566772930002413300e-01,-1.566772930002413300e-01,-1.566772930002413300e-01,-1.566772930002413300e-01,-1.566772930002413300e-01,-1.566772930002413300e-01,-1.566772930002413300e-01,-1.566772930002413300e-01,-1.566772930002413300e-01,-1.566772930002413300e-01,-1.537395937564867976e-01,-1.434576464033459620e-01,-1.331756990502051541e-01,-1.233833682376900553e-01,-1.131014208845492197e-01,-1.028194735314083841e-01,-9.253752617826754845e-02,-8.225557882512672669e-02,-7.197363147198587718e-02,-6.169168411884504155e-02,-5.140973676570420592e-02,-4.161740595318913494e-02,-3.133545860004829930e-02,-2.105351124690743592e-02,-1.077156389376660028e-02,-4.896165406257924069e-04,-2.775557561562891351e-17,-2.775557561562891351e-17,0.000000000000000000e+00,-2.775557561562891351e-17,-2.775557561562891351e-17,-2.775557561562891351e-17,-2.775557561562891351e-17,-2.775557561562891351e-17,-2.775557561562891351e-17,-2.775557561562891351e-17,-1.958466162503019747e-02,-1.370926313752111603e-01,-1.566772930002413300e-01,-1.566772930002413300e-01,-1.566772930002413300e-01,-1.566772930002413300e-01,-1.566772930002413300e-01,-1.566772930002413300e-01,-1.566772930002413300e-01
-1.566772930002413300e-01,-1.566772930002413300e-01,-1.566772930002413300e-01,-1.566772930002413300e-01,-1.566772930002413300e-01,-1.566772930002413300e-01,-1.566772930002413300e-01,-1.566772930002413300e-01,-1.566772930002413300e-01,-1.566772930002413300e-01,-1.566772930002413300e-01,-1.566772930002413300e-01,-1.566772930002413300e-01,-1.556980599189898284e-01,-1.454161125658489928e-01,-1.351341652127081572e-01,-1.248522178595673215e-01,-1.145702705064264720e-01,-1.042883231532856503e-01,-9.400637580014481465e-02,-8.372442844700396514e-02,-7.393209763448888028e-02,-6.365015028134804465e-02,-5.336820292820722289e-02,-4.308625557506640114e-02,-3.280430822192555163e-02,-2.252236086878472987e-02,-1.224041351564389424e-02,-1.958466162503030850e-03,-2.775557561562891351e-17,-2.775557561562891351e-17,-2.775557561562891351e-17,-2.775557561562891351e-17,-2.775557561562891351e-17,-2.775557561562891351e-17,-2.775557561562891351e-17,-2.775557561562891351e-17,-2.775557561562891351e-17,-1.175079697501810044e-01,-1.566772930002413300e-01,-1.566772930002413300e-01,-1.566772930002413300e-01,-1.566772930002413300e-01,-1.566772930002413300e-01,-1.566772930002413300e-01,-1.566772930002413300e-01,-1.566772930002413300e-01
-1.566772930002413300e-01,-1.566772930002413300e-01,-1.566772930002413300e-01,-1.566772930002413300e-01,-1.566772930002413300e-01,-1.566772930002413300e-01,-1.566772930002413300e-01,-1.566772930002413300e-01,-1.566772930002413300e-01,-1.566772930002413300e-01,-1.566772930002413300e-01,-1.566772930002413300e-01,-1.566772930002413300e-01,-1.566772930002413300e-01,-1.566772930002413300e-01,-1.468849621877262590e-01,-1.366030148345854234e-01,-1.263210674814445877e-01,-1.160391201283037382e-01,-1.062467893157886534e-01,-9.596484196264784550e-02,-8.568289460950699599e-02,-7.540094725636614648e-02,-6.511899990322531084e-02,-5.483705255008447521e-02,-4.455510519694363958e-02,-3.427315784380281782e-02,-2.448082703128776072e-02,-1.419887967814689733e-02,-3.916932325006089455e-03,-2.775557561562891351e-17,-5.551115123125782702e-17,-2.775557561562891351e-17,-2.775557561562891351e-17,-2.775557561562891351e-17,-2.775557561562891351e-17,-2.775557561562891351e-17,-1.028194735314083841e-01,-1.566772930002413300e-01,-1.566772930002413300e-01,-1.566772930002413300e-01,-1.566772930002413300e-01,-1.566772930002413300e-01,-1.566772930002413300e-01,-1.566772930002413300e-01,-1.566772930002413300e-01,-1.566772930002413300e-01
-1.566772930002413300e-01,-1.566772930002413300e-01,-1.566772930002413300e-01,-1.566772930002413300e-01,-1.566772930002413300e-01,-1.566772930002413300e-01,-1.566772930002413300e-01,-1.566772930002413300e-01,-1.566772930002413300e-01,-1.566772930002413300e-01,-1.566772930002413300e-01,-1.566772930002413300e-01,-1.566772930002413300e-01,-1.566772930002413300e-01,-1.566772930002413300e-01,-1.566772930002413300e-01,-1.483538118096034975e-01,-1.385614809970884265e-01,-1.282795336439475908e-01,-1.179975862908067552e-01,-1.077156389376659196e-01,-9.743369158452508394e-02,-8.715174423138424831e-02,-7.686979687824341267e-02,-6.658784952510259092e-02,-5.679551871258750606e-02,-4.651357135944667043e-02,-3.623162400630583480e-02,-2.594967665316499916e-02,-1.566772930002416353e-02,-5.385781946883327898e-03,-2.775557561562891351e-17,0.000000000000000000e+00,-2.775557561562891351e-17,0.000000000000000000e+00,-2.775557561562891351e-17,-8.813097731263576373e-02,-1.566772930002413300e-01,-1.566772930002413300e-01,-1.566772930002413300e-01,-1.566772930002413300e-01,-1.566772930002413300e-01,-1.566772930002413300e-01,-1.566772930002413300e-01,-1.566772930002413300e-01,-1.566772930002413300e-01,-1.566772930002413300e-01
-1.566772930002413300e-01,-1.566772930002413300e-01,-1.566772930002413300e-01,-1.566772930002413300e-01,-1.566772930002413300e-01,-1.566772930002413300e-01,-1.566772930002413300e-01,-1.566772930002413300e-01,-1.566772930002413300e-01,-1.566772930002413300e-01,-1.566772930002413300e-01,-1.566772930002413300e-01,-1.566772930002413300e-01,-1.566772930002413300e-01,-1.566772930002413300e-01,-1.566772930002413300e-01,-1.566772930002413300e-01,-1.503122779721065283e-01,-1.400303306189656927e-01,-1.297483832658248570e-01,-1.194664359126840214e-01,-1.091844885595431858e-01,-9.890254120640235014e-02,-8.911021039388727916e-02,-7.882826304074642965e-02,-6.854631568760559401e-02,-5.826436833446475838e-02,-4.798242098132392275e-02,-3.770047362818311487e-02,-2.741852627504226536e-02,-1.713657892190142973e-02,-7.344248109386358747e-03,-2.775557561562891351e-17,-2.775557561562891351e-17,-2.775557561562891351e-17,-6.854631568760559401e-02,-1.566772930002413300e-01,-1.566772930002413300e-01,-1.566772930002413300e-01,-1.566772930002413300e-01,-1.566772930002413300e-01,-1.566772930002413300e-01,-1.566772930002413300e-01,-1.566772930002413300e-01,-1.566772930002413300e-01,-1.566772930002413300e-01,-1.566772930002413300e-01
-1.566772930002413300e-01,-1.566772930002413300e-01,-1.566772930002413300e-01,-1.566772930002413300e-01,-1.566772930002413300e-01,-1.566772930002413300e-01,-1.566772930002413300e-01,-1.566772930002413300e-01,-1.566772930002413300e-01,-1.566772930002413300e-01,-1.566772930002413300e-01,-1.566772930002413300e-01,-1.566772930002413300e-01,-1.566772930002413300e-01,-1.566772930002413300e-01,-1.566772930002413300e-01,-1.566772930002413300e-01,-1.566772930002413300e-01,-1.517811275939837945e-01,-1.414991802408429589e-01,-1.312172328877021232e-01,-1.214249020751870384e-01,-1.111429547220461889e-01,-1.008610073689053671e-01,-9.057906001576454535e-02,-8.029711266262370972e-02,-7.001516530948286021e-02,-5.973321795634202458e-02,-4.945127060320117507e-02,-3.965893979068610409e-02,-2.937699243754529621e-02,-1.909504508440446058e-02,-8.813097731263597190e-03,-2.775557561562891351e-17,-5.385781946883297366e-02,-1.566772930002413300e-01,-1.566772930002413300e-01,-1.566772930002413300e-01,-1.566772930002413300e-01,-1.566772930002413300e-01,-1.566772930002413300e-01,-1.566772930002413300e-01,-1.566772930002413300e-01,-1.566772930002413300e-01,-1.566772930002413300e-01,-1.566772930002413300e-01,-1.566772930002413300e-01
