-5.025556885809301377e-02,-5.025556885809301377e-02,-5.025556885809301377e-02,-5.025556885809301377e-02,-5.025556885809301377e-02,-5.025556885809301377e-02,-5.025556885809301377e-02,-5.025556885809301377e-02,-5.025556885809301377e-02,-5.025556885809301377e-02,-5.025556885809301377e-02,-5.025556885809301377e-02,-5.025556885809301377e-02,-5.025556885809301377e-02,-5.025556885809301377e-02,-5.025556885809301377e-02,-5.025556885809301377e-02,-5.025556885809301377e-02,-5.025556885809301377e-02,-5.025556885809301377e-02,-5.025556885809301377e-02,-5.025556885809301377e-02,-5.025556885809301377e-02,-5.025556885809301377e-02,-5.025556885809301377e-02,-5.025556885809301377e-02,-5.025556885809301377e-02,-4.992243535240489805e-02,-4.935134934265383855e-02,-4.878026333290278599e-02,-4.820917732315172649e-02,-4.763809131340066699e-02,-4.706700530364961443e-02,-4.644832879308596896e-02,-4.587724278333490946e-02,-4.530615677358384996e-02,-4.473507076383279740e-02,-4.416398475408173790e-02,-4.359289874433068535e-02,-4.663869079633631981e-02,-5.025556885809301377e-02,-5.025556885809301377e-02,-5.025556885809301377e-02,-5.025556885809301377e-02,-5.025556885809301377e-02,-5.025556885809301377e-02,-5.025556885809301377e-02
-5.025556885809301377e-02,-5.025556885809301377e-02,-5.025556885809301377e-02,-5.025556885809301377e-02,-5.025556885809301377e-02,-5.025556885809301377e-02,-5.025556885809301377e-02,-5.025556885809301377e-02,-5.025556885809301377e-02,-5.025556885809301377e-02,-5.025556885809301377e-02,-5.025556885809301377e-02,-5.025556885809301377e-02,-5.025556885809301377e-02,-5.025556885809301377e-02,-5.025556885809301377e-02,-5.025556885809301377e-02,-5.025556885809301377e-02,-5.025556885809301377e-02,-5.025556885809301377e-02,-5.025556885809301377e-02,-5.025556885809301377e-02,-5.025556885809301377e-02,-5.025556885809301377e-02,-5.025556885809301377e-02,-4.968448284834195428e-02,-4.911339683859090172e-02,-4.849472032802725624e-02,-4.792363431827619674e-02,-4.735254830852514418e-02,-4.678146229877408468e-02,-4.621037628902302519e-02,-4.563929027927197263e-02,-4.506820426952091313e-02,-4.449711825976985363e-02,-4.392603225001880107e-02,-4.335494624026774158e-02,-4.273626972970409610e-02,-4.216518371995303660e-02,-4.267678160368836016e-02,-5.025556885809301377e-02,-5.025556885809301377e-02,-5.025556885809301377e-02,-5.025556885809301377e-02,-5.025556885809301377e-02,-5.025556885809301377e-02,-5.025556885809301377e-02
-5.025556885809301377e-02,-5.025556885809301377e-02,-5.025556885809301377e-02,-5.025556885809301377e-02,-5.025556885809301377e-02,-5.025556885809301377e-02,-5.025556885809301377e-02,-5.025556885809301377e-02,-5.025556885809301377e-02,-5.025556885809301377e-02,-5.025556885809301377e-02,-5.025556885809301377e-02,-5.025556885809301377e-02,-5.025556885809301377e-02,-5.025556885809301377e-02,-5.025556885809301377e-02,-5.025556885809301377e-02,-5.025556885809301377e-02,-5.025556885809301377e-02,-5.025556885809301377e-02,-5.025556885809301377e-02,-5.025556885809301377e-02,-4.997002585321748402e-02,-4.939893984346643147e-02,-4.882785383371537197e-02,-4.825676782396431247e-02,-4.768568181421325991e-02,-4.711459580446220041e-02,-4.654350979471114091e-02,-4.597242378496008836e-02,-4.540133777520902886e-02,-4.478266126464538338e-02,-4.421157525489433082e-02,-4.364048924514327132e-02,-4.306940323539221183e-02,-4.249831722564115927e-02,-4.192723121589009977e-02,-4.135614520613904027e-02,-4.078505919638798771e-02,-4.021397318663692821e-02,-4.693910583271578008e-02,-5.025556885809301377e-02,-5.025556885809301377e-02,-5.025556885809301377e-02,-5.025556885809301377e-02,-5.025556885809301377e-02,-5.025556885809301377e-02
-5.025556885809301377e-02,-5.025556885809301377e-02,-5.025556885809301377e-02,-5.025556885809301377e-02,-5.025556885809301377e-02,-5.025556885809301377e-02,-5.025556885809301377e-02,-5.025556885809301377e-02,-5.025556885809301377e-02,-5.025556885809301377e-02,-5.025556885809301377e-02,-5.025556885809301377e-02,-5.025556885809301377e-02,-5.025556885809301377e-02,-5.025556885809301377e-02,-5.025556885809301377e-02,-5.025556885809301377e-02,-5.025556885809301377e-02,-5.025556885809301377e-02,-5.025556885809301377e-02,-4.973207334915454719e-02,-4.916098733940348769e-02,-4.858990132965242820e-02,-4.801881531990137564e-02,-4.740013880933773016e-02,-4.682905279958667066e-02,-4.625796678983561117e-02,-4.568688078008455861e-02,-4.511579477033349911e-02,-4.454470876058244655e-02,-4.397362275083138705e-02,-4.340253674108032755e-02,-4.283145073132927499e-02,-4.226036472157821550e-02,-4.168927871182716294e-02,-4.107060220126351746e-02,-4.049951619151245796e-02,-3.992843018176139847e-02,-3.935734417201033897e-02,-3.878625816225928641e-02,-4.160153372595394583e-02,-5.025556885809301377e-02,-5.025556885809301377e-02,-5.025556885809301377e-02,-5.025556885809301377e-02,-5.025556885809301377e-02,-5.025556885809301377e-02
-5.025556885809301377e-02,-5.025556885809301377e-02,-5.025556885809301377e-02,-5.025556885809301377e-02,-5.025556885809301377e-02,-5.025556885809301377e-02,-5.025556885809301377e-02,-5.025556885809301377e-02,-5.025556885809301377e-02,-5.025556885809301377e-02,-5.025556885809301377e-02,-5.025556885809301377e-02,-5.025556885809301377e-02,-5.025556885809301377e-02,-5.025556885809301377e-02,-5.025556885809301377e-02,-5.025556885809301377e-02,-5.001761635403007000e-02,-4.944653034427901744e-02,-4.887544433452795795e-02,-4.830435832477690539e-02,-4.773327231502584589e-02,-4.716218630527478639e-02,-4.659110029552373383e-02,-4.602001428577267433e-02,-4.544892827602161484e-02,-4.487784226627056228e-02,-4.430675625651950278e-02,-4.368807974595585730e-02,-4.311699373620479780e-02,-4.254590772645374525e-02,-4.197482171670268575e-02,-4.140373570695163319e-02,-4.083264969720057369e-02,-4.026156368744951419e-02,-3.969047767769846163e-02,-3.911939166794740214e-02,-3.854830565819634958e-02,-3.797721964844529008e-02,-3.735854313788164460e-02,-3.678745712813058510e-02,-4.806194421126278038e-02,-5.025556885809301377e-02,-5.025556885809301377e-02,-5.025556885809301377e-02,-5.025556885809301377e-02,-5.025556885809301377e-02
-5.025556885809301377e-02,-5.025556885809301377e-02,-5.025556885809301377e-02,-5.025556885809301377e-02,-5.025556885809301377e-02,-5.025556885809301377e-02,-5.025556885809301377e-02,-5.025556885809301377e-02,-5.025556885809301377e-02,-5.025556885809301377e-02,-5.025556885809301377e-02,-5.025556885809301377e-02,-5.025556885809301377e-02,-5.025556885809301377e-02,-5.025556885809301377e-02,-4.977966384996713317e-02,-4.920857784021607367e-02,-4.863749183046502111e-02,-4.806640582071396162e-02,-4.749531981096290212e-02,-4.692423380121184956e-02,-4.630555729064820408e-02,-4.573447128089714458e-02,-4.516338527114609203e-02,-4.459229926139503253e-02,-4.402121325164397303e-02,-4.345012724189292047e-02,-4.287904123214186097e-02,-4.230795522239080148e-02,-4.173686921263974892e-02,-4.116578320288868942e-02,-4.059469719313762992e-02,-3.997602068257398444e-02,-3.940493467282293188e-02,-3.883384866307187239e-02,-3.826276265332081983e-02,-3.769167664356976033e-02,-3.712059063381870083e-02,-3.654950462406764827e-02,-3.597841861431658878e-02,-3.540733260456553622e-02,-4.206405390572628966e-02,-5.025556885809301377e-02,-5.025556885809301377e-02,-5.025556885809301377e-02,-5.025556885809301377e-02,-5.025556885809301377e-02
-5.025556885809301377e-02,-5.025556885809301377e-02,-5.025556885809301377e-02,-5.025556885809301377e-02,-5.025556885809301377e-02,-5.025556885809301377e-02,-5.025556885809301377e-02,-5.025556885809301377e-02,-5.025556885809301377e-02,-5.025556885809301377e-02,-5.025556885809301377e-02,-5.025556885809301377e-02,-5.011279735565524890e-02,-4.954171134590418940e-02,-4.897062533615313684e-02,-4.835194882558949137e-02,-4.778086281583843187e-02,-4.720977680608737931e-02,-4.663869079633631981e-02,-4.606760478658526031e-02,-4.549651877683420775e-02,-4.492543276708314826e-02,-4.435434675733208876e-02,-4.378326074758103620e-02,-4.321217473782997670e-02,-4.259349822726633122e-02,-4.202241221751527867e-02,-4.145132620776421917e-02,-4.088024019801315967e-02,-4.030915418826210017e-02,-3.973806817851104761e-02,-3.916698216875999505e-02,-3.859589615900893556e-02,-3.802481014925787606e-02,-3.745372413950681656e-02,-3.688263812975576400e-02,-3.626396161919211852e-02,-3.569287560944106596e-02,-3.512178959969000647e-02,-3.455070358993894697e-02,-3.397961758018788747e-02,-3.498794131615460407e-02,-5.025556885809301377e-02,-5.025556885809301377e-02,-5.025556885809301377e-02,-5.025556885809301377e-02,-5.025556885809301377e-02
-5.025556885809301377e-02,-5.025556885809301377e-02,-5.025556885809301377e-02,-5.025556885809301377e-02,-5.025556885809301377e-02,-5.025556885809301377e-02,-5.025556885809301377e-02,-1.929108276893007623e-01,-1.929108276893007623e-01,-1.929108276893007623e-01,-4.982725435077971915e-02,-4.925616834102866659e-02,-4.868508233127760709e-02,-4.811399632152654759e-02,-4.754291031177549504e-02,-4.697182430202443554e-02,-4.640073829227337604e-02,-4.582965228252232348e-02,-4.525856627277126398e-02,-4.463988976220761851e-02,-4.406880375245656595e-02,-4.349771774270550645e-02,-4.292663173295444695e-02,-4.235554572320339439e-02,-4.178445971345233489e-02,-4.121337370370127540e-02,-4.064228769395022284e-02,-4.007120168419916334e-02,-3.950011567444810384e-02,-3.888143916388446530e-02,-3.831035315413340581e-02,-3.773926714438234631e-02,-3.716818113463129375e-02,-3.659709512488023425e-02,-3.602600911512918169e-02,-3.545492310537812219e-02,-3.488383709562706270e-02,-3.431275108587600320e-02,-3.374166507612495758e-02,-3.317057906637389114e-02,-3.255190255581024567e-02,-3.198081654605919311e-02,-4.318837948742368371e-02,-5.025556885809301377e-02,-5.025556885809301377e-02,-5.025556885809301377e-02,-5.025556885809301377e-02
-5.025556885809301377e-02,-5.025556885809301377e-02,-5.025556885809301377e-02,-2.663100470395025621e-01,-2.663100470395025621e-01,-2.663100470395025621e-01,-5.025556885809301377e-02,-1.928156466876755903e-01,-1.922445606779245308e-01,-1.916734746681734713e-01,-4.844712982721466332e-02,-4.787604381746361076e-02,-4.725736730689996529e-02,-4.668628129714890579e-02,-4.611519528739785323e-02,-4.554410927764679373e-02,-4.497302326789573423e-02,-4.440193725814468168e-02,-4.383085124839362218e-02,-4.325976523864256268e-02,-4.268867922889151012e-02,-4.211759321914045062e-02,-4.154650720938939112e-02,-4.092783069882574565e-02,-4.035674468907469309e-02,-3.978565867932363359e-02,-3.921457266957258103e-02,-3.864348665982152153e-02,-3.807240065007046204e-02,-3.750131464031940948e-02,-3.693022863056834998e-02,-3.635914262081729742e-02,-3.578805661106623792e-02,-3.516938010050259245e-02,-3.459829409075153295e-02,-3.402720808100048039e-02,-3.345612207124942089e-02,-3.288503606149836833e-02,-3.231395005174730883e-02,-3.174286404199624934e-02,-3.117177803224519331e-02,-3.060069202249413728e-02,-3.508609672408056351e-02,-5.025556885809301377e-02,-5.025556885809301377e-02,-5.025556885809301377e-02,-5.025556885809301377e-02
-5.025556885809301377e-02,-5.025556885809301377e-02,-5.025556885809301377e-02,-2.663100470395025621e-01,-2.663100470395025621e-01,-2.659293230330018742e-01,-4.930375884184125257e-02,-1.913879316632979555e-01,-1.908168456535468960e-01,-1.902457596437958365e-01,-4.701941480283702152e-02,-4.644832879308596896e-02,-4.587724278333490946e-02,-4.530615677358384996e-02,-4.473507076383279740e-02,-4.416398475408173790e-02,-4.354530824351809243e-02,-4.297422223376703987e-02,-4.240313622401598037e-02,-4.183205021426492087e-02,-4.126096420451386831e-02,-4.068987819476280882e-02,-4.011879218501175626e-02,-3.954770617526069676e-02,-3.897662016550963726e-02,-3.840553415575857776e-02,-3.783444814600752520e-02,-3.721577163544387973e-02,-3.664468562569282023e-02,-3.607359961594176767e-02,-3.550251360619070817e-02,-3.493142759643964868e-02,-3.436034158668859612e-02,-3.378925557693754356e-02,-3.321816956718648406e-02,-3.264708355743542456e-02,-3.207599754768436506e-02,-3.145732103712071959e-02,-3.088623502736966356e-02,-3.031514901761860753e-02,-2.974406300786754803e-02,-2.917297699811649200e-02,-2.860189098836543597e-02,-4.608842563069076581e-02,-5.025556885809301377e-02,-5.025556885809301377e-02,-5.025556885809301377e-02
-5.025556885809301377e-02,-5.025556885809301377e-02,-5.020797835728042779e-02,-2.656913705289389860e-01,-2.651202845191878987e-01,-2.645491985094368115e-01,-4.792363431827619674e-02,-4.735254830852514418e-02,-4.678146229877408468e-02,-4.616278578821043921e-02,-4.559169977845937971e-02,-4.502061376870832715e-02,-4.444952775895726765e-02,-4.387844174920621509e-02,-4.330735573945515560e-02,-4.273626972970409610e-02,-4.216518371995303660e-02,-4.159409771020198404e-02,-4.102301170045092454e-02,-4.045192569069987198e-02,-3.983324918013621957e-02,-3.926216317038516701e-02,-3.869107716063410751e-02,-3.811999115088305495e-02,-3.754890514113199546e-02,-3.697781913138094290e-02,-3.640673312162988340e-02,-3.583564711187882390e-02,-3.526456110212776440e-02,-3.469347509237671184e-02,-3.407479858181306637e-02,-3.350371257206201381e-02,-3.293262656231095431e-02,-3.236154055255989481e-02,-3.179045454280883531e-02,-3.121936853305778276e-02,-3.064828252330672326e-02,-3.007719651355566376e-02,-2.950611050380460773e-02,-2.893502449405355170e-02,-2.836393848430249220e-02,-2.774526197373885367e-02,-2.717417596398779417e-02,-3.695104947467385548e-02,-5.025556885809301377e-02,-5.025556885809301377e-02,-5.025556885809301377e-02
-4.997002585321748402e-02,-4.939893984346643147e-02,-4.878026333290278599e-02,-4.820917732315172649e-02,-4.763809131340066699e-02,-4.706700530364961443e-02,-4.649591929389855494e-02,-4.592483328414749544e-02,-4.535374727439644288e-02,-4.478266126464538338e-02,-4.421157525489433082e-02,-4.364048924514327132e-02,-4.306940323539221183e-02,-4.245072672482856635e-02,-4.187964071507751379e-02,-4.130855470532645429e-02,-4.073746869557539479e-02,-4.016638268582434224e-02,-3.959529667607328274e-02,-3.902421066632222324e-02,-3.845312465657117068e-02,-3.788203864682011118e-02,-3.731095263706905862e-02,-3.673986662731799913e-02,-3.612119011675435365e-02,-3.555010410700329415e-02,-3.497901809725224159e-02,-3.440793208750118209e-02,-3.383684607775012954e-02,-3.326576006799907004e-02,-3.269467405824801054e-02,-3.212358804849695104e-02,-3.155250203874589154e-02,-3.098141602899484245e-02,-3.036273951843119698e-02,-2.979165350868013748e-02,-2.922056749892908145e-02,-2.864948148917802195e-02,-2.807839547942696592e-02,-2.750730946967590990e-02,-2.693622345992485387e-02,-2.636513745017379784e-02,-2.579405144042274181e-02,-2.678750314488551748e-02,-4.945545356318137992e-02,-5.025556885809301377e-02,-5.025556885809301377e-02
-4.854231082883984222e-02,-4.797122481908878272e-02,-4.740013880933773016e-02,-4.682905279958667066e-02,-4.625796678983561117e-02,-4.568688078008455861e-02,-4.506820426952091313e-02,-4.449711825976985363e-02,-4.392603225001880107e-02,-4.335494624026774158e-02,-4.278386023051668208e-02,-4.221277422076562952e-02,-4.164168821101457002e-02,-4.107060220126351746e-02,-4.049951619151245796e-02,-3.992843018176139847e-02,-3.935734417201033897e-02,-3.873866766144670043e-02,-3.816758165169564093e-02,-3.759649564194458837e-02,-3.702540963219352887e-02,-3.645432362244246938e-02,-3.588323761269140988e-02,-3.531215160294035732e-02,-3.474106559318929782e-02,-3.416997958343824526e-02,-3.359889357368718577e-02,-3.302780756393612627e-02,-3.240913105337248079e-02,-3.183804504362142129e-02,-3.126695903387037567e-02,-3.069587302411931271e-02,-3.012478701436825668e-02,-2.955370100461719718e-02,-2.898261499486614115e-02,-2.841152898511508512e-02,-2.784044297536402562e-02,-2.726935696561297306e-02,-2.665068045504932759e-02,-2.607959444529826809e-02,-2.550850843554720859e-02,-2.493742242579615603e-02,-2.436633641604509654e-02,-2.379525040629403704e-02,-3.927406079558831697e-02,-5.025556885809301377e-02,-5.025556885809301377e-02
-4.711459580446220041e-02,-4.654350979471114091e-02,-4.597242378496008836e-02,-4.540133777520902886e-02,-4.483025176545797630e-02,-4.425916575570691680e-02,-4.368807974595585730e-02,-4.311699373620480474e-02,-4.254590772645374525e-02,-4.197482171670268575e-02,-4.135614520613904027e-02,-4.078505919638798771e-02,-4.021397318663692821e-02,-3.964288717688586872e-02,-3.907180116713481616e-02,-3.850071515738375666e-02,-3.792962914763270410e-02,-3.735854313788164460e-02,-3.678745712813058510e-02,-3.621637111837952561e-02,-3.564528510862847305e-02,-3.502660859806482757e-02,-3.445552258831377501e-02,-3.388443657856271551e-02,-3.331335056881165602e-02,-3.274226455906059652e-02,-3.217117854930953702e-02,-3.160009253955848446e-02,-3.102900652980742843e-02,-3.045792052005637240e-02,-2.988683451030531291e-02,-2.931574850055425688e-02,-2.869707198999061140e-02,-2.812598598023955537e-02,-2.755489997048849588e-02,-2.698381396073743985e-02,-2.641272795098638382e-02,-2.584164194123533126e-02,-2.527055593148427176e-02,-2.469946992173321226e-02,-2.412838391198215623e-02,-2.355729790223110021e-02,-2.298621189248004418e-02,-2.236753538191639870e-02,-2.802188175971202094e-02,-5.025556885809301377e-02,-5.025556885809301377e-02
-4.573447128089714458e-02,-4.516338527114609203e-02,-4.459229926139503253e-02,-4.402121325164397303e-02,-4.340253674108032755e-02,-4.283145073132927499e-02,-4.226036472157821550e-02,-4.168927871182716294e-02,-4.111819270207610344e-02,-4.054710669232504394e-02,-3.997602068257398444e-02,-3.940493467282293188e-02,-3.883384866307187239e-02,-3.826276265332081983e-02,-3.764408614275717435e-02,-3.707300013300611485e-02,-3.650191412325505536e-02,-3.593082811350400280e-02,-3.535974210375294330e-02,-3.478865609400189074e-02,-3.421757008425083124e-02,-3.364648407449977174e-02,-3.307539806474871225e-02,-3.250431205499765969e-02,-3.193322604524660019e-02,-3.131454953468296165e-02,-3.074346352493190215e-02,-3.017237751518084266e-02,-2.960129150542978663e-02,-2.903020549567872713e-02,-2.845911948592767457e-02,-2.788803347617661507e-02,-2.731694746642555904e-02,-2.674586145667450301e-02,-2.617477544692344352e-02,-2.560368943717238749e-02,-2.498501292660874201e-02,-2.441392691685768251e-02,-2.384284090710662996e-02,-2.327175489735557740e-02,-2.270066888760451443e-02,-2.212958287785345840e-02,-2.155849686810240584e-02,-2.098741085835134287e-02,-2.041632484860029031e-02,-4.360330916638343463e-02,-5.025556885809301377e-02
-4.430675625651950278e-02,-4.373567024676844328e-02,-4.316458423701739072e-02,-4.259349822726633122e-02,-4.202241221751527867e-02,-4.145132620776421917e-02,-4.088024019801315967e-02,-4.030915418826210017e-02,-3.969047767769845469e-02,-3.911939166794740214e-02,-3.854830565819634958e-02,-3.797721964844529008e-02,-3.740613363869423058e-02,-3.683504762894317108e-02,-3.626396161919211852e-02,-3.569287560944105903e-02,-3.512178959969000647e-02,-3.455070358993894697e-02,-3.393202707937530149e-02,-3.336094106962424199e-02,-3.278985505987318944e-02,-3.221876905012212994e-02,-3.164768304037107738e-02,-3.107659703062001441e-02,-3.050551102086896185e-02,-2.993442501111790582e-02,-2.936333900136684286e-02,-2.879225299161578683e-02,-2.822116698186473427e-02,-2.760249047130108879e-02,-2.703140446155002929e-02,-2.646031845179896980e-02,-2.588923244204791724e-02,-2.531814643229685774e-02,-2.474706042254579824e-02,-2.417597441279474221e-02,-2.360488840304368618e-02,-2.303380239329263363e-02,-2.246271638354157413e-02,-2.189163037379051810e-02,-2.127295386322687609e-02,-2.070186785347581312e-02,-2.013078184372475710e-02,-1.955969583397370107e-02,-1.898860982422264504e-02,-3.135172961344279141e-02,-5.025556885809301377e-02
-4.292663173295444695e-02,-4.230795522239080841e-02,-4.173686921263974892e-02,-4.116578320288868942e-02,-4.059469719313762992e-02,-4.002361118338657736e-02,-3.945252517363551786e-02,-3.888143916388446530e-02,-3.831035315413340581e-02,-3.773926714438234631e-02,-3.716818113463129375e-02,-3.659709512488023425e-02,-3.597841861431658878e-02,-3.540733260456553622e-02,-3.483624659481447672e-02,-3.426516058506341722e-02,-3.369407457531235772e-02,-3.312298856556130516e-02,-3.255190255581024567e-02,-3.198081654605919311e-02,-3.140973053630813361e-02,-3.083864452655707758e-02,-3.021996801599343210e-02,-2.964888200624237607e-02,-2.907779599649131658e-02,-2.850670998674026055e-02,-2.793562397698920452e-02,-2.736453796723814502e-02,-2.679345195748708899e-02,-2.622236594773603297e-02,-2.565127993798497694e-02,-2.508019392823392091e-02,-2.450910791848286141e-02,-2.389043140791921593e-02,-2.331934539816815991e-02,-2.274825938841710388e-02,-2.217717337866604785e-02,-2.160608736891499182e-02,-2.103500135916393232e-02,-2.046391534941287629e-02,-1.989282933966181680e-02,-1.932174332991076077e-02,-1.875065732015970821e-02,-1.817957131040864871e-02,-1.756089479984500323e-02,-1.698980879009395067e-02,-4.814076597823362808e-02
-4.149891670857680515e-02,-4.092783069882574565e-02,-4.035674468907469309e-02,-3.978565867932363359e-02,-3.921457266957258103e-02,-3.859589615900893556e-02,-3.802481014925787606e-02,-3.745372413950681656e-02,-3.688263812975576400e-02,-3.631155212000470450e-02,-3.574046611025365194e-02,-3.516938010050259245e-02,-3.459829409075153295e-02,-3.402720808100047345e-02,-3.345612207124942089e-02,-3.288503606149836833e-02,-3.226635955093472286e-02,-3.169527354118366336e-02,-3.112418753143260386e-02,-3.055310152168155130e-02,-2.998201551193049180e-02,-2.941092950217943230e-02,-2.883984349242837281e-02,-2.826875748267732025e-02,-2.769767147292626075e-02,-2.712658546317520819e-02,-2.650790895261156271e-02,-2.593682294286050669e-02,-2.536573693310944719e-02,-2.479465092335839116e-02,-2.422356491360733166e-02,-2.365247890385627216e-02,-2.308139289410521960e-02,-2.251030688435416358e-02,-2.193922087460311102e-02,-2.136813486485205152e-02,-2.079704885510099202e-02,-2.017837234453734654e-02,-1.960728633478629052e-02,-1.903620032503523102e-02,-1.846511431528417152e-02,-1.789402830553311202e-02,-1.732294229578205946e-02,-1.675185628603100690e-02,-1.618077027627994741e-02,-1.560968426652889485e-02,-3.484814422001762668e-02
-4.007120168419916334e-02,-3.950011567444811078e-02,-3.892902966469705128e-02,-3.835794365494599178e-02,-3.778685764519493923e-02,-3.721577163544387973e-02,-3.664468562569282023e-02,-3.607359961594176767e-02,-3.550251360619070817e-02,-3.488383709562706270e-02,-3.431275108587600320e-02,-3.374166507612495064e-02,-3.317057906637389808e-02,-3.259949305662283858e-02,-3.202840704687177908e-02,-3.145732103712071959e-02,-3.088623502736966703e-02,-3.031514901761860753e-02,-2.974406300786754803e-02,-2.917297699811648853e-02,-2.855430048755284653e-02,-2.798321447780179397e-02,-2.741212846805073447e-02,-2.684104245829967844e-02,-2.626995644854861894e-02,-2.569887043879756638e-02,-2.512778442904651036e-02,-2.455669841929544739e-02,-2.398561240954439136e-02,-2.341452639979333533e-02,-2.279584988922968986e-02,-2.222476387947863730e-02,-2.165367786972758127e-02,-2.108259185997651830e-02,-2.756379473001138170e-01,-2.750668612903627297e-01,-2.744957752806116424e-01,-1.879824782097228725e-02,-1.822716181122123469e-02,-1.765607580147017519e-02,-1.708498979171912263e-02,-1.646631328115547716e-02,-1.589522727140441766e-02,-1.532414126165335816e-02,-1.475305525190230560e-02,-1.418196924215124610e-02,-2.048176178721759430e-02
-3.869107716063410751e-02,-3.811999115088305495e-02,-3.750131464031940948e-02,-3.693022863056834998e-02,-3.635914262081729742e-02,-3.578805661106623792e-02,-3.521697060131517842e-02,-3.464588459156412587e-02,-3.407479858181306637e-02,-3.350371257206201381e-02,-3.293262656231095431e-02,-3.236154055255989481e-02,-3.179045454280883531e-02,-3.117177803224519331e-02,-3.060069202249413381e-02,-3.002960601274307778e-02,-2.945852000299202175e-02,-2.888743399324096225e-02,-2.831634798348990970e-02,-2.774526197373885020e-02,-2.717417596398779417e-02,-2.660308995423673467e-02,-2.603200394448568211e-02,-2.546091793473462261e-02,-2.484224142417097714e-02,-2.427115541441991764e-02,-2.370006940466886508e-02,-2.312898339491780558e-02,-2.255789738516674955e-02,-2.198681137541569353e-02,-2.141572536566463750e-02,-2.084463935591357800e-02,-2.027355334616252197e-02,-1.970246733641146941e-02,-2.742102322757361543e-01,-2.736391462659850671e-01,-2.730680602562340353e-01,-1.737053279659464544e-02,-1.679944678684359288e-02,-1.622836077709254032e-02,-1.565727476734148083e-02,-1.508618875759042133e-02,-1.451510274783936183e-02,-1.394401673808830233e-02,-1.337293072833724977e-02,-1.275425421777360430e-02,-1.218316820802255174e-02
-3.726336213625646571e-02,-3.669227612650541315e-02,-3.612119011675435365e-02,-3.555010410700329415e-02,-3.497901809725224159e-02,-3.440793208750118209e-02,-3.378925557693754356e-02,-3.321816956718648406e-02,-3.264708355743542456e-02,-3.207599754768436506e-02,-3.150491153793331250e-02,-3.093382552818225301e-02,-3.036273951843119698e-02,-2.979165350868013748e-02,-2.922056749892908145e-02,-2.864948148917802195e-02,-2.807839547942696939e-02,-2.745971896886332045e-02,-2.688863295911226442e-02,-2.631754694936121186e-02,-2.574646093961015236e-02,-2.517537492985909287e-02,-2.460428892010803684e-02,-2.403320291035698081e-02,-2.346211690060592478e-02,-2.289103089085486875e-02,-2.231994488110380925e-02,-2.174885887135275669e-02,-2.113018236078911122e-02,-2.055909635103805172e-02,-1.998801034128699222e-02,-1.941692433153593966e-02,-1.884583832178488016e-02,-1.827475231203382067e-02,-2.728301077521710916e-01,-2.722590217424200043e-01,-2.716879357326689726e-01,-1.599040827302959655e-02,-1.537173176246595108e-02,-1.480064575271489158e-02,-1.422955974296383902e-02,-1.365847373321277952e-02,-1.308738772346172002e-02,-1.251630171371066746e-02,-1.194521570395960797e-02,-1.137412969420854847e-02,-1.080304368445750285e-02
-3.583564711187882390e-02,-3.526456110212776440e-02,-3.469347509237671184e-02,-3.412238908262565928e-02,-3.355130307287459979e-02,-3.298021706312354029e-02,-3.240913105337248079e-02,-3.183804504362142129e-02,-3.126695903387036873e-02,-3.069587302411931617e-02,-3.007719651355566723e-02,-2.950611050380461120e-02,-2.893502449405355170e-02,-2.836393848430249567e-02,-2.779285247455143965e-02,-2.722176646480038015e-02,-2.665068045504932759e-02,-2.607959444529826809e-02,-2.550850843554721553e-02,-2.493742242579615603e-02,-2.436633641604509654e-02,-2.374765990548145453e-02,-2.317657389573039850e-02,-2.260548788597933900e-02,-2.203440187622828644e-02,-2.146331586647722348e-02,-2.089222985672616745e-02,-2.032114384697511142e-02,-1.975005783722405192e-02,-1.917897182747299589e-02,-1.860788581772193639e-02,-1.803679980797087690e-02,-1.741812329740723836e-02,-1.684703728765617886e-02,-1.627595127790511936e-02,-1.570486526815407374e-02,-1.513377925840301425e-02,-1.456269324865195475e-02,-1.399160723890090219e-02,-1.342052122914983575e-02,-1.284943521939878319e-02,-1.227834920964772369e-02,-1.170726319989666420e-02,-1.108858668933301872e-02,-1.051750067958196616e-02,-9.946414669830913602e-03,-9.375328660079854104e-03
-3.445552258831376807e-02,-3.388443657856271551e-02,-3.331335056881165602e-02,-3.274226455906059652e-02,-3.212358804849695104e-02,-3.155250203874589154e-02,-3.098141602899483898e-02,-3.041033001924378643e-02,-2.983924400949272693e-02,-2.926815799974167090e-02,-2.869707198999060793e-02,-2.812598598023955537e-02,-2.755489997048849934e-02,-2.698381396073744332e-02,-2.636513745017379784e-02,-2.579405144042273834e-02,-2.522296543067168578e-02,-2.465187942092062628e-02,-2.408079341116957026e-02,-2.350970740141851076e-02,-2.293862139166745126e-02,-2.236753538191639870e-02,-2.179644937216534267e-02,-2.122536336241428317e-02,-2.065427735266322715e-02,-2.003560084209958514e-02,-1.946451483234852564e-02,-1.889342882259746614e-02,-1.832234281284640665e-02,-1.775125680309535409e-02,-1.718017079334429459e-02,-1.660908478359324203e-02,-1.603799877384218253e-02,-1.546691276409112997e-02,-1.489582675434007047e-02,-1.432474074458901098e-02,-1.370606423402536550e-02,-1.313497822427431294e-02,-1.256389221452325344e-02,-1.199280620477220088e-02,-1.142172019502114139e-02,-1.085063418527008883e-02,-1.027954817551902239e-02,-9.708462165767969831e-03,-9.137376156016910334e-03,-8.566290146265850836e-03,-7.995204136514791338e-03
-3.302780756393612627e-02,-3.245672155418506677e-02,-3.188563554443401421e-02,-3.131454953468296165e-02,-3.074346352493189868e-02,-2.496010497167465148e-01,-2.490299637069954553e-01,-2.484588776972443958e-01,-2.478402011866807642e-01,-2.784044297536402562e-02,-2.726935696561296960e-02,-2.669827095586191357e-02,-2.612718494611085754e-02,-2.555609893635980151e-02,-2.498501292660874201e-02,-2.441392691685768251e-02,-2.384284090710662996e-02,-2.327175489735557393e-02,-2.265307838679192498e-02,-2.208199237704087242e-02,-2.151090636728981292e-02,-2.093982035753875690e-02,-2.036873434778770087e-02,-1.979764833803664137e-02,-1.922656232828558534e-02,-1.865547631853452237e-02,-1.808439030878346981e-02,-1.751330429903241032e-02,-1.694221828928135776e-02,-1.632354177871771228e-02,-1.575245576896665972e-02,-1.518136975921560022e-02,-1.461028374946454073e-02,-1.403919773971348123e-02,-1.346811172996242867e-02,-1.289702572021136917e-02,-1.232593971046030967e-02,-1.175485370070926405e-02,-1.118376769095820455e-02,-1.061268168120714506e-02,-9.994005170643499580e-03,-9.422919160892440082e-03,-8.851833151141380585e-03,-8.280747141390328026e-03,-7.709661131639268528e-03,-7.138575121888209030e-03,-6.567489112137156471e-03
-3.164768304037107738e-02,-3.102900652980742843e-02,-3.045792052005637240e-02,-2.988683451030531638e-02,-2.931574850055425688e-02,-2.481733346923688799e-01,-2.476022486826178204e-01,-2.470311626728667609e-01,-2.464600766631157014e-01,-2.646031845179897674e-02,-2.588923244204791724e-02,-2.531814643229685774e-02,-2.469946992173321226e-02,-2.412838391198215623e-02,-2.355729790223110021e-02,-2.298621189248004418e-02,-2.241512588272898815e-02,-2.184403987297793212e-02,-2.127295386322687609e-02,-2.070186785347581312e-02,-2.013078184372476057e-02,-1.955969583397370107e-02,-1.894101932341005212e-02,-1.836993331365899956e-02,-1.779884730390794007e-02,-1.722776129415688751e-02,-1.665667528440582801e-02,-1.608558927465477545e-02,-1.551450326490371595e-02,-1.494341725515265645e-02,-1.437233124540159696e-02,-1.380124523565053746e-02,-1.323015922589948490e-02,-1.261148271533584636e-02,-1.204039670558478686e-02,-1.146931069583372736e-02,-1.089822468608267481e-02,-1.032713867633161531e-02,-9.756052666580555810e-03,-9.184966656829496312e-03,-8.613880647078436814e-03,-8.042794637327377316e-03,-7.471708627576324757e-03,-6.900622617825272198e-03,-6.281946107261626722e-03,-5.710860097510567224e-03,-5.139774087759507726e-03
-3.021996801599342863e-02,-2.964888200624237261e-02,-2.907779599649131658e-02,-2.850670998674025708e-02,-2.793562397698920452e-02,-2.467456196679912450e-01,-2.461745336582401855e-01,-2.456034476484891260e-01,-2.450323616387380665e-01,-2.503260342742132799e-02,-2.446151741767027196e-02,-2.389043140791921593e-02,-2.331934539816815991e-02,-2.274825938841710388e-02,-2.217717337866604785e-02,-2.160608736891498835e-02,-2.098741085835134287e-02,-2.041632484860028685e-02,-1.984523883884922735e-02,-1.927415282909817132e-02,-1.870306681934710835e-02,-1.813198080959605579e-02,-1.756089479984499629e-02,-1.698980879009394374e-02,-1.641872278034288424e-02,-1.584763677059183168e-02,-1.522896026002818620e-02,-1.465787425027712670e-02,-1.408678824052606721e-02,-1.351570223077501465e-02,-1.294461622102395515e-02,-1.237353021127290259e-02,-1.180244420152185003e-02,-1.123135819177079053e-02,-1.066027218201973104e-02,-1.008918617226867154e-02,-9.518100162517618978e-03,-8.899423651953966563e-03,-8.328337642202914004e-03,-7.757251632451854506e-03,-7.186165622700801947e-03,-6.615079612949742449e-03,-6.043993603198682951e-03,-5.472907593447637331e-03,-4.901821583696577833e-03,-4.330735573945518335e-03,-3.759649564194458837e-03
-2.879225299161578683e-02,-2.822116698186473080e-02,-2.765008097211367477e-02,-2.707899496236261874e-02,-2.650790895261156271e-02,-2.453654951444261823e-01,-2.447944091346751228e-01,-2.442233231249240633e-01,-2.436522371151730038e-01,-2.360488840304368618e-02,-2.303380239329263016e-02,-2.246271638354157413e-02,-2.189163037379051810e-02,-2.132054436403946207e-02,-2.074945835428840257e-02,-2.017837234453734654e-02,-1.960728633478629052e-02,-1.903620032503523102e-02,-1.846511431528417152e-02,-1.789402830553311896e-02,-1.727535179496947348e-02,-1.670426578521842093e-02,-1.613317977546735449e-02,-1.556209376571630887e-02,-1.499100775596524937e-02,-1.441992174621418987e-02,-1.384883573646313037e-02,-1.327774972671207782e-02,-1.270666371696101832e-02,-1.213557770720996576e-02,-1.151690119664632028e-02,-1.094581518689526078e-02,-1.037472917714420129e-02,-9.803643167393141789e-03,-9.232557157642089229e-03,-8.661471147891036670e-03,-8.090385138139970234e-03,-7.519299128388910736e-03,-6.948213118637858177e-03,-6.377127108886805618e-03,-5.806041099135746120e-03,-5.187364588572100643e-03,-4.616278578821041145e-03,-4.045192569069988586e-03,-3.474106559318929088e-03,-2.903020549567869590e-03,-2.331934539816823970e-03
-2.741212846805073794e-02,-2.684104245829967844e-02,-2.622236594773602950e-02,-2.565127993798498041e-02,-2.508019392823391744e-02,-2.450910791848286141e-02,-2.393802190873180538e-02,-2.336693589898074588e-02,-2.279584988922969679e-02,-2.222476387947863383e-02,-2.165367786972757780e-02,-2.108259185997652177e-02,-2.051150585022546227e-02,-1.989282933966181680e-02,-1.932174332991076077e-02,-1.875065732015970821e-02,-1.817957131040864871e-02,-1.760848530065758921e-02,-1.703739929090652971e-02,-1.646631328115547716e-02,-1.589522727140441766e-02,-1.532414126165336510e-02,-1.475305525190230560e-02,-1.413437874133866012e-02,-1.356329273158760063e-02,-1.299220672183654807e-02,-1.242112071208548857e-02,-1.185003470233443601e-02,-1.127894869258337651e-02,-1.070786268283231701e-02,-1.013677667308126445e-02,-9.565690663330204957e-03,-8.994604653579145459e-03,-8.423518643828085961e-03,-7.804842133264440485e-03,-7.233756123513387926e-03,-6.662670113762328428e-03,-6.091584104011275869e-03,-5.520498094260216371e-03,-4.949412084509163812e-03,-4.378326074758104314e-03,-3.807240065007044816e-03,-3.236154055255985318e-03,-2.665068045504925820e-03,-2.093982035753873261e-03,-1.475305525190234723e-03,-9.042195154391752254e-04
-3.053525508387682982e-02,-2.541332743392203664e-02,-2.484224142417098061e-02,-2.427115541441992111e-02,-2.370006940466886508e-02,-2.312898339491780558e-02,-2.251030688435416358e-02,-2.193922087460310755e-02,-2.136813486485205152e-02,-2.079704885510099202e-02,-2.022596284534993599e-02,-1.965487683559887649e-02,-1.908379082584782047e-02,-1.851270481609676444e-02,-1.794161880634570494e-02,-1.737053279659464544e-02,-1.679944678684359288e-02,-1.618077027627994741e-02,-1.560968426652889485e-02,-1.503859825677783535e-02,-1.446751224702677585e-02,-1.389642623727571635e-02,-1.332534022752466379e-02,-1.275425421777360430e-02,-1.218316820802255174e-02,-1.161208219827149918e-02,-1.104099618852043274e-02,-1.042231967795678726e-02,-9.851233668205741645e-03,-9.280147658454682147e-03,-8.709061648703615710e-03,-8.137975638952556212e-03,-7.566889629201503653e-03,-6.995803619450444155e-03,-6.424717609699391596e-03,-5.853631599948332098e-03,-5.282545590197279539e-03,-4.711459580446213102e-03,-4.092783069882574565e-03,-3.521697060131515067e-03,-2.950611050380455569e-03,-2.379525040629403010e-03,-1.808439030878350451e-03,-1.237353021127290953e-03,-6.662670113762383939e-04,-9.518100162517889595e-05,0.000000000000000000e+00
-3.901231304111908021e-02,-2.398561240954439483e-02,-2.341452639979333533e-02,-2.284344039004227930e-02,-2.227235438029122327e-02,-2.170126837054016725e-02,-2.113018236078911122e-02,-2.055909635103805172e-02,-1.998801034128699569e-02,-1.941692433153593619e-02,-1.879824782097228725e-02,-1.822716181122123469e-02,-1.765607580147017519e-02,-1.708498979171912263e-02,-1.651390378196807007e-02,-1.594281777221701057e-02,-1.537173176246595108e-02,-1.480064575271489158e-02,-1.422955974296383208e-02,-1.365847373321277952e-02,-1.308738772346172002e-02,-1.246871121289808149e-02,-1.189762520314702199e-02,-1.132653919339596943e-02,-1.075545318364490993e-02,-1.018436717389385043e-02,-9.613281164142797874e-03,-9.042195154391738376e-03,-8.471109144640678879e-03,-7.900023134889619381e-03,-7.328937125138559883e-03,-6.710260614574921345e-03,-6.139174604823861847e-03,-5.568088595072809288e-03,-4.997002585321749790e-03,-4.425916575570697231e-03,-3.854830565819630794e-03,-3.283744556068578235e-03,-2.712658546317518737e-03,-2.141572536566466178e-03,-1.570486526815413619e-03,-9.994005170643471825e-04,-3.807240065007086449e-04,0.000000000000000000e+00,0.000000000000000000e+00,0.000000000000000000e+00,0.000000000000000000e+00
-4.856313167294534772e-02,-2.260548788597933900e-02,-2.203440187622828297e-02,-1.803689745151699497e-01,-1.797978885054188902e-01,-1.792268024956678307e-01,-1.786557164859167712e-01,-1.913138132666040298e-02,-1.856029531690935042e-02,-1.798920930715829092e-02,-1.741812329740723836e-02,-1.684703728765617886e-02,-1.627595127790512630e-02,-1.570486526815406680e-02,-1.508618875759042133e-02,-1.451510274783935489e-02,-1.394401673808830233e-02,-1.337293072833724977e-02,-1.280184471858619027e-02,-1.223075870883514465e-02,-1.165967269908408516e-02,-1.108858668933302566e-02,-1.051750067958197310e-02,-9.946414669830906663e-03,-9.375328660079854104e-03,-8.756652149516208627e-03,-8.185566139765149130e-03,-7.614480130014089632e-03,-7.043394120263037073e-03,-6.472308110511984514e-03,-5.901222100760918077e-03,-5.330136091009865518e-03,-4.759050081258812959e-03,-4.187964071507746522e-03,-3.616878061756687024e-03,-2.998201551193048486e-03,-2.427115541441995927e-03,-1.856029531690936429e-03,-1.284943521939876931e-03,-7.138575121888243724e-04,-1.427715024377648745e-04,0.000000000000000000e+00,0.000000000000000000e+00,0.000000000000000000e+00,0.000000000000000000e+00,0.000000000000000000e+00,-1.177864895111555010e-03
-5.025556885809301377e-02,-3.299062748517629651e-02,-2.060668685185063770e-02,-1.789888499916048870e-01,-1.784177639818538275e-01,-1.778466779721027957e-01,-1.772755919623517085e-01,-1.770366630228276117e-02,-1.713258029253170861e-02,-1.656149428278065605e-02,-1.599040827302958961e-02,-1.541932226327854399e-02,-1.484823625352748450e-02,-1.427715024377642500e-02,-1.370606423402536550e-02,-1.313497822427430600e-02,-1.256389221452325344e-02,-1.199280620477219395e-02,-1.137412969420855541e-02,-1.080304368445750285e-02,-1.023195767470643641e-02,-9.660871664955376914e-03,-9.089785655204317416e-03,-8.518699645453257918e-03,-7.947613635702205359e-03,-7.376527625951145861e-03,-6.805441616200093302e-03,-6.234355606449047682e-03,-5.663269596697981245e-03,-5.044593086134342708e-03,-4.473507076383276271e-03,-3.902421066632216773e-03,-3.331335056881157275e-03,-2.760249047130111655e-03,-2.189163037379052157e-03,-1.618077027627999598e-03,-1.046991017876940100e-03,-4.759050081258806020e-04,0.000000000000000000e+00,0.000000000000000000e+00,0.000000000000000000e+00,0.000000000000000000e+00,0.000000000000000000e+00,0.000000000000000000e+00,-2.159418974371184186e-03,-4.515148764594294206e-03,-6.870878554817404227e-03
-5.025556885809301377e-02,-4.358248832227792913e-02,-1.917897182747299589e-02,-1.775611349672272521e-01,-1.769900489574761926e-01,-1.764189629477251331e-01,-1.758478769379741014e-01,-1.632354177871771228e-02,-1.575245576896665972e-02,-1.518136975921559328e-02,-1.461028374946454766e-02,-1.399160723890089525e-02,-1.342052122914983575e-02,-1.284943521939878319e-02,-1.227834920964773063e-02,-1.170726319989666420e-02,-1.113617719014561164e-02,-1.056509118039455214e-02,-9.994005170643499580e-03,-9.422919160892440082e-03,-8.851833151141380585e-03,-8.280747141390321087e-03,-7.662070630826675610e-03,-7.090984621075623051e-03,-6.519898611324563553e-03,-5.948812601573510994e-03,-5.377726591822451496e-03,-4.806640582071391998e-03,-4.235554572320339439e-03,-3.664468562569279941e-03,-3.093382552818227382e-03,-2.522296543067167884e-03,-1.951210533316115325e-03,-1.332534022752469849e-03,-7.614480130014103509e-04,-1.903620032503508530e-04,0.000000000000000000e+00,0.000000000000000000e+00,0.000000000000000000e+00,0.000000000000000000e+00,0.000000000000000000e+00,-7.852432634077033402e-04,-3.140973053630813361e-03,-5.496702843853923381e-03,-8.048743449928959237e-03,-1.040447324015206926e-02,-1.276020303037517928e-02
-5.025556885809301377e-02,-5.025556885809301377e-02,-2.489875514388592559e-02,-1.761810104436621893e-01,-1.756099244339111576e-01,-1.749912479233474982e-01,-1.744201619135964387e-01,-1.489582675434007047e-02,-1.432474074458901792e-02,-1.375365473483795148e-02,-1.318256872508689892e-02,-1.261148271533584636e-02,-1.204039670558478686e-02,-1.146931069583372736e-02,-1.089822468608267481e-02,-1.027954817551902933e-02,-9.708462165767962893e-03,-9.137376156016910334e-03,-8.566290146265850836e-03,-7.995204136514798277e-03,-7.424118126763738779e-03,-6.853032117012686220e-03,-6.281946107261626722e-03,-5.710860097510567224e-03,-5.139774087759514665e-03,-4.568688078008455167e-03,-3.950011567444802751e-03,-3.378925557693750192e-03,-2.807839547942697633e-03,-2.236753538191645074e-03,-1.665667528440585576e-03,-1.094581518689519140e-03,-5.234955089384665805e-04,0.000000000000000000e+00,0.000000000000000000e+00,0.000000000000000000e+00,0.000000000000000000e+00,0.000000000000000000e+00,0.000000000000000000e+00,-1.963108158519258351e-03,-4.318837948742368371e-03,-6.674567738965478392e-03,-9.030297529188588412e-03,-1.138602731941169843e-02,-1.374175710963480845e-02,-1.609748689985791847e-02,-1.845321669008102849e-02
-5.025556885809301377e-02,-5.025556885809301377e-02,-3.649001649805191233e-02,-1.580004626977924570e-02,-1.522896026002818620e-02,-1.465787425027713364e-02,-1.408678824052607415e-02,-1.351570223077501465e-02,-1.294461622102395515e-02,-1.232593971046031661e-02,-1.175485370070925711e-02,-1.118376769095819762e-02,-1.061268168120714506e-02,-1.004159567145608556e-02,-9.470509661705026061e-03,-8.899423651953973502e-03,-8.328337642202907065e-03,-7.757251632451861445e-03,-7.186165622700801947e-03,-6.567489112137156471e-03,-5.996403102386096973e-03,-5.425317092635037475e-03,-4.854231082883984916e-03,-4.283145073132925418e-03,-3.712059063381865920e-03,-3.140973053630813361e-03,-2.569887043879753863e-03,-1.998801034128694365e-03,-1.427715024377648745e-03,-8.566290146265892469e-04,-2.379525040629437704e-04,0.000000000000000000e+00,0.000000000000000000e+00,0.000000000000000000e+00,0.000000000000000000e+00,0.000000000000000000e+00,-5.889324475557775052e-04,-2.944662237778880587e-03,-5.300392028001997546e-03,-7.656121818225107567e-03,-1.001185160844821065e-02,-1.256389221452325344e-02,-1.491962200474636346e-02,-1.727535179496947348e-02,-1.963108158519258351e-02,-2.198681137541569353e-02,-2.434254116563880355e-02
-5.025556885809301377e-02,-5.025556885809301377e-02,-4.915206412050112522e-02,-1.661503359619481007e-02,-1.380124523565054440e-02,-1.323015922589948490e-02,-1.265907321614842540e-02,-1.208798720639737978e-02,-1.151690119664632028e-02,-1.094581518689525385e-02,-1.037472917714420129e-02,-9.803643167393148727e-03,-9.232557157642082291e-03,-8.613880647078436814e-03,-8.042794637327384255e-03,-7.471708627576324757e-03,-6.900622617825265259e-03,-6.329536608074212700e-03,-5.758450598323153202e-03,-5.187364588572100643e-03,-4.616278578821041145e-03,-4.045192569069981647e-03,-3.474106559318929088e-03,-2.855430048755283612e-03,-2.284344039004224114e-03,-1.713258029253178494e-03,-1.142172019502118996e-03,-5.710860097510594979e-04,0.000000000000000000e+00,0.000000000000000000e+00,0.000000000000000000e+00,0.000000000000000000e+00,0.000000000000000000e+00,0.000000000000000000e+00,-1.766797342667332515e-03,-4.122527132890449475e-03,-6.478256923113552557e-03,-8.833986713336662577e-03,-1.118971650355977260e-02,-1.354544629378288262e-02,-1.590117608400599264e-02,-1.825690587422910266e-02,-2.061263566445221268e-02,-2.296836545467532270e-02,-2.532409524489843272e-02,-2.787613585097346858e-02,-3.023186564119657860e-02
-5.025556885809301377e-02,-5.025556885809301377e-02,-5.025556885809301377e-02,-2.929492765644874791e-02,-1.242112071208549551e-02,-1.185003470233443601e-02,-1.123135819177078359e-02,-1.066027218201973104e-02,-1.008918617226867154e-02,-9.518100162517618978e-03,-8.947014152766559481e-03,-8.375928143015499983e-03,-7.804842133264440485e-03,-7.233756123513387926e-03,-6.662670113762328428e-03,-6.091584104011275869e-03,-5.520498094260223310e-03,-4.901821583696563955e-03,-4.330735573945518335e-03,-3.759649564194451898e-03,-3.188563554443399339e-03,-2.617477544692339841e-03,-2.046391534941287282e-03,-1.475305525190234723e-03,-9.042195154391752254e-04,-3.331335056881157275e-04,0.000000000000000000e+00,0.000000000000000000e+00,0.000000000000000000e+00,0.000000000000000000e+00,0.000000000000000000e+00,-3.926216317038516701e-04,-2.748351421926961691e-03,-5.104081212150071711e-03,-7.459811002373181732e-03,-9.815540792596291753e-03,-1.217127058281940177e-02,-1.452700037304251179e-02,-1.707904097911754765e-02,-1.943477076934065767e-02,-2.179050055956376769e-02,-2.414623034978687771e-02,-2.650196014000998773e-02,-2.885768993023309775e-02,-3.121341972045620777e-02,-3.356914951067931779e-02,-3.592487930090242781e-02
-5.025556885809301377e-02,-5.025556885809301377e-02,-5.025556885809301377e-02,-4.300099189047412035e-02,-1.099340568770784676e-02,-1.042231967795678726e-02,-9.851233668205734706e-03,-9.280147658454675208e-03,-8.709061648703622649e-03,-8.137975638952563151e-03,-7.519299128388910736e-03,-6.948213118637858177e-03,-6.377127108886805618e-03,-5.806041099135753059e-03,-5.234955089384686622e-03,-4.663869079633634063e-03,-4.092783069882574565e-03,-3.521697060131515067e-03,-2.950611050380455569e-03,-2.379525040629403010e-03,-1.808439030878350451e-03,-1.189762520314704974e-03,-6.186765105636454765e-04,-4.759050081258597853e-05,0.000000000000000000e+00,0.000000000000000000e+00,0.000000000000000000e+00,0.000000000000000000e+00,0.000000000000000000e+00,-1.374175710963480845e-03,-3.729905501186590866e-03,-6.281946107261626722e-03,-8.637675897484736742e-03,-1.099340568770784676e-02,-1.334913547793095678e-02,-1.570486526815406680e-02,-1.806059505837717682e-02,-2.041632484860028685e-02,-2.277205463882339687e-02,-2.512778442904650689e-02,-2.748351421926961691e-02,-2.983924400949272693e-02,-3.239128461556776278e-02,-3.474701440579087280e-02,-3.710274419601398282e-02,-3.945847398623709285e-02,-4.181420377646020287e-02
-5.025556885809301377e-02,-5.025556885809301377e-02,-5.025556885809301377e-02,-5.025556885809301377e-02,-1.973816021202090543e-02,-8.994604653579145459e-03,-8.423518643828092900e-03,-7.852432634077026463e-03,-7.281346624325973904e-03,-6.710260614574914406e-03,-6.139174604823861847e-03,-5.568088595072809288e-03,-4.997002585321749790e-03,-4.425916575570690292e-03,-3.807240065007044816e-03,-3.236154055255992257e-03,-2.665068045504932759e-03,-2.093982035753873261e-03,-1.522896026002820702e-03,-9.518100162517612040e-04,-3.807240065007017060e-04,0.000000000000000000e+00,0.000000000000000000e+00,0.000000000000000000e+00,0.000000000000000000e+00,0.000000000000000000e+00,-1.963108158519258351e-04,-2.552040606075035856e-03,-4.907770396298145876e-03,-7.263500186521255897e-03,-9.619229976744365918e-03,-1.197495976696747594e-02,-1.433068955719058596e-02,-1.668641934741369598e-02,-1.904214913763680600e-02,-2.159418974371184186e-02,-2.394991953393495188e-02,-2.630564932415806190e-02,-2.866137911438117192e-02,-3.101710890460428194e-02,-3.337283869482739196e-02,-3.572856848505050198e-02,-3.808429827527361200e-02,-4.044002806549672202e-02,-4.279575785571983204e-02,-4.515148764594294206e-02,-4.770352825201797792e-02
-5.025556885809301377e-02,-5.025556885809301377e-02,-5.025556885809301377e-02,-5.025556885809301377e-02,-3.447931783872006106e-02,-7.614480130014089632e-03,-7.043394120263030134e-03,-6.424717609699391596e-03,-2.336742217842218139e-01,-2.331031357744707544e-01,-2.325320497647196949e-01,-4.140373570695167482e-03,-3.569287560944101045e-03,-2.998201551193041547e-03,-2.427115541441988988e-03,-1.856029531690943368e-03,-1.284943521939876931e-03,-7.138575121888243724e-04,-9.518100162517889595e-05,0.000000000000000000e+00,0.000000000000000000e+00,0.000000000000000000e+00,0.000000000000000000e+00,0.000000000000000000e+00,-1.177864895111555010e-03,-3.533594685334665031e-03,-5.889324475557775052e-03,-8.245054265780885072e-03,-1.060078405600399509e-02,-1.315282466207903095e-02,-1.550855445230214097e-02,-1.786428424252525099e-02,-2.022001403274836101e-02,-2.257574382297147103e-02,-2.493147361319458105e-02,-2.728720340341769107e-02,-2.964293319364080109e-02,-3.199866298386391805e-02,-3.435439277408702113e-02,-3.690643338016205699e-02,-3.926216317038516701e-02,-4.161789296060827703e-02,-4.397362275083138705e-02,-4.632935254105449707e-02,-4.868508233127760709e-02,-5.025556885809301377e-02,-5.025556885809301377e-02
-5.025556885809301377e-02,-5.025556885809301377e-02,-5.025556885809301377e-02,-5.025556885809301377e-02,-5.025556885809301377e-02,-1.031821545742925283e-02,-5.615679095885388328e-03,-5.044593086134335769e-03,-2.322940972606567511e-01,-2.317230112509056916e-01,-2.311519252411546321e-01,-2.712658546317525676e-03,-2.141572536566466178e-03,-1.570486526815406680e-03,-9.994005170643471825e-04,-4.283145073132876846e-04,0.000000000000000000e+00,0.000000000000000000e+00,0.000000000000000000e+00,0.000000000000000000e+00,0.000000000000000000e+00,0.000000000000000000e+00,-2.355729790223110021e-03,-4.711459580446220041e-03,-7.067189370669330062e-03,-9.422919160892440082e-03,-1.177864895111555010e-02,-1.413437874133866012e-02,-1.649010853156177014e-02,-1.884583832178488016e-02,-2.120156811200799019e-02,-2.355729790223110021e-02,-2.591302769245421023e-02,-2.846506829852924608e-02,-3.082079808875235610e-02,-3.317652787897546612e-02,-3.553225766919857614e-02,-3.788798745942168616e-02,-4.024371724964479619e-02,-4.259944703986790621e-02,-4.495517683009101623e-02,-4.731090662031412625e-02,-4.966663641053723627e-02,-5.025556885809301377e-02,-5.025556885809301377e-02,-5.025556885809301377e-02,-5.025556885809301377e-02
-5.025556885809301377e-02,-5.025556885809301377e-02,-5.025556885809301377e-02,-5.025556885809301377e-02,-5.025556885809301377e-02,-2.608554325789983960e-02,-4.187964071507746522e-03,-3.616878061756693963e-03,-2.308663822362791163e-01,-2.302952962265280568e-01,-2.297242102167769973e-01,-1.332534022752462910e-03,-7.614480130014103509e-04,-1.903620032503577919e-04,0.000000000000000000e+00,0.000000000000000000e+00,0.000000000000000000e+00,0.000000000000000000e+00,0.000000000000000000e+00,-9.815540792596291753e-04,-3.337283869482739196e-03,-5.693013659705849216e-03,-8.048743449928959237e-03,-1.040447324015206926e-02,-1.276020303037517928e-02,-1.511593282059828930e-02,-1.766797342667332515e-02,-2.002370321689643518e-02,-2.237943300711954520e-02,-2.473516279734265522e-02,-2.709089258756576524e-02,-2.944662237778887526e-02,-3.180235216801198528e-02,-3.415808195823509530e-02,-3.651381174845820532e-02,-3.886954153868131534e-02,-4.122527132890442536e-02,-4.377731193497946122e-02,-4.613304172520257124e-02,-4.848877151542568126e-02,-5.025556885809301377e-02,-5.025556885809301377e-02,-5.025556885809301377e-02,-5.025556885809301377e-02,-5.025556885809301377e-02,-5.025556885809301377e-02,-5.025556885809301377e-02
-5.025556885809301377e-02,-5.025556885809301377e-02,-5.025556885809301377e-02,-5.025556885809301377e-02,-5.025556885809301377e-02,-4.293109334240562819e-02,-2.807839547942697633e-03,-2.236753538191638135e-03,-1.665667528440585576e-03,-1.046991017876940100e-03,-4.759050081258806020e-04,0.000000000000000000e+00,0.000000000000000000e+00,0.000000000000000000e+00,0.000000000000000000e+00,0.000000000000000000e+00,0.000000000000000000e+00,-1.963108158519258351e-03,-4.318837948742368371e-03,-6.870878554817397288e-03,-9.226608345040514247e-03,-1.158233813526362427e-02,-1.393806792548673429e-02,-1.629379771570984431e-02,-1.864952750593294739e-02,-2.100525729615606435e-02,-2.336098708637917437e-02,-2.571671687660228439e-02,-2.807244666682539441e-02,-3.042817645704850443e-02,-3.298021706312354029e-02,-3.533594685334665031e-02,-3.769167664356976033e-02,-4.004740643379287035e-02,-4.240313622401598037e-02,-4.475886601423909039e-02,-4.711459580446220041e-02,-4.947032559468531043e-02,-5.025556885809301377e-02,-5.025556885809301377e-02,-5.025556885809301377e-02,-5.025556885809301377e-02,-5.025556885809301377e-02,-5.025556885809301377e-02,-5.025556885809301377e-02,-5.025556885809301377e-02,-5.025556885809301377e-02
-5.025556885809301377e-02,-5.025556885809301377e-02,-5.025556885809301377e-02,-5.025556885809301377e-02,-5.025556885809301377e-02,-5.025556885809301377e-02,-1.665370087810504052e-02,-8.090385138139963295e-04,-2.379525040629437704e-04,0.000000000000000000e+00,0.000000000000000000e+00,0.000000000000000000e+00,0.000000000000000000e+00,0.000000000000000000e+00,-7.852432634077033402e-04,-3.140973053630813361e-03,-5.496702843853923381e-03,-7.852432634077033402e-03,-1.020816242430014342e-02,-1.256389221452325344e-02,-1.491962200474636346e-02,-1.727535179496947348e-02,-1.963108158519258351e-02,-2.218312219126761936e-02,-2.453885198149072938e-02,-2.689458177171383940e-02,-2.925031156193694942e-02,-3.160604135216005944e-02,-3.396177114238316946e-02,-3.631750093260627948e-02,-3.867323072282938951e-02,-4.102896051305249953e-02,-4.338469030327560955e-02,-4.574042009349871957e-02,-4.829246069957375542e-02,-5.025556885809301377e-02,-5.025556885809301377e-02,-5.025556885809301377e-02,-5.025556885809301377e-02,-5.025556885809301377e-02,-5.025556885809301377e-02,-5.025556885809301377e-02,-5.025556885809301377e-02,-5.025556885809301377e-02,-5.025556885809301377e-02,-5.025556885809301377e-02,-5.025556885809301377e-02
-5.025556885809301377e-02,-5.025556885809301377e-02,-5.025556885809301377e-02,-5.025556885809301377e-02,-5.025556885809301377e-02,-5.025556885809301377e-02,-3.455070358993894697e-02,0.000000000000000000e+00,0.000000000000000000e+00,0.000000000000000000e+00,0.000000000000000000e+00,0.000000000000000000e+00,-1.766797342667332515e-03,-4.122527132890449475e-03,-6.478256923113559496e-03,-8.833986713336662577e-03,-1.138602731941169843e-02,-1.374175710963480845e-02,-1.609748689985791847e-02,-1.845321669008102849e-02,-2.080894648030413852e-02,-2.316467627052724854e-02,-2.552040606075035856e-02,-2.787613585097346858e-02,-3.023186564119657860e-02,-3.258759543141968862e-02,-3.494332522164279864e-02,-3.749536582771783449e-02,-3.985109561794094452e-02,-4.220682540816405454e-02,-4.456255519838716456e-02,-4.691828498861027458e-02,-4.927401477883338460e-02,-5.025556885809301377e-02,-5.025556885809301377e-02,-5.025556885809301377e-02,-5.025556885809301377e-02,-5.025556885809301377e-02,-5.025556885809301377e-02,-5.025556885809301377e-02,-5.025556885809301377e-02,-5.025556885809301377e-02,-5.025556885809301377e-02,-5.025556885809301377e-02,-5.025556885809301377e-02,-5.025556885809301377e-02,-5.025556885809301377e-02
-5.025556885809301377e-02,-5.025556885809301377e-02,-5.025556885809301377e-02,-5.025556885809301377e-02,-5.025556885809301377e-02,-5.025556885809301377e-02,-5.025556885809301377e-02,-6.281946107261626722e-03,0.000000000000000000e+00,-3.926216317038516701e-04,-2.944662237778887526e-03,-5.300392028001990607e-03,-7.656121818225107567e-03,-1.001185160844821759e-02,-1.236758139867132761e-02,-1.472331118889443763e-02,-1.707904097911754765e-02,-1.943477076934065767e-02,-2.179050055956376769e-02,-2.414623034978687424e-02,-2.669827095586191357e-02,-2.905400074608502359e-02,-3.140973053630813361e-02,-3.376546032653124363e-02,-3.612119011675435365e-02,-3.847691990697746367e-02,-4.083264969720057369e-02,-4.318837948742368371e-02,-4.554410927764679373e-02,-4.789983906786990375e-02,-5.025556885809301377e-02,-5.025556885809301377e-02,-5.025556885809301377e-02,-5.025556885809301377e-02,-5.025556885809301377e-02,-5.025556885809301377e-02,-5.025556885809301377e-02,-5.025556885809301377e-02,-5.025556885809301377e-02,-5.025556885809301377e-02,-5.025556885809301377e-02,-5.025556885809301377e-02,-5.025556885809301377e-02,-5.025556885809301377e-02,-5.025556885809301377e-02,-5.025556885809301377e-02,-5.025556885809301377e-02
-5.025556885809301377e-02,-5.025556885809301377e-02,-5.025556885809301377e-02,-5.025556885809301377e-02,-5.025556885809301377e-02,-5.025556885809301377e-02,-5.025556885809301377e-02,-2.591302769245421023e-02,-3.926216317038516701e-03,-6.281946107261626722e-03,-8.637675897484736742e-03,-1.099340568770784676e-02,-1.334913547793095678e-02,-1.570486526815406680e-02,-1.825690587422910266e-02,-2.061263566445221268e-02,-2.296836545467531923e-02,-2.532409524489843272e-02,-2.767982503512154274e-02,-3.003555482534465276e-02,-3.239128461556776278e-02,-3.474701440579087280e-02,-3.710274419601398282e-02,-3.945847398623709285e-02,-4.201051459231212870e-02,-4.436624438253523872e-02,-4.672197417275834874e-02,-4.907770396298145876e-02,-5.025556885809301377e-02,-5.025556885809301377e-02,-5.025556885809301377e-02,-5.025556885809301377e-02,-5.025556885809301377e-02,-5.025556885809301377e-02,-5.025556885809301377e-02,-5.025556885809301377e-02,-5.025556885809301377e-02,-5.025556885809301377e-02,-5.025556885809301377e-02,-5.025556885809301377e-02,-5.025556885809301377e-02,-5.025556885809301377e-02,-5.025556885809301377e-02,-5.025556885809301377e-02,-5.025556885809301377e-02,-5.025556885809301377e-02,-5.025556885809301377e-02
