3.224846758799140151e-02,3.224846758799140151e-02,3.224846758799140151e-02,3.224846758799140151e-02,3.224846758799140151e-02,3.224846758799140151e-02,3.224846758799140151e-02,3.224846758799140151e-02,3.224846758799140151e-02,3.224846758799140151e-02,3.224846758799140151e-02,3.224846758799140151e-02,3.224846758799140151e-02,3.224846758799140151e-02,3.224846758799140151e-02,3.224846758799140151e-02,3.224846758799140151e-02,3.224846758799140151e-02,3.224846758799140151e-02,3.224846758799140151e-02,3.183502569583766817e-02,2.728716488214657024e-02,2.273930406845547578e-02,1.819144325476437785e-02,1.385030338715015352e-02,9.302442573459055591e-03,4.754581759767961130e-03,2.067209460768701379e-04,-4.134418921537361125e-03,-8.682279735228455586e-03,-1.323014054891955005e-02,-1.757128041653377437e-02,-2.211914123022487577e-02,-2.666700204391597717e-02,1.241617682374188125e-02,3.224846758799140151e-02,3.224846758799140151e-02,3.224846758799140151e-02,3.224846758799140151e-02,3.224846758799140151e-02,3.224846758799140151e-02,3.224846758799140151e-02,3.224846758799140151e-02,3.224846758799140151e-02,3.224846758799140151e-02,3.224846758799140151e-02,3.224846758799140151e-02
3.224846758799140151e-02,3.224846758799140151e-02,3.224846758799140151e-02,3.224846758799140151e-02,3.224846758799140151e-02,3.224846758799140151e-02,3.224846758799140151e-02,3.224846758799140151e-02,3.224846758799140151e-02,3.224846758799140151e-02,3.224846758799140151e-02,3.224846758799140151e-02,3.224846758799140151e-02,3.224846758799140151e-02,3.224846758799140151e-02,3.224846758799140151e-02,3.224846758799140151e-02,3.224846758799140151e-02,3.224846758799140151e-02,3.142158380368392789e-02,2.687372298999283343e-02,2.232586217630173897e-02,1.798472230868751118e-02,1.343686149499641672e-02,8.889000681305318785e-03,4.341139867614224324e-03,0.000000000000000000e+00,-4.547860813691094461e-03,-9.095721627382195862e-03,-1.364358244107329032e-02,-1.798472230868751465e-02,-2.253258312237861605e-02,-2.708044393606970357e-02,-3.142158380368393483e-02,-3.596944461737502235e-02,1.405702433322702019e-02,3.224846758799140151e-02,3.224846758799140151e-02,3.224846758799140151e-02,3.224846758799140151e-02,3.224846758799140151e-02,3.224846758799140151e-02,3.224846758799140151e-02,3.224846758799140151e-02,3.224846758799140151e-02,3.224846758799140151e-02,3.224846758799140151e-02
3.224846758799140151e-02,3.224846758799140151e-02,3.224846758799140151e-02,3.224846758799140151e-02,3.224846758799140151e-02,3.224846758799140151e-02,3.224846758799140151e-02,3.224846758799140151e-02,3.224846758799140151e-02,3.224846758799140151e-02,3.224846758799140151e-02,3.224846758799140151e-02,3.224846758799140151e-02,3.224846758799140151e-02,3.224846758799140151e-02,3.224846758799140151e-02,3.224846758799140151e-02,3.224846758799140151e-02,3.100814191153019456e-02,2.646028109783910010e-02,2.211914123022486883e-02,1.757128041653377784e-02,1.302341960284267644e-02,8.475558789151588918e-03,4.134418921537357655e-03,-4.134418921537333369e-04,-4.961302705844834737e-03,-9.509163519535922260e-03,-1.385030338715016046e-02,-1.839816420084125492e-02,-2.294602501453234245e-02,-2.728716488214657371e-02,-3.183502569583767511e-02,-3.638288650952876263e-02,-4.093074732321986403e-02,-4.042686501715748310e-02,1.686067716439454064e-02,3.224846758799140151e-02,3.224846758799140151e-02,3.224846758799140151e-02,3.224846758799140151e-02,3.224846758799140151e-02,3.224846758799140151e-02,3.224846758799140151e-02,3.224846758799140151e-02,3.224846758799140151e-02,3.224846758799140151e-02
3.224846758799140151e-02,3.224846758799140151e-02,3.224846758799140151e-02,3.224846758799140151e-02,3.224846758799140151e-02,3.224846758799140151e-02,3.224846758799140151e-02,3.224846758799140151e-02,3.224846758799140151e-02,3.224846758799140151e-02,3.224846758799140151e-02,3.224846758799140151e-02,3.224846758799140151e-02,3.224846758799140151e-02,3.224846758799140151e-02,3.224846758799140151e-02,3.224846758799140151e-02,3.059470001937645775e-02,2.625356015176222996e-02,2.170569933807113550e-02,1.715783852438004103e-02,1.260997771068894657e-02,8.268837843074718780e-03,3.720977029383620849e-03,-8.268837843074736127e-04,-5.374744597998568074e-03,-9.715884465612799337e-03,-1.426374527930388686e-02,-1.881160609299498132e-02,-2.315274596060921258e-02,-2.770060677430031398e-02,-3.224846758799140151e-02,-3.679632840168250291e-02,-4.113746826929672723e-02,-4.568532908298782863e-02,-5.023318989667891615e-02,-4.390236092307483323e-02,1.797180224955770983e-02,3.224846758799140151e-02,3.224846758799140151e-02,3.224846758799140151e-02,3.224846758799140151e-02,3.224846758799140151e-02,3.224846758799140151e-02,3.224846758799140151e-02,3.224846758799140151e-02,3.224846758799140151e-02
3.224846758799140151e-02,3.224846758799140151e-02,3.224846758799140151e-02,3.224846758799140151e-02,3.224846758799140151e-02,3.224846758799140151e-02,3.224846758799140151e-02,3.224846758799140151e-02,1.464951767944886254e-02,1.464951767944886254e-02,1.464951767944886254e-02,1.464951767944886254e-02,3.224846758799140151e-02,3.224846758799140151e-02,3.224846758799140151e-02,3.224846758799140151e-02,3.018125812722272094e-02,2.584011825960849662e-02,2.129225744591740216e-02,1.674439663222630770e-02,1.240325676461207643e-02,7.855395950920981973e-03,3.307535137229884042e-03,-1.240325676461213888e-03,-5.581465544075438212e-03,-1.012932635776653267e-02,-1.467718717145762714e-02,-1.922504798514872160e-02,-2.356618785276294592e-02,-2.811404866645404732e-02,-3.266190948014514178e-02,-2.947531367697575067e-01,-2.993009975834486358e-01,-3.038488583971397095e-01,-3.083967192108307831e-01,-3.127378590784450352e-01,-5.953563247013798215e-02,-4.602125062036272612e-02,2.279098430497469158e-02,3.224846758799140151e-02,3.224846758799140151e-02,3.224846758799140151e-02,3.224846758799140151e-02,3.224846758799140151e-02,3.224846758799140151e-02,3.224846758799140151e-02,3.224846758799140151e-02
3.224846758799140151e-02,3.224846758799140151e-02,3.224846758799140151e-02,3.224846758799140151e-02,3.224846758799140151e-02,3.224846758799140151e-02,3.224846758799140151e-02,3.224846758799140151e-02,1.464951767944886254e-02,1.464951767944886254e-02,1.464951767944886254e-02,1.464951767944886254e-02,3.224846758799140151e-02,3.224846758799140151e-02,3.224846758799140151e-02,2.997453718114585428e-02,2.542667636745475634e-02,2.087881555376366188e-02,1.653767568614943756e-02,1.198981487245834310e-02,7.441954058767245167e-03,2.894093245076150706e-03,-1.447046622538077087e-03,-5.994907436229171549e-03,-1.054276824992027295e-02,-1.509062906361136741e-02,-1.943176893122559173e-02,-2.397962974491668620e-02,-2.852749055860778066e-02,-3.286863042622200498e-02,-3.741649123991309250e-02,-2.997144394756023345e-01,-3.042623002892934636e-01,-3.086034401569076602e-01,-3.131513009705987338e-01,-3.176991617842898630e-01,-6.449693517598278913e-02,-6.883807504359704121e-02,-5.027841010363324342e-02,2.880527182989857035e-02,3.224846758799140151e-02,3.224846758799140151e-02,3.224846758799140151e-02,3.224846758799140151e-02,3.224846758799140151e-02,3.224846758799140151e-02,3.224846758799140151e-02
3.224846758799140151e-02,3.224846758799140151e-02,3.224846758799140151e-02,3.224846758799140151e-02,3.224846758799140151e-02,3.224846758799140151e-02,3.224846758799140151e-02,3.224846758799140151e-02,1.464951767944886254e-02,1.464951767944886254e-02,1.464951767944886254e-02,1.464951767944886254e-02,3.224846758799140151e-02,3.224846758799140151e-02,2.956109528899211747e-02,2.501323447530102301e-02,2.046537366160992855e-02,1.612423379399570075e-02,1.157637298030460282e-02,7.028512166613508361e-03,2.687372298999280568e-03,-1.860488514691817363e-03,-6.408349328382904886e-03,-1.095621014207400629e-02,-1.529735000968823061e-02,-1.984521082337932507e-02,-2.439307163707041953e-02,-2.894093245076152093e-02,-3.328207231837574526e-02,-3.782993313206684666e-02,-4.237779394575793418e-02,-3.044690212353703407e-01,-3.090168820490614143e-01,-3.135647428627524880e-01,-3.181126036764435616e-01,-3.224537435440578137e-01,-6.925151693575076761e-02,-7.379937774944186901e-02,-7.834723856313297041e-02,-5.036239048797695045e-02,3.224846758799140151e-02,3.224846758799140151e-02,3.224846758799140151e-02,3.224846758799140151e-02,3.224846758799140151e-02,3.224846758799140151e-02,3.224846758799140151e-02
3.224846758799140151e-02,3.224846758799140151e-02,3.224846758799140151e-02,3.224846758799140151e-02,3.224846758799140151e-02,3.224846758799140151e-02,3.224846758799140151e-02,3.224846758799140151e-02,1.464951767944886254e-02,1.464951767944886254e-02,1.464951767944886254e-02,1.464951767944886254e-02,3.224846758799140151e-02,2.914765339683838066e-02,2.459979258314728620e-02,2.025865271553305841e-02,1.571079190184196395e-02,1.116293108815086949e-02,6.821791220536638223e-03,2.273930406845543761e-03,-2.273930406845550700e-03,-6.821791220536645162e-03,-1.116293108815086949e-02,-1.571079190184197089e-02,-2.025865271553306535e-02,-2.480651352922415981e-02,-2.914765339683838413e-02,-3.369551421052947165e-02,-3.824337502422057306e-02,-4.258451489183481126e-02,-4.713237570552589878e-02,-3.094303239412151130e-01,-3.139781847549062421e-01,-3.183193246225204387e-01,-3.228671854362115123e-01,-3.274150462499026415e-01,-7.421281964159559541e-02,-7.855395950920981973e-02,-8.310182032290094889e-02,-8.764968113659202253e-02,-4.928356555063830718e-02,3.224846758799140151e-02,3.224846758799140151e-02,3.224846758799140151e-02,3.224846758799140151e-02,3.224846758799140151e-02,3.224846758799140151e-02
3.224846758799140151e-02,3.224846758799140151e-02,3.224846758799140151e-02,3.224846758799140151e-02,3.224846758799140151e-02,3.224846758799140151e-02,3.224846758799140151e-02,3.224846758799140151e-02,3.224846758799140151e-02,3.224846758799140151e-02,3.224846758799140151e-02,3.224846758799140151e-02,2.873421150468464733e-02,2.439307163707041953e-02,1.984521082337932507e-02,1.529735000968823061e-02,1.074948919599713268e-02,6.408349328382901416e-03,1.860488514691806955e-03,-2.687372298999284037e-03,-7.028512166613515300e-03,-1.157637298030460282e-02,-1.612423379399570422e-02,-2.067209460768679868e-02,-2.501323447530102995e-02,-2.956109528899211747e-02,-3.410895610268322581e-02,-3.865681691637431333e-02,-4.299795678398852378e-02,-4.754581759767962518e-02,-5.209367841137072658e-02,-3.141849057009831192e-01,-3.187327665146741928e-01,-3.232806273283652665e-01,-3.278284881420563956e-01,-3.321696280096705922e-01,-7.896740140136357389e-02,-8.351526221505464753e-02,-8.806312302874574893e-02,-9.240426289636000101e-02,-9.325290678025446867e-02,-4.126666886059477540e-02,3.224846758799140151e-02,3.224846758799140151e-02,3.224846758799140151e-02,3.224846758799140151e-02,3.224846758799140151e-02
3.224846758799140151e-02,3.224846758799140151e-02,3.224846758799140151e-02,3.224846758799140151e-02,3.224846758799140151e-02,3.224846758799140151e-02,3.224846758799140151e-02,3.224846758799140151e-02,3.224846758799140151e-02,3.224846758799140151e-02,3.224846758799140151e-02,2.852749055860777719e-02,2.397962974491668273e-02,1.943176893122558826e-02,1.488390811753449033e-02,1.054276824992026601e-02,5.994907436229168080e-03,1.447046622538077087e-03,-2.894093245076147236e-03,-7.441954058767248636e-03,-1.198981487245834310e-02,-1.653767568614943756e-02,-2.087881555376366882e-02,-2.542667636745476328e-02,-2.997453718114586468e-02,-3.452239799483695221e-02,-3.886353786245117653e-02,-4.341139867614227793e-02,-4.795925948983337933e-02,-5.230039935744760365e-02,-5.684826017113870505e-02,-6.139612098482979258e-02,-6.594398179852087316e-02,-7.028512166613509748e-02,-7.483298247982619888e-02,-7.938084329351730029e-02,-8.392870410720840169e-02,-8.826984397482262601e-02,-9.281770478851372741e-02,-9.323114668066745381e-02,-9.134889806638860077e-02,-8.656167615724008613e-02,-2.832620963742767117e-02,3.224846758799140151e-02,3.224846758799140151e-02,3.224846758799140151e-02,3.224846758799140151e-02
3.224846758799140151e-02,3.224846758799140151e-02,3.224846758799140151e-02,3.224846758799140151e-02,3.224846758799140151e-02,3.224846758799140151e-02,3.224846758799140151e-02,3.224846758799140151e-02,3.224846758799140151e-02,3.224846758799140151e-02,2.811404866645404038e-02,2.356618785276294592e-02,1.901832703907185146e-02,1.467718717145762367e-02,1.012932635776652573e-02,5.581465544075431273e-03,1.240325676461206950e-03,-3.307535137229887512e-03,-7.855395950920988912e-03,-1.240325676461208337e-02,-1.674439663222630076e-02,-2.129225744591740216e-02,-2.584011825960850356e-02,-3.038797907329959108e-02,-3.472911894091381541e-02,-3.927697975460491681e-02,-4.382484056829600433e-02,-4.816598043591024253e-02,-5.271384124960133005e-02,-5.726170206329243145e-02,-6.180956287698351898e-02,-6.615070274459775024e-02,-7.069856355828885164e-02,-7.524642437197992528e-02,-7.979428518567102668e-02,-8.413542505328525101e-02,-8.868328586697635241e-02,-9.323114668066745381e-02,-9.322026663087393250e-02,-9.091369607464783176e-02,-8.612647416549928936e-02,-8.133925225635077472e-02,-7.676963134307263070e-02,-1.986697092296636769e-02,3.224846758799140151e-02,3.224846758799140151e-02,3.224846758799140151e-02
3.224846758799140151e-02,3.224846758799140151e-02,3.224846758799140151e-02,3.224846758799140151e-02,3.224846758799140151e-02,3.224846758799140151e-02,3.224846758799140151e-02,3.224846758799140151e-02,3.224846758799140151e-02,2.770060677430030704e-02,2.315274596060921258e-02,1.881160609299498479e-02,1.426374527930389033e-02,9.715884465612792398e-03,5.168023651921697936e-03,8.268837843074666738e-04,-3.720977029383627788e-03,-8.268837843074722249e-03,-1.260997771068894657e-02,-1.715783852438004103e-02,-2.170569933807113550e-02,-2.625356015176224384e-02,-3.059470001937645428e-02,-3.514256083306755568e-02,-3.969042164675865708e-02,-4.423828246044974460e-02,-4.857942232806398281e-02,-5.312728314175508421e-02,-5.767514395544615785e-02,-6.201628382306038217e-02,-6.656414463675147664e-02,-7.111200545044257804e-02,-7.565986626413367944e-02,-8.000100613174790376e-02,-8.454886694543900516e-02,-8.909672775913010656e-02,-9.342698757695080958e-02,-9.319850653128688989e-02,-9.047849408290706275e-02,-8.569127217375852035e-02,-8.112165126048040409e-02,-7.633442935133186169e-02,-7.154720744218334705e-02,-6.675998553303483241e-02,-9.068521502898392594e-03,3.224846758799140151e-02,3.224846758799140151e-02
3.224846758799140151e-02,3.224846758799140151e-02,3.224846758799140151e-02,3.224846758799140151e-02,3.224846758799140151e-02,3.224846758799140151e-02,3.224846758799140151e-02,3.183502569583766817e-02,2.728716488214657024e-02,2.294602501453234245e-02,1.839816420084124798e-02,1.385030338715015352e-02,9.302442573459059061e-03,4.961302705844827798e-03,4.134418921537333369e-04,-4.134418921537361125e-03,-8.475558789151592387e-03,-1.302341960284268685e-02,-1.757128041653377437e-02,-2.211914123022487577e-02,-2.646028109783909316e-02,-3.100814191153019456e-02,-3.555600272522129596e-02,-4.010386353891239736e-02,-4.444500340652662168e-02,-4.899286422021770920e-02,-5.354072503390879673e-02,-5.788186490152302105e-02,-6.242972571521412245e-02,-6.697758652890523079e-02,-7.152544734259630443e-02,-7.586658721021055651e-02,-8.041444802390163016e-02,-8.496230883759273156e-02,-8.951016965128383296e-02,-9.341610752715728827e-02,-9.317674643169984727e-02,-9.004329209116629373e-02,-8.547367117788814972e-02,-8.068644926873960732e-02,-7.589922735959109268e-02,-7.111200545044257804e-02,-6.654238453716443402e-02,-6.175516262801592632e-02,-5.696794071886741168e-02,5.875226888500464928e-04,3.224846758799140151e-02
3.224846758799140151e-02,3.224846758799140151e-02,3.224846758799140151e-02,3.224846758799140151e-02,3.224846758799140151e-02,3.224846758799140151e-02,3.142158380368392789e-02,2.708044393606970357e-02,2.253258312237860564e-02,1.798472230868751465e-02,1.343686149499642019e-02,9.095721627382188923e-03,4.547860813691090992e-03,0.000000000000000000e+00,-4.547860813691094461e-03,-8.889000681305325724e-03,-1.343686149499642712e-02,-1.798472230868751465e-02,-2.232586217630174591e-02,-2.687372298999284037e-02,-3.142158380368393483e-02,-3.596944461737502235e-02,-4.031058448498926056e-02,-4.485844529868036196e-02,-4.940630611237144948e-02,-5.395416692606253700e-02,-5.829530679367677520e-02,-6.284316760736785579e-02,-6.739102842105895719e-02,-7.173216828867318151e-02,-7.628002910236428291e-02,-8.082788991605535656e-02,-8.537575072974645796e-02,-8.971689059736071004e-02,-9.339434742757024566e-02,-9.315498633211283241e-02,-8.960809009942549697e-02,-8.503846918614735295e-02,-8.025124727699883831e-02,-7.546402536785032367e-02,-7.089440445457220741e-02,-6.610718254542366501e-02,-6.131996063627515731e-02,-5.653273872712662879e-02,-5.196311781384848477e-02,-4.717589590469998401e-02,8.924360843134256094e-03
3.224846758799140151e-02,3.224846758799140151e-02,3.224846758799140151e-02,3.224846758799140151e-02,3.224846758799140151e-02,3.121486285760706123e-02,2.666700204391596676e-02,2.211914123022486883e-02,1.757128041653377437e-02,1.323014054891954658e-02,8.682279735228452117e-03,4.134418921537357655e-03,-4.134418921537402758e-04,-4.754581759767964599e-03,-9.302442573459059061e-03,-1.385030338715015352e-02,-1.819144325476438478e-02,-2.273930406845547925e-02,-2.728716488214657371e-02,-3.183502569583766123e-02,-3.617616556345189943e-02,-4.072402637714298695e-02,-4.527188719083408835e-02,-4.981974800452518976e-02,-5.416088787213941408e-02,-5.870874868583051548e-02,-6.325660949952158219e-02,-6.759774936713583426e-02,-7.214561018082693566e-02,-7.669347099451800931e-02,-8.124133180820911071e-02,-8.558247167582333503e-02,-9.013033248951443643e-02,-9.337258732798323080e-02,-9.313322623252578980e-02,-8.939048910355512634e-02,-8.460326719440661170e-02,-7.981604528525806930e-02,-7.524642437197995304e-02,-7.045920246283143840e-02,-6.567198055368289600e-02,-6.088475864453437442e-02,-5.631513773125624428e-02,-5.152791582210771576e-02,-4.674069391295920112e-02,-4.195347200381067260e-02,-3.738385109053255634e-02
3.224846758799140151e-02,3.224846758799140151e-02,3.224846758799140151e-02,3.224846758799140151e-02,3.080142096545332442e-02,2.625356015176222996e-02,2.170569933807113550e-02,1.736455947045690770e-02,1.281669865676580977e-02,8.268837843074718780e-03,3.720977029383624318e-03,-6.201628382306104137e-04,-5.168023651921704875e-03,-9.715884465612799337e-03,-1.405702433322702366e-02,-1.860488514691811812e-02,-2.315274596060921258e-02,-2.770060677430031398e-02,-3.204174664191453831e-02,-3.658960745560563971e-02,-4.113746826929672723e-02,-4.568532908298782863e-02,-5.002646895060205295e-02,-5.457432976429314048e-02,-5.912219057798424188e-02,-6.346333044559848702e-02,-6.801119125928956066e-02,-7.255905207298066206e-02,-7.710691288667176346e-02,-8.144805275428598779e-02,-8.599591356797708919e-02,-9.054377438166816283e-02,-9.335082722839618818e-02,-9.312234618273226849e-02,-8.895528711181435733e-02,-8.416806520266581493e-02,-7.959844428938767091e-02,-7.481122238023915627e-02,-7.002400047109064163e-02,-6.523677856194212699e-02,-6.066715764866398991e-02,-5.587993573951547527e-02,-5.109271383036693287e-02,-4.630549192121843211e-02,-4.173587100794030197e-02,-3.694864909879178733e-02,-3.216142718964325881e-02
3.224846758799140151e-02,3.224846758799140151e-02,3.224846758799140151e-02,3.038797907329959108e-02,2.584011825960849315e-02,2.149897839199426883e-02,1.695111757830317090e-02,1.240325676461207643e-02,7.855395950920981973e-03,3.514256083306754180e-03,-1.033604730384336812e-03,-5.581465544075431273e-03,-1.012932635776653267e-02,-1.447046622538076394e-02,-1.901832703907185146e-02,-2.356618785276295286e-02,-2.790732772037717718e-02,-3.245518853406827858e-02,-3.700304934775936611e-02,-4.155091016145046751e-02,-4.589205002906470571e-02,-5.043991084275579323e-02,-5.498777165644688075e-02,-5.953563247013796828e-02,-6.387677233775221342e-02,-6.842463315144328706e-02,-7.297249396513441622e-02,-7.731363383274861278e-02,-8.186149464643971418e-02,-8.640935546013081558e-02,-9.095721627382194474e-02,-9.333994717860263912e-02,-9.310058608314522588e-02,-8.852008512007358831e-02,-8.373286321092504592e-02,-7.916324229764690190e-02,-7.437602038849838726e-02,-6.958879847934987262e-02,-6.501917756607172860e-02,-6.023195565692322090e-02,-5.544473374777470626e-02,-5.065751183862617774e-02,-4.608789092534803372e-02,-4.130066901619953296e-02,-3.651344710705100444e-02,-3.172622519790247592e-02,-2.715660428462433884e-02
3.224846758799140151e-02,3.224846758799140151e-02,2.997453718114585428e-02,2.563339731353162648e-02,2.108553649984053202e-02,1.653767568614943409e-02,1.198981487245834310e-02,7.648675004844115305e-03,3.100814191153017374e-03,-1.447046622538077087e-03,-5.994907436229171549e-03,-1.033604730384340281e-02,-1.488390811753449727e-02,-1.943176893122559173e-02,-2.377290879883981606e-02,-2.832076961253091746e-02,-3.286863042622201886e-02,-3.741649123991310638e-02,-4.175763110752733070e-02,-4.630549192121843211e-02,-5.085335273490951963e-02,-5.540121354860062103e-02,-5.974235341621484535e-02,-6.429021422990593981e-02,-6.883807504359704121e-02,-7.317921491121126554e-02,-7.772707572490236694e-02,-8.227493653859346834e-02,-8.682279735228454198e-02,-9.116393721989879406e-02,-9.331818707901559651e-02,-9.287210503748130619e-02,-8.808488312833279155e-02,-8.351526221505464753e-02,-7.872804030590613289e-02,-7.394081839675761825e-02,-6.937119748347947423e-02,-6.458397557433095959e-02,-5.979675366518243801e-02,-5.500953175603392337e-02,-5.043991084275579323e-02,-4.565268893360726471e-02,-4.086546702445875007e-02,-3.607824511531022155e-02,-3.150862420203209141e-02,-2.672140229288356289e-02,-2.193418038373504131e-02
3.224846758799140151e-02,2.956109528899211747e-02,2.521995542137788968e-02,2.067209460768679521e-02,1.612423379399570075e-02,1.178309392638147296e-02,7.235233112690378499e-03,2.687372298999280568e-03,-1.860488514691817363e-03,-6.201628382306041687e-03,-1.074948919599712921e-02,-1.529735000968823061e-02,-1.984521082337932507e-02,-2.418635069099355633e-02,-2.873421150468465080e-02,-3.328207231837574526e-02,-3.762321218598996958e-02,-4.217107299968107098e-02,-4.671893381337215850e-02,-5.126679462706325990e-02,-5.560793449467748423e-02,-6.015579530836858563e-02,-6.470365612205966621e-02,-6.925151693575076761e-02,-7.359265680336499194e-02,-7.814051761705609334e-02,-8.268837843074716698e-02,-8.702951829836141906e-02,-9.157737911205252046e-02,-9.329642697942858165e-02,-9.243690304574053718e-02,-8.786728213246242092e-02,-8.308006022331387852e-02,-7.829283831416536388e-02,-7.350561640501684924e-02,-6.893599549173870522e-02,-6.414877358259019058e-02,-5.936155167344166900e-02,-5.479193076016353886e-02,-5.000470885101499646e-02,-4.521748694186649570e-02,-4.043026503271798106e-02,-3.586064411943985092e-02,-3.107342221029132240e-02,-2.628620030114279388e-02,-2.149897839199426536e-02,-1.692935747871614216e-02
2.935437434291525080e-02,2.480651352922415287e-02,2.025865271553305841e-02,1.591751284791883408e-02,1.136965203422773962e-02,6.821791220536645162e-03,2.273930406845543761e-03,-2.067209460768680562e-03,-6.615070274459781963e-03,-1.116293108815087642e-02,-1.571079190184197089e-02,-2.005193176945619521e-02,-2.459979258314728967e-02,-2.914765339683838413e-02,-3.348879326445260846e-02,-3.803665407814370986e-02,-4.258451489183479738e-02,-4.713237570552589878e-02,-5.147351557314012310e-02,-5.602137638683122450e-02,-6.056923720052231203e-02,-6.511709801421342036e-02,-6.945823788182764469e-02,-7.400609869551874609e-02,-7.855395950920981973e-02,-8.289509937682404406e-02,-8.744296019051514546e-02,-9.199082100420624686e-02,-9.327466687984153904e-02,-9.221930204987016655e-02,-8.743208014072162415e-02,-8.264485823157310951e-02,-7.785763632242459487e-02,-7.328801540914645085e-02,-6.850079349999793621e-02,-6.371357159084939381e-02,-5.914395067757128449e-02,-5.435672876842275597e-02,-4.956950685927422745e-02,-4.478228495012572669e-02,-4.021266403684758267e-02,-3.542544212769906803e-02,-3.063822021855053951e-02,-2.585099830940201793e-02,-2.128137739612388085e-02,-1.649415548697535927e-02,-1.170693357782683769e-02
2.439307163707041953e-02,2.005193176945619174e-02,1.550407095576509381e-02,1.095621014207399935e-02,6.408349328382901416e-03,2.067209460768680562e-03,-2.480651352922420838e-03,-7.028512166613515300e-03,-1.157637298030460976e-02,-1.591751284791883408e-02,-2.046537366160992161e-02,-2.501323447530102995e-02,-2.935437434291525427e-02,-3.390223515660634873e-02,-3.845009597029743625e-02,-4.299795678398853765e-02,-4.733909665160276198e-02,-5.188695746529386338e-02,-5.643481827898495090e-02,-6.098267909267605230e-02,-6.532381896029026969e-02,-6.987167977398137109e-02,-7.441954058767247249e-02,-7.896740140136357389e-02,-8.330854126897779821e-02,-8.785640208266887186e-02,-9.240426289636000101e-02,-9.326378683004801773e-02,-9.178410005812939754e-02,-8.699687814898085514e-02,-8.220965623983231274e-02,-7.764003532655419648e-02,-7.285281341740568184e-02,-6.806559150825713944e-02,-6.327836959910862480e-02,-5.870874868583051548e-02,-5.392152677668198696e-02,-4.913430486753345844e-02,-4.456468395425534218e-02,-3.977746204510681366e-02,-3.499024013595828514e-02,-3.020301822680976356e-02,-2.563339731353163342e-02,-2.084617540438309796e-02,-1.605895349523458332e-02,-1.127173158608605480e-02,-6.702110672807931602e-03
1.963848987730245493e-02,1.509062906361136047e-02,1.054276824992026254e-02,6.201628382306041687e-03,1.653767568614940286e-03,-2.894093245076147236e-03,-7.441954058767248636e-03,-1.178309392638147296e-02,-1.633095474007257436e-02,-2.087881555376366882e-02,-2.542667636745475634e-02,-2.976781623506898761e-02,-3.431567704876008901e-02,-3.886353786245117653e-02,-4.320467773006540085e-02,-4.775253854375650225e-02,-5.230039935744760365e-02,-5.684826017113869118e-02,-6.118940003875292938e-02,-6.573726085244402384e-02,-7.028512166613509748e-02,-7.483298247982619888e-02,-7.917412234744042321e-02,-8.372198316113152461e-02,-8.826984397482262601e-02,-9.261098384243687809e-02,-9.324202673046097511e-02,-9.134889806638860077e-02,-8.656167615724008613e-02,-8.199205524396194211e-02,-7.720483333481342747e-02,-7.241761142566491283e-02,-6.763038951651639819e-02,-6.306076860323825417e-02,-5.827354669408973259e-02,-5.348632478494120407e-02,-4.891670387166307393e-02,-4.412948196251454541e-02,-3.934226005336604465e-02,-3.455503814421751613e-02,-2.998541723093937905e-02,-2.519819532179085747e-02,-2.041097341264232895e-02,-1.562375150349381431e-02,-1.105413059021567723e-02,-6.266908681067162590e-03,-1.479686771918641008e-03
1.467718717145762367e-02,1.033604730384339587e-02,5.788186490152301411e-03,1.240325676461206950e-03,-3.307535137229887512e-03,-7.648675004844118774e-03,-1.219653581853521324e-02,-1.674439663222630770e-02,-2.129225744591740216e-02,-2.563339731353162648e-02,-3.018125812722272094e-02,-3.472911894091381541e-02,-3.907025880852805361e-02,-4.361811962221914113e-02,-4.816598043591024253e-02,-5.271384124960134393e-02,-5.705498111721555438e-02,-6.160284193090665578e-02,-6.615070274459775024e-02,-7.069856355828885164e-02,-7.503970342590307596e-02,-7.958756423959414961e-02,-8.413542505328525101e-02,-8.868328586697635241e-02,-9.302442573459060449e-02,-9.322026663087393250e-02,-9.091369607464783176e-02,-8.634407516136968774e-02,-8.155685325222117310e-02,-7.676963134307263070e-02,-7.198240943392414382e-02,-6.741278852064597205e-02,-6.262556661149748516e-02,-5.783834470234894970e-02,-5.305112279320042118e-02,-4.848150187992230492e-02,-4.369427997077377640e-02,-3.890705806162526176e-02,-3.433743714834713162e-02,-2.955021523919860310e-02,-2.476299333005007458e-02,-1.997577142090155300e-02,-1.540615050762341592e-02,-1.061892859847490822e-02,-5.831706689326386639e-03,-1.044484780177865058e-03,3.525136133100275487e-03
9.922605411689662536e-03,5.374744597998564605e-03,8.268837843074736127e-04,-3.514256083306757650e-03,-8.062116896997852111e-03,-1.260997771068894657e-02,-1.715783852438004103e-02,-2.149897839199427230e-02,-2.604683920568536676e-02,-3.059470001937645428e-02,-3.514256083306755568e-02,-3.948370070068178000e-02,-4.403156151437288141e-02,-4.857942232806396893e-02,-5.292056219567819325e-02,-5.746842300936930853e-02,-6.201628382306038217e-02,-6.656414463675147664e-02,-7.090528450436570096e-02,-7.545314531805680236e-02,-8.000100613174790376e-02,-8.454886694543900516e-02,-8.889000681305322948e-02,-9.343786762674433088e-02,-9.319850653128688989e-02,-9.069609507877743337e-02,-8.590887316962891873e-02,-8.112165126048040409e-02,-7.633442935133188945e-02,-7.176480843805374543e-02,-6.697758652890520303e-02,-6.219036461975670921e-02,-5.740314271060818069e-02,-5.283352179733003667e-02,-4.804629988818152203e-02,-4.325907797903300739e-02,-3.868945706575487725e-02,-3.390223515660636261e-02,-2.911501324745783409e-02,-2.432779133830930557e-02,-1.975817042503116155e-02,-1.497094851588264691e-02,-1.018372660673413227e-02,-5.396504697585610688e-03,-8.268837843074736127e-04,3.960338124841047969e-03,8.747560033989573020e-03
4.961302705844827798e-03,6.201628382306034748e-04,-3.927697975460490987e-03,-8.475558789151585448e-03,-1.302341960284267991e-02,-1.736455947045691117e-02,-2.191242028414800563e-02,-2.646028109783910703e-02,-3.100814191153019456e-02,-3.534928177914443276e-02,-3.989714259283550640e-02,-4.444500340652662168e-02,-4.878614327414083213e-02,-5.333400408783194740e-02,-5.788186490152303493e-02,-6.242972571521413633e-02,-6.677086558282835371e-02,-7.131872639651945511e-02,-7.586658721021055651e-02,-8.041444802390163016e-02,-8.475558789151585448e-02,-8.930344870520698364e-02,-9.341610752715728827e-02,-9.318762648149336858e-02,-9.026089308703666436e-02,-2.655578923169285011e-01,-2.607706704077799587e-01,-2.562010494945018424e-01,-2.514138275853533000e-01,-2.466266056762047854e-01,-6.175516262801592632e-02,-5.718554171473778230e-02,-5.239831980558925378e-02,-4.761109789644075302e-02,-4.304147698316262288e-02,-3.825425507401410824e-02,-3.346703316486557972e-02,-2.867981125571705120e-02,-2.411019034243891412e-02,-1.932296843329039254e-02,-1.453574652414187790e-02,-9.748524614993356319e-03,-5.178903701715219243e-03,-3.916817925667046008e-04,4.395540116581823920e-03,8.965161029859960995e-03,1.375238293900847564e-02
2.067209460768631990e-04,-4.341139867614231262e-03,-8.889000681305318785e-03,-1.323014054891955005e-02,-1.777800136261064451e-02,-2.232586217630174591e-02,-2.687372298999284037e-02,-3.121486285760707163e-02,-3.576272367129815916e-02,-4.031058448498926056e-02,-4.485844529868034808e-02,-4.919958516629458628e-02,-5.374744597998567380e-02,-5.829530679367676133e-02,-6.263644666129100647e-02,-6.718430747498208011e-02,-7.173216828867318151e-02,-7.628002910236428291e-02,-8.062116896997850723e-02,-8.516902978366960864e-02,-8.971689059736071004e-02,-9.339434742757024566e-02,-9.316586638190635372e-02,-8.982569109529589535e-02,-8.503846918614738071e-02,-2.605530694119095880e-01,-2.557658475027610456e-01,-2.509786255936125032e-01,-2.461914036844639886e-01,-2.416217827711858168e-01,-5.675033972299701329e-02,-5.196311781384849865e-02,-4.717589590469998401e-02,-4.260627499142185387e-02,-3.781905308227332535e-02,-3.303183117312481071e-02,-2.846221025984666669e-02,-2.367498835069814511e-02,-1.888776644154962353e-02,-1.410054453240109501e-02,-9.530923619122964874e-03,-4.743701709974450231e-03,4.352019917407135008e-05,4.830742108322599870e-03,9.400363021600730007e-03,1.418758493074925159e-02,1.897480683989777317e-02
-4.754581759767957660e-03,-9.095721627382195862e-03,-1.364358244107329032e-02,-1.819144325476438478e-02,-2.273930406845547925e-02,-2.708044393606970357e-02,-3.162830474976079803e-02,-3.617616556345189943e-02,-4.072402637714298695e-02,-4.506516624475721128e-02,-4.961302705844831268e-02,-5.416088787213941408e-02,-5.850202773975363840e-02,-6.304988855344473286e-02,-6.759774936713583426e-02,-7.214561018082690791e-02,-7.648675004844113223e-02,-8.103461086213223363e-02,-8.558247167582333503e-02,-9.013033248951443643e-02,-9.338346737777672435e-02,-9.314410628231931111e-02,-8.939048910355512634e-02,-8.482086819027698232e-02,-8.003364628112846768e-02,-2.553306455110202489e-01,-2.505434236018717620e-01,-2.459738026885935624e-01,-2.411865807794450756e-01,-2.363993588702965887e-01,-5.152791582210771576e-02,-4.695829490882958562e-02,-4.217107299968107098e-02,-3.738385109053255634e-02,-3.281423017725441232e-02,-2.802700826810589768e-02,-2.323978635895736916e-02,-1.845256444980884064e-02,-1.388294353653071050e-02,-9.095721627382188923e-03,-4.308499718233674280e-03,4.787221909148473009e-04,5.048343104192987846e-03,9.835565013341505958e-03,1.462278692249002754e-02,1.919240783576816115e-02,2.397962974491668273e-02
-9.509163519535922260e-03,-1.405702433322702366e-02,-1.860488514691811118e-02,-2.294602501453234938e-02,-2.749388582822343691e-02,-3.204174664191453831e-02,-3.658960745560562583e-02,-4.093074732321986403e-02,-4.547860813691096543e-02,-5.002646895060203908e-02,-5.436760881821627728e-02,-5.891546963190736480e-02,-6.346333044559845926e-02,-6.801119125928956066e-02,-7.235233112690378499e-02,-7.690019194059488639e-02,-8.144805275428598779e-02,-8.599591356797708919e-02,-9.033705343559131351e-02,-9.336170727818968174e-02,-9.312234618273226849e-02,-8.917288810768472795e-02,-8.438566619853621331e-02,-7.959844428938769867e-02,-7.481122238023915627e-02,-2.503258226060013913e-01,-2.455386006968528212e-01,-2.407513787877043343e-01,-2.359641568785557919e-01,-2.313945359652776756e-01,-4.652309291708881661e-02,-4.173587100794030197e-02,-3.716625009466215795e-02,-3.237902818551364331e-02,-2.759180627636511479e-02,-2.280458436721659321e-02,-1.823496345393845613e-02,-1.344774154478994149e-02,-8.660519635641412972e-03,-3.873297726492898330e-03,6.963231867852387458e-04,5.483545095933760327e-03,1.027076700508228191e-02,1.484038791836041551e-02,1.962760982750893710e-02,2.441483173665745868e-02,2.920205364580598026e-02
-1.447046622538076394e-02,-1.881160609299498826e-02,-2.335946690668607578e-02,-2.790732772037717718e-02,-3.245518853406827858e-02,-3.679632840168250291e-02,-4.134418921537359043e-02,-4.589205002906469183e-02,-5.043991084275579323e-02,-5.478105071037001755e-02,-5.932891152406111895e-02,-6.387677233775218566e-02,-6.821791220536643774e-02,-7.276577301905751138e-02,-7.731363383274861278e-02,-8.186149464643971418e-02,-8.620263451405393851e-02,-9.075049532774503991e-02,-9.333994717860263912e-02,-9.310058608314522588e-02,-8.873768611594395894e-02,-8.395046420679544430e-02,-7.916324229764690190e-02,-7.459362138436878564e-02,-6.980639947522024324e-02,-2.451033987051120799e-01,-2.403161767959635375e-01,-2.357465558826854213e-01,-2.309593339735368789e-01,-2.261721120643883365e-01,-4.130066901619953296e-02,-3.673104810292138894e-02,-3.194382619377286042e-02,-2.715660428462434578e-02,-2.258698337134620177e-02,-1.779976146219768712e-02,-1.301253955304915860e-02,-8.225317643900643960e-03,-3.655696730622513824e-03,1.131525178526011227e-03,5.918747087674536278e-03,1.070596899682305786e-02,1.527558991010118800e-02,2.006281181924970958e-02,2.485003372839823116e-02,2.941965464167636823e-02,3.224846758799140151e-02
-1.922504798514872160e-02,-2.377290879883982300e-02,-2.832076961253091746e-02,-3.266190948014514178e-02,-3.720977029383624318e-02,-4.175763110752733070e-02,-4.630549192121843211e-02,-5.064663178883265643e-02,-5.519449260252374395e-02,-5.974235341621484535e-02,-6.408349328382906274e-02,-6.863135409752016414e-02,-7.317921491121126554e-02,-7.772707572490236694e-02,-8.206821559251659126e-02,-8.661607640620769266e-02,-9.116393721989876631e-02,-9.331818707901562426e-02,-9.308970603335170457e-02,-8.830248412420318993e-02,-8.351526221505464753e-02,-7.894564130177650352e-02,-7.415841939262801663e-02,-6.937119748347947423e-02,-6.458397557433095959e-02,-6.001435466105283639e-02,-5.522713275190430787e-02,-5.043991084275579323e-02,-4.565268893360726471e-02,-4.108306802032913457e-02,-3.629584611118061993e-02,-3.150862420203209141e-02,-2.693900328875395433e-02,-2.215178137960543275e-02,-1.736455947045691117e-02,-1.257733756130838959e-02,-8.007716648030252515e-03,-3.220494738881737873e-03,1.566727170266783709e-03,6.353949079415312229e-03,1.092356999269344237e-02,1.571079190184196395e-02,2.049801381099048553e-02,2.506763472426861913e-02,2.985485663341714072e-02,3.224846758799140151e-02,3.224846758799140151e-02
-2.418635069099355633e-02,-2.852749055860778760e-02,-3.307535137229886818e-02,-3.762321218598996958e-02,-4.217107299968107098e-02,-4.651221286729529530e-02,-5.106007368098639670e-02,-5.560793449467748423e-02,-6.015579530836857175e-02,-6.449693517598281689e-02,-6.904479598967389053e-02,-7.359265680336499194e-02,-7.793379667097921626e-02,-8.248165748467031766e-02,-8.702951829836141906e-02,-9.157737911205252046e-02,-9.330730702922210296e-02,-9.265450404161093556e-02,-8.786728213246242092e-02,-8.308006022331390628e-02,-7.851043931003576226e-02,-7.372321740088721986e-02,-6.893599549173870522e-02,-6.436637457846056121e-02,-5.957915266931205350e-02,-5.479193076016353886e-02,-5.000470885101501034e-02,-4.543508793773689408e-02,-4.064786602858836556e-02,-3.586064411943985092e-02,-3.107342221029132240e-02,-2.650380129701317838e-02,-2.171657938786465680e-02,-1.692935747871614216e-02,-1.235973656543799815e-02,-7.572514656289483503e-03,-2.785292747140968861e-03,2.001929162007563129e-03,6.571550075285696735e-03,1.135877198443421832e-02,1.614599389358273643e-02,2.093321580273126148e-02,2.550283671600939508e-02,3.029005862515791667e-02,3.224846758799140151e-02,3.224846758799140151e-02,3.224846758799140151e-02
-2.894093245076152093e-02,-3.348879326445262233e-02,-3.803665407814369598e-02,-4.237779394575792030e-02,-4.692565475944902170e-02,-5.147351557314012310e-02,-5.602137638683122450e-02,-6.036251625444544883e-02,-6.491037706813654329e-02,-6.945823788182764469e-02,-7.379937774944186901e-02,-7.834723856313294266e-02,-8.289509937682404406e-02,-8.744296019051514546e-02,-9.178410005812939754e-02,-9.328554692963506034e-02,-9.221930204987013879e-02,-8.743208014072162415e-02,-8.286245922744348014e-02,-7.807523731829499325e-02,-7.328801540914645085e-02,-6.871839449586830684e-02,-6.393117258671979219e-02,-5.914395067757128449e-02,-5.435672876842275597e-02,-4.978710785514462583e-02,-4.499988594599609731e-02,-4.021266403684758267e-02,-3.542544212769906803e-02,-3.085582121442092401e-02,-2.606859930527240243e-02,-2.128137739612388085e-02,-1.671175648284575072e-02,-1.192453457369722913e-02,-7.137312664548707553e-03,-2.350090755400192910e-03,2.219530157877947635e-03,7.006752067026472686e-03,1.179397397617499427e-02,1.658119588532351585e-02,-5.052336312715106220e-02,-4.573614121800254756e-02,-4.094891930885401904e-02,-3.942571233776131362e-02,-3.942571233776131362e-02,3.224846758799140151e-02,3.224846758799140151e-02
-3.390223515660634873e-02,-3.824337502422057306e-02,-4.279123583791167446e-02,-4.733909665160277586e-02,-5.188695746529387726e-02,-5.622809733290808770e-02,-6.077595814659918910e-02,-6.532381896029026969e-02,-6.966495882790452177e-02,-7.421281964159559541e-02,-7.876068045528669681e-02,-8.330854126897779821e-02,-8.764968113659202253e-02,-9.219754195028312393e-02,-9.326378683004801773e-02,-9.178410005812939754e-02,-8.721447914485122577e-02,-8.242725723570271112e-02,-7.764003532655419648e-02,-7.307041441327608022e-02,-6.828319250412753783e-02,-6.349597059497902318e-02,-5.870874868583051548e-02,-5.413912777255237146e-02,-4.935190586340385682e-02,-4.456468395425531442e-02,-3.977746204510681366e-02,-3.520784113182868352e-02,-3.042061922268015500e-02,-2.563339731353164036e-02,-2.084617540438311184e-02,-1.627655449110496783e-02,-1.148933258195645318e-02,-6.702110672807931602e-03,-2.132489759529801465e-03,2.654732149618723586e-03,7.441954058767245167e-03,1.222917596791577022e-02,1.679879688119390035e-02,2.158601879034242194e-02,-4.530093922626177855e-02,-4.051371731711325003e-02,-3.942571233776131362e-02,-3.942571233776131362e-02,-3.942571233776131362e-02,3.224846758799140151e-02,3.224846758799140151e-02
1.009056618037711822e-02,-4.320467773006540085e-02,-4.775253854375650225e-02,-5.209367841137072658e-02,-5.664153922506182798e-02,-6.118940003875292938e-02,-6.573726085244399608e-02,-7.007840072005824816e-02,-7.462626153374934956e-02,-7.917412234744045096e-02,-8.351526221505467529e-02,-8.806312302874574893e-02,-9.261098384243687809e-02,-9.324202673046097511e-02,-9.156649906225899915e-02,-8.677927715311048451e-02,-8.199205524396194211e-02,-7.720483333481342747e-02,-7.263521242153528346e-02,-6.784799051238676881e-02,-6.306076860323825417e-02,-5.849114768996011710e-02,-5.370392578081158858e-02,-4.891670387166307393e-02,-4.412948196251455929e-02,-3.955986104923642915e-02,-3.477263914008790063e-02,-2.998541723093937905e-02,-2.519819532179085747e-02,-2.048707061678249064e-01,-2.000834842586763918e-01,-1.952962623495278771e-01,-1.907266414362497331e-01,-1.859394195271012185e-01,3.089934141359496067e-03,7.877156050508021118e-03,1.244677696378615472e-02,1.723399887293467631e-02,2.202122078208319789e-02,2.680844269123171947e-02,-4.029611632124286552e-02,-3.942571233776131362e-02,-3.942571233776131362e-02,-3.942571233776131362e-02,-3.942571233776131362e-02,3.224846758799140151e-02,3.224846758799140151e-02
3.224846758799140151e-02,2.170569933807112162e-03,-5.250712030352446685e-02,-5.705498111721556825e-02,-6.160284193090665578e-02,-6.594398179852087316e-02,-7.049184261221197456e-02,-7.503970342590307596e-02,-7.938084329351730029e-02,-8.392870410720840169e-02,-8.847656492089947533e-02,-9.302442573459057673e-02,-9.323114668066745381e-02,-9.113129707051823014e-02,-8.634407516136968774e-02,-8.155685325222117310e-02,-7.698723233894302909e-02,-7.220001042979451444e-02,-6.741278852064599980e-02,-6.284316760736785579e-02,-5.805594569821934808e-02,-5.326872378907081956e-02,-4.848150187992229104e-02,-4.391188096664417478e-02,-3.912465905749566014e-02,-3.433743714834713162e-02,-2.955021523919860310e-02,-2.498059432592045909e-02,-2.019337241677194444e-02,-1.996482822669356227e-01,-1.948610603577870803e-01,-1.902914394445089641e-01,-1.855042175353604494e-01,-1.807169956262119348e-01,8.094757046378409093e-03,1.288197895552693067e-02,1.766920086467545226e-02,2.245642277382397384e-02,2.702604368710210397e-02,3.181326559625062556e-02,-3.942571233776131362e-02,-3.942571233776131362e-02,-3.942571233776131362e-02,-3.942571233776131362e-02,-3.942571233776131362e-02,3.224846758799140151e-02,3.224846758799140151e-02
3.224846758799140151e-02,3.224846758799140151e-02,-7.002672048353905665e-03,-6.180956287698351898e-02,-6.635742369067462731e-02,-7.090528450436572871e-02,-7.545314531805680236e-02,-7.979428518567102668e-02,-8.434214599936212808e-02,-8.889000681305322948e-02,-9.323114668066745381e-02,-9.320938658108041119e-02,-9.069609507877746113e-02,-8.590887316962891873e-02,-8.133925225635077472e-02,-7.655203034720226007e-02,-7.176480843805374543e-02,-6.697758652890520303e-02,-6.240796561562709371e-02,-5.762074370647856519e-02,-5.283352179733003667e-02,-4.826390088405192041e-02,-4.347667897490339189e-02,-3.868945706575487725e-02,-3.390223515660634873e-02,-2.933261424332821860e-02,-2.454539233417969007e-02,-1.975817042503116849e-02,-1.497094851588264691e-02,-1.946434593619167097e-01,-1.898562374527681951e-01,-1.850690155436196804e-01,-1.804993946303415364e-01,-1.757121727211930218e-01,1.331718094726770316e-02,1.810440285641622474e-02,2.267402376969435834e-02,2.746124567884287992e-02,3.224846758799140151e-02,3.224846758799140151e-02,-3.942571233776131362e-02,-3.942571233776131362e-02,-3.942571233776131362e-02,-3.942571233776131362e-02,-3.942571233776131362e-02,3.224846758799140151e-02,3.224846758799140151e-02
3.224846758799140151e-02,3.224846758799140151e-02,3.224846758799140151e-02,-1.726119899741847957e-02,-7.131872639651945511e-02,-7.565986626413367944e-02,-8.020772707782478084e-02,-8.475558789151585448e-02,-8.909672775913010656e-02,-9.342698757695080958e-02,-9.318762648149339634e-02,-9.026089308703666436e-02,-8.569127217375852035e-02,-8.090405026461000570e-02,-7.611682835546149106e-02,-7.132960644631297642e-02,-6.675998553303483241e-02,-6.197276362388632470e-02,-5.718554171473781006e-02,-5.261592080145963829e-02,-4.782869889231113752e-02,-4.304147698316262288e-02,-3.825425507401410824e-02,-3.368463416073597810e-02,-2.889741225158744264e-02,-2.411019034243891412e-02,-1.932296843329039254e-02,-1.475334752001226241e-02,-9.966125610863740825e-03,-1.894210354610274261e-01,-1.848514145477492820e-01,-1.800641926386007674e-01,-1.752769707294522250e-01,-1.704897488203037104e-01,1.832200385228661271e-02,2.310922576143513429e-02,2.789644767058365588e-02,3.224846758799140151e-02,3.224846758799140151e-02,3.224846758799140151e-02,3.224846758799140151e-02,3.224846758799140151e-02,3.224846758799140151e-02,3.224846758799140151e-02,3.224846758799140151e-02,3.224846758799140151e-02,3.224846758799140151e-02
3.224846758799140151e-02,3.224846758799140151e-02,3.224846758799140151e-02,3.224846758799140151e-02,-2.529747577615672205e-02,-8.062116896997850723e-02,-8.516902978366960864e-02,-8.951016965128383296e-02,-9.340522747736376696e-02,-9.316586638190632597e-02,-9.004329209116629373e-02,-8.525607018201775134e-02,-8.046884827286923669e-02,-7.568162636372072205e-02,-7.111200545044257804e-02,-6.632478354129403564e-02,-6.153756163214552793e-02,-5.675033972299701329e-02,-5.218071880971888316e-02,-4.739349690057035464e-02,-4.260627499142183999e-02,-3.803665407814372373e-02,-3.324943216899519521e-02,-2.846221025984666669e-02,-2.367498835069813123e-02,-1.910536743742000804e-02,-1.431814552827148646e-02,-9.530923619122964874e-03,-4.743701709974450231e-03,-1.844162125560085130e-01,-1.796289906468599706e-01,-1.748417687377114560e-01,-1.702721478244333120e-01,-1.654849259152847973e-01,2.354442775317591025e-02,2.833164966232443183e-02,3.224846758799140151e-02,3.224846758799140151e-02,3.224846758799140151e-02,3.224846758799140151e-02,3.224846758799140151e-02,3.224846758799140151e-02,3.224846758799140151e-02,3.224846758799140151e-02,3.224846758799140151e-02,3.224846758799140151e-02,3.224846758799140151e-02
3.224846758799140151e-02,3.224846758799140151e-02,3.224846758799140151e-02,3.224846758799140151e-02,3.224846758799140151e-02,-3.759091203816545407e-02,-8.992361154343755936e-02,-9.338346737777672435e-02,-9.315498633211280466e-02,-8.960809009942552472e-02,-8.482086819027698232e-02,-8.003364628112846768e-02,-7.546402536785032367e-02,-7.067680345870180902e-02,-6.588958154955326663e-02,-6.110235964040477280e-02,-5.653273872712664266e-02,-5.174551681797810027e-02,-4.695829490882958562e-02,-4.238867399555145549e-02,-3.760145208640294084e-02,-3.281423017725441232e-02,-2.802700826810589768e-02,-2.345738735482775367e-02,-1.867016544567922515e-02,-1.388294353653071050e-02,-9.095721627382195862e-03,-4.526100714104065725e-03,2.611211950444627949e-04,5.048343104192987846e-03,9.617964017471121452e-03,1.440518592661963956e-02,1.919240783576816115e-02,2.397962974491668273e-02,2.854925065819481633e-02,3.224846758799140151e-02,3.224846758799140151e-02,3.224846758799140151e-02,3.224846758799140151e-02,3.224846758799140151e-02,3.224846758799140151e-02,3.224846758799140151e-02,3.224846758799140151e-02,3.224846758799140151e-02,3.224846758799140151e-02,3.224846758799140151e-02,3.224846758799140151e-02
3.224846758799140151e-02,3.224846758799140151e-02,3.224846758799140151e-02,3.224846758799140151e-02,3.224846758799140151e-02,3.224846758799140151e-02,-5.018320966793993892e-02,-9.313322623252578980e-02,-8.917288810768472795e-02,-8.438566619853621331e-02,-7.981604528525806930e-02,-7.502882337610955465e-02,-7.024160146696101226e-02,-6.545437955781249761e-02,-6.088475864453438829e-02,-5.609753673538585977e-02,-5.131031482623733125e-02,-4.652309291708883049e-02,-4.195347200381068647e-02,-3.716625009466217183e-02,-3.237902818551364331e-02,-2.780940727223549930e-02,-2.302218536308697772e-02,-1.823496345393845613e-02,-1.344774154478994149e-02,-8.878120631511797478e-03,-4.090898722363289775e-03,6.963231867852387458e-04,5.483545095933760327e-03,1.005316600921189393e-02,1.484038791836041551e-02,1.962760982750893710e-02,2.419723074078707070e-02,2.898445264993559228e-02,3.224846758799140151e-02,3.224846758799140151e-02,3.224846758799140151e-02,3.224846758799140151e-02,3.224846758799140151e-02,3.224846758799140151e-02,3.224846758799140151e-02,3.224846758799140151e-02,3.224846758799140151e-02,3.224846758799140151e-02,3.224846758799140151e-02,3.224846758799140151e-02,3.224846758799140151e-02
3.224846758799140151e-02,3.224846758799140151e-02,3.224846758799140151e-02,3.224846758799140151e-02,3.224846758799140151e-02,3.224846758799140151e-02,3.224846758799140151e-02,-5.471033038671214294e-02,-8.416806520266581493e-02,-7.938084329351730029e-02,-7.459362138436878564e-02,-6.980639947522024324e-02,-6.523677856194212699e-02,-6.044955665279361928e-02,-5.566233474364507688e-02,-5.087511283449656224e-02,-4.630549192121843211e-02,-4.151827001206991746e-02,-3.673104810292138894e-02,-3.216142718964324493e-02,-2.737420528049473029e-02,-2.258698337134620177e-02,-1.779976146219768712e-02,-1.323014054891955005e-02,-8.442918639771028466e-03,-3.655696730622520763e-03,1.131525178526011227e-03,5.701146091804148303e-03,1.048836800095266988e-02,1.527558991010119147e-02,1.984521082337932507e-02,2.463243273252784665e-02,2.941965464167636823e-02,3.224846758799140151e-02,3.224846758799140151e-02,3.224846758799140151e-02,3.224846758799140151e-02,3.224846758799140151e-02,3.224846758799140151e-02,3.224846758799140151e-02,3.224846758799140151e-02,3.224846758799140151e-02,3.224846758799140151e-02,3.224846758799140151e-02,3.224846758799140151e-02,3.224846758799140151e-02,3.224846758799140151e-02
3.224846758799140151e-02,3.224846758799140151e-02,3.224846758799140151e-02,3.224846758799140151e-02,3.224846758799140151e-02,3.224846758799140151e-02,3.224846758799140151e-02,2.862405100052526144e-02,-5.114711407933455328e-02,-7.415841939262798888e-02,-6.958879847934987262e-02,-6.480157657020133022e-02,-6.001435466105283639e-02,-5.522713275190430787e-02,-5.065751183862616386e-02,-4.587028992947764922e-02,-4.108306802032913457e-02,-3.651344710705100444e-02,-3.172622519790248979e-02,-2.693900328875395433e-02,-2.215178137960542581e-02,-1.758216046632728874e-02,-1.279493855717877410e-02,-8.007716648030259454e-03,-3.220494738881744812e-03,1.349126174396399203e-03,6.136348083544920784e-03,1.092356999269344237e-02,1.549319090597157944e-02,2.028041281512009755e-02,2.506763472426861913e-02,2.985485663341714072e-02,3.224846758799140151e-02,3.224846758799140151e-02,3.224846758799140151e-02,3.224846758799140151e-02,3.224846758799140151e-02,3.224846758799140151e-02,3.224846758799140151e-02,3.224846758799140151e-02,3.224846758799140151e-02,3.224846758799140151e-02,3.224846758799140151e-02,3.224846758799140151e-02,3.224846758799140151e-02,3.224846758799140151e-02,3.224846758799140151e-02
3.224846758799140151e-02,3.224846758799140151e-02,3.224846758799140151e-02,3.224846758799140151e-02,3.224846758799140151e-02,3.224846758799140151e-02,3.224846758799140151e-02,3.224846758799140151e-02,2.229322202692118199e-02,-5.014070947343399892e-02,-6.436637457846056121e-02,-5.957915266931205350e-02,-5.500953175603392337e-02,-5.022230984688539485e-02,-4.543508793773688020e-02,-4.064786602858836556e-02,-3.607824511531022155e-02,-3.129102320616170690e-02,-2.650380129701317838e-02,-2.193418038373504131e-02,-1.714695847458651279e-02,-1.235973656543799815e-02,-7.572514656289476564e-03,-3.002893743011353367e-03,1.784328166137171684e-03,6.571550075285696735e-03,1.135877198443421832e-02,1.592839289771235192e-02,2.071561480686087350e-02,2.550283671600939508e-02,3.007245762928752869e-02,3.224846758799140151e-02,3.224846758799140151e-02,3.224846758799140151e-02,3.224846758799140151e-02,3.224846758799140151e-02,3.224846758799140151e-02,3.224846758799140151e-02,3.224846758799140151e-02,3.224846758799140151e-02,3.224846758799140151e-02,3.224846758799140151e-02,3.224846758799140151e-02,3.224846758799140151e-02,3.224846758799140151e-02,3.224846758799140151e-02,3.224846758799140151e-02
3.224846758799140151e-02,3.224846758799140151e-02,3.224846758799140151e-02,3.224846758799140151e-02,3.224846758799140151e-02,3.224846758799140151e-02,3.224846758799140151e-02,3.224846758799140151e-02,3.224846758799140151e-02,1.722039881069277814e-02,-4.791029926576253345e-02,-5.457432976429314048e-02,-4.978710785514462583e-02,-4.499988594599611119e-02,-4.043026503271796718e-02,-3.564304312356945253e-02,-3.085582121442092401e-02,-2.628620030114279388e-02,-2.149897839199427230e-02,-1.671175648284574378e-02,-1.192453457369722913e-02,-7.354913660419092059e-03,-2.567691751270577416e-03,2.219530157877947635e-03,7.006752067026472686e-03,1.157637298030460282e-02,1.636359488945312787e-02,2.115081679860164598e-02,2.572043771187978306e-02,3.050765962102830464e-02,3.224846758799140151e-02,3.224846758799140151e-02,3.224846758799140151e-02,3.224846758799140151e-02,3.224846758799140151e-02,3.224846758799140151e-02,3.224846758799140151e-02,3.224846758799140151e-02,3.224846758799140151e-02,3.224846758799140151e-02,3.224846758799140151e-02,3.224846758799140151e-02,3.224846758799140151e-02,3.224846758799140151e-02,3.224846758799140151e-02,3.224846758799140151e-02,3.224846758799140151e-02
3.224846758799140151e-02,3.224846758799140151e-02,3.224846758799140151e-02,3.224846758799140151e-02,3.224846758799140151e-02,3.224846758799140151e-02,3.224846758799140151e-02,3.224846758799140151e-02,3.224846758799140151e-02,3.224846758799140151e-02,1.605079345788944581e-02,-4.425188252269163930e-02,-4.478228495012572669e-02,-3.999506304097719817e-02,-3.520784113182868352e-02,-3.042061922268015500e-02,-2.585099830940201793e-02,-2.106377640025349635e-02,-1.627655449110496783e-02,-1.170693357782683769e-02,-6.919711668678316108e-03,-2.132489759529801465e-03,2.654732149618723586e-03,7.224353062896857192e-03,1.201157497204537877e-02,1.679879688119390035e-02,2.158601879034242194e-02,2.615563970362055554e-02,3.094286161276907712e-02,3.224846758799140151e-02,3.224846758799140151e-02,3.224846758799140151e-02,3.224846758799140151e-02,3.224846758799140151e-02,3.224846758799140151e-02,3.224846758799140151e-02,3.224846758799140151e-02,3.224846758799140151e-02,3.224846758799140151e-02,3.224846758799140151e-02,3.224846758799140151e-02,3.224846758799140151e-02,3.224846758799140151e-02,3.224846758799140151e-02,3.224846758799140151e-02,3.224846758799140151e-02,3.224846758799140151e-02
3.224846758799140151e-02,3.224846758799140151e-02,3.224846758799140151e-02,3.224846758799140151e-02,3.224846758799140151e-02,3.224846758799140151e-02,3.224846758799140151e-02,3.224846758799140151e-02,3.224846758799140151e-02,3.224846758799140151e-02,3.224846758799140151e-02,1.309957995139731518e-02,-3.955986104923642915e-02,-3.477263914008790063e-02,-3.020301822680977050e-02,-2.541579631766124198e-02,-2.062857440851272040e-02,-1.605895349523458332e-02,-1.127173158608606174e-02,-6.484509676937547096e-03,-1.697287767789025514e-03,2.872333145489111561e-03,7.659555054637633142e-03,1.244677696378615472e-02,1.723399887293467631e-02,2.180361978621280991e-02,2.659084169536133149e-02,3.137806360450984960e-02,3.224846758799140151e-02,3.224846758799140151e-02,3.224846758799140151e-02,3.224846758799140151e-02,3.224846758799140151e-02,3.224846758799140151e-02,3.224846758799140151e-02,3.224846758799140151e-02,3.224846758799140151e-02,3.224846758799140151e-02,3.224846758799140151e-02,3.224846758799140151e-02,3.224846758799140151e-02,3.224846758799140151e-02,3.224846758799140151e-02,3.224846758799140151e-02,3.224846758799140151e-02,3.224846758799140151e-02,3.224846758799140151e-02
3.224846758799140151e-02,3.224846758799140151e-02,3.224846758799140151e-02,3.224846758799140151e-02,3.224846758799140151e-02,3.224846758799140151e-02,3.224846758799140151e-02,3.224846758799140151e-02,3.224846758799140151e-02,3.224846758799140151e-02,3.224846758799140151e-02,3.224846758799140151e-02,1.137237204667611301e-02,-2.976781623506899455e-02,-2.498059432592045909e-02,-2.041097341264232895e-02,-1.562375150349381431e-02,-1.083652959434529967e-02,-6.049307685196771145e-03,-1.479686771918641008e-03,3.307535137229884042e-03,8.094757046378409093e-03,1.288197895552693067e-02,1.745159986880506428e-02,2.223882177795358586e-02,2.702604368710210397e-02,3.159566460038024105e-02,3.224846758799140151e-02,3.224846758799140151e-02,3.224846758799140151e-02,3.224846758799140151e-02,3.224846758799140151e-02,3.224846758799140151e-02,3.224846758799140151e-02,3.224846758799140151e-02,3.224846758799140151e-02,3.224846758799140151e-02,3.224846758799140151e-02,3.224846758799140151e-02,3.224846758799140151e-02,3.224846758799140151e-02,3.224846758799140151e-02,3.224846758799140151e-02,3.224846758799140151e-02,3.224846758799140151e-02,3.224846758799140151e-02,3.224846758799140151e-02
