6.808358400504063712e-02,6.808358400504063712e-02,6.808358400504063712e-02,6.808358400504063712e-02,6.808358400504063712e-02,6.808358400504063712e-02,6.808358400504063712e-02,6.808358400504063712e-02,6.808358400504063712e-02,6.808358400504063712e-02,6.808358400504063712e-02,6.808358400504063712e-02,6.808358400504063712e-02,6.808358400504063712e-02,6.808358400504063712e-02,6.808358400504063712e-02,6.808358400504063712e-02,6.808358400504063712e-02,6.808358400504063712e-02,6.808358400504063712e-02,6.411204160474659464e-02,5.389950400399050323e-02,4.368696640323441183e-02,3.347442880247831348e-02,2.382925440176422716e-02,1.361671680100812881e-02,3.404179200252030468e-03,-6.808358400504060937e-03,-1.702089600126015234e-02,-2.666607040197423173e-02,-3.687860800273035089e-02,-4.709114560348644229e-02,-5.730368320424253370e-02,-6.751622080499863898e-02,-7.772875840575471651e-02,-8.737393280646879590e-02,7.801244000577578497e-04,6.808358400504063712e-02,6.808358400504063712e-02,6.808358400504063712e-02,6.808358400504063712e-02,6.808358400504063712e-02,6.808358400504063712e-02,6.808358400504063712e-02,6.808358400504063712e-02,6.808358400504063712e-02,6.808358400504063712e-02
6.808358400504063712e-02,6.808358400504063712e-02,6.808358400504063712e-02,6.808358400504063712e-02,6.808358400504063712e-02,6.808358400504063712e-02,6.808358400504063712e-02,6.808358400504063712e-02,6.808358400504063712e-02,6.808358400504063712e-02,6.808358400504063712e-02,6.808358400504063712e-02,6.808358400504063712e-02,6.808358400504063712e-02,6.808358400504063712e-02,6.808358400504063712e-02,6.808358400504063712e-02,6.808358400504063712e-02,6.808358400504063712e-02,5.900577280436855587e-02,4.879323520361245753e-02,3.858069760285635919e-02,2.893552320214227286e-02,1.872298560138617451e-02,8.510448000630083110e-03,-1.702089600126008295e-03,-1.191462720088209970e-02,-2.155980160159619297e-02,-3.177233920235228437e-02,-4.198487680310837578e-02,-5.219741440386448106e-02,-6.240995200462060022e-02,-7.205512640533467961e-02,-8.226766400609075713e-02,-9.248020160684683466e-02,-1.026927392076029399e-01,-1.072493749079402869e-01,4.538905600336042706e-02,6.808358400504063712e-02,6.808358400504063712e-02,6.808358400504063712e-02,6.808358400504063712e-02,6.808358400504063712e-02,6.808358400504063712e-02,6.808358400504063712e-02,6.808358400504063712e-02,6.808358400504063712e-02
6.808358400504063712e-02,6.808358400504063712e-02,6.808358400504063712e-02,6.808358400504063712e-02,6.808358400504063712e-02,6.808358400504063712e-02,6.808358400504063712e-02,6.808358400504063712e-02,6.808358400504063712e-02,6.808358400504063712e-02,6.808358400504063712e-02,6.808358400504063712e-02,6.808358400504063712e-02,6.808358400504063712e-02,6.808358400504063712e-02,6.808358400504063712e-02,6.808358400504063712e-02,6.411204160474659464e-02,5.389950400399050323e-02,4.368696640323441183e-02,3.404179200252031856e-02,2.382925440176422716e-02,1.361671680100812187e-02,3.404179200252030468e-03,-6.808358400504060937e-03,-1.645353280121815420e-02,-2.666607040197423173e-02,-3.687860800273033701e-02,-4.709114560348644229e-02,-5.730368320424253370e-02,-6.694885760495664084e-02,-7.716139520571271837e-02,-8.737393280646882365e-02,-9.758647040722490118e-02,-1.077990080079810065e-01,-1.134726400084010711e-01,-1.134726400084010434e-01,-5.673632000420050780e-02,6.808358400504063712e-02,6.808358400504063712e-02,6.808358400504063712e-02,6.808358400504063712e-02,6.808358400504063712e-02,6.808358400504063712e-02,6.808358400504063712e-02,6.808358400504063712e-02,6.808358400504063712e-02
6.808358400504063712e-02,6.808358400504063712e-02,6.808358400504063712e-02,6.808358400504063712e-02,6.808358400504063712e-02,6.808358400504063712e-02,6.808358400504063712e-02,6.808358400504063712e-02,6.808358400504063712e-02,6.808358400504063712e-02,6.808358400504063712e-02,6.808358400504063712e-02,6.808358400504063712e-02,6.808358400504063712e-02,6.808358400504063712e-02,6.808358400504063712e-02,5.900577280436855587e-02,4.936059840365446261e-02,3.914806080289837120e-02,2.893552320214227286e-02,1.872298560138617451e-02,8.510448000630083110e-03,-1.702089600126022173e-03,-1.134726400084010156e-02,-2.155980160159619297e-02,-3.177233920235228437e-02,-4.198487680310838965e-02,-5.219741440386449494e-02,-6.184258880457857432e-02,-7.205512640533467961e-02,-8.226766400609075713e-02,-9.248020160684686242e-02,-1.026927392076029399e-01,-1.123379136083170471e-01,-1.134726400084010434e-01,-1.134726400084010434e-01,-1.134726400084010434e-01,-1.134726400084010434e-01,-5.673632000420050780e-03,6.808358400504063712e-02,6.808358400504063712e-02,6.808358400504063712e-02,6.808358400504063712e-02,6.808358400504063712e-02,6.808358400504063712e-02,6.808358400504063712e-02,6.808358400504063712e-02
6.808358400504063712e-02,6.808358400504063712e-02,6.808358400504063712e-02,6.808358400504063712e-02,6.808358400504063712e-02,6.808358400504063712e-02,6.808358400504063712e-02,6.808358400504063712e-02,6.808358400504063712e-02,6.808358400504063712e-02,6.808358400504063712e-02,6.808358400504063712e-02,6.808358400504063712e-02,6.808358400504063712e-02,6.411204160474659464e-02,5.446686720403250831e-02,4.425432960327640997e-02,3.404179200252031856e-02,2.382925440176422716e-02,1.361671680100812881e-02,3.971542400294028607e-03,-6.240995200462048920e-03,-1.645353280121815420e-02,-2.666607040197424561e-02,-3.687860800273035089e-02,-4.709114560348645617e-02,-5.673632000420053556e-02,-6.694885760495664084e-02,-7.716139520571271837e-02,-8.737393280646879590e-02,-9.758647040722490118e-02,-1.072316448079389806e-01,-1.134726400084010434e-01,-1.134726400084010434e-01,-1.134726400084010434e-01,-1.134726400084010434e-01,-1.134726400084010434e-01,-1.134726400084010434e-01,-1.077990080079810065e-01,4.538905600336042706e-02,6.808358400504063712e-02,6.808358400504063712e-02,6.808358400504063712e-02,6.808358400504063712e-02,6.808358400504063712e-02,6.808358400504063712e-02,6.808358400504063712e-02
6.808358400504063712e-02,6.808358400504063712e-02,6.808358400504063712e-02,6.808358400504063712e-02,6.808358400504063712e-02,6.808358400504063712e-02,6.808358400504063712e-02,6.808358400504063712e-02,6.808358400504063712e-02,6.808358400504063712e-02,6.808358400504063712e-02,6.808358400504063712e-02,6.808358400504063712e-02,5.957313600441055401e-02,4.936059840365446261e-02,3.914806080289836426e-02,2.893552320214227286e-02,1.872298560138616758e-02,9.077811200672088188e-03,-1.134726400084010156e-03,-1.134726400084010156e-02,-2.155980160159619297e-02,-3.177233920235228437e-02,-4.198487680310838965e-02,-5.163005120382248292e-02,-6.184258880457857432e-02,-7.205512640533467961e-02,-8.226766400609075713e-02,-9.248020160684686242e-02,-1.021253760075609418e-01,-1.123379136083170471e-01,-1.134726400084010434e-01,-1.134726400084010711e-01,-1.134726400084010434e-01,-1.134726400084010434e-01,-1.134726400084010434e-01,-1.134726400084010434e-01,-1.134726400084010434e-01,-1.134726400084010434e-01,-5.673632000420052168e-02,6.808358400504063712e-02,6.808358400504063712e-02,6.808358400504063712e-02,6.808358400504063712e-02,6.808358400504063712e-02,6.808358400504063712e-02,6.808358400504063712e-02
6.808358400504063712e-02,6.808358400504063712e-02,6.808358400504063712e-02,6.808358400504063712e-02,6.808358400504063712e-02,6.808358400504063712e-02,6.808358400504063712e-02,6.808358400504063712e-02,6.808358400504063712e-02,6.808358400504063712e-02,6.808358400504063712e-02,6.467940480478860665e-02,5.446686720403250831e-02,4.425432960327640997e-02,3.404179200252031856e-02,2.382925440176422716e-02,1.418408000105013389e-02,3.971542400294028607e-03,-6.240995200462062797e-03,-1.645353280121814032e-02,-2.666607040197424561e-02,-3.631124480268832500e-02,-4.652378240344443028e-02,-5.673632000420053556e-02,-6.694885760495664084e-02,-7.716139520571271837e-02,-8.737393280646879590e-02,-9.701910720718290304e-02,-1.072316448079389806e-01,-1.134726400084010434e-01,-1.134726400084010434e-01,-1.134726400084010434e-01,-1.134726400084010434e-01,-1.134726400084010434e-01,-1.134726400084010434e-01,-1.134726400084010434e-01,-1.134726400084010711e-01,-1.134726400084010434e-01,-1.134726400084010434e-01,-1.134726400084010434e-01,-5.673632000420036903e-03,6.808358400504063712e-02,6.808358400504063712e-02,6.808358400504063712e-02,6.808358400504063712e-02,6.808358400504063712e-02,6.808358400504063712e-02
6.808358400504063712e-02,6.808358400504063712e-02,6.808358400504063712e-02,6.808358400504063712e-02,6.808358400504063712e-02,6.808358400504063712e-02,6.808358400504063712e-02,6.808358400504063712e-02,6.808358400504063712e-02,6.808358400504063712e-02,5.957313600441055401e-02,4.936059840365446261e-02,3.914806080289836426e-02,2.893552320214226592e-02,1.929034880142818653e-02,9.077811200672088188e-03,-1.134726400083996278e-03,-1.134726400084010156e-02,-2.155980160159620684e-02,-3.120497600231030011e-02,-4.141751360306637764e-02,-5.163005120382248292e-02,-6.184258880457857432e-02,-7.205512640533467961e-02,-8.170030080604875899e-02,-9.191283840680483652e-02,-1.021253760075609418e-01,-1.123379136083170471e-01,-1.134726400084010711e-01,-1.134726400084010434e-01,-1.134726400084010434e-01,-1.134726400084010434e-01,-1.134726400084010434e-01,-1.134726400084010434e-01,-1.134726400084010434e-01,-1.134726400084010434e-01,-1.134726400084010434e-01,-1.134726400084010434e-01,-1.134726400084010434e-01,-1.134726400084010434e-01,-1.077990080079810065e-01,4.538905600336042706e-02,6.808358400504063712e-02,6.808358400504063712e-02,6.808358400504063712e-02,6.808358400504063712e-02,6.808358400504063712e-02
6.808358400504063712e-02,6.808358400504063712e-02,6.808358400504063712e-02,6.808358400504063712e-02,6.808358400504063712e-02,6.808358400504063712e-02,6.808358400504063712e-02,6.808358400504063712e-02,6.467940480478860665e-02,5.446686720403250831e-02,4.425432960327641690e-02,3.404179200252031856e-02,2.439661760180622530e-02,1.418408000105013389e-02,3.971542400294042485e-03,-6.240995200462048920e-03,-1.645353280121814032e-02,-2.609870720193223359e-02,-3.631124480268832500e-02,-4.652378240344443028e-02,-5.673632000420053556e-02,-6.694885760495661309e-02,-7.659403200567069248e-02,-8.680656960642682551e-02,-9.701910720718290304e-02,-1.072316448079389806e-01,-1.134726400084010434e-01,-1.134726400084010434e-01,-1.134726400084010434e-01,-1.134726400084010434e-01,-1.134726400084010434e-01,-1.134726400084010434e-01,-1.134726400084010434e-01,-1.134726400084010434e-01,-1.134726400084010434e-01,-1.134726400084010434e-01,-1.134726400084010434e-01,-1.134726400084010434e-01,-1.134726400084010434e-01,-1.134726400084010434e-01,-1.134726400084010434e-01,-5.673632000420052168e-02,6.808358400504063712e-02,6.808358400504063712e-02,6.808358400504063712e-02,6.808358400504063712e-02,6.808358400504063712e-02
6.808358400504063712e-02,6.808358400504063712e-02,6.808358400504063712e-02,6.808358400504063712e-02,6.808358400504063712e-02,6.808358400504063712e-02,6.808358400504063712e-02,5.957313600441055401e-02,4.936059840365446261e-02,3.971542400294036934e-02,2.950288640218427794e-02,1.929034880142817959e-02,9.077811200672088188e-03,-1.134726400084010156e-03,-1.134726400084010156e-02,-2.099243840155419483e-02,-3.120497600231028623e-02,-4.141751360306639151e-02,-5.163005120382248292e-02,-6.184258880457857432e-02,-7.148776320529265371e-02,-8.170030080604875899e-02,-9.191283840680483652e-02,-1.021253760075609418e-01,-1.123379136083170471e-01,-1.134726400084010434e-01,-1.134726400084010434e-01,-1.134726400084010434e-01,-1.134726400084010434e-01,-1.134726400084010434e-01,-1.134726400084010434e-01,-1.134726400084010434e-01,-1.134726400084010434e-01,-1.134726400084010434e-01,-1.134726400084010434e-01,-1.134726400084010434e-01,-1.134726400084010434e-01,-1.134726400084010434e-01,-1.134726400084010156e-01,-1.134726400084010434e-01,-1.134726400084010434e-01,-1.134726400084010434e-01,-1.134726400084010156e-02,6.808358400504063712e-02,6.808358400504063712e-02,6.808358400504063712e-02,6.808358400504063712e-02
6.808358400504063712e-02,6.808358400504063712e-02,6.808358400504063712e-02,6.808358400504063712e-02,6.808358400504063712e-02,6.467940480478860665e-02,5.446686720403250831e-02,4.482169280331842198e-02,3.460915520256232364e-02,2.439661760180623223e-02,1.418408000105013389e-02,3.971542400294028607e-03,-5.673632000420064658e-03,-1.588616960117614219e-02,-2.609870720193224747e-02,-3.631124480268832500e-02,-4.652378240344444416e-02,-5.673632000420053556e-02,-6.638149440491464270e-02,-7.659403200567069248e-02,-8.680656960642679776e-02,-9.701910720718287529e-02,-1.072316448079390083e-01,-1.134726400084010711e-01,-1.134726400084010711e-01,-1.134726400084010434e-01,-1.134726400084010434e-01,-1.134726400084010434e-01,-1.134726400084010434e-01,-1.134726400084010434e-01,-1.134726400084010434e-01,-1.134726400084010434e-01,-1.134726400084010434e-01,-1.134726400084010434e-01,-1.134726400084010434e-01,-1.134726400084010434e-01,-1.134726400084010434e-01,-1.134726400084010434e-01,-1.134726400084010434e-01,-1.134726400084010434e-01,-1.134726400084010434e-01,-1.134726400084010434e-01,-1.077990080079809787e-01,3.971542400294037628e-02,6.808358400504063712e-02,6.808358400504063712e-02,6.808358400504063712e-02
6.808358400504063712e-02,6.808358400504063712e-02,6.808358400504063712e-02,6.808358400504063712e-02,5.957313600441055401e-02,4.992796160369646769e-02,3.971542400294036934e-02,2.950288640218427100e-02,1.929034880142817959e-02,9.077811200672081249e-03,-5.673632000419981392e-04,-1.077990080079810342e-02,-2.099243840155418095e-02,-3.120497600231028623e-02,-4.141751360306637764e-02,-5.163005120382249680e-02,-6.127522560453657618e-02,-7.148776320529268147e-02,-8.170030080604875899e-02,-9.191283840680486428e-02,-1.021253760075609418e-01,-1.117705504082750489e-01,-1.134726400084010434e-01,-1.134726400084010711e-01,-1.134726400084010434e-01,-1.134726400084010434e-01,-1.134726400084010156e-01,-1.134726400084010434e-01,-1.134726400084010434e-01,-1.134726400084010434e-01,-1.134726400084010434e-01,-1.134726400084010434e-01,-1.134726400084010434e-01,-1.134726400084010434e-01,-1.134726400084010434e-01,-1.134726400084010434e-01,-1.134726400084010434e-01,-1.134726400084010434e-01,-1.134726400084010434e-01,-1.134726400084010434e-01,-1.134726400084010434e-01,-1.134726400084010434e-01,-1.134726400084010434e-01,-6.240995200462057246e-02,6.808358400504063712e-02,6.808358400504063712e-02,6.808358400504063712e-02
6.808358400504063712e-02,6.808358400504063712e-02,6.467940480478860665e-02,5.503423040407451339e-02,4.482169280331842198e-02,3.460915520256233058e-02,2.439661760180623223e-02,1.418408000105013389e-02,4.538905600336040624e-03,-5.673632000420064658e-03,-1.588616960117614219e-02,-2.609870720193224747e-02,-3.631124480268832500e-02,-4.595641920340244602e-02,-5.616895680415853742e-02,-6.638149440491461495e-02,-7.659403200567072023e-02,-8.680656960642679776e-02,-9.701910720718290304e-02,-1.066642816078969824e-01,-1.134726400084010156e-01,-1.134726400084010434e-01,-1.134726400084010434e-01,-1.134726400084010434e-01,-1.134726400084010434e-01,-1.134726400084010434e-01,-1.134726400084010434e-01,-1.134726400084010156e-01,-1.134726400084010434e-01,-1.134726400084010711e-01,-1.134726400084010434e-01,-1.134726400084010434e-01,-1.134726400084010434e-01,-1.134726400084010434e-01,-1.134726400084010434e-01,-1.134726400084010434e-01,-1.134726400084010434e-01,-1.134726400084010434e-01,-1.134726400084010434e-01,-1.134726400084010434e-01,-1.134726400084010434e-01,-1.134726400084010434e-01,-1.134726400084010434e-01,-1.134726400084010434e-01,-8.995692842771255138e-03,6.808358400504063712e-02,6.808358400504063712e-02
6.808358400504063712e-02,6.014049920445256603e-02,4.992796160369646769e-02,3.971542400294036934e-02,2.950288640218427794e-02,1.929034880142818653e-02,9.645174400714086327e-03,-5.673632000420120169e-04,-1.077990080079810342e-02,-2.099243840155419483e-02,-3.120497600231028623e-02,-4.085015040302437950e-02,-5.106268800378047090e-02,-6.127522560453657618e-02,-7.148776320529268147e-02,-8.170030080604875899e-02,-9.134547520676286614e-02,-1.015580128075189437e-01,-1.117705504082750212e-01,-1.134726400084010434e-01,-1.134726400084010711e-01,-1.134726400084010434e-01,-1.134726400084010711e-01,-1.134726400084010434e-01,-1.134726400084010711e-01,-1.134726400084010711e-01,-1.134726400084010434e-01,-1.134726400084010434e-01,-1.134726400084010434e-01,-1.134726400084010711e-01,-1.134726400084010156e-01,-1.134726400084010156e-01,-1.134726400084010434e-01,-1.134726400084010711e-01,-1.134726400084010434e-01,-1.134726400084010434e-01,-1.134726400084010434e-01,-1.134726400084010434e-01,-1.134726400084010156e-01,-1.134726400084010434e-01,-1.134726400084010156e-01,-1.134726400084010434e-01,-1.107851301134652189e-01,-1.057087225341419856e-01,-1.003337027442703644e-01,4.260822979262823135e-02,6.808358400504063712e-02
5.503423040407451339e-02,4.482169280331842198e-02,3.460915520256232364e-02,2.439661760180623223e-02,1.475144320109214591e-02,4.538905600336040624e-03,-5.673632000420050780e-03,-1.588616960117614219e-02,-2.609870720193223359e-02,-3.574388160264632686e-02,-4.595641920340243214e-02,-5.616895680415852354e-02,-6.638149440491461495e-02,-7.659403200567072023e-02,-8.623920640638479962e-02,-9.645174400714087715e-02,-1.066642816078969824e-01,-1.134726400084010711e-01,-1.134726400084010434e-01,-1.134726400084010434e-01,-1.134726400084010434e-01,-1.134726400084010434e-01,-1.134726400084010711e-01,-1.134726400084010434e-01,-1.134726400084010711e-01,-1.134726400084010434e-01,-1.134726400084010711e-01,-1.134726400084010711e-01,-1.134726400084010434e-01,-1.134726400084010434e-01,-1.134726400084010434e-01,-1.134726400084010434e-01,-1.134726400084010434e-01,-1.134726400084010434e-01,-1.134726400084010434e-01,-1.134726400084010434e-01,-1.134726400084010434e-01,-1.134726400084010156e-01,-1.134726400084010434e-01,-1.134726400084010434e-01,-1.134726400084010434e-01,-1.083962324290778378e-01,-1.030212126392061889e-01,-9.764619284933456766e-02,-9.227117305946297421e-02,-4.330810216110107802e-02,6.808358400504063712e-02
3.971542400294037628e-02,3.007024960222628301e-02,1.985771200147018467e-02,9.645174400714093266e-03,-5.673632000419981392e-04,-1.077990080079810342e-02,-2.099243840155418095e-02,-3.063761280226828809e-02,-4.085015040302437950e-02,-5.106268800378047090e-02,-6.127522560453657618e-02,-7.148776320529268147e-02,-8.113293760600676086e-02,-9.134547520676283838e-02,-1.015580128075189437e-01,-1.117705504082750212e-01,-1.134726400084010434e-01,-1.134726400084010434e-01,-1.134726400084010434e-01,-1.134726400084010434e-01,-1.134726400084010434e-01,-1.134726400084010434e-01,-1.134726400084010434e-01,-1.134726400084010434e-01,-1.134726400084010434e-01,-1.134726400084010434e-01,-1.134726400084010711e-01,-1.134726400084010434e-01,-1.134726400084010434e-01,-1.134726400084010434e-01,-1.134726400084010156e-01,-1.134726400084010434e-01,-1.134726400084010434e-01,-1.134726400084010434e-01,-1.134726400084010434e-01,-1.134726400084010711e-01,-1.134726400084010711e-01,-1.134726400084010711e-01,-1.134726400084010434e-01,-1.110837423240136623e-01,-1.057087225341420134e-01,-1.003337027442703921e-01,-9.495868295439877094e-02,-8.958366316452714972e-02,-8.450725558520391645e-02,-7.913223579533232299e-02,6.028234000446310026e-03
2.496398080184823731e-02,1.475144320109213897e-02,4.538905600336040624e-03,-5.673632000420050780e-03,-1.531880640113413017e-02,-2.553134400189022157e-02,-3.574388160264632686e-02,-4.595641920340244602e-02,-5.616895680415853742e-02,-6.638149440491461495e-02,-7.602666880562869434e-02,-8.623920640638479962e-02,-9.645174400714087715e-02,-1.066642816078969547e-01,-1.134726400084010156e-01,-1.134726400084010156e-01,-1.134726400084010434e-01,-1.134726400084010434e-01,-1.134726400084010434e-01,-1.134726400084010434e-01,-1.134726400084010434e-01,-1.134726400084010434e-01,-1.134726400084010711e-01,-1.134726400084010434e-01,-1.134726400084010434e-01,-1.134726400084010434e-01,-1.134726400084010434e-01,-1.134726400084010434e-01,-1.134726400084010711e-01,-1.134726400084010434e-01,-1.134726400084010156e-01,-1.134726400084010434e-01,-1.134726400084010156e-01,-1.134726400084010434e-01,-1.134726400084010711e-01,-1.134726400084010434e-01,-1.134726400084010434e-01,-1.134726400084010434e-01,-1.083962324290778378e-01,-1.030212126392061889e-01,-9.764619284933456766e-02,-9.227117305946294645e-02,-8.719476548013974093e-02,-8.181974569026811972e-02,-7.644472590039649851e-02,-7.106970611052484954e-02,-6.569468632065322833e-02
9.645174400714093266e-03,-5.673632000420120169e-04,-1.021253760075607753e-02,-2.042507520151218281e-02,-3.063761280226828809e-02,-4.085015040302437950e-02,-5.106268800378047090e-02,-6.127522560453660394e-02,-7.092040000525065557e-02,-8.113293760600676086e-02,-9.134547520676286614e-02,-1.015580128075189159e-01,-1.117705504082750212e-01,-1.134726400084010434e-01,-1.134726400084010434e-01,-1.134726400084010434e-01,-1.134726400084010434e-01,-1.134726400084010434e-01,-1.134726400084010434e-01,-1.134726400084010434e-01,-1.134726400084010434e-01,-1.134726400084010434e-01,-1.134726400084010434e-01,-1.134726400084010434e-01,-1.134726400084010434e-01,-1.134726400084010434e-01,-1.134726400084010434e-01,-1.134726400084010711e-01,-1.134726400084010434e-01,-1.134726400084010434e-01,-1.134726400084010711e-01,-1.134726400084010434e-01,-1.134726400084010711e-01,-1.134726400084010434e-01,-1.134726400084010434e-01,-1.134726400084010434e-01,-1.110837423240136623e-01,-1.057087225341420134e-01,-1.003337027442703921e-01,-9.495868295439877094e-02,-8.988227537507556542e-02,-8.450725558520391645e-02,-7.913223579533232299e-02,-7.375721600546070178e-02,-6.838219621558905281e-02,-6.330578863626581954e-02,-5.793076884639422608e-02
-5.106268800378052641e-03,-1.531880640113413017e-02,-2.553134400189023545e-02,-3.574388160264632686e-02,-4.595641920340243214e-02,-5.560159360411651153e-02,-6.581413120487261681e-02,-7.602666880562872209e-02,-8.623920640638479962e-02,-9.645174400714087715e-02,-1.066642816078969824e-01,-1.134726400084010434e-01,-1.134726400084010434e-01,-1.134726400084010434e-01,-1.134726400084010434e-01,-1.134726400084010434e-01,-1.134726400084010434e-01,-1.134726400084010434e-01,-1.134726400084010434e-01,-1.134726400084010434e-01,-1.134726400084010156e-01,-1.134726400084010711e-01,-1.134726400084010434e-01,-1.134726400084010434e-01,-1.134726400084010434e-01,-1.134726400084010434e-01,-1.134726400084010434e-01,-1.134726400084010434e-01,-1.134726400084010434e-01,-1.134726400084010434e-01,-1.134726400084010434e-01,-1.134726400084010434e-01,-1.134726400084010434e-01,-1.134726400084010434e-01,-1.134726400084010434e-01,-1.083962324290778378e-01,-1.030212126392061889e-01,-9.794480505988298336e-02,-9.256978527001136214e-02,-8.719476548013974093e-02,-8.181974569026811972e-02,-7.644472590039649851e-02,-7.106970611052484954e-02,-6.599329853120164402e-02,-6.061827874133002281e-02,-5.524325895145840160e-02,-4.986823916158678038e-02
-2.042507520151218281e-02,-3.063761280226827421e-02,-4.085015040302437950e-02,-5.049532480373847276e-02,-6.070786240449457805e-02,-7.092040000525065557e-02,-8.113293760600676086e-02,-9.134547520676286614e-02,-1.009906496074769455e-01,-1.112031872082330508e-01,-1.134726400084010434e-01,-1.134726400084010434e-01,-1.134726400084010434e-01,-1.134726400084010434e-01,-1.134726400084010434e-01,-1.134726400084010434e-01,-1.134726400084010434e-01,-1.134726400084010711e-01,-1.134726400084010434e-01,-1.134726400084010434e-01,-1.134726400084010434e-01,-1.134726400084010434e-01,-1.134726400084010434e-01,-1.134726400084010434e-01,-1.134726400084010434e-01,-1.134726400084010434e-01,-1.134726400084010434e-01,-1.134726400084010434e-01,-1.134726400084010434e-01,-1.134726400084010434e-01,-1.134726400084010711e-01,-1.134726400084010434e-01,-1.134726400084010434e-01,-1.110837423240136623e-01,-1.057087225341420134e-01,-1.006323149548187801e-01,-9.525729516494718663e-02,-8.988227537507556542e-02,-8.450725558520394420e-02,-7.913223579533232299e-02,-7.405582821600908972e-02,-6.868080842613746850e-02,-6.330578863626581954e-02,-5.793076884639422608e-02,-5.255574905652260487e-02,-4.718072926665096978e-02,-4.210432168732776426e-02
-3.574388160264632686e-02,-4.538905600336042012e-02,-5.560159360411651153e-02,-6.581413120487261681e-02,-7.602666880562869434e-02,-8.623920640638479962e-02,-9.588438080709890676e-02,-1.060969184078549565e-01,-1.134726400084010156e-01,-1.134726400084010434e-01,-1.134726400084010434e-01,-1.134726400084010434e-01,-1.134726400084010434e-01,-1.134726400084010434e-01,-1.134726400084010434e-01,-1.134726400084010711e-01,-1.134726400084010434e-01,-1.134726400084010156e-01,-1.134726400084010434e-01,-1.134726400084010434e-01,-1.134726400084010434e-01,-1.134726400084010434e-01,-1.134726400084010434e-01,-1.134726400084010434e-01,-1.134726400084010711e-01,-1.134726400084010711e-01,-1.134726400084010434e-01,-1.134726400084010434e-01,-1.134726400084010434e-01,-1.134726400084010434e-01,-1.134726400084010434e-01,-1.134726400084010434e-01,-1.083962324290778378e-01,-1.033198248497546323e-01,-9.794480505988298336e-02,-9.256978527001138990e-02,-8.719476548013974093e-02,-8.181974569026811972e-02,-7.674333811094494195e-02,-7.136831832107329299e-02,-6.599329853120164402e-02,-6.061827874133002281e-02,-5.524325895145840160e-02,-4.986823916158678038e-02,-4.479183158226357486e-02,-3.941681179239193977e-02,-3.404179200252031856e-02
-5.049532480373847276e-02,-6.070786240449457805e-02,-7.092040000525065557e-02,-8.113293760600676086e-02,-9.077811200672084024e-02,-1.009906496074769178e-01,-1.112031872082330231e-01,-1.134726400084010434e-01,-1.134726400084010434e-01,-1.134726400084010434e-01,-1.134726400084010434e-01,-1.134726400084010434e-01,-1.134726400084010434e-01,-1.134726400084010434e-01,-1.134726400084010434e-01,-1.134726400084010434e-01,-1.134726400084010434e-01,-1.134726400084010434e-01,-1.134726400084010434e-01,-1.134726400084010711e-01,-1.134726400084010434e-01,-1.926660356860309398e-01,-1.926660356860309398e-01,-1.926660356860309398e-01,-1.926660356860309398e-01,-1.926660356860309398e-01,-1.134726400084010434e-01,-1.134726400084010434e-01,-1.134726400084010711e-01,-1.134726400084010434e-01,-1.110837423240136623e-01,-1.060073347446904291e-01,-1.006323149548188078e-01,-9.525729516494718663e-02,-8.988227537507556542e-02,-8.450725558520391645e-02,-7.943084800588071093e-02,-7.405582821600908972e-02,-6.868080842613746850e-02,-6.330578863626584729e-02,-5.793076884639422608e-02,-5.285436126707100668e-02,-4.747934147719939935e-02,-4.210432168732775038e-02,-3.672930189745612917e-02,-3.135428210758449408e-02,-2.597926231771285899e-02
-6.581413120487261681e-02,-7.602666880562872209e-02,-8.567184320634277372e-02,-9.588438080709890676e-02,-1.060969184078549843e-01,-1.134726400084010434e-01,-1.134726400084010434e-01,-1.134726400084010711e-01,-1.134726400084010434e-01,-1.134726400084010434e-01,-1.134726400084010434e-01,-1.134726400084010434e-01,-1.134726400084010434e-01,-1.134726400084010711e-01,-1.134726400084010711e-01,-1.134726400084010434e-01,-1.134726400084010434e-01,-1.134726400084010434e-01,-1.134726400084010434e-01,-1.134726400084010434e-01,-1.134726400084010711e-01,-1.926660356860309398e-01,-1.926660356860309398e-01,-1.926660356860309398e-01,-1.926660356860309398e-01,-1.926660356860309398e-01,-1.134726400084010434e-01,-1.134726400084010434e-01,-1.134726400084010434e-01,-1.086948446396262813e-01,-1.033198248497546046e-01,-9.794480505988298336e-02,-9.256978527001136214e-02,-8.719476548013974093e-02,-8.211835790081656317e-02,-7.674333811094494195e-02,-7.136831832107329299e-02,-6.599329853120164402e-02,-6.061827874133002281e-02,-5.554187116200681729e-02,-5.016685137213520995e-02,-4.479183158226357486e-02,-3.941681179239192589e-02,-3.404179200252030468e-02,-2.866677221264868347e-02,-2.359036463332546407e-02,-1.821534484345382898e-02
-8.056557440596473496e-02,-9.077811200672084024e-02,-1.009906496074769178e-01,-3.878008161717754199e-01,-3.900702689719435234e-01,-3.900702689719435234e-01,-1.134726400084010434e-01,-1.134726400084010156e-01,-1.134726400084010434e-01,-1.134726400084010434e-01,-1.134726400084010434e-01,-1.134726400084010711e-01,-1.134726400084010434e-01,-1.134726400084010434e-01,-1.134726400084010434e-01,-1.134726400084010434e-01,-1.134726400084010434e-01,-1.134726400084010434e-01,-1.134726400084010434e-01,-1.134726400084010434e-01,-1.134726400084010434e-01,-1.926660356860309398e-01,-1.926660356860309398e-01,-1.926660356860309398e-01,-1.926660356860309398e-01,-1.926660356860309398e-01,-1.134726400084010434e-01,-1.113823545345620780e-01,-1.060073347446904568e-01,-1.006323149548188078e-01,-9.525729516494718663e-02,-8.988227537507556542e-02,-8.480586779575235989e-02,-7.943084800588073868e-02,-7.405582821600908972e-02,-6.868080842613746850e-02,-6.330578863626584729e-02,-5.822938105694264177e-02,-5.285436126707102056e-02,-4.747934147719938547e-02,-4.210432168732775038e-02,-3.672930189745612917e-02,-3.165289431813292365e-02,-2.627787452826128856e-02,-2.090285473838965347e-02,-1.552783494851803225e-02,-1.015281515864639716e-02
-9.588438080709887901e-02,-1.060969184078549565e-01,-1.134726400084010434e-01,-3.900702689719435234e-01,-3.900702689719435234e-01,-3.900702689719435234e-01,-1.134726400084010434e-01,-1.134726400084010434e-01,-1.134726400084010434e-01,-1.134726400084010711e-01,-1.134726400084010434e-01,-1.134726400084010711e-01,-1.134726400084010434e-01,-1.134726400084010711e-01,-1.134726400084010434e-01,-1.134726400084010434e-01,-1.134726400084010434e-01,-1.134726400084010434e-01,-1.134726400084010434e-01,-1.134726400084010434e-01,-1.134726400084010434e-01,-1.926660356860309398e-01,-1.926660356860309398e-01,-1.926660356860309398e-01,-1.926660356860309398e-01,-1.926660356860309398e-01,-1.086948446396262535e-01,-1.033198248497546323e-01,-9.794480505988298336e-02,-9.286839748055977783e-02,-8.749337769068818438e-02,-8.211835790081653541e-02,-7.674333811094494195e-02,-7.136831832107329299e-02,-6.599329853120164402e-02,-6.091689095187843850e-02,-5.554187116200684504e-02,-5.016685137213520995e-02,-4.479183158226358874e-02,-3.941681179239193977e-02,-3.434040421306873425e-02,-2.896538442319709916e-02,-2.359036463332546407e-02,-1.821534484345384286e-02,-1.284032505358220777e-02,-7.763917474259002249e-03,-2.388897684387381037e-03
-1.112031872082330231e-01,-1.134726400084010434e-01,-1.134726400084010434e-01,-3.900702689719435234e-01,-3.900702689719434124e-01,-3.900702689719435234e-01,-1.134726400084010434e-01,-1.134726400084010434e-01,-1.134726400084010434e-01,-1.134726400084010434e-01,-1.134726400084010156e-01,-1.134726400084010434e-01,-1.134726400084010434e-01,-1.134726400084010156e-01,-1.134726400084010434e-01,-1.134726400084010434e-01,-1.134726400084010434e-01,-1.134726400084010434e-01,-1.134726400084010434e-01,-1.134726400084010434e-01,-1.134726400084010434e-01,-1.926660356860309398e-01,-1.926660356860309398e-01,-1.926660356860309398e-01,-1.905757502121920022e-01,-1.852007304223203532e-01,-1.006323149548188078e-01,-9.555590737549560232e-02,-9.018088758562398111e-02,-8.480586779575235989e-02,-7.943084800588073868e-02,-7.405582821600908972e-02,-6.868080842613746850e-02,-6.360440084681426298e-02,-5.822938105694264177e-02,-5.285436126707102056e-02,-4.747934147719939935e-02,-4.210432168732775038e-02,-3.702791410800454486e-02,-3.165289431813290977e-02,-2.627787452826128856e-02,-2.090285473838965347e-02,-1.552783494851803225e-02,-1.045142736919482673e-02,-5.076407579323191643e-03,2.986122105484434464e-04,5.673632000420057719e-03
-1.134726400084010434e-01,-1.134726400084010434e-01,-1.134726400084010434e-01,-1.134726400084010434e-01,-1.134726400084010434e-01,-1.134726400084010434e-01,-1.134726400084010434e-01,-1.134726400084010434e-01,-1.134726400084010434e-01,-1.134726400084010434e-01,-1.134726400084010434e-01,-1.134726400084010434e-01,-1.134726400084010156e-01,-1.134726400084010434e-01,-1.134726400084010434e-01,-1.134726400084010711e-01,-1.134726400084010434e-01,-1.134726400084010434e-01,-1.134726400084010434e-01,-1.134726400084010434e-01,-1.134726400084010434e-01,-1.134726400084010434e-01,-1.134726400084010434e-01,-1.086948446396262535e-01,-1.033198248497546323e-01,-9.824341727043142680e-02,-9.286839748055977783e-02,-8.749337769068818438e-02,-8.211835790081653541e-02,-7.674333811094491420e-02,-7.166693053162170868e-02,-6.629191074175008747e-02,-6.091689095187843850e-02,-5.554187116200681729e-02,-5.016685137213520995e-02,-4.479183158226357486e-02,-3.971542400294036934e-02,-3.434040421306872037e-02,-2.896538442319709916e-02,-2.359036463332546407e-02,-1.821534484345384286e-02,-1.313893726413063734e-02,-7.763917474259030005e-03,-2.388897684387381037e-03,2.986122105484240175e-03,8.361141895355875264e-03,1.343754947467907385e-02
-1.134726400084010434e-01,-1.134726400084010711e-01,-1.134726400084010434e-01,-1.134726400084010434e-01,-1.134726400084010434e-01,-1.134726400084010434e-01,-1.134726400084010434e-01,-1.134726400084010434e-01,-1.134726400084010434e-01,-1.134726400084010711e-01,-1.134726400084010711e-01,-1.134726400084010434e-01,-1.134726400084010156e-01,-1.134726400084010434e-01,-1.134726400084010434e-01,-1.134726400084010434e-01,-1.134726400084010434e-01,-1.134726400084010434e-01,-1.134726400084010434e-01,-1.134726400084010156e-01,-1.134726400084010434e-01,-1.113823545345620503e-01,-1.060073347446904291e-01,-1.009309271653672513e-01,-9.555590737549560232e-02,-9.018088758562398111e-02,-8.480586779575235989e-02,-7.943084800588073868e-02,-7.435444042655753316e-02,-6.897942063668591195e-02,-6.360440084681426298e-02,-5.822938105694264177e-02,-5.285436126707100668e-02,-4.777795368774781504e-02,-4.240293389787617995e-02,-3.702791410800454486e-02,-3.165289431813292365e-02,-2.627787452826128856e-02,-2.090285473838965347e-02,-1.582644715906644795e-02,-1.045142736919482673e-02,-5.076407579323205521e-03,2.986122105484434464e-04,5.673632000420057719e-03,1.075003957974325630e-02,1.612505936961489833e-02,2.150007915948652648e-02
-1.134726400084010434e-01,-1.134726400084010434e-01,-1.134726400084010434e-01,-1.134726400084010434e-01,-1.134726400084010156e-01,-1.134726400084010711e-01,-1.134726400084010434e-01,-1.134726400084010434e-01,-1.134726400084010434e-01,-1.134726400084010434e-01,-1.134726400084010434e-01,-1.134726400084010434e-01,-1.134726400084010711e-01,-1.134726400084010434e-01,-1.134726400084010434e-01,-1.134726400084010434e-01,-1.134726400084010711e-01,-1.134726400084010711e-01,-1.134726400084010434e-01,-1.134726400084010434e-01,-1.086948446396262535e-01,-1.036184370603030480e-01,-9.824341727043142680e-02,-9.286839748055980559e-02,-8.749337769068818438e-02,-8.211835790081656317e-02,-7.704195032149335765e-02,-7.166693053162170868e-02,-6.629191074175008747e-02,-6.091689095187843850e-02,-5.554187116200683116e-02,-5.046546358268363952e-02,-4.509044379281200443e-02,-3.971542400294036934e-02,-3.434040421306873425e-02,-2.896538442319709916e-02,-2.359036463332546407e-02,-1.851395705400227243e-02,-1.313893726413063734e-02,-7.763917474259016127e-03,-2.388897684387381037e-03,2.986122105484240175e-03,8.062529684807445696e-03,1.343754947467907385e-02,1.881256926455070894e-02,2.418758905442233709e-02,2.956260884429395830e-02
-1.134726400084010156e-01,-1.134726400084010434e-01,-1.134726400084010434e-01,-1.134726400084010434e-01,-1.134726400084010434e-01,-1.134726400084010434e-01,-1.134726400084010434e-01,-1.134726400084010434e-01,-1.134726400084010434e-01,-1.134726400084010711e-01,-1.134726400084010434e-01,-1.134726400084010434e-01,-1.134726400084010434e-01,-1.134726400084010434e-01,-1.134726400084010711e-01,-1.134726400084010434e-01,-1.134726400084010711e-01,-1.134726400084010434e-01,-1.116809667451105215e-01,-1.063059469552388447e-01,-1.009309271653672235e-01,-9.555590737549560232e-02,-9.018088758562398111e-02,-8.480586779575235989e-02,-7.972946021642915437e-02,-7.435444042655753316e-02,-6.897942063668588419e-02,-6.360440084681426298e-02,-5.822938105694264177e-02,-5.315297347761945013e-02,-4.777795368774781504e-02,-4.240293389787616607e-02,-3.702791410800454486e-02,-3.165289431813290977e-02,-2.657648673880971812e-02,-2.120146694893806916e-02,-1.582644715906646182e-02,-1.045142736919482673e-02,-5.076407579323205521e-03,2.986122105484295686e-04,5.375019789871635090e-03,1.075003957974325630e-02,1.612505936961489139e-02,2.150007915948651954e-02,2.687509894935814769e-02,3.195150652868135321e-02,3.732652631855298136e-02
-1.134726400084010434e-01,-1.134726400084010434e-01,-1.134726400084010434e-01,-1.134726400084010434e-01,-1.134726400084010434e-01,-1.134726400084010434e-01,-1.134726400084010434e-01,-1.134726400084010434e-01,-1.134726400084010434e-01,-1.134726400084010711e-01,-1.134726400084010434e-01,-1.134726400084010434e-01,-1.134726400084010434e-01,-1.134726400084010434e-01,-1.134726400084010434e-01,-1.134726400084010434e-01,-1.134726400084010434e-01,-1.089934568501746692e-01,-1.036184370603030480e-01,-9.824341727043142680e-02,-9.286839748055980559e-02,-8.779198990123660007e-02,-8.241697011136500661e-02,-7.704195032149335765e-02,-7.166693053162170868e-02,-6.629191074175008747e-02,-6.091689095187846625e-02,-5.584048337255524685e-02,-5.046546358268363952e-02,-4.509044379281200443e-02,-3.971542400294036934e-02,-3.434040421306872037e-02,-2.926399663374551485e-02,-2.388897684387389364e-02,-1.851395705400227243e-02,-1.313893726413063734e-02,-7.763917474259002249e-03,-2.687509894935810606e-03,2.687509894935810606e-03,8.062529684807445696e-03,1.343754947467907385e-02,1.881256926455070894e-02,2.418758905442233709e-02,2.926399663374554261e-02,3.463901642361716382e-02,4.001403621348879197e-02,4.538905600336042706e-02
-1.134726400084010156e-02,-1.134726400084010434e-01,-1.134726400084010711e-01,-1.134726400084010434e-01,-1.134726400084010434e-01,-1.134726400084010434e-01,-1.134726400084010434e-01,-1.134726400084010434e-01,-1.134726400084010434e-01,-1.134726400084010434e-01,-1.134726400084010434e-01,-1.134726400084010434e-01,-1.134726400084010434e-01,-1.134726400084010156e-01,-1.134726400084010711e-01,-1.116809667451104937e-01,-1.063059469552388447e-01,-1.009309271653672235e-01,-9.555590737549560232e-02,-9.047949979617239680e-02,-8.510448000630077559e-02,-7.972946021642915437e-02,-7.435444042655753316e-02,-6.897942063668591195e-02,-6.360440084681426298e-02,-5.852799326749105746e-02,-5.315297347761945013e-02,-4.777795368774781504e-02,-4.240293389787616607e-02,-3.702791410800454486e-02,-3.195150652868133934e-02,-2.657648673880971812e-02,-2.120146694893806916e-02,-1.582644715906644795e-02,-1.045142736919482673e-02,-5.375019789871621212e-03,1.387778780781445676e-17,5.375019789871635090e-03,1.075003957974325630e-02,1.612505936961489139e-02,2.150007915948652648e-02,2.657648673880972506e-02,3.195150652868136015e-02,3.732652631855298830e-02,4.270154610842460952e-02,4.807656589829624461e-02,5.315297347761945013e-02
6.808358400504063712e-02,-6.240995200462057246e-02,-1.134726400084010434e-01,-1.134726400084010434e-01,-1.134726400084010434e-01,-1.134726400084010434e-01,-1.134726400084010434e-01,-1.134726400084010434e-01,-1.134726400084010434e-01,-1.134726400084010434e-01,-1.134726400084010711e-01,-1.134726400084010434e-01,-1.134726400084010434e-01,-1.134726400084010434e-01,-1.089934568501746692e-01,-1.036184370603030480e-01,-9.824341727043139905e-02,-9.316700969110822128e-02,-8.779198990123657231e-02,-8.241697011136497886e-02,-7.704195032149335765e-02,-7.166693053162170868e-02,-6.659052295229850316e-02,-6.121550316242688194e-02,-5.584048337255524685e-02,-5.046546358268363952e-02,-4.509044379281199055e-02,-3.971542400294036934e-02,-3.463901642361716382e-02,-2.926399663374551485e-02,-2.388897684387389364e-02,-1.851395705400225855e-02,-1.313893726413063734e-02,-8.062529684807445696e-03,-2.687509894935810606e-03,2.687509894935810606e-03,8.062529684807445696e-03,1.343754947467908079e-02,1.851395705400228631e-02,2.388897684387390752e-02,2.926399663374553567e-02,3.463901642361716382e-02,4.001403621348879891e-02,4.538905600336042012e-02,5.046546358268363258e-02,5.584048337255526073e-02,6.121550316242688888e-02
6.808358400504063712e-02,3.971542400294037628e-02,-1.134726400084010434e-01,-1.134726400084010711e-01,-1.134726400084010434e-01,-1.134726400084010434e-01,-1.134726400084010434e-01,-1.134726400084010434e-01,-1.134726400084010434e-01,-1.134726400084010434e-01,-1.134726400084010434e-01,-1.134726400084010434e-01,-1.116809667451104660e-01,-1.063059469552388447e-01,-1.009309271653672235e-01,-9.585451958604404576e-02,-9.047949979617239680e-02,-8.510448000630077559e-02,-7.972946021642915437e-02,-7.435444042655753316e-02,-6.927803284723432764e-02,-6.390301305736267867e-02,-5.852799326749105746e-02,-5.315297347761945013e-02,-4.777795368774781504e-02,-4.270154610842460952e-02,-3.732652631855296055e-02,-3.195150652868133934e-02,-2.657648673880970425e-02,-2.120146694893806916e-02,-1.582644715906644795e-02,-1.075003957974325630e-02,-5.375019789871621212e-03,0.000000000000000000e+00,5.375019789871635090e-03,1.075003957974325630e-02,1.582644715906646876e-02,2.120146694893809691e-02,2.657648673880973200e-02,3.195150652868135321e-02,3.732652631855297443e-02,4.240293389787618689e-02,4.777795368774781504e-02,5.315297347761945013e-02,5.852799326749107134e-02,6.390301305736270643e-02,6.808358400504063712e-02
6.808358400504063712e-02,6.808358400504063712e-02,-1.134726400084010156e-02,-1.134726400084010434e-01,-1.134726400084010434e-01,-1.134726400084010434e-01,-1.134726400084010434e-01,-1.134726400084010434e-01,-1.134726400084010434e-01,-1.134726400084010711e-01,-1.134726400084010434e-01,-1.089934568501746692e-01,-1.036184370603030203e-01,-9.854202948097984249e-02,-9.316700969110822128e-02,-8.779198990123657231e-02,-8.241697011136497886e-02,-7.704195032149335765e-02,-7.196554274217012437e-02,-6.659052295229850316e-02,-6.121550316242688194e-02,-5.584048337255524685e-02,-5.046546358268362564e-02,-4.538905600336043400e-02,-4.001403621348878503e-02,-3.463901642361714994e-02,-2.926399663374551485e-02,-2.388897684387389364e-02,-1.851395705400227243e-02,-1.343754947467906691e-02,-8.062529684807445696e-03,-2.687509894935810606e-03,2.687509894935824484e-03,8.062529684807445696e-03,1.313893726413065816e-02,1.851395705400228631e-02,2.388897684387390752e-02,2.926399663374554261e-02,3.463901642361717076e-02,3.971542400294037628e-02,4.509044379281200443e-02,5.046546358268362564e-02,5.584048337255526073e-02,6.121550316242688888e-02,6.659052295229851703e-02,6.808358400504063712e-02,6.808358400504063712e-02
6.808358400504063712e-02,6.808358400504063712e-02,6.808358400504063712e-02,-6.240995200462057246e-02,-1.134726400084010434e-01,-1.134726400084010434e-01,-1.134726400084010434e-01,-1.134726400084010711e-01,-1.134726400084010434e-01,-1.116809667451104937e-01,-1.066045591657872882e-01,-1.012295393759156392e-01,-9.585451958604401801e-02,-9.047949979617239680e-02,-8.510448000630077559e-02,-7.972946021642915437e-02,-7.465305263710594885e-02,-6.927803284723429988e-02,-6.390301305736270643e-02,-5.852799326749105746e-02,-5.315297347761945013e-02,-4.807656589829624461e-02,-4.270154610842460952e-02,-3.732652631855296055e-02,-3.195150652868133934e-02,-2.657648673880970425e-02,-2.150007915948649873e-02,-1.612505936961486364e-02,-1.075003957974325630e-02,-5.375019789871621212e-03,1.387778780781445676e-17,5.375019789871635090e-03,1.045142736919483367e-02,1.582644715906646182e-02,2.120146694893809691e-02,2.657648673880973200e-02,3.195150652868135321e-02,3.702791410800455874e-02,4.240293389787618689e-02,4.777795368774781504e-02,5.315297347761944319e-02,5.852799326749107134e-02,6.360440084681427686e-02,6.808358400504063712e-02,6.808358400504063712e-02,6.808358400504063712e-02,6.808358400504063712e-02
6.808358400504063712e-02,6.808358400504063712e-02,6.808358400504063712e-02,3.971542400294037628e-02,-1.077990080079809787e-01,-1.134726400084010434e-01,-1.134726400084010434e-01,-1.134726400084010434e-01,-1.092920690607231127e-01,-1.039170492708514637e-01,-9.854202948097984249e-02,-9.316700969110822128e-02,-8.779198990123657231e-02,-8.271558232191339455e-02,-7.734056253204177334e-02,-7.196554274217015212e-02,-6.659052295229850316e-02,-6.121550316242688194e-02,-5.584048337255524685e-02,-5.076407579323205521e-02,-4.538905600336043400e-02,-4.001403621348879891e-02,-3.463901642361716382e-02,-2.926399663374551485e-02,-2.418758905442230933e-02,-1.881256926455068812e-02,-1.343754947467906691e-02,-8.062529684807431818e-03,-2.687509894935796728e-03,2.388897684387394915e-03,7.763917474259016127e-03,1.313893726413064428e-02,1.851395705400228631e-02,2.388897684387390752e-02,2.926399663374554261e-02,3.434040421306874813e-02,3.971542400294036934e-02,4.509044379281199749e-02,5.046546358268363258e-02,5.584048337255526073e-02,6.091689095187846625e-02,6.629191074175008747e-02,6.808358400504063712e-02,6.808358400504063712e-02,6.808358400504063712e-02,6.808358400504063712e-02,6.808358400504063712e-02
6.808358400504063712e-02,6.808358400504063712e-02,6.808358400504063712e-02,6.808358400504063712e-02,-1.134726400084010156e-02,-1.134726400084010711e-01,-1.119795789556589372e-01,-1.066045591657872882e-01,-1.012295393759156392e-01,-9.585451958604404576e-02,-9.047949979617239680e-02,-8.540309221684921903e-02,-8.002807242697757006e-02,-7.465305263710594885e-02,-6.927803284723432764e-02,-6.390301305736267867e-02,-5.852799326749105746e-02,-5.345158568816786582e-02,-4.807656589829623073e-02,-4.270154610842460952e-02,-3.732652631855297443e-02,-3.195150652868133934e-02,-2.687509894935811994e-02,-2.150007915948651260e-02,-1.612505936961487751e-02,-1.075003957974324242e-02,-5.375019789871621212e-03,-2.986122105484156908e-04,5.076407579323205521e-03,1.045142736919484061e-02,1.582644715906646182e-02,2.120146694893810385e-02,2.657648673880973200e-02,3.165289431813292365e-02,3.702791410800455874e-02,4.240293389787618689e-02,4.777795368774781504e-02,5.315297347761945013e-02,5.822938105694264871e-02,6.360440084681427686e-02,6.808358400504063712e-02,6.808358400504063712e-02,6.808358400504063712e-02,6.808358400504063712e-02,6.808358400504063712e-02,6.808358400504063712e-02,6.808358400504063712e-02
6.808358400504063712e-02,6.808358400504063712e-02,6.808358400504063712e-02,6.808358400504063712e-02,6.808358400504063712e-02,-5.386217747767194086e-02,-1.039170492708514637e-01,-9.854202948097984249e-02,-9.316700969110822128e-02,-8.809060211178501576e-02,-8.271558232191339455e-02,-7.734056253204177334e-02,-7.196554274217012437e-02,-6.659052295229850316e-02,-6.151411537297529764e-02,-5.613909558310367642e-02,-5.076407579323205521e-02,-4.538905600336043400e-02,-4.001403621348879891e-02,-3.463901642361714994e-02,-2.956260884429394442e-02,-2.418758905442232321e-02,-1.881256926455068812e-02,-1.343754947467905303e-02,-8.062529684807431818e-03,-2.986122105484226297e-03,2.388897684387394915e-03,7.763917474259016127e-03,1.313893726413064428e-02,1.851395705400228631e-02,2.359036463332548489e-02,2.896538442319711304e-02,3.434040421306874813e-02,3.971542400294036934e-02,4.509044379281200443e-02,5.046546358268363952e-02,5.554187116200683810e-02,6.091689095187846625e-02,6.629191074175008747e-02,6.808358400504063712e-02,6.808358400504063712e-02,6.808358400504063712e-02,6.808358400504063712e-02,6.808358400504063712e-02,6.808358400504063712e-02,6.808358400504063712e-02,6.808358400504063712e-02
6.808358400504063712e-02,6.808358400504063712e-02,6.808358400504063712e-02,6.808358400504063712e-02,6.808358400504063712e-02,4.691944358242110258e-02,-9.073145384882264075e-02,-9.077811200672084024e-02,-8.540309221684919128e-02,-8.002807242697759782e-02,-7.465305263710594885e-02,-6.927803284723432764e-02,-6.420162526791112212e-02,-5.882660547803950091e-02,-5.345158568816787970e-02,-4.807656589829624461e-02,-4.270154610842460952e-02,-3.762513852910139012e-02,-3.225011873922975503e-02,-2.687509894935813382e-02,-2.150007915948649873e-02,-1.612505936961486364e-02,-1.075003957974324242e-02,-5.673632000420036903e-03,-2.986122105484156908e-04,5.076407579323205521e-03,1.045142736919483367e-02,1.582644715906646182e-02,2.090285473838968122e-02,2.627787452826130243e-02,3.165289431813292365e-02,3.702791410800455874e-02,4.240293389787618689e-02,4.747934147719939241e-02,5.285436126707102056e-02,5.822938105694265565e-02,6.360440084681427686e-02,6.808358400504063712e-02,6.808358400504063712e-02,6.808358400504063712e-02,6.808358400504063712e-02,6.808358400504063712e-02,6.808358400504063712e-02,6.808358400504063712e-02,6.808358400504063712e-02,6.808358400504063712e-02,6.808358400504063712e-02
6.808358400504063712e-02,6.808358400504063712e-02,6.808358400504063712e-02,6.808358400504063712e-02,6.808358400504063712e-02,6.808358400504063712e-02,4.637820895080219108e-03,-8.271558232191339455e-02,-7.734056253204177334e-02,-7.196554274217012437e-02,-6.688913516284691885e-02,-6.151411537297529764e-02,-5.613909558310367642e-02,-5.076407579323205521e-02,-4.538905600336042012e-02,-4.031264842403720072e-02,-3.493762863416557951e-02,-2.956260884429394442e-02,-2.418758905442230933e-02,-1.881256926455068812e-02,-1.343754947467906691e-02,-8.361141895355861386e-03,-2.986122105484240175e-03,2.388897684387394915e-03,7.763917474259023066e-03,1.313893726413064428e-02,1.821534484345385674e-02,2.359036463332549183e-02,2.896538442319711304e-02,3.434040421306874119e-02,3.971542400294036934e-02,4.479183158226357486e-02,5.016685137213520995e-02,5.554187116200683810e-02,6.091689095187846625e-02,6.629191074175008747e-02,6.808358400504063712e-02,6.808358400504063712e-02,6.808358400504063712e-02,6.808358400504063712e-02,6.808358400504063712e-02,6.808358400504063712e-02,6.808358400504063712e-02,6.808358400504063712e-02,6.808358400504063712e-02,6.808358400504063712e-02,6.808358400504063712e-02
6.808358400504063712e-02,6.808358400504063712e-02,6.808358400504063712e-02,6.808358400504063712e-02,6.808358400504063712e-02,6.808358400504063712e-02,6.808358400504063712e-02,-3.004785368643515808e-02,-6.957664505778274333e-02,-6.420162526791109436e-02,-5.882660547803950091e-02,-5.345158568816785194e-02,-4.807656589829624461e-02,-4.300015831897302521e-02,-3.762513852910139012e-02,-3.225011873922975503e-02,-2.687509894935811994e-02,-2.150007915948649873e-02,-1.642367158016329320e-02,-1.104865179029167199e-02,-5.673632000420036903e-03,-2.986122105484156908e-04,5.076407579323205521e-03,1.045142736919483367e-02,1.552783494851804613e-02,2.090285473838967428e-02,2.627787452826130243e-02,3.165289431813293058e-02,3.702791410800455874e-02,4.210432168732776426e-02,4.747934147719939241e-02,5.285436126707102056e-02,5.822938105694265565e-02,6.360440084681427686e-02,6.808358400504063712e-02,6.808358400504063712e-02,6.808358400504063712e-02,6.808358400504063712e-02,6.808358400504063712e-02,6.808358400504063712e-02,6.808358400504063712e-02,6.808358400504063712e-02,6.808358400504063712e-02,6.808358400504063712e-02,6.808358400504063712e-02,6.808358400504063712e-02,6.808358400504063712e-02
6.808358400504063712e-02,6.808358400504063712e-02,6.808358400504063712e-02,6.808358400504063712e-02,6.808358400504063712e-02,6.808358400504063712e-02,6.808358400504063712e-02,5.121199410905469263e-02,-5.746418726741228666e-02,-5.613909558310367642e-02,-5.076407579323205521e-02,-4.568766821390884969e-02,-4.031264842403721460e-02,-3.493762863416557951e-02,-2.956260884429395830e-02,-2.418758905442232321e-02,-1.911118147509910381e-02,-1.373616168522749648e-02,-8.361141895355861386e-03,-2.986122105484226297e-03,2.388897684387394915e-03,7.465305263710600436e-03,1.284032505358222859e-02,1.821534484345385674e-02,2.359036463332548489e-02,2.896538442319711304e-02,3.434040421306874119e-02,3.941681179239194671e-02,4.479183158226357486e-02,5.016685137213520995e-02,5.554187116200683116e-02,6.091689095187846625e-02,6.599329853120167177e-02,6.808358400504063712e-02,6.808358400504063712e-02,6.808358400504063712e-02,6.808358400504063712e-02,6.808358400504063712e-02,6.808358400504063712e-02,6.808358400504063712e-02,6.808358400504063712e-02,6.808358400504063712e-02,6.808358400504063712e-02,6.808358400504063712e-02,6.808358400504063712e-02,6.808358400504063712e-02,6.808358400504063712e-02
6.808358400504063712e-02,6.808358400504063712e-02,6.808358400504063712e-02,6.808358400504063712e-02,6.808358400504063712e-02,6.808358400504063712e-02,6.808358400504063712e-02,6.808358400504063712e-02,1.870992131717468671e-02,-4.837517810884467417e-02,-4.300015831897302521e-02,-3.762513852910139012e-02,-3.225011873922975503e-02,-2.687509894935811994e-02,-2.179869137003492829e-02,-1.642367158016330708e-02,-1.104865179029167199e-02,-5.673632000420050780e-03,-2.986122105484156908e-04,4.777795368774789830e-03,1.015281515864641104e-02,1.552783494851804613e-02,2.090285473838968122e-02,2.627787452826130243e-02,3.165289431813293058e-02,3.672930189745613611e-02,4.210432168732776426e-02,4.747934147719938547e-02,5.285436126707102056e-02,5.822938105694265565e-02,6.330578863626586117e-02,6.808358400504063712e-02,6.808358400504063712e-02,6.808358400504063712e-02,6.808358400504063712e-02,6.808358400504063712e-02,6.808358400504063712e-02,6.808358400504063712e-02,6.808358400504063712e-02,6.808358400504063712e-02,6.808358400504063712e-02,6.808358400504063712e-02,6.808358400504063712e-02,6.808358400504063712e-02,6.808358400504063712e-02,6.808358400504063712e-02,6.808358400504063712e-02
6.808358400504063712e-02,6.808358400504063712e-02,6.808358400504063712e-02,6.808358400504063712e-02,6.808358400504063712e-02,6.808358400504063712e-02,6.808358400504063712e-02,6.808358400504063712e-02,6.808358400504063712e-02,-6.438825789950392009e-03,-3.493762863416557951e-02,-2.956260884429394442e-02,-2.448620126497075278e-02,-1.911118147509910381e-02,-1.373616168522748260e-02,-8.361141895355861386e-03,-2.986122105484226297e-03,2.090285473838965347e-03,7.465305263710600436e-03,1.284032505358222165e-02,1.821534484345385674e-02,2.359036463332549877e-02,2.866677221264869735e-02,3.404179200252031856e-02,3.941681179239194671e-02,4.479183158226357486e-02,5.016685137213520995e-02,5.554187116200683116e-02,6.061827874133004362e-02,6.599329853120167177e-02,6.808358400504063712e-02,6.808358400504063712e-02,6.808358400504063712e-02,6.808358400504063712e-02,6.808358400504063712e-02,6.808358400504063712e-02,6.808358400504063712e-02,6.808358400504063712e-02,6.808358400504063712e-02,6.808358400504063712e-02,6.808358400504063712e-02,6.808358400504063712e-02,6.808358400504063712e-02,6.808358400504063712e-02,6.808358400504063712e-02,6.808358400504063712e-02,6.808358400504063712e-02
6.808358400504063712e-02,6.808358400504063712e-02,6.808358400504063712e-02,6.808358400504063712e-02,6.808358400504063712e-02,6.808358400504063712e-02,6.808358400504063712e-02,6.808358400504063712e-02,6.808358400504063712e-02,5.554187116200683810e-02,-2.419692068600196033e-02,-2.179869137003492829e-02,-1.642367158016330708e-02,-1.104865179029167199e-02,-5.673632000420050780e-03,-5.972244210968452593e-04,4.777795368774789830e-03,1.015281515864641104e-02,1.552783494851804613e-02,2.090285473838968122e-02,2.597926231771287980e-02,3.135428210758451489e-02,3.672930189745612917e-02,4.210432168732776426e-02,4.747934147719939241e-02,5.285436126707102056e-02,5.793076884639422608e-02,6.330578863626586117e-02,6.808358400504063712e-02,6.808358400504063712e-02,6.808358400504063712e-02,6.808358400504063712e-02,6.808358400504063712e-02,6.808358400504063712e-02,6.808358400504063712e-02,6.808358400504063712e-02,6.808358400504063712e-02,6.808358400504063712e-02,6.808358400504063712e-02,6.808358400504063712e-02,6.808358400504063712e-02,6.808358400504063712e-02,6.808358400504063712e-02,6.808358400504063712e-02,6.808358400504063712e-02,6.808358400504063712e-02,6.808358400504063712e-02
6.808358400504063712e-02,6.808358400504063712e-02,6.808358400504063712e-02,6.808358400504063712e-02,6.808358400504063712e-02,6.808358400504063712e-02,6.808358400504063712e-02,6.808358400504063712e-02,6.808358400504063712e-02,6.808358400504063712e-02,3.266071052873386477e-02,-1.373616168522748260e-02,-8.361141895355861386e-03,-3.284734316032655865e-03,2.090285473838979224e-03,7.465305263710593497e-03,1.284032505358222859e-02,1.821534484345386368e-02,2.329175242277706226e-02,2.866677221264869041e-02,3.404179200252031856e-02,3.941681179239194671e-02,4.479183158226357486e-02,4.986823916158678038e-02,5.524325895145841547e-02,6.061827874133004362e-02,6.599329853120167177e-02,6.808358400504063712e-02,6.808358400504063712e-02,6.808358400504063712e-02,6.808358400504063712e-02,6.808358400504063712e-02,6.808358400504063712e-02,6.808358400504063712e-02,6.808358400504063712e-02,6.808358400504063712e-02,6.808358400504063712e-02,6.808358400504063712e-02,6.808358400504063712e-02,6.808358400504063712e-02,6.808358400504063712e-02,6.808358400504063712e-02,6.808358400504063712e-02,6.808358400504063712e-02,6.808358400504063712e-02,6.808358400504063712e-02,6.808358400504063712e-02
