8.298094285410322068e-02,8.298094285410322068e-02,8.298094285410322068e-02,8.298094285410322068e-02,8.298094285410322068e-02,8.298094285410322068e-02,8.298094285410322068e-02,8.298094285410322068e-02,8.298094285410322068e-02,8.298094285410322068e-02,8.298094285410322068e-02,8.298094285410322068e-02,8.298094285410322068e-02,8.298094285410322068e-02,8.298094285410322068e-02,8.298094285410322068e-02,8.298094285410322068e-02,8.298094285410322068e-02,8.298094285410322068e-02,6.509193524606285419e-02,4.194145481212825655e-02,1.879097437819365890e-02,-4.359506055740924868e-03,-2.750998648967552251e-02,-5.066046692361010628e-02,-7.381094735754471781e-02,-9.696142779147932933e-02,-1.190596136602350558e-01,-1.190596136602350558e-01,-1.190596136602350558e-01,-1.190596136602350558e-01,-1.190596136602350558e-01,-1.190596136602350558e-01,-1.064320788780889065e-01,3.878457111659172618e-02,8.298094285410322068e-02,8.298094285410322068e-02,8.298094285410322068e-02,8.298094285410322068e-02,8.298094285410322068e-02,8.298094285410322068e-02,8.298094285410322068e-02,8.298094285410322068e-02,8.298094285410322068e-02,8.298094285410322068e-02,8.298094285410322068e-02,8.298094285410322068e-02
8.298094285410322068e-02,8.298094285410322068e-02,8.298094285410322068e-02,8.298094285410322068e-02,8.298094285410322068e-02,8.298094285410322068e-02,8.298094285410322068e-02,8.298094285410322068e-02,8.298094285410322068e-02,8.298094285410322068e-02,8.298094285410322068e-02,8.298094285410322068e-02,8.298094285410322068e-02,8.298094285410322068e-02,8.298094285410322068e-02,8.298094285410322068e-02,8.298094285410322068e-02,8.298094285410322068e-02,6.403964068088401074e-02,4.088916024694941309e-02,1.773867981301481545e-02,-5.411800620919782201e-03,-2.856228105485436597e-02,-5.171276148878896362e-02,-7.486324192272357514e-02,-9.801372235665815891e-02,-1.190596136602350558e-01,-1.190596136602350558e-01,-1.190596136602350558e-01,-1.190596136602350558e-01,-1.190596136602350558e-01,-1.190596136602350558e-01,-1.190596136602350558e-01,-1.190596136602350558e-01,-1.001183114870158458e-01,4.509833850766479385e-02,8.298094285410322068e-02,8.298094285410322068e-02,8.298094285410322068e-02,8.298094285410322068e-02,8.298094285410322068e-02,8.298094285410322068e-02,8.298094285410322068e-02,8.298094285410322068e-02,8.298094285410322068e-02,8.298094285410322068e-02,8.298094285410322068e-02
8.298094285410322068e-02,8.298094285410322068e-02,8.298094285410322068e-02,8.298094285410322068e-02,8.298094285410322068e-02,8.298094285410322068e-02,8.298094285410322068e-02,8.298094285410322068e-02,8.298094285410322068e-02,8.298094285410322068e-02,8.298094285410322068e-02,8.298094285410322068e-02,8.298094285410322068e-02,8.298094285410322068e-02,8.298094285410322068e-02,8.298094285410322068e-02,8.298094285410322068e-02,6.193505155052631689e-02,3.983686568177056270e-02,1.668638524783595811e-02,-6.464095186098625656e-03,-2.961457562003322330e-02,-5.276505605396782095e-02,-7.591553648790243247e-02,-9.906601692183701624e-02,-1.190596136602350558e-01,-1.190596136602350280e-01,-1.190596136602350835e-01,-1.190596136602350558e-01,-1.190596136602350558e-01,-1.190596136602350558e-01,-1.190596136602350558e-01,-1.190596136602350835e-01,-1.190596136602350558e-01,-1.190596136602350558e-01,-8.749077670486972436e-02,5.772587328981093613e-02,8.298094285410322068e-02,8.298094285410322068e-02,8.298094285410322068e-02,8.298094285410322068e-02,8.298094285410322068e-02,8.298094285410322068e-02,8.298094285410322068e-02,8.298094285410322068e-02,8.298094285410322068e-02,8.298094285410322068e-02
8.298094285410322068e-02,8.298094285410322068e-02,8.298094285410322068e-02,8.298094285410322068e-02,8.298094285410322068e-02,8.298094285410322068e-02,8.298094285410322068e-02,8.298094285410322068e-02,8.298094285410322068e-02,8.298094285410322068e-02,8.298094285410322068e-02,8.298094285410322068e-02,8.298094285410322068e-02,8.298094285410322068e-02,8.298094285410322068e-02,8.298094285410322068e-02,6.088275698534747343e-02,3.773227655141287579e-02,1.458179611747828508e-02,-8.568684316456312566e-03,-3.171916475039091021e-02,-5.486964518432550786e-02,-7.802012561826011938e-02,-1.011706060521947032e-01,-1.190596136602350558e-01,-1.190596136602350558e-01,-1.190596136602350558e-01,-1.190596136602350558e-01,-1.190596136602350558e-01,-1.190596136602350558e-01,-1.190596136602350558e-01,-1.190596136602350558e-01,-1.190596136602350558e-01,-1.687840799980387385e-01,-1.687840799980387385e-01,-1.687840799980387385e-01,-8.117700931379663587e-02,6.403964068088401074e-02,8.298094285410322068e-02,8.298094285410322068e-02,8.298094285410322068e-02,8.298094285410322068e-02,8.298094285410322068e-02,8.298094285410322068e-02,8.298094285410322068e-02,8.298094285410322068e-02,8.298094285410322068e-02
8.298094285410322068e-02,8.298094285410322068e-02,8.298094285410322068e-02,8.298094285410322068e-02,8.298094285410322068e-02,8.298094285410322068e-02,8.298094285410322068e-02,8.298094285410322068e-02,8.298094285410322068e-02,8.298094285410322068e-02,8.298094285410322068e-02,8.298094285410322068e-02,8.298094285410322068e-02,8.298094285410322068e-02,8.298094285410322068e-02,5.983046242016862304e-02,3.667998198623403233e-02,1.352950155229944162e-02,-9.620978881635156021e-03,-3.277145931556975367e-02,-5.592193974950433744e-02,-7.907242018343897672e-02,-1.022229006173735327e-01,-1.190596136602350558e-01,-1.190596136602350835e-01,-1.190596136602350558e-01,-1.190596136602350558e-01,-1.190596136602350558e-01,-1.190596136602350558e-01,-1.190596136602350558e-01,-1.190596136602350558e-01,-1.190596136602350280e-01,-1.190596136602350558e-01,-1.687840799980387385e-01,-1.687840799980387940e-01,-1.687840799980387385e-01,-1.190596136602350558e-01,-7.486324192272354738e-02,7.035340807195708535e-02,8.298094285410322068e-02,8.298094285410322068e-02,8.298094285410322068e-02,8.298094285410322068e-02,8.298094285410322068e-02,8.298094285410322068e-02,8.298094285410322068e-02,8.298094285410322068e-02
8.298094285410322068e-02,8.298094285410322068e-02,8.298094285410322068e-02,8.298094285410322068e-02,8.298094285410322068e-02,8.298094285410322068e-02,8.298094285410322068e-02,8.298094285410322068e-02,8.298094285410322068e-02,8.298094285410322068e-02,8.298094285410322068e-02,8.298094285410322068e-02,8.298094285410322068e-02,8.192864828892437723e-02,5.877816785498977958e-02,3.562768742105518888e-02,1.247720698712058429e-02,-1.067327344681399948e-02,-3.382375388074859712e-02,-5.697423431468319477e-02,-8.012471474861780629e-02,-1.032751951825523901e-01,-1.190596136602350558e-01,-1.190596136602350835e-01,-1.190596136602350558e-01,-1.190596136602350558e-01,-1.190596136602350558e-01,-1.190596136602350558e-01,-1.190596136602350558e-01,-1.190596136602350558e-01,-1.190596136602350558e-01,-1.190596136602350558e-01,-1.190596136602350558e-01,-1.687840799980387385e-01,-1.687840799980387940e-01,-1.687840799980387385e-01,-1.190596136602350558e-01,-1.190596136602350558e-01,-6.854947453165048665e-02,8.298094285410322068e-02,8.298094285410322068e-02,8.298094285410322068e-02,8.298094285410322068e-02,8.298094285410322068e-02,8.298094285410322068e-02,8.298094285410322068e-02,8.298094285410322068e-02
8.298094285410322068e-02,8.298094285410322068e-02,8.298094285410322068e-02,8.298094285410322068e-02,8.298094285410322068e-02,8.298094285410322068e-02,8.298094285410322068e-02,8.298094285410322068e-02,8.298094285410322068e-02,8.298094285410322068e-02,8.298094285410322068e-02,8.298094285410322068e-02,7.982405915856669032e-02,5.667357872463209267e-02,3.352309829069749503e-02,1.037261785676291126e-02,-1.277786257717168639e-02,-3.592834301110627016e-02,-5.907882344504088168e-02,-8.222930387897549320e-02,-1.043274897477312474e-01,-1.190596136602350558e-01,-1.190596136602350558e-01,-1.190596136602350558e-01,-1.190596136602350558e-01,-1.190596136602350558e-01,-1.190596136602350280e-01,-1.190596136602350558e-01,-1.190596136602350558e-01,-1.190596136602350558e-01,-1.190596136602350558e-01,-1.190596136602350558e-01,-1.190596136602350558e-01,-1.190596136602350280e-01,-1.190596136602350558e-01,-1.190596136602350558e-01,-1.190596136602350558e-01,-1.190596136602350558e-01,-1.190596136602350558e-01,-5.592193974950433744e-02,8.298094285410322068e-02,8.298094285410322068e-02,8.298094285410322068e-02,8.298094285410322068e-02,8.298094285410322068e-02,8.298094285410322068e-02,8.298094285410322068e-02
8.298094285410322068e-02,8.298094285410322068e-02,8.298094285410322068e-02,8.298094285410322068e-02,8.298094285410322068e-02,8.298094285410322068e-02,8.298094285410322068e-02,8.298094285410322068e-02,8.298094285410322068e-02,8.298094285410322068e-02,8.298094285410322068e-02,7.877176459338783299e-02,5.562128415945324922e-02,3.247080372551865157e-02,9.320323291584067804e-03,-1.383015714235052984e-02,-3.698063757628512749e-02,-6.013111801021973901e-02,-8.328159844415437829e-02,-1.064320788780889343e-01,-1.190596136602350558e-01,-1.190596136602350558e-01,-1.190596136602350558e-01,-1.190596136602350280e-01,-1.190596136602350558e-01,-1.190596136602350558e-01,-1.190596136602350558e-01,-1.190596136602350558e-01,-1.190596136602350558e-01,-1.190596136602350835e-01,-1.190596136602350558e-01,-1.190596136602350558e-01,-1.190596136602350558e-01,-1.190596136602350558e-01,-1.190596136602350835e-01,-1.190596136602350558e-01,-1.190596136602350558e-01,-1.190596136602350835e-01,-1.190596136602350558e-01,-1.190596136602350558e-01,-4.960817235843127671e-02,8.298094285410322068e-02,8.298094285410322068e-02,8.298094285410322068e-02,8.298094285410322068e-02,8.298094285410322068e-02,8.298094285410322068e-02
8.298094285410322068e-02,8.298094285410322068e-02,8.298094285410322068e-02,8.298094285410322068e-02,8.298094285410322068e-02,8.298094285410322068e-02,8.298094285410322068e-02,8.298094285410322068e-02,8.298094285410322068e-02,8.298094285410322068e-02,7.771947002820898953e-02,5.456898959427439882e-02,3.141850916033980812e-02,8.268028726405210471e-03,-1.488245170752938717e-02,-3.803293214146398482e-02,-6.118341257539856859e-02,-8.433389300933318011e-02,-1.074843734432677639e-01,-1.190596136602350558e-01,-1.190596136602350558e-01,-1.190596136602350835e-01,-1.190596136602350835e-01,-1.190596136602350558e-01,-1.190596136602350558e-01,-1.190596136602350558e-01,-1.190596136602350558e-01,-1.190596136602350558e-01,-1.190596136602350280e-01,-1.190596136602350558e-01,-1.190596136602350558e-01,-1.190596136602350558e-01,-1.190596136602350558e-01,-1.190596136602350280e-01,-1.190596136602350558e-01,-1.190596136602350558e-01,-1.190596136602350558e-01,-1.190596136602350558e-01,-1.190596136602350558e-01,-1.190596136602350558e-01,-1.190596136602350558e-01,-4.329440496735821597e-02,8.298094285410322068e-02,8.298094285410322068e-02,8.298094285410322068e-02,8.298094285410322068e-02,8.298094285410322068e-02
8.298094285410322068e-02,8.298094285410322068e-02,8.298094285410322068e-02,8.298094285410322068e-02,8.298094285410322068e-02,8.298094285410322068e-02,8.298094285410322068e-02,8.298094285410322068e-02,8.298094285410322068e-02,7.561488089785130262e-02,5.246440046391671191e-02,2.931392002998211427e-02,6.163439596047523561e-03,-1.698704083788706021e-02,-4.013752127182167173e-02,-6.223570714057742592e-02,-8.538618757451203745e-02,-1.085366680084466212e-01,-1.190596136602350280e-01,-1.190596136602350558e-01,-1.190596136602350558e-01,-1.190596136602350558e-01,-1.190596136602350835e-01,-1.190596136602350558e-01,-1.190596136602350558e-01,-1.190596136602350558e-01,-1.190596136602350835e-01,-1.190596136602350558e-01,-1.190596136602350558e-01,-1.190596136602350280e-01,-1.190596136602350558e-01,-1.190596136602350558e-01,-1.190596136602350558e-01,-1.190596136602350558e-01,-1.190596136602350558e-01,-1.190596136602350558e-01,-1.190596136602350558e-01,-1.190596136602350558e-01,-1.190596136602350558e-01,-1.190596136602350558e-01,-1.190596136602350835e-01,-1.190596136602350558e-01,-3.066687018521205288e-02,8.298094285410322068e-02,8.298094285410322068e-02,8.298094285410322068e-02,8.298094285410322068e-02
8.298094285410322068e-02,8.298094285410322068e-02,8.298094285410322068e-02,8.298094285410322068e-02,8.298094285410322068e-02,8.298094285410322068e-02,8.298094285410322068e-02,8.298094285410322068e-02,7.456258633267245917e-02,5.141210589873786152e-02,2.826162546480327081e-02,5.111145030868666228e-03,-1.803933540306591754e-02,-4.118981583700050131e-02,-6.434029627093511283e-02,-8.749077670486972436e-02,-1.106412571388043081e-01,-1.190596136602350558e-01,-1.190596136602350558e-01,-1.190596136602350558e-01,-1.190596136602350558e-01,-1.190596136602350558e-01,-1.190596136602350558e-01,-1.190596136602350280e-01,-1.190596136602350558e-01,-1.190596136602350558e-01,-1.190596136602350558e-01,-1.190596136602350558e-01,-1.190596136602350280e-01,-1.190596136602350558e-01,-1.190596136602350558e-01,-1.190596136602350558e-01,-1.190596136602350835e-01,-1.190596136602350558e-01,-1.190596136602350558e-01,-1.190596136602350558e-01,-1.190596136602350558e-01,-1.190596136602350558e-01,-1.190596136602350558e-01,-1.190596136602350558e-01,-1.190596136602350558e-01,-1.190596136602350558e-01,-1.190596136602350558e-01,-2.435310279413897827e-02,8.298094285410322068e-02,8.298094285410322068e-02,8.298094285410322068e-02
8.298094285410322068e-02,8.298094285410322068e-02,8.298094285410322068e-02,8.298094285410322068e-02,8.298094285410322068e-02,8.298094285410322068e-02,8.298094285410322068e-02,7.351029176749361571e-02,5.035981133355901807e-02,2.720933089962442736e-02,4.058850465689836651e-03,-1.909162996824477487e-02,-4.224211040217935864e-02,-6.539259083611397017e-02,-8.854307127004858169e-02,-1.116935517039831377e-01,-1.190596136602350558e-01,-1.190596136602350558e-01,-1.190596136602350558e-01,-1.190596136602350558e-01,-1.190596136602350558e-01,-1.190596136602350835e-01,-1.190596136602350558e-01,-1.190596136602350558e-01,-1.190596136602350280e-01,-1.190596136602350558e-01,-1.190596136602350558e-01,-1.190596136602350558e-01,-1.190596136602350558e-01,-1.190596136602350558e-01,-1.190596136602350558e-01,-1.190596136602350558e-01,-1.190596136602350558e-01,-1.190596136602350558e-01,-1.190596136602350558e-01,-1.190596136602350835e-01,-1.190596136602350558e-01,-1.190596136602350558e-01,-1.190596136602350558e-01,-1.190596136602350558e-01,-1.190596136602350280e-01,-1.190596136602350558e-01,-1.190596136602350558e-01,-1.190596136602350558e-01,-1.803933540306591754e-02,8.298094285410322068e-02,8.298094285410322068e-02
8.298094285410322068e-02,8.298094285410322068e-02,8.298094285410322068e-02,8.298094285410322068e-02,8.298094285410322068e-02,8.298094285410322068e-02,7.140570263713592880e-02,4.825522220320133115e-02,2.510474176926673351e-02,3.006555900510979318e-03,-2.014392453342360445e-02,-4.329440496735821597e-02,-6.644488540129279974e-02,-8.959536583522741127e-02,-1.127458462691619950e-01,-1.190596136602350558e-01,-1.190596136602350558e-01,-1.190596136602350558e-01,-1.190596136602350280e-01,-1.190596136602350558e-01,-1.190596136602350835e-01,-1.190596136602350558e-01,-1.190596136602350558e-01,-1.190596136602350558e-01,-1.190596136602350558e-01,-1.190596136602350558e-01,-1.190596136602350558e-01,-1.190596136602350558e-01,-1.190596136602350558e-01,-1.190596136602350558e-01,-1.190596136602350558e-01,-1.190596136602350558e-01,-1.190596136602350558e-01,-1.190596136602350558e-01,-1.190596136602350558e-01,-1.190596136602350558e-01,-1.190596136602350558e-01,-1.190596136602350558e-01,-1.190596136602350558e-01,-1.190596136602350280e-01,-1.190596136602350835e-01,-1.190596136602350558e-01,-1.190596136602350558e-01,-1.190596136602350835e-01,-1.190596136602350558e-01,-5.411800620919768323e-03,8.298094285410322068e-02
8.298094285410322068e-02,8.298094285410322068e-02,8.298094285410322068e-02,8.298094285410322068e-02,8.298094285410322068e-02,7.035340807195708535e-02,4.720292763802248076e-02,2.405244720408789005e-02,9.019667701532924076e-04,-2.224851366378130524e-02,-4.539899409771590288e-02,-6.854947453165051441e-02,-9.169995496558509818e-02,-1.148504353995196542e-01,-1.190596136602350558e-01,-1.190596136602350558e-01,-1.190596136602350280e-01,-1.190596136602350558e-01,-1.190596136602350558e-01,-1.190596136602350280e-01,-1.190596136602350558e-01,-1.190596136602350558e-01,-1.190596136602350558e-01,-1.190596136602350558e-01,-1.190596136602350558e-01,-1.190596136602350558e-01,-1.190596136602350558e-01,-1.190596136602350558e-01,-1.190596136602350558e-01,-1.190596136602350558e-01,-1.190596136602350558e-01,-1.190596136602350558e-01,-1.190596136602350835e-01,-1.190596136602350558e-01,-1.190596136602350558e-01,-1.190596136602350280e-01,-1.190596136602350835e-01,-1.190596136602350558e-01,-1.190596136602350558e-01,-1.190596136602350558e-01,-1.190596136602350558e-01,-1.190596136602350558e-01,-1.190596136602350558e-01,-1.190596136602350558e-01,-1.190596136602350558e-01,-1.190596136602350280e-01,9.019667701532924076e-04
8.298094285410322068e-02,8.298094285410322068e-02,8.298094285410322068e-02,8.298094285410322068e-02,6.930111350677822801e-02,4.615063307284363731e-02,2.300015263890904660e-02,-1.503277950255371698e-04,-2.330080822896014869e-02,-4.645128866289473246e-02,-6.960176909682934399e-02,-9.275224953076395551e-02,-1.159027299646985393e-01,-1.190596136602350558e-01,-1.190596136602350558e-01,-1.190596136602350280e-01,-1.190596136602350558e-01,-1.190596136602350280e-01,-1.190596136602350558e-01,-1.190596136602350835e-01,-1.190596136602350558e-01,-1.190596136602350558e-01,-1.190596136602350280e-01,-1.190596136602350558e-01,-1.190596136602350835e-01,-1.190596136602350558e-01,-1.190596136602350558e-01,-1.190596136602350558e-01,-1.190596136602350558e-01,-1.190596136602350558e-01,-1.190596136602350558e-01,-1.190596136602350558e-01,-1.190596136602350558e-01,-1.190596136602350558e-01,-1.190596136602350558e-01,-1.190596136602350558e-01,-1.190596136602350558e-01,-1.190596136602350558e-01,-1.190596136602350558e-01,-1.190596136602350558e-01,-1.190596136602350558e-01,-1.190596136602350558e-01,-1.190596136602350558e-01,-1.190596136602350558e-01,-1.190596136602350280e-01,-1.190596136602350558e-01,-1.190596136602350558e-01
8.298094285410322068e-02,8.298094285410322068e-02,8.298094285410322068e-02,6.719652437642054110e-02,4.509833850766479385e-02,2.194785807373019620e-02,-1.202622360204394503e-03,-2.435310279413899215e-02,-4.750358322807356204e-02,-7.065406366200820132e-02,-9.380454409594281284e-02,-1.169550245298773689e-01,-1.190596136602350558e-01,-1.190596136602350558e-01,-1.190596136602350558e-01,-1.190596136602350558e-01,-1.190596136602350558e-01,-1.190596136602350558e-01,-1.190596136602350558e-01,-1.190596136602350280e-01,-1.190596136602350558e-01,-1.190596136602350280e-01,-1.190596136602350558e-01,-1.190596136602350558e-01,-1.190596136602350835e-01,-1.190596136602350558e-01,-1.190596136602350558e-01,-1.190596136602350280e-01,-1.190596136602350558e-01,-1.190596136602350558e-01,-1.190596136602350558e-01,-1.190596136602350558e-01,-1.190596136602350558e-01,-1.190596136602350558e-01,-1.190596136602350558e-01,-1.190596136602350558e-01,-1.190596136602350558e-01,-1.190596136602350558e-01,-1.190596136602350558e-01,-1.190596136602350558e-01,-1.190596136602350558e-01,-1.190596136602350558e-01,-1.190596136602350558e-01,-1.190596136602350835e-01,-1.190596136602350558e-01,-1.190596136602350558e-01,-1.190596136602350280e-01
8.298094285410322068e-02,8.298094285410322068e-02,6.614422981124169765e-02,4.299374937730710000e-02,1.984326894337250236e-02,-3.307211490562081413e-03,-2.645769192449666518e-02,-4.960817235843127671e-02,-7.275865279236588823e-02,-9.590913322630047200e-02,-1.190596136602350558e-01,-1.190596136602350558e-01,-1.190596136602350280e-01,-1.190596136602350558e-01,-1.190596136602350558e-01,-1.190596136602350558e-01,-1.190596136602350558e-01,-1.190596136602350280e-01,-1.190596136602350558e-01,-1.190596136602350835e-01,-1.190596136602350558e-01,-1.190596136602350558e-01,-1.190596136602350558e-01,-1.190596136602350558e-01,-1.190596136602350558e-01,-1.190596136602350558e-01,-1.190596136602350558e-01,-1.190596136602350558e-01,-1.190596136602350558e-01,-1.190596136602350558e-01,-1.190596136602350835e-01,-1.190596136602350558e-01,-1.190596136602350558e-01,-1.190596136602350280e-01,-1.190596136602350280e-01,-1.190596136602350558e-01,-1.190596136602350558e-01,-1.190596136602350558e-01,-1.190596136602350558e-01,-1.190596136602350558e-01,-1.190596136602350558e-01,-1.190596136602350558e-01,-1.190596136602350835e-01,-1.190596136602350558e-01,-1.190596136602350558e-01,-1.190596136602350558e-01,-9.921634471686251178e-02
8.298094285410322068e-02,6.509193524606285419e-02,4.194145481212825655e-02,1.879097437819367278e-02,-4.359506055740924868e-03,-2.750998648967552251e-02,-5.066046692361013404e-02,-7.381094735754474556e-02,-9.696142779147932933e-02,-1.190596136602350280e-01,-1.190596136602350835e-01,-1.190596136602350558e-01,-1.190596136602350558e-01,-1.190596136602350558e-01,-1.190596136602350558e-01,-1.190596136602350558e-01,-1.190596136602350835e-01,-1.190596136602350558e-01,-1.190596136602350558e-01,-1.190596136602350835e-01,-1.190596136602350558e-01,-1.190596136602350558e-01,-1.190596136602350835e-01,-1.190596136602350558e-01,-1.190596136602350558e-01,-1.190596136602350558e-01,-1.190596136602350558e-01,-1.190596136602350558e-01,-1.190596136602350558e-01,-1.190596136602350558e-01,-1.190596136602350558e-01,-1.190596136602350280e-01,-1.190596136602350558e-01,-1.190596136602350558e-01,-1.190596136602350558e-01,-1.190596136602350280e-01,-1.190596136602350558e-01,-1.190596136602350558e-01,-1.190596136602350280e-01,-1.190596136602350558e-01,-1.190596136602350835e-01,-1.190596136602350558e-01,-1.190596136602350280e-01,-1.190596136602350558e-01,-1.172556801199284710e-01,-9.741241117655592696e-02,-7.756914223318346624e-02
6.403964068088401074e-02,4.088916024694941309e-02,1.773867981301482932e-02,-5.411800620919782201e-03,-2.856228105485436597e-02,-5.171276148878896362e-02,-7.486324192272357514e-02,-9.801372235665815891e-02,-1.190596136602350558e-01,-1.190596136602350558e-01,-1.190596136602350558e-01,-1.190596136602350558e-01,-1.190596136602350558e-01,-1.190596136602350558e-01,-1.190596136602350558e-01,-1.190596136602350558e-01,-1.190596136602350558e-01,-1.190596136602350558e-01,-1.190596136602350280e-01,-1.190596136602350558e-01,-1.190596136602350558e-01,-1.190596136602350558e-01,-1.190596136602350558e-01,-1.190596136602350558e-01,-1.190596136602350558e-01,-1.190596136602350280e-01,-1.190596136602350558e-01,-1.190596136602350558e-01,-1.190596136602350280e-01,-1.190596136602350558e-01,-1.190596136602350558e-01,-1.190596136602350558e-01,-1.190596136602350558e-01,-1.190596136602350558e-01,-1.190596136602350558e-01,-1.190596136602350558e-01,-1.190596136602350558e-01,-1.190596136602350280e-01,-1.190596136602350558e-01,-1.190596136602350558e-01,-1.190596136602350558e-01,-1.190596136602350835e-01,-1.190596136602350558e-01,-1.163537133497751647e-01,-9.651044440640267619e-02,-7.666717546303015995e-02,-5.682390651965764372e-02
3.878457111659172618e-02,1.563409068265712853e-02,-7.516389751277469111e-03,-3.066687018521206676e-02,-5.381735061914667828e-02,-7.696783105308126205e-02,-9.906601692183701624e-02,-1.190596136602350558e-01,-1.190596136602350558e-01,-1.190596136602350558e-01,-1.190596136602350558e-01,-1.190596136602350835e-01,-1.190596136602350558e-01,-1.190596136602350558e-01,-1.190596136602350558e-01,-1.190596136602350558e-01,-1.190596136602350558e-01,-1.190596136602350280e-01,-1.190596136602350558e-01,-1.190596136602350558e-01,-1.190596136602350558e-01,-1.190596136602350835e-01,-1.190596136602350558e-01,-1.190596136602350558e-01,-1.190596136602350558e-01,-1.190596136602350558e-01,-1.190596136602350558e-01,-1.190596136602350558e-01,-1.190596136602350558e-01,-1.190596136602350558e-01,-1.190596136602350835e-01,-1.190596136602350558e-01,-1.190596136602350558e-01,-1.190596136602350280e-01,-1.190596136602350558e-01,-1.190596136602350835e-01,-1.190596136602350558e-01,-1.190596136602350280e-01,-1.190596136602350558e-01,-1.190596136602350558e-01,-1.190596136602350558e-01,-1.190596136602350280e-01,-1.154517465796218861e-01,-9.560847763624936990e-02,-7.576520869287685367e-02,-5.592193974950436519e-02,-3.607867080613183508e-02
1.458179611747828508e-02,-8.568684316456312566e-03,-3.171916475039091021e-02,-5.486964518432548010e-02,-7.802012561826011938e-02,-1.011706060521947032e-01,-1.190596136602350558e-01,-1.190596136602350558e-01,-1.190596136602350558e-01,-1.190596136602350835e-01,-1.190596136602350835e-01,-1.190596136602350558e-01,-1.190596136602350558e-01,-1.190596136602350280e-01,-1.190596136602350558e-01,-1.190596136602350558e-01,-1.190596136602350558e-01,-1.190596136602350558e-01,-1.190596136602350558e-01,-1.190596136602350558e-01,-1.190596136602350280e-01,-1.190596136602350280e-01,-1.190596136602350558e-01,-1.190596136602350558e-01,-1.190596136602350558e-01,-1.190596136602350558e-01,-1.190596136602350280e-01,-1.190596136602350558e-01,-1.190596136602350558e-01,-1.190596136602350558e-01,-1.190596136602350558e-01,-1.190596136602350835e-01,-1.190596136602350558e-01,-1.190596136602350280e-01,-1.190596136602350558e-01,-1.190596136602350558e-01,-1.190596136602350558e-01,-1.190596136602350558e-01,-1.190596136602350835e-01,-1.190596136602350558e-01,-1.190596136602350558e-01,-1.136478130393152736e-01,-9.380454409594278509e-02,-7.486324192272357514e-02,-5.501997297935108666e-02,-3.517670403597854267e-02,-1.533343509260602644e-02
-9.620978881635156021e-03,-3.277145931556975367e-02,-5.592193974950433744e-02,-7.907242018343894896e-02,-1.022229006173735327e-01,-1.190596136602350558e-01,-1.190596136602350558e-01,-1.190596136602350835e-01,-1.190596136602350558e-01,-1.190596136602350558e-01,-1.190596136602350558e-01,-1.190596136602350835e-01,-1.190596136602350558e-01,-1.190596136602350558e-01,-1.190596136602350558e-01,-1.190596136602350558e-01,-1.190596136602350558e-01,-1.190596136602350558e-01,-1.190596136602350558e-01,-1.190596136602350558e-01,-1.190596136602350558e-01,-1.190596136602350558e-01,-1.190596136602350558e-01,-1.190596136602350558e-01,-1.190596136602350558e-01,-1.190596136602350558e-01,-1.190596136602350558e-01,-1.190596136602350558e-01,-1.190596136602350558e-01,-1.190596136602350558e-01,-1.190596136602350558e-01,-1.190596136602350558e-01,-1.190596136602350835e-01,-1.190596136602350558e-01,-1.190596136602350558e-01,-1.190596136602350835e-01,-1.190596136602350280e-01,-1.190596136602350558e-01,-1.190596136602350558e-01,-1.190596136602350558e-01,-1.127458462691619673e-01,-9.290257732578950656e-02,-7.305930838241699032e-02,-5.321603943904450185e-02,-3.337277049567194398e-02,-1.352950155229944162e-02,6.313767391073074609e-03
-3.487604844592745446e-02,-5.697423431468319477e-02,-8.012471474861780629e-02,-1.032751951825523623e-01,-1.190596136602350835e-01,-1.190596136602350835e-01,-1.190596136602350558e-01,-1.190596136602350558e-01,-1.190596136602350280e-01,-1.190596136602350558e-01,-1.190596136602350558e-01,-1.190596136602350280e-01,-1.190596136602350558e-01,-1.190596136602350558e-01,-1.190596136602350558e-01,-1.190596136602350835e-01,-1.190596136602350558e-01,-1.190596136602350558e-01,-1.190596136602350558e-01,-1.190596136602350835e-01,-1.190596136602350558e-01,-1.190596136602350835e-01,-1.190596136602350280e-01,-1.190596136602350835e-01,-1.190596136602350280e-01,-1.190596136602350558e-01,-1.190596136602350558e-01,-1.190596136602350558e-01,-1.190596136602350558e-01,-1.190596136602350558e-01,-1.190596136602350558e-01,-1.190596136602350558e-01,-1.190596136602350558e-01,-1.190596136602350835e-01,-1.190596136602350558e-01,-1.190596136602350558e-01,-1.190596136602350558e-01,-1.190596136602350835e-01,-1.190596136602350558e-01,-1.118438794990086610e-01,-9.200061055563620027e-02,-7.215734161226368404e-02,-5.231407266889119556e-02,-3.247080372551865157e-02,-1.262753478214614922e-02,7.215734161226367016e-03,2.705900310459886937e-02
-5.907882344504088168e-02,-8.222930387897549320e-02,-2.721845243185596064e-01,-2.858643536658846407e-01,-2.858643536658845852e-01,-1.190596136602350835e-01,-1.190596136602350558e-01,-1.190596136602350558e-01,-1.190596136602350558e-01,-1.190596136602350558e-01,-1.190596136602350558e-01,-1.190596136602350558e-01,-1.190596136602350558e-01,-1.190596136602350558e-01,-1.190596136602350558e-01,-1.190596136602350558e-01,-1.190596136602350558e-01,-1.190596136602350558e-01,-1.190596136602350558e-01,-1.190596136602350558e-01,-1.190596136602350558e-01,-1.190596136602350558e-01,-1.190596136602350558e-01,-1.190596136602350558e-01,-1.190596136602350558e-01,-1.190596136602350558e-01,-1.190596136602350558e-01,-1.190596136602350558e-01,-1.190596136602350558e-01,-1.190596136602350558e-01,-1.190596136602350558e-01,-1.190596136602350558e-01,-1.190596136602350558e-01,-1.190596136602350558e-01,-1.190596136602350558e-01,-1.190596136602350558e-01,-1.190596136602350558e-01,-1.190596136602350558e-01,-1.109419127288554102e-01,-9.109864378548286623e-02,-7.125537484211037775e-02,-5.141210589873786152e-02,-3.156883695536534529e-02,-1.172556801199284293e-02,8.117700931379659424e-03,2.796096987475217566e-02,4.780423881812467801e-02
-8.328159844415437829e-02,-1.064320788780889343e-01,-2.858643536658846407e-01,-2.858643536658846407e-01,-2.858643536658846407e-01,-1.190596136602350558e-01,-1.190596136602350558e-01,-1.190596136602350558e-01,-1.190596136602350558e-01,-1.190596136602350558e-01,-1.190596136602350558e-01,-1.190596136602350558e-01,-3.430677351093878724e-01,-3.430677351093878724e-01,-3.430677351093878724e-01,-3.430677351093878724e-01,-1.190596136602350835e-01,-1.190596136602350558e-01,-1.190596136602350835e-01,-1.190596136602350280e-01,-1.190596136602350558e-01,-1.190596136602350558e-01,-1.190596136602350558e-01,-1.190596136602350558e-01,-1.190596136602350558e-01,-1.190596136602350558e-01,-1.190596136602350558e-01,-1.190596136602350558e-01,-1.190596136602350558e-01,-1.190596136602350558e-01,-1.190596136602350558e-01,-1.190596136602350558e-01,-1.190596136602350835e-01,-1.190596136602350558e-01,-1.190596136602350558e-01,-1.190596136602350280e-01,-1.190596136602350558e-01,-1.091379791885487976e-01,-8.929471024517628142e-02,-6.945144130180382069e-02,-4.960817235843130446e-02,-2.976490341505876047e-02,-9.921634471686244239e-03,9.921634471686271994e-03,2.976490341505876741e-02,4.870620558827797736e-02,6.854947453165048665e-02
-1.074843734432677639e-01,-1.190596136602350558e-01,-2.858643536658846407e-01,-2.858643536658846407e-01,-2.858643536658846407e-01,-1.190596136602350558e-01,-1.190596136602350280e-01,-1.190596136602350558e-01,-1.190596136602350558e-01,-1.190596136602350558e-01,-1.190596136602350558e-01,-1.190596136602350558e-01,-3.430677351093878724e-01,-3.430677351093878724e-01,-3.430677351093878724e-01,-3.430677351093878169e-01,-1.190596136602350835e-01,-1.190596136602350558e-01,-1.190596136602350558e-01,-1.190596136602350835e-01,-1.190596136602350558e-01,-1.190596136602350558e-01,-1.190596136602350835e-01,-1.190596136602350558e-01,-1.190596136602350558e-01,-1.190596136602350558e-01,-1.190596136602350558e-01,-1.190596136602350558e-01,-1.190596136602350280e-01,-1.190596136602350558e-01,-1.190596136602350558e-01,-1.190596136602350558e-01,-3.437465317230676276e-01,-3.437465317230676276e-01,-3.437465317230676276e-01,-3.437465317230676276e-01,-3.329229304812280632e-01,-8.839274347502297513e-02,-6.854947453165051441e-02,-4.870620558827799818e-02,-2.886293664490546806e-02,-9.019667701532965709e-03,1.082360124183955052e-02,3.066687018521205982e-02,5.051013912858456911e-02,7.035340807195708535e-02,8.298094285410322068e-02
-1.190596136602350558e-01,-1.190596136602350558e-01,-1.190596136602350558e-01,-1.190596136602350558e-01,-1.190596136602350558e-01,-1.190596136602350558e-01,-1.190596136602350558e-01,-1.190596136602350558e-01,-1.190596136602350835e-01,-1.190596136602350835e-01,-1.190596136602350558e-01,-1.190596136602350280e-01,-3.430677351093878724e-01,-3.430677351093878724e-01,-3.430677351093878724e-01,-3.430677351093878724e-01,-1.190596136602350558e-01,-1.190596136602350558e-01,-1.190596136602350558e-01,-1.190596136602350558e-01,-1.190596136602350558e-01,-1.190596136602350558e-01,-1.190596136602350558e-01,-1.190596136602350558e-01,-1.190596136602350558e-01,-1.190596136602350835e-01,-1.190596136602350558e-01,-1.190596136602350558e-01,-1.190596136602350558e-01,-1.190596136602350558e-01,-1.190596136602350558e-01,-1.190596136602350558e-01,-3.437465317230676276e-01,-3.437465317230676276e-01,-3.437465317230676276e-01,-3.320209637110748124e-01,-3.121776947677023517e-01,-6.764750776149720812e-02,-4.780423881812469189e-02,-2.796096987475217566e-02,-8.117700931379659424e-03,1.172556801199284293e-02,3.156883695536535223e-02,5.141210589873786846e-02,7.125537484211037775e-02,8.298094285410322068e-02,8.298094285410322068e-02
-1.190596136602350558e-01,-1.190596136602350558e-01,-1.190596136602350835e-01,-1.190596136602350558e-01,-1.190596136602350280e-01,-1.190596136602350558e-01,-1.190596136602350558e-01,-1.190596136602350835e-01,-1.190596136602350558e-01,-1.190596136602350558e-01,-1.190596136602350558e-01,-1.190596136602350835e-01,-3.430677351093878724e-01,-3.430677351093878169e-01,-3.430677351093878724e-01,-3.430677351093878724e-01,-1.190596136602350558e-01,-1.190596136602350835e-01,-1.190596136602350558e-01,-1.190596136602350558e-01,-1.190596136602350558e-01,-1.190596136602350280e-01,-1.190596136602350558e-01,-1.190596136602350558e-01,-1.190596136602350280e-01,-1.190596136602350558e-01,-1.190596136602350280e-01,-1.190596136602350558e-01,-1.190596136602350558e-01,-1.190596136602350558e-01,-1.190596136602350835e-01,-1.190596136602350558e-01,-3.437465317230676276e-01,-3.437465317230676276e-01,-3.302170301707682554e-01,-3.103737612273957391e-01,-2.905304922840232229e-01,-4.600030527781810707e-02,-2.615703633444559084e-02,-6.313767391073074609e-03,1.262753478214614922e-02,3.247080372551865157e-02,5.231407266889116087e-02,7.215734161226367016e-02,8.298094285410322068e-02,8.298094285410322068e-02,8.298094285410322068e-02
-1.190596136602350558e-01,-1.190596136602350558e-01,-1.190596136602350558e-01,-1.190596136602350835e-01,-1.190596136602350558e-01,-1.190596136602350558e-01,-1.190596136602350280e-01,-1.190596136602350558e-01,-1.190596136602350558e-01,-1.190596136602350558e-01,-1.190596136602350558e-01,-1.190596136602350558e-01,-1.190596136602350558e-01,-1.190596136602350558e-01,-1.190596136602350558e-01,-1.190596136602350558e-01,-1.190596136602350558e-01,-1.190596136602350558e-01,-1.190596136602350558e-01,-1.190596136602350558e-01,-1.190596136602350558e-01,-1.190596136602350558e-01,-1.190596136602350558e-01,-1.190596136602350558e-01,-1.190596136602350558e-01,-1.190596136602350558e-01,-1.190596136602350558e-01,-1.190596136602350558e-01,-1.190596136602350558e-01,-1.190596136602350558e-01,-1.190596136602350558e-01,-1.190596136602350558e-01,-3.437465317230676276e-01,-3.293150634006149491e-01,-3.094717944572424329e-01,-2.896285255138699166e-01,-2.697852565704974004e-01,-2.525506956429228456e-02,-5.411800620919768323e-03,1.443146832245273403e-02,3.427473726582524333e-02,5.411800620919775262e-02,7.396127515257025498e-02,8.298094285410322068e-02,8.298094285410322068e-02,8.298094285410322068e-02,8.298094285410322068e-02
-1.190596136602350558e-01,-1.190596136602350558e-01,-1.190596136602350835e-01,-1.190596136602350558e-01,-1.190596136602350558e-01,-1.190596136602350558e-01,-1.190596136602350280e-01,-1.190596136602350558e-01,-1.190596136602350558e-01,-1.190596136602350558e-01,-1.190596136602350558e-01,-1.190596136602350558e-01,-1.190596136602350558e-01,-1.190596136602350558e-01,-1.190596136602350558e-01,-1.190596136602350280e-01,-1.190596136602350558e-01,-1.190596136602350558e-01,-1.190596136602350558e-01,-1.190596136602350558e-01,-1.190596136602350835e-01,-1.190596136602350558e-01,-1.190596136602350280e-01,-1.190596136602350558e-01,-1.190596136602350558e-01,-1.190596136602350558e-01,-1.190596136602350558e-01,-1.190596136602350558e-01,-1.190596136602350558e-01,-1.190596136602350558e-01,-1.190596136602350835e-01,-1.190596136602350558e-01,-3.284130966304616428e-01,-3.085698276870891266e-01,-2.887265587437166103e-01,-2.688832898003440941e-01,-2.490400208569715779e-01,-4.509833850766489793e-03,1.533343509260602644e-02,3.517670403597854267e-02,5.501997297935104503e-02,7.486324192272356126e-02,8.298094285410322068e-02,8.298094285410322068e-02,8.298094285410322068e-02,8.298094285410322068e-02,8.298094285410322068e-02
-1.190596136602350835e-01,-1.190596136602350558e-01,-1.190596136602350280e-01,-1.190596136602350558e-01,-1.190596136602350558e-01,-1.190596136602350835e-01,-1.190596136602350558e-01,-1.190596136602350558e-01,-1.190596136602350558e-01,-1.190596136602350558e-01,-1.190596136602350558e-01,-1.190596136602350558e-01,-1.190596136602350558e-01,-1.190596136602350558e-01,-1.190596136602350835e-01,-1.190596136602350558e-01,-1.190596136602350558e-01,-1.190596136602350835e-01,-1.190596136602350558e-01,-1.190596136602350558e-01,-1.190596136602350558e-01,-1.190596136602350558e-01,-1.190596136602350558e-01,-1.190596136602350558e-01,-1.190596136602350280e-01,-1.190596136602350558e-01,-1.190596136602350558e-01,-1.190596136602350835e-01,-1.190596136602350558e-01,-1.190596136602350558e-01,-1.190596136602350835e-01,-1.019222450273224306e-01,-8.207897608394991440e-02,-6.223570714057742592e-02,-4.329440496735821597e-02,-2.345113602398569974e-02,-3.607867080613183508e-03,1.623540186275933273e-02,3.607867080613183508e-02,5.592193974950434437e-02,7.576520869287685367e-02,8.298094285410322068e-02,8.298094285410322068e-02,8.298094285410322068e-02,8.298094285410322068e-02,8.298094285410322068e-02,8.298094285410322068e-02
-1.190596136602350558e-01,-1.190596136602350558e-01,-1.190596136602350558e-01,-1.190596136602350558e-01,-1.190596136602350558e-01,-1.190596136602350558e-01,-1.190596136602350558e-01,-1.190596136602350280e-01,-1.190596136602350558e-01,-1.190596136602350558e-01,-1.190596136602350558e-01,-1.190596136602350558e-01,-1.190596136602350558e-01,-1.190596136602350558e-01,-1.190596136602350558e-01,-1.190596136602350835e-01,-1.190596136602350558e-01,-1.190596136602350280e-01,-1.190596136602350558e-01,-1.190596136602350558e-01,-1.190596136602350558e-01,-1.190596136602350558e-01,-1.190596136602350835e-01,-1.190596136602350558e-01,-1.190596136602350558e-01,-1.190596136602350280e-01,-1.190596136602350558e-01,-1.190596136602350835e-01,-1.190596136602350558e-01,-1.190596136602350280e-01,-1.010202782571691243e-01,-8.117700931379663587e-02,-6.133374037042414739e-02,-4.149047142705161728e-02,-2.164720248367910105e-02,-1.803933540306598693e-03,1.803933540306593142e-02,3.788260434643842683e-02,5.772587328981093613e-02,7.756914223318345236e-02,8.298094285410322068e-02,8.298094285410322068e-02,8.298094285410322068e-02,8.298094285410322068e-02,8.298094285410322068e-02,8.298094285410322068e-02,8.298094285410322068e-02
-1.190596136602350558e-01,-1.190596136602350558e-01,-1.190596136602350558e-01,-1.190596136602350558e-01,-1.190596136602350558e-01,-1.190596136602350558e-01,-1.190596136602350280e-01,-1.190596136602350558e-01,-1.190596136602350558e-01,-1.190596136602350835e-01,-1.190596136602350280e-01,-1.190596136602350558e-01,-1.190596136602350558e-01,-1.190596136602350558e-01,-1.190596136602350558e-01,-1.190596136602350558e-01,-1.190596136602350558e-01,-1.190596136602350558e-01,-1.190596136602350558e-01,-1.190596136602350558e-01,-1.190596136602350558e-01,-1.190596136602350558e-01,-1.190596136602350835e-01,-1.190596136602350280e-01,-1.190596136602350558e-01,-1.190596136602350835e-01,-1.190596136602350558e-01,-1.190596136602350558e-01,-1.190596136602350558e-01,-1.001183114870158458e-01,-8.027504254364332958e-02,-6.043177360027086886e-02,-4.058850465689831100e-02,-2.074523571352580864e-02,-9.019667701533062854e-04,1.894130217321920995e-02,3.878457111659172618e-02,5.862784005996422854e-02,7.847110900333674477e-02,8.298094285410322068e-02,8.298094285410322068e-02,8.298094285410322068e-02,8.298094285410322068e-02,8.298094285410322068e-02,8.298094285410322068e-02,8.298094285410322068e-02,8.298094285410322068e-02
9.019667701532924076e-04,-1.190596136602350558e-01,-1.190596136602350280e-01,-1.190596136602350558e-01,-1.190596136602350558e-01,-1.190596136602350835e-01,-1.190596136602350558e-01,-1.190596136602350558e-01,-1.190596136602350280e-01,-1.190596136602350835e-01,-1.190596136602350280e-01,-1.190596136602350558e-01,-1.190596136602350558e-01,-1.190596136602350835e-01,-1.190596136602350558e-01,-1.190596136602350558e-01,-1.190596136602350558e-01,-1.190596136602350558e-01,-1.190596136602350558e-01,-1.190596136602350558e-01,-1.190596136602350558e-01,-1.190596136602350558e-01,-1.190596136602350558e-01,-1.190596136602350558e-01,-1.190596136602350835e-01,-1.190596136602350558e-01,-1.190596136602350558e-01,-1.181576468900817495e-01,-9.831437794670926100e-02,-7.937307577349005105e-02,-5.952980683011756258e-02,-3.968653788674501859e-02,-1.984326894337251623e-02,0.000000000000000000e+00,1.984326894337250236e-02,3.968653788674501859e-02,5.952980683011752788e-02,7.937307577349003718e-02,8.298094285410322068e-02,8.298094285410322068e-02,8.298094285410322068e-02,8.298094285410322068e-02,8.298094285410322068e-02,8.298094285410322068e-02,8.298094285410322068e-02,8.298094285410322068e-02,8.298094285410322068e-02
8.298094285410322068e-02,-5.411800620919768323e-03,-1.190596136602350558e-01,-1.190596136602350558e-01,-1.190596136602350280e-01,-1.190596136602350558e-01,-1.190596136602350558e-01,-1.190596136602350280e-01,-1.190596136602350280e-01,-1.190596136602350558e-01,-1.190596136602350558e-01,-1.190596136602350558e-01,-1.190596136602350558e-01,-1.190596136602350558e-01,-1.190596136602350558e-01,-1.190596136602350558e-01,-1.190596136602350558e-01,-1.190596136602350558e-01,-1.190596136602350558e-01,-1.190596136602350558e-01,-1.190596136602350558e-01,-1.941387908212080515e-01,-1.941387908212080515e-01,-1.941387908212080515e-01,-1.941387908212080515e-01,-1.941387908212080515e-01,-1.172556801199284432e-01,-9.741241117655595472e-02,-7.756914223318346624e-02,-5.772587328981095001e-02,-3.788260434643843377e-02,-1.803933540306591754e-02,1.803933540306584815e-03,2.164720248367910105e-02,4.149047142705161034e-02,6.133374037042411964e-02,8.117700931379662199e-02,8.298094285410322068e-02,8.298094285410322068e-02,8.298094285410322068e-02,8.298094285410322068e-02,8.298094285410322068e-02,8.298094285410322068e-02,8.298094285410322068e-02,8.298094285410322068e-02,8.298094285410322068e-02,8.298094285410322068e-02
8.298094285410322068e-02,8.298094285410322068e-02,-1.803933540306591754e-02,-1.190596136602350558e-01,-1.190596136602350280e-01,-1.190596136602350558e-01,-1.190596136602350558e-01,-1.190596136602350558e-01,-1.190596136602350280e-01,-1.190596136602350558e-01,-1.190596136602350558e-01,-1.190596136602350558e-01,-1.190596136602350558e-01,-1.190596136602350558e-01,-1.190596136602350558e-01,-1.190596136602350558e-01,-1.190596136602350558e-01,-1.190596136602350558e-01,-1.190596136602350558e-01,-1.190596136602350835e-01,-1.190596136602350558e-01,-1.941387908212080515e-01,-1.941387908212080515e-01,-1.941387908212080515e-01,-1.941387908212080515e-01,-1.914328905107481882e-01,-9.651044440640264843e-02,-7.666717546303015995e-02,-5.682390651965764372e-02,-3.698063757628514137e-02,-1.713736863291262513e-02,2.705900310459891100e-03,2.254916925383239346e-02,4.239243819720490969e-02,6.223570714057741204e-02,8.207897608394992828e-02,8.298094285410322068e-02,8.298094285410322068e-02,8.298094285410322068e-02,8.298094285410322068e-02,8.298094285410322068e-02,8.298094285410322068e-02,8.298094285410322068e-02,8.298094285410322068e-02,8.298094285410322068e-02,8.298094285410322068e-02,8.298094285410322068e-02
8.298094285410322068e-02,8.298094285410322068e-02,8.298094285410322068e-02,-2.435310279413897827e-02,-1.190596136602350558e-01,-1.190596136602350558e-01,-1.190596136602350558e-01,-1.190596136602350558e-01,-1.190596136602350558e-01,-1.190596136602350835e-01,-1.190596136602350558e-01,-1.190596136602350558e-01,-1.190596136602350558e-01,-1.190596136602350558e-01,-1.190596136602350558e-01,-1.190596136602350558e-01,-1.190596136602350558e-01,-1.190596136602350558e-01,-1.190596136602350558e-01,-1.190596136602350835e-01,-1.190596136602350835e-01,-1.941387908212080515e-01,-1.941387908212080515e-01,-1.941387908212080515e-01,-1.905309237405948819e-01,-1.706876547972224212e-01,-7.576520869287685367e-02,-5.592193974950436519e-02,-3.607867080613183508e-02,-1.623540186275933273e-02,3.607867080613183508e-03,2.345113602398569280e-02,4.329440496735820210e-02,6.313767391073071833e-02,8.298094285410322068e-02,8.298094285410322068e-02,8.298094285410322068e-02,8.298094285410322068e-02,8.298094285410322068e-02,8.298094285410322068e-02,8.298094285410322068e-02,8.298094285410322068e-02,8.298094285410322068e-02,8.298094285410322068e-02,8.298094285410322068e-02,8.298094285410322068e-02,8.298094285410322068e-02
8.298094285410322068e-02,8.298094285410322068e-02,8.298094285410322068e-02,8.298094285410322068e-02,-3.066687018521205288e-02,-1.190596136602350558e-01,-1.190596136602350558e-01,-1.190596136602350558e-01,-1.190596136602350280e-01,-1.190596136602350558e-01,-1.190596136602350558e-01,-1.190596136602350835e-01,-1.190596136602350280e-01,-1.190596136602350558e-01,-1.190596136602350558e-01,-1.190596136602350558e-01,-1.190596136602350558e-01,-1.190596136602350558e-01,-1.190596136602350558e-01,-1.190596136602350558e-01,-1.190596136602350558e-01,-1.941387908212080515e-01,-1.941387908212080515e-01,-1.887269902002883248e-01,-1.688837212569158086e-01,-1.490404523135433479e-01,-5.411800620919778038e-02,-3.427473726582525027e-02,-1.443146832245273403e-02,5.411800620919768323e-03,2.525506956429228456e-02,4.509833850766479385e-02,6.403964068088401074e-02,8.298094285410322068e-02,8.298094285410322068e-02,8.298094285410322068e-02,8.298094285410322068e-02,8.298094285410322068e-02,8.298094285410322068e-02,8.298094285410322068e-02,8.298094285410322068e-02,8.298094285410322068e-02,8.298094285410322068e-02,8.298094285410322068e-02,8.298094285410322068e-02,8.298094285410322068e-02,8.298094285410322068e-02
8.298094285410322068e-02,8.298094285410322068e-02,8.298094285410322068e-02,8.298094285410322068e-02,8.298094285410322068e-02,-4.329440496735821597e-02,-1.190596136602350558e-01,-1.190596136602350558e-01,-1.190596136602350558e-01,-1.190596136602350558e-01,-1.190596136602350558e-01,-1.190596136602350835e-01,-1.190596136602350558e-01,-1.190596136602350558e-01,-1.190596136602350835e-01,-1.190596136602350835e-01,-1.190596136602350558e-01,-1.190596136602350558e-01,-1.190596136602350558e-01,-1.190596136602350558e-01,-1.190596136602350558e-01,-1.941387908212080515e-01,-1.878250234301350186e-01,-1.679817544867625023e-01,-1.481384855433900416e-01,-1.282952166000175254e-01,-3.337277049567195786e-02,-1.352950155229944162e-02,6.313767391073074609e-03,2.615703633444557696e-02,4.600030527781809320e-02,6.584357422119059555e-02,8.298094285410322068e-02,8.298094285410322068e-02,8.298094285410322068e-02,8.298094285410322068e-02,8.298094285410322068e-02,8.298094285410322068e-02,8.298094285410322068e-02,8.298094285410322068e-02,8.298094285410322068e-02,8.298094285410322068e-02,8.298094285410322068e-02,8.298094285410322068e-02,8.298094285410322068e-02,8.298094285410322068e-02,8.298094285410322068e-02
8.298094285410322068e-02,8.298094285410322068e-02,8.298094285410322068e-02,8.298094285410322068e-02,8.298094285410322068e-02,8.298094285410322068e-02,-4.960817235843127671e-02,-1.190596136602350558e-01,-1.190596136602350558e-01,-1.190596136602350558e-01,-1.190596136602350558e-01,-1.190596136602350558e-01,-1.190596136602350558e-01,-1.190596136602350280e-01,-1.190596136602350558e-01,-1.190596136602350558e-01,-1.190596136602350558e-01,-1.190596136602350835e-01,-1.190596136602350558e-01,-1.190596136602350558e-01,-1.190596136602350558e-01,-1.118438794990086610e-01,-9.200061055563617252e-02,-7.215734161226368404e-02,-5.231407266889116781e-02,-3.247080372551865157e-02,-1.262753478214613534e-02,7.215734161226367016e-03,2.705900310459887631e-02,4.690227204797138560e-02,6.674554099134388796e-02,8.298094285410322068e-02,8.298094285410322068e-02,8.298094285410322068e-02,8.298094285410322068e-02,8.298094285410322068e-02,8.298094285410322068e-02,8.298094285410322068e-02,8.298094285410322068e-02,8.298094285410322068e-02,8.298094285410322068e-02,8.298094285410322068e-02,8.298094285410322068e-02,8.298094285410322068e-02,8.298094285410322068e-02,8.298094285410322068e-02,8.298094285410322068e-02
8.298094285410322068e-02,8.298094285410322068e-02,8.298094285410322068e-02,8.298094285410322068e-02,8.298094285410322068e-02,8.298094285410322068e-02,8.298094285410322068e-02,-5.592193974950433744e-02,-1.190596136602350558e-01,-1.190596136602350558e-01,-1.190596136602350558e-01,-1.190596136602350558e-01,-1.190596136602350558e-01,-1.190596136602350558e-01,-1.190596136602350558e-01,-1.190596136602350558e-01,-1.190596136602350558e-01,-1.190596136602350558e-01,-1.190596136602350558e-01,-1.190596136602350558e-01,-1.100399459587021039e-01,-9.019667701532958770e-02,-7.035340807195709922e-02,-5.051013912858458299e-02,-3.066687018521206676e-02,-1.082360124183955052e-02,8.117700931379659424e-03,2.796096987475216872e-02,4.780423881812468495e-02,6.764750776149719425e-02,8.298094285410322068e-02,8.298094285410322068e-02,8.298094285410322068e-02,8.298094285410322068e-02,8.298094285410322068e-02,8.298094285410322068e-02,8.298094285410322068e-02,8.298094285410322068e-02,8.298094285410322068e-02,8.298094285410322068e-02,8.298094285410322068e-02,8.298094285410322068e-02,8.298094285410322068e-02,8.298094285410322068e-02,8.298094285410322068e-02,8.298094285410322068e-02,8.298094285410322068e-02
8.298094285410322068e-02,8.298094285410322068e-02,8.298094285410322068e-02,8.298094285410322068e-02,8.298094285410322068e-02,8.298094285410322068e-02,8.298094285410322068e-02,8.298094285410322068e-02,-6.854947453165048665e-02,-1.190596136602350558e-01,-1.190596136602350558e-01,-1.190596136602350835e-01,-1.190596136602350835e-01,-1.190596136602350558e-01,-1.190596136602350835e-01,-1.190596136602350558e-01,-1.190596136602350558e-01,-1.190596136602350835e-01,-1.190596136602350558e-01,-1.091379791885487976e-01,-8.929471024517628142e-02,-6.945144130180379294e-02,-4.960817235843127671e-02,-2.976490341505876047e-02,-9.921634471686258117e-03,9.921634471686244239e-03,2.976490341505876741e-02,4.960817235843127671e-02,6.945144130180377906e-02,8.298094285410322068e-02,8.298094285410322068e-02,8.298094285410322068e-02,8.298094285410322068e-02,8.298094285410322068e-02,8.298094285410322068e-02,8.298094285410322068e-02,8.298094285410322068e-02,8.298094285410322068e-02,8.298094285410322068e-02,8.298094285410322068e-02,8.298094285410322068e-02,8.298094285410322068e-02,8.298094285410322068e-02,8.298094285410322068e-02,8.298094285410322068e-02,8.298094285410322068e-02,8.298094285410322068e-02
8.298094285410322068e-02,8.298094285410322068e-02,8.298094285410322068e-02,8.298094285410322068e-02,8.298094285410322068e-02,8.298094285410322068e-02,8.298094285410322068e-02,8.298094285410322068e-02,7.035340807195708535e-02,-7.486324192272354738e-02,-1.190596136602350558e-01,-1.190596136602350558e-01,-1.190596136602350558e-01,-1.190596136602350558e-01,-1.190596136602350558e-01,-1.190596136602350558e-01,-1.190596136602350558e-01,-1.190596136602350558e-01,-1.082360124183954914e-01,-8.839274347502300289e-02,-6.854947453165051441e-02,-4.870620558827799818e-02,-2.886293664490545419e-02,-9.019667701532951831e-03,1.082360124183955052e-02,3.066687018521205982e-02,5.051013912858456911e-02,7.035340807195708535e-02,8.298094285410322068e-02,8.298094285410322068e-02,8.298094285410322068e-02,8.298094285410322068e-02,8.298094285410322068e-02,8.298094285410322068e-02,8.298094285410322068e-02,8.298094285410322068e-02,8.298094285410322068e-02,8.298094285410322068e-02,8.298094285410322068e-02,8.298094285410322068e-02,8.298094285410322068e-02,8.298094285410322068e-02,8.298094285410322068e-02,8.298094285410322068e-02,8.298094285410322068e-02,8.298094285410322068e-02,8.298094285410322068e-02
8.298094285410322068e-02,8.298094285410322068e-02,8.298094285410322068e-02,8.298094285410322068e-02,8.298094285410322068e-02,8.298094285410322068e-02,8.298094285410322068e-02,8.298094285410322068e-02,8.298094285410322068e-02,6.403964068088401074e-02,-8.117700931379663587e-02,-1.190596136602350558e-01,-1.190596136602350558e-01,-1.190596136602350558e-01,-1.190596136602350558e-01,-1.190596136602350558e-01,-1.190596136602350558e-01,-1.064320788780889065e-01,-8.658880993471641807e-02,-6.674554099134390184e-02,-4.690227204797138560e-02,-2.796096987475217566e-02,-8.117700931379659424e-03,1.172556801199284293e-02,3.156883695536535916e-02,5.141210589873786846e-02,7.125537484211037775e-02,8.298094285410322068e-02,8.298094285410322068e-02,8.298094285410322068e-02,8.298094285410322068e-02,8.298094285410322068e-02,8.298094285410322068e-02,8.298094285410322068e-02,8.298094285410322068e-02,8.298094285410322068e-02,8.298094285410322068e-02,8.298094285410322068e-02,8.298094285410322068e-02,8.298094285410322068e-02,8.298094285410322068e-02,8.298094285410322068e-02,8.298094285410322068e-02,8.298094285410322068e-02,8.298094285410322068e-02,8.298094285410322068e-02,8.298094285410322068e-02
8.298094285410322068e-02,8.298094285410322068e-02,8.298094285410322068e-02,8.298094285410322068e-02,8.298094285410322068e-02,8.298094285410322068e-02,8.298094285410322068e-02,8.298094285410322068e-02,8.298094285410322068e-02,8.298094285410322068e-02,5.772587328981093613e-02,-8.749077670486972436e-02,-1.190596136602350835e-01,-1.190596136602350558e-01,-1.190596136602350558e-01,-1.190596136602350280e-01,-1.055301121079356280e-01,-8.568684316456311179e-02,-6.584357422119062331e-02,-4.600030527781810707e-02,-2.615703633444559084e-02,-6.313767391073074609e-03,1.352950155229944162e-02,3.337277049567194398e-02,5.321603943904446021e-02,7.305930838241696257e-02,8.298094285410322068e-02,8.298094285410322068e-02,8.298094285410322068e-02,8.298094285410322068e-02,8.298094285410322068e-02,8.298094285410322068e-02,8.298094285410322068e-02,8.298094285410322068e-02,8.298094285410322068e-02,8.298094285410322068e-02,8.298094285410322068e-02,8.298094285410322068e-02,8.298094285410322068e-02,8.298094285410322068e-02,8.298094285410322068e-02,8.298094285410322068e-02,8.298094285410322068e-02,8.298094285410322068e-02,8.298094285410322068e-02,8.298094285410322068e-02,8.298094285410322068e-02
8.298094285410322068e-02,8.298094285410322068e-02,8.298094285410322068e-02,8.298094285410322068e-02,8.298094285410322068e-02,8.298094285410322068e-02,8.298094285410322068e-02,8.298094285410322068e-02,8.298094285410322068e-02,8.298094285410322068e-02,8.298094285410322068e-02,5.141210589873786152e-02,-1.001183114870158458e-01,-1.190596136602350558e-01,-1.190596136602350558e-01,-1.046281453377823217e-01,-8.478487639440983326e-02,-6.494160745103731702e-02,-4.509833850766480079e-02,-2.525506956429228456e-02,-5.411800620919768323e-03,1.443146832245273403e-02,3.427473726582524333e-02,5.411800620919775262e-02,7.396127515257025498e-02,8.298094285410322068e-02,8.298094285410322068e-02,8.298094285410322068e-02,8.298094285410322068e-02,8.298094285410322068e-02,8.298094285410322068e-02,8.298094285410322068e-02,8.298094285410322068e-02,8.298094285410322068e-02,8.298094285410322068e-02,8.298094285410322068e-02,8.298094285410322068e-02,8.298094285410322068e-02,8.298094285410322068e-02,8.298094285410322068e-02,8.298094285410322068e-02,8.298094285410322068e-02,8.298094285410322068e-02,8.298094285410322068e-02,8.298094285410322068e-02,8.298094285410322068e-02,8.298094285410322068e-02
8.298094285410322068e-02,8.298094285410322068e-02,8.298094285410322068e-02,8.298094285410322068e-02,8.298094285410322068e-02,8.298094285410322068e-02,8.298094285410322068e-02,8.298094285410322068e-02,8.298094285410322068e-02,8.298094285410322068e-02,8.298094285410322068e-02,8.298094285410322068e-02,3.878457111659172618e-02,-1.064320788780889065e-01,-1.028242117974757369e-01,-8.388290962425652697e-02,-6.403964068088401074e-02,-4.419637173751152226e-02,-2.435310279413899215e-02,-4.509833850766475916e-03,1.533343509260602644e-02,3.517670403597854267e-02,5.501997297935104503e-02,7.486324192272356126e-02,8.298094285410322068e-02,8.298094285410322068e-02,8.298094285410322068e-02,8.298094285410322068e-02,8.298094285410322068e-02,8.298094285410322068e-02,8.298094285410322068e-02,8.298094285410322068e-02,8.298094285410322068e-02,8.298094285410322068e-02,8.298094285410322068e-02,8.298094285410322068e-02,8.298094285410322068e-02,8.298094285410322068e-02,8.298094285410322068e-02,8.298094285410322068e-02,8.298094285410322068e-02,8.298094285410322068e-02,8.298094285410322068e-02,8.298094285410322068e-02,8.298094285410322068e-02,8.298094285410322068e-02,8.298094285410322068e-02
