-1.129936922391780035e-01,-1.129936922391780035e-01,-1.129936922391780035e-01,-1.129936922391780035e-01,-1.129936922391780035e-01,-1.129936922391780035e-01,-1.129936922391780035e-01,-1.129936922391780035e-01,-1.129936922391780035e-01,-1.129936922391780035e-01,-1.129936922391780035e-01,-1.129936922391780035e-01,-1.129936922391780035e-01,-1.129936922391780035e-01,-1.116205050071046589e-01,-1.073047737063027168e-01,-1.027928728009188802e-01,-9.847714150011693812e-02,-9.416141019931500988e-02,-8.984567889851306777e-02,-8.533377799312921730e-02,-8.101804669232728906e-02,-7.670231539152536082e-02,-7.238658409072341871e-02,-6.787468318533956824e-02,-6.355895188453764000e-02,-5.924322058373570482e-02,-5.492748928293375577e-02,-5.041558837754991917e-02,-4.609985707674797706e-02,-4.178412577594604882e-02,-3.746839447514412058e-02,-3.295649356976025623e-02,-4.445693663837450849e-02,-1.046810052450197204e-01,-1.129936922391780035e-01,-1.129936922391780035e-01,-1.129936922391780035e-01,-1.129936922391780035e-01,-1.129936922391780035e-01,-1.129936922391780035e-01,-1.129936922391780035e-01,-1.129936922391780035e-01,-1.129936922391780035e-01,-1.129936922391780035e-01,-1.129936922391780035e-01,-1.129936922391780035e-01
-1.129936922391780035e-01,-1.129936922391780035e-01,-1.129936922391780035e-01,-1.129936922391780035e-01,-1.129936922391780035e-01,-1.129936922391780035e-01,-1.129936922391780035e-01,-1.129936922391780035e-01,-1.129936922391780035e-01,-1.129936922391780035e-01,-1.129936922391780035e-01,-1.129936922391780035e-01,-1.129936922391780035e-01,-1.114243354025227506e-01,-1.071086041017208224e-01,-1.027928728009188802e-01,-9.847714150011693812e-02,-9.396524059473310153e-02,-8.964950929393115941e-02,-8.533377799312921730e-02,-8.082187708774538071e-02,-7.650614578694345247e-02,-7.219041448614149648e-02,-6.787468318533956824e-02,-6.336278227995571777e-02,-5.904705097915378953e-02,-5.473131967835186129e-02,-5.041558837754991917e-02,-4.590368747216606871e-02,-4.158795617136412659e-02,-3.727222487056221223e-02,-3.295649356976027011e-02,-2.844459266437641964e-02,-2.412886136357447753e-02,-4.019637803886123850e-02,-1.069001738968525378e-01,-1.129936922391780035e-01,-1.129936922391780035e-01,-1.129936922391780035e-01,-1.129936922391780035e-01,-1.129936922391780035e-01,-1.129936922391780035e-01,-1.129936922391780035e-01,-1.129936922391780035e-01,-1.129936922391780035e-01,-1.129936922391780035e-01,-1.129936922391780035e-01
-1.129936922391780035e-01,-1.129936922391780035e-01,-1.129936922391780035e-01,-1.129936922391780035e-01,-1.129936922391780035e-01,-1.129936922391780035e-01,-1.129936922391780035e-01,-1.129936922391780035e-01,-1.129936922391780035e-01,-1.129936922391780035e-01,-1.129936922391780035e-01,-1.129936922391780035e-01,-1.114243354025227506e-01,-1.069124344971389140e-01,-1.025967031963369719e-01,-9.828097189553502977e-02,-9.396524059473310153e-02,-8.945333968934925106e-02,-8.513760838854732282e-02,-8.082187708774538071e-02,-7.630997618236154412e-02,-7.199424488155960200e-02,-6.767851358075765988e-02,-6.336278227995573165e-02,-5.885088137457188812e-02,-5.453515007376995294e-02,-5.021941877296801082e-02,-4.590368747216606871e-02,-4.139178656678223212e-02,-3.707605526598030388e-02,-3.276032396517836176e-02,-2.844459266437641964e-02,-2.393269175899256918e-02,-1.961696045819062706e-02,-1.530122915738869882e-02,-3.329979037777859585e-02,-1.063361862836795652e-01,-1.129936922391780035e-01,-1.129936922391780035e-01,-1.129936922391780035e-01,-1.129936922391780035e-01,-1.129936922391780035e-01,-1.129936922391780035e-01,-1.129936922391780035e-01,-1.129936922391780035e-01,-1.129936922391780035e-01,-1.129936922391780035e-01
-1.129936922391780035e-01,-1.129936922391780035e-01,-1.129936922391780035e-01,-1.129936922391780035e-01,-1.129936922391780035e-01,-1.129936922391780035e-01,-1.129936922391780035e-01,-1.129936922391780035e-01,-1.129936922391780035e-01,-1.129936922391780035e-01,-1.129936922391780035e-01,-1.112281657979408422e-01,-1.069124344971389140e-01,-1.024005335917550635e-01,-9.808480229095313530e-02,-9.376907099015119318e-02,-8.945333968934925106e-02,-8.494143878396541447e-02,-8.062570748316347236e-02,-7.630997618236154412e-02,-7.199424488155960200e-02,-6.748234397617575153e-02,-6.316661267537382329e-02,-5.885088137457188118e-02,-5.433898046918804459e-02,-5.002324916838610247e-02,-4.570751786758416035e-02,-4.139178656678223212e-02,-3.687988566139839552e-02,-3.256415436059645341e-02,-2.824842305979451129e-02,-2.393269175899258305e-02,-1.942079085360873258e-02,-1.510505955280679047e-02,-1.078932825200486223e-02,-6.473596951202933991e-03,-2.971969509415881006e-02,-1.094626393567036948e-01,-1.129936922391780035e-01,-1.129936922391780035e-01,-1.129936922391780035e-01,-1.129936922391780035e-01,-1.129936922391780035e-01,-1.129936922391780035e-01,-1.129936922391780035e-01,-1.129936922391780035e-01,-1.129936922391780035e-01
-1.129936922391780035e-01,-1.129936922391780035e-01,-1.129936922391780035e-01,-1.129936922391780035e-01,-1.129936922391780035e-01,-1.129936922391780035e-01,-1.129936922391780035e-01,-1.129936922391780035e-01,-1.129936922391780035e-01,-1.129936922391780035e-01,-1.110319961933589478e-01,-1.067162648925570057e-01,-1.024005335917550635e-01,-9.788863268637122694e-02,-9.357290138556928483e-02,-8.925717008476735659e-02,-8.494143878396541447e-02,-8.042953787858156400e-02,-7.611380657777963576e-02,-7.179807527697769365e-02,-6.748234397617575153e-02,-6.297044307079191494e-02,-5.865471176998997976e-02,-5.433898046918804459e-02,-4.982707956380419412e-02,-4.551134826300225200e-02,-4.119561696220032376e-02,-3.687988566139839552e-02,-3.236798475601455893e-02,-2.805225345521260294e-02,-2.373652215441066082e-02,-1.942079085360873258e-02,-1.490888994822488212e-02,-1.059315864742295388e-02,-6.277427346621025639e-03,-1.961696045819083523e-03,-1.387778780781445676e-17,-3.177947594226882000e-02,-1.129936922391780035e-01,-1.129936922391780035e-01,-1.129936922391780035e-01,-1.129936922391780035e-01,-1.129936922391780035e-01,-1.129936922391780035e-01,-1.129936922391780035e-01,-1.129936922391780035e-01,-1.129936922391780035e-01
-1.129936922391780035e-01,-1.129936922391780035e-01,-1.129936922391780035e-01,-1.129936922391780035e-01,-1.129936922391780035e-01,-1.129936922391780035e-01,-1.129936922391780035e-01,-1.129936922391780035e-01,-1.129936922391780035e-01,-1.108358265887770394e-01,-1.065200952879750973e-01,-1.022043639871731552e-01,-9.788863268637122694e-02,-9.337673178098737647e-02,-8.906100048018544824e-02,-8.474526917938350612e-02,-8.042953787858156400e-02,-7.591763697319772741e-02,-7.160190567239578530e-02,-6.728617437159384318e-02,-6.297044307079191494e-02,-5.845854216540807141e-02,-5.414281086460613623e-02,-4.982707956380419412e-02,-4.531517865842034365e-02,-4.099944735761841541e-02,-3.668371605681648717e-02,-3.236798475601454506e-02,-2.785608385063070846e-02,-2.354035254982876635e-02,-1.922462124902681035e-02,-1.490888994822488212e-02,-1.039698904284104553e-02,-6.081257742039103409e-03,-1.765526441237161293e-03,0.000000000000000000e+00,-1.387778780781445676e-17,-1.387778780781445676e-17,-3.531052882474312871e-02,-1.129936922391780035e-01,-1.129936922391780035e-01,-1.129936922391780035e-01,-1.129936922391780035e-01,-1.129936922391780035e-01,-1.129936922391780035e-01,-1.129936922391780035e-01,-1.129936922391780035e-01
-1.129936922391780035e-01,-1.129936922391780035e-01,-1.129936922391780035e-01,-1.129936922391780035e-01,-1.129936922391780035e-01,-1.129936922391780035e-01,-1.129936922391780035e-01,-1.129936922391780035e-01,-1.108358265887770394e-01,-1.063239256833931889e-01,-1.020081943825912607e-01,-9.769246308178931859e-02,-9.337673178098737647e-02,-8.886483087560353988e-02,-8.454909957480159777e-02,-8.023336827399965565e-02,-7.591763697319772741e-02,-7.140573606781387694e-02,-6.709000476701193483e-02,-6.277427346621000659e-02,-5.845854216540807835e-02,-5.394664126002423482e-02,-4.963090995922228577e-02,-4.531517865842034365e-02,-4.080327775303650706e-02,-3.648754645223457882e-02,-3.217181515143263670e-02,-2.785608385063069459e-02,-2.334418294524685800e-02,-1.902845164444491588e-02,-1.471272034364297376e-02,-1.039698904284105940e-02,-5.885088137457222812e-03,-1.569356836655266818e-03,-1.387778780781445676e-17,-1.387778780781445676e-17,-1.387778780781445676e-17,-1.387778780781445676e-17,-1.387778780781445676e-17,-3.531052882474314258e-02,-1.129936922391780035e-01,-1.129936922391780035e-01,-1.129936922391780035e-01,-1.129936922391780035e-01,-1.129936922391780035e-01,-1.129936922391780035e-01,-1.129936922391780035e-01
-1.129936922391780035e-01,-1.129936922391780035e-01,-1.129936922391780035e-01,-1.129936922391780035e-01,-1.129936922391780035e-01,-1.129936922391780035e-01,-1.129936922391780035e-01,-1.106396569841951311e-01,-1.063239256833931889e-01,-1.018120247780093524e-01,-9.749629347720741024e-02,-9.318056217640546812e-02,-8.886483087560353988e-02,-8.435292997021970329e-02,-8.003719866941776118e-02,-7.572146736861581906e-02,-7.140573606781387694e-02,-6.689383516243004035e-02,-6.257810386162809824e-02,-5.826237256082617000e-02,-5.394664126002422788e-02,-4.943474035464039129e-02,-4.511900905383843530e-02,-4.080327775303650706e-02,-3.629137684765267047e-02,-3.197564554685074223e-02,-2.765991424604880011e-02,-2.334418294524685800e-02,-1.883228203986299365e-02,-1.451655073906106541e-02,-1.020081943825913717e-02,-5.885088137457222812e-03,-1.373187232073372344e-03,-1.387778780781445676e-17,-1.387778780781445676e-17,-1.387778780781445676e-17,-1.387778780781445676e-17,-1.387778780781445676e-17,-1.387778780781445676e-17,-1.387778780781445676e-17,-3.884158170721745129e-02,-1.129936922391780035e-01,-1.129936922391780035e-01,-1.129936922391780035e-01,-1.129936922391780035e-01,-1.129936922391780035e-01,-1.129936922391780035e-01
-1.129936922391780035e-01,-1.129936922391780035e-01,-1.129936922391780035e-01,-1.129936922391780035e-01,-1.129936922391780035e-01,-1.129936922391780035e-01,-1.104434873796132227e-01,-1.061277560788112806e-01,-1.018120247780093524e-01,-9.730012387262550189e-02,-9.298439257182355977e-02,-8.866866127102163153e-02,-8.435292997021970329e-02,-7.984102906483585282e-02,-7.552529776403391071e-02,-7.120956646323198247e-02,-6.689383516243004035e-02,-6.238193425704619682e-02,-5.806620295624426165e-02,-5.375047165544232647e-02,-4.943474035464039129e-02,-4.492283944925652694e-02,-4.060710814845459871e-02,-3.629137684765267047e-02,-3.197564554685074223e-02,-2.746374464146687788e-02,-2.314801334066494964e-02,-1.883228203986300753e-02,-1.432038113447917094e-02,-1.000464983367722882e-02,-5.688918532875300582e-03,-1.373187232073372344e-03,-1.387778780781445676e-17,-1.387778780781445676e-17,-1.387778780781445676e-17,-1.387778780781445676e-17,-1.387778780781445676e-17,-1.387778780781445676e-17,-1.387778780781445676e-17,-1.387778780781445676e-17,-1.387778780781445676e-17,-4.237263458969176000e-02,-1.129936922391780035e-01,-1.129936922391780035e-01,-1.129936922391780035e-01,-1.129936922391780035e-01,-1.129936922391780035e-01
-1.129936922391780035e-01,-1.129936922391780035e-01,-1.129936922391780035e-01,-1.129936922391780035e-01,-1.129936922391780035e-01,-1.104434873796132227e-01,-1.059315864742293722e-01,-1.016158551734274440e-01,-9.730012387262550189e-02,-9.278822296724166530e-02,-8.847249166643972318e-02,-8.415676036563778106e-02,-7.984102906483585282e-02,-7.532912815945200236e-02,-7.101339685865007412e-02,-6.669766555784813200e-02,-6.238193425704620376e-02,-5.787003335166235329e-02,-5.355430205086042506e-02,-4.923857075005846906e-02,-4.492283944925654082e-02,-4.041093854387269035e-02,-3.609520724307076212e-02,-3.177947594226883388e-02,-2.746374464146687788e-02,-2.295184373608304129e-02,-1.863611243528109918e-02,-1.432038113447915706e-02,-9.808480229095320468e-03,-5.492748928293406108e-03,-1.177017627491463991e-03,-1.387778780781445676e-17,-1.387778780781445676e-17,-1.387778780781445676e-17,-2.775557561562891351e-17,0.000000000000000000e+00,-1.387778780781445676e-17,-1.387778780781445676e-17,-1.387778780781445676e-17,0.000000000000000000e+00,-1.387778780781445676e-17,-3.310362077319675689e-03,-4.747610945889291223e-02,-1.129936922391780035e-01,-1.129936922391780035e-01,-1.129936922391780035e-01,-1.129936922391780035e-01
-1.129936922391780035e-01,-1.129936922391780035e-01,-1.129936922391780035e-01,-1.129936922391780035e-01,-1.102473177750313144e-01,-1.059315864742293722e-01,-1.014196855688455357e-01,-9.710395426804360741e-02,-9.278822296724166530e-02,-8.827632206185781483e-02,-8.396059076105588659e-02,-7.964485946025395835e-02,-7.532912815945200236e-02,-7.081722725406816576e-02,-6.650149595326622365e-02,-6.218576465246429541e-02,-5.787003335166236023e-02,-5.335813244627851670e-02,-4.904240114547657459e-02,-4.472666984467461859e-02,-4.041093854387269035e-02,-3.589903763848885376e-02,-3.158330633768692552e-02,-2.726757503688496953e-02,-2.295184373608304129e-02,-1.843994283069919082e-02,-1.412421152989726258e-02,-9.808480229095334346e-03,-5.296579323711497755e-03,-9.808480229095417613e-04,-1.387778780781445676e-17,-1.387778780781445676e-17,-1.387778780781445676e-17,-1.387778780781445676e-17,-2.775557561562891351e-17,-1.387778780781445676e-17,-1.387778780781445676e-17,-1.387778780781445676e-17,-2.775557561562891351e-17,-1.387778780781445676e-17,-3.531052882474322585e-03,-8.386250595876484915e-03,-1.324144830927868888e-02,-5.664857104813282584e-02,-1.129936922391780035e-01,-1.129936922391780035e-01,-1.129936922391780035e-01
-1.129936922391780035e-01,-1.129936922391780035e-01,-1.129936922391780035e-01,-1.100511481704494060e-01,-1.057354168696474778e-01,-1.014196855688455357e-01,-9.690778466346169906e-02,-9.259205336265975694e-02,-8.827632206185781483e-02,-8.376442115647397824e-02,-7.944868985567203612e-02,-7.513295855487009400e-02,-7.081722725406816576e-02,-6.630532634868432917e-02,-6.198959504788238012e-02,-5.767386374708045188e-02,-5.335813244627850976e-02,-4.884623154089465236e-02,-4.453050024009271024e-02,-4.021476893929078200e-02,-3.589903763848885376e-02,-3.138713673310501717e-02,-2.707140543230306118e-02,-2.275567413150113294e-02,-1.843994283069919082e-02,-1.392804192531534035e-02,-9.612310624513425994e-03,-5.296579323711483878e-03,-7.846784183276334090e-04,-1.387778780781445676e-17,-1.387778780781445676e-17,-2.775557561562891351e-17,-1.387778780781445676e-17,-1.387778780781445676e-17,-1.387778780781445676e-17,-1.387778780781445676e-17,-1.387778780781445676e-17,-1.387778780781445676e-17,-2.775557561562891351e-17,-3.531052882474322585e-03,-8.606941401031131811e-03,-1.346213911443333577e-02,-1.831733682783552586e-02,-2.317253454123770207e-02,-6.532447832577478741e-02,-1.129936922391780035e-01,-1.129936922391780035e-01
-1.129936922391780035e-01,-1.129936922391780035e-01,-1.098549785658674977e-01,-1.055392472650655694e-01,-1.012235159642636273e-01,-9.690778466346169906e-02,-9.239588375807784859e-02,-8.808015245727590647e-02,-8.376442115647397824e-02,-7.944868985567203612e-02,-7.493678895028818565e-02,-7.062105764948625741e-02,-6.630532634868431530e-02,-6.179342544330047871e-02,-5.747769414249854353e-02,-5.316196284169660835e-02,-4.884623154089466623e-02,-4.433433063551080189e-02,-4.001859933470887365e-02,-3.570286803390694541e-02,-3.138713673310501717e-02,-2.687523582772116670e-02,-2.255950452691922459e-02,-1.824377322611728247e-02,-1.392804192531535423e-02,-9.416141019931517642e-03,-5.100409719129575525e-03,-7.846784183276472868e-04,-1.387778780781445676e-17,-1.387778780781445676e-17,-1.387778780781445676e-17,-1.387778780781445676e-17,-1.387778780781445676e-17,-2.775557561562891351e-17,-1.387778780781445676e-17,-1.387778780781445676e-17,-1.387778780781445676e-17,-1.387778780781445676e-17,-3.751743687628955604e-03,-8.606941401031145689e-03,-1.368282991958798267e-02,-1.853802763299015888e-02,-2.339322534639234896e-02,-2.824842305979451129e-02,-3.332431157835132052e-02,-7.324865754835874210e-02,-1.129936922391780035e-01
-1.129936922391780035e-01,-1.098549785658674977e-01,-1.053430776604836611e-01,-1.010273463596817189e-01,-9.671161505887979071e-02,-9.239588375807784859e-02,-8.788398285269399812e-02,-8.356825155189206988e-02,-7.925252025109014165e-02,-7.493678895028818565e-02,-7.042488804490434906e-02,-6.610915674410240694e-02,-6.179342544330047871e-02,-5.728152453791664211e-02,-5.296579323711470000e-02,-4.865006193631275788e-02,-4.433433063551081577e-02,-3.982242973012697917e-02,-3.550669842932505094e-02,-3.119096712852310882e-02,-2.687523582772115283e-02,-2.236333492233731624e-02,-1.804760362153537412e-02,-1.373187232073344588e-02,-9.416141019931517642e-03,-4.904240114547681051e-03,-5.885088137457389346e-04,-1.387778780781445676e-17,-1.387778780781445676e-17,-1.387778780781445676e-17,-1.387778780781445676e-17,-1.387778780781445676e-17,-2.775557561562891351e-17,-1.387778780781445676e-17,-1.387778780781445676e-17,-1.387778780781445676e-17,-1.387778780781445676e-17,-3.972434492783602500e-03,-8.827632206185792585e-03,-1.368282991958798267e-02,-1.875871843814479190e-02,-2.361391615154696810e-02,-2.846911386494915819e-02,-3.332431157835132052e-02,-3.840020009690815750e-02,-4.325539781031034758e-02,-7.852454710908696178e-02
-1.096588089612856032e-01,-1.053430776604836611e-01,-1.008311767550998106e-01,-9.651544545429788236e-02,-9.219971415349594024e-02,-8.788398285269399812e-02,-8.337208194731016153e-02,-7.905635064650823329e-02,-7.474061934570627730e-02,-7.042488804490434906e-02,-6.591298713952051247e-02,-6.159725583871857035e-02,-5.728152453791663518e-02,-5.296579323711470000e-02,-4.845389233173084953e-02,-4.413816103092889354e-02,-3.982242973012696530e-02,-3.531052882474314258e-02,-3.099479752394120047e-02,-2.667906622313925835e-02,-2.236333492233731624e-02,-1.785143401695347964e-02,-1.353570271615155141e-02,-9.219971415349609289e-03,-4.904240114547681051e-03,-3.923392091638305823e-04,-1.387778780781445676e-17,0.000000000000000000e+00,-1.387778780781445676e-17,-1.387778780781445676e-17,-1.387778780781445676e-17,-1.387778780781445676e-17,-1.387778780781445676e-17,-1.387778780781445676e-17,-1.387778780781445676e-17,-1.387778780781445676e-17,-4.193125297938263274e-03,-9.048323011340425603e-03,-1.390352072474261569e-02,-1.875871843814479190e-02,-2.383460695670162888e-02,-2.868980467010380508e-02,-3.354500238350598129e-02,-3.840020009690815750e-02,-4.347608861546498060e-02,-4.833128632886715681e-02,-5.318648404226934689e-02
-1.051469080559017527e-01,-1.008311767550998106e-01,-9.631927584971597400e-02,-9.200354454891404576e-02,-8.768781324811208977e-02,-8.337208194731016153e-02,-7.886018104192632494e-02,-7.454444974112439670e-02,-7.022871844032244071e-02,-6.591298713952051247e-02,-6.140108623413666894e-02,-5.708535493333473376e-02,-5.276962363253279165e-02,-4.845389233173084953e-02,-4.394199142634699906e-02,-3.962626012554507082e-02,-3.531052882474314258e-02,-3.079862791935930599e-02,-2.648289661855735000e-02,-2.216716531775540788e-02,-1.785143401695347964e-02,-1.333953311156964305e-02,-9.023801810767714815e-03,-4.708070509965786576e-03,-3.923392091638167045e-04,-1.387778780781445676e-17,-1.387778780781445676e-17,-2.775557561562891351e-17,-1.387778780781445676e-17,-1.387778780781445676e-17,-1.387778780781445676e-17,-1.387778780781445676e-17,0.000000000000000000e+00,-1.387778780781445676e-17,-1.387778780781445676e-17,-4.193125297938263274e-03,-9.269013816495086378e-03,-1.412421152989726258e-02,-1.897940924329945267e-02,-2.383460695670162888e-02,-2.891049547525843810e-02,-3.376569318866061431e-02,-3.862089090206279052e-02,-4.347608861546498060e-02,-4.855197713402181758e-02,-5.340717484742399379e-02,-5.826237256082616306e-02
-1.006350071505179161e-01,-9.631927584971597400e-02,-9.180737494433213741e-02,-8.749164364353019530e-02,-8.317591234272825318e-02,-7.886018104192632494e-02,-7.434828013654247447e-02,-7.003254883574053236e-02,-6.571681753493860412e-02,-6.140108623413666894e-02,-5.688918532875282541e-02,-5.257345402795089023e-02,-4.825772272714894118e-02,-4.394199142634699906e-02,-3.943009052096316247e-02,-3.511435922016123423e-02,-3.079862791935929212e-02,-2.628672701397544165e-02,-2.197099571317349953e-02,-1.765526441237157129e-02,-1.333953311156962918e-02,-8.827632206185792585e-03,-4.511900905383864346e-03,-1.961696045819222300e-04,-1.387778780781445676e-17,-1.387778780781445676e-17,-1.387778780781445676e-17,-1.387778780781445676e-17,-2.775557561562891351e-17,-1.387778780781445676e-17,-1.387778780781445676e-17,-1.387778780781445676e-17,-1.387778780781445676e-17,0.000000000000000000e+00,-4.413816103092896292e-03,-9.269013816495072500e-03,-1.434490233505190948e-02,-1.920010004845408569e-02,-2.405529776185626190e-02,-2.891049547525845198e-02,-3.398638399381526121e-02,-3.884158170721743741e-02,-4.369677942061962750e-02,-4.855197713402181758e-02,-5.362786565257862681e-02,-5.848306336598080302e-02,-6.333826107938299310e-02
-9.612310624513406565e-02,-9.180737494433213741e-02,-8.729547403894828694e-02,-8.297974273814634483e-02,-7.866401143734441659e-02,-7.434828013654248835e-02,-6.983637923115862400e-02,-6.552064793035669577e-02,-6.120491662955475365e-02,-5.688918532875282541e-02,-5.237728442336898188e-02,-4.806155312256703283e-02,-4.374582182176509071e-02,-3.943009052096317635e-02,-3.491818961557932588e-02,-3.060245831477739764e-02,-2.628672701397545552e-02,-2.177482610859160506e-02,-1.745909480778966294e-02,-1.314336350698773470e-02,-8.827632206185792585e-03,-4.315731300801969872e-03,-1.387778780781445676e-17,0.000000000000000000e+00,-1.387778780781445676e-17,-1.387778780781445676e-17,-1.387778780781445676e-17,-1.387778780781445676e-17,-1.387778780781445676e-17,-1.387778780781445676e-17,-1.387778780781445676e-17,-1.387778780781445676e-17,-1.387778780781445676e-17,-4.634506908247543189e-03,-9.489704621649719396e-03,-1.434490233505190948e-02,-1.942079085360873258e-02,-2.427598856701092267e-02,-2.913118628041309888e-02,-3.398638399381527508e-02,-3.906227251237208431e-02,-4.391747022577427439e-02,-4.877266793917646448e-02,-5.362786565257862681e-02,-5.870375417113544991e-02,-6.355895188453764000e-02,-6.841414959793981621e-02
-9.161120533975022906e-02,-8.729547403894828694e-02,-8.278357313356443647e-02,-7.846784183276250824e-02,-7.415211053196058000e-02,-6.983637923115862400e-02,-6.532447832577478741e-02,-6.100874702497285224e-02,-5.669301572417091706e-02,-5.237728442336898188e-02,-4.786538351798513835e-02,-4.354965221718319623e-02,-3.923392091638126800e-02,-3.491818961557931200e-02,-3.040628871019548929e-02,-2.609055740939354717e-02,-2.177482610859159118e-02,-1.726292520320774071e-02,-1.294719390240582635e-02,-8.631462601603884233e-03,-4.315731300801969872e-03,-1.387778780781445676e-17,-1.387778780781445676e-17,0.000000000000000000e+00,-2.775557561562891351e-17,-1.387778780781445676e-17,-1.387778780781445676e-17,-2.775557561562891351e-17,-1.387778780781445676e-17,-1.387778780781445676e-17,-1.387778780781445676e-17,-1.387778780781445676e-17,-4.634506908247557067e-03,-9.710395426804380170e-03,-1.456559314020655638e-02,-1.942079085360873258e-02,-2.449667937216555569e-02,-2.935187708556773190e-02,-3.420707479896990810e-02,-3.906227251237208431e-02,-4.413816103092892129e-02,-4.899335874433109750e-02,-5.384855645773328064e-02,-5.870375417113544991e-02,-6.377964268969227302e-02,-6.863484040309444922e-02,-7.349003811649662543e-02
-8.709930443436637859e-02,-8.278357313356443647e-02,-7.827167222818059988e-02,-7.395594092737867165e-02,-6.964020962657672953e-02,-6.532447832577478741e-02,-6.081257742039095082e-02,-5.649684611958901564e-02,-5.218111481878707353e-02,-4.786538351798512447e-02,-4.335348261260127400e-02,-3.903775131179935964e-02,-3.472202001099741753e-02,-3.040628871019548929e-02,-2.589438780481163882e-02,-2.157865650400971058e-02,-1.726292520320775459e-02,-1.294719390240582635e-02,-8.435292997022003636e-03,-4.119561696220047642e-03,-1.387778780781445676e-17,-2.775557561562891351e-17,-1.387778780781445676e-17,-1.387778780781445676e-17,-1.387778780781445676e-17,-1.387778780781445676e-17,0.000000000000000000e+00,-1.387778780781445676e-17,-1.387778780781445676e-17,-2.775557561562891351e-17,-1.387778780781445676e-17,-4.855197713402190085e-03,-9.710395426804366292e-03,-1.478628394536120327e-02,-1.964148165876337948e-02,-2.449667937216555569e-02,-2.935187708556773190e-02,-3.442776560412455500e-02,-3.928296331752673121e-02,-4.413816103092890741e-02,-4.921404954948574439e-02,-5.406924726288792060e-02,-5.892444497629009681e-02,-6.377964268969227302e-02,-6.885553120824911000e-02,-7.371072892165128621e-02,-7.856592663505346241e-02
-8.258740352898252812e-02,-7.827167222818059988e-02,-7.375977132279676329e-02,-6.944404002199482118e-02,-6.512830872119287906e-02,-6.081257742039094388e-02,-5.630067651500710729e-02,-5.198494521420516518e-02,-4.766921391340321612e-02,-4.335348261260127400e-02,-3.884158170721745129e-02,-3.452585040641552305e-02,-3.021011910561356706e-02,-2.589438780481163882e-02,-2.138248689942778835e-02,-1.706675559862584624e-02,-1.275102429782391800e-02,-8.435292997021989758e-03,-3.923392091638125412e-03,0.000000000000000000e+00,-1.387778780781445676e-17,-1.387778780781445676e-17,-1.387778780781445676e-17,-1.387778780781445676e-17,-1.387778780781445676e-17,-1.387778780781445676e-17,-1.387778780781445676e-17,-1.387778780781445676e-17,-1.387778780781445676e-17,-2.206908051546468963e-04,-5.075888518556836981e-03,-9.931086231959027066e-03,-1.478628394536118940e-02,-1.986217246391802638e-02,-2.471737017732020258e-02,-2.957256789072237879e-02,-3.442776560412455500e-02,-3.950365412268137810e-02,-4.435885183608355431e-02,-4.921404954948574439e-02,-5.428993806804256056e-02,-5.914513578144474371e-02,-6.400033349484691991e-02,-6.885553120824911000e-02,-7.393141972680591922e-02,-7.878661744020810931e-02,-8.364181515361028552e-02
-7.807550262359869153e-02,-7.375977132279676329e-02,-6.924787041741291282e-02,-6.493213911661098459e-02,-6.061640781580904247e-02,-5.630067651500710729e-02,-5.178877560962326376e-02,-4.747304430882130777e-02,-4.315731300801937953e-02,-3.884158170721745129e-02,-3.432968080183361470e-02,-3.001394950103167258e-02,-2.569821820022973047e-02,-2.138248689942778835e-02,-1.687058599404395176e-02,-1.255485469324200964e-02,-8.239123392440081406e-03,-3.923392091638139290e-03,-2.775557561562891351e-17,-1.387778780781445676e-17,-1.387778780781445676e-17,-1.387778780781445676e-17,-1.387778780781445676e-17,-1.387778780781445676e-17,-1.387778780781445676e-17,-1.387778780781445676e-17,-1.387778780781445676e-17,-1.387778780781445676e-17,-2.206908051546607741e-04,-5.296579323711483878e-03,-1.015177703711366008e-02,-1.500697475051583629e-02,-1.986217246391804025e-02,-2.493806098247484948e-02,-2.979325869587702569e-02,-3.464845640927918802e-02,-3.950365412268137810e-02,-4.457954264123821508e-02,-4.943474035464039129e-02,-5.428993806804256750e-02,-5.936582658659938366e-02,-6.422102430000156681e-02,-6.907622201340374302e-02,-7.393141972680591922e-02,-7.900730824536274233e-02,-8.386250595876493241e-02,-8.871770367216710862e-02
-7.356360171821485494e-02,-6.924787041741291282e-02,-6.473596951202906236e-02,-6.042023821122713412e-02,-5.610450691042519894e-02,-5.178877560962326376e-02,-4.727687470423941329e-02,-4.296114340343747118e-02,-3.864541210263554294e-02,-3.432968080183360082e-02,-2.981777989644976423e-02,-2.550204859564782212e-02,-2.118631729484588000e-02,-1.687058599404393788e-02,-1.235868508866011517e-02,-8.042953787858173054e-03,-3.727222487056244815e-03,-1.387778780781445676e-17,-1.387778780781445676e-17,-1.387778780781445676e-17,-2.775557561562891351e-17,-1.387778780781445676e-17,-1.387778780781445676e-17,-1.387778780781445676e-17,-1.387778780781445676e-17,-1.387778780781445676e-17,-1.387778780781445676e-17,-4.413816103092937926e-04,-5.296579323711483878e-03,-1.037246784226829310e-02,-1.522766555567049707e-02,-2.008286326907267327e-02,-2.493806098247484948e-02,-3.001394950103167258e-02,-3.486914721443383491e-02,-3.972434492783602500e-02,-4.457954264123820121e-02,-4.965543115979503819e-02,-5.451062887319720746e-02,-5.936582658659938366e-02,-6.444171510515621371e-02,-6.929691281855838991e-02,-7.415211053196056612e-02,-7.900730824536275620e-02,-8.408319676391956543e-02,-8.893839447732175552e-02,-9.379359219072393172e-02
-6.905170081283100447e-02,-6.473596951202906236e-02,-6.042023821122713412e-02,-5.590833730584329059e-02,-5.159260600504135541e-02,-4.727687470423941329e-02,-4.276497379885556283e-02,-3.844924249805363459e-02,-3.413351119725170635e-02,-2.981777989644976423e-02,-2.530587899106591376e-02,-2.099014769026397165e-02,-1.667441638946202953e-02,-1.235868508866010129e-02,-7.846784183276264701e-03,-3.531052882474336463e-03,-1.387778780781445676e-17,-1.387778780781445676e-17,-1.387778780781445676e-17,-1.387778780781445676e-17,-1.387778780781445676e-17,-1.387778780781445676e-17,-1.387778780781445676e-17,-1.387778780781445676e-17,-1.387778780781445676e-17,-1.387778780781445676e-17,-6.620724154639545667e-04,-5.517270128866116896e-03,-1.037246784226829310e-02,-1.544835636082514396e-02,-2.030355407422732017e-02,-2.515875178762949638e-02,-3.001394950103167258e-02,-3.508983801958849569e-02,-3.994503573299067190e-02,-4.480023344639284810e-02,-4.965543115979503819e-02,-5.473131967835185435e-02,-5.958651739175402362e-02,-6.444171510515619983e-02,-6.929691281855838991e-02,-7.437280133711521302e-02,-7.922799905051738922e-02,-8.408319676391956543e-02,-8.915908528247640241e-02,-9.401428299587857862e-02,-9.886948070928075483e-02
-6.453979990744716788e-02,-6.022406860664522577e-02,-5.590833730584329753e-02,-5.139643640045945400e-02,-4.708070509965750494e-02,-4.276497379885556283e-02,-3.825307289347172623e-02,-3.393734159266979800e-02,-2.962161029186785588e-02,-2.530587899106591376e-02,-2.079397808568206329e-02,-1.647824678488013506e-02,-1.216251548407820682e-02,-7.846784183276264701e-03,-3.334883277892428111e-03,-1.387778780781445676e-17,-1.387778780781445676e-17,-1.387778780781445676e-17,-1.387778780781445676e-17,-1.387778780781445676e-17,-2.775557561562891351e-17,0.000000000000000000e+00,-1.387778780781445676e-17,-2.775557561562891351e-17,-1.387778780781445676e-17,-8.827632206186014630e-04,-5.737960934020763792e-03,-1.059315864742294000e-02,-1.544835636082513008e-02,-2.052424487938195319e-02,-2.537944259278412940e-02,-3.023464030618630560e-02,-3.508983801958848181e-02,-4.016572653814531879e-02,-4.502092425154748112e-02,-4.987612196494968508e-02,-5.473131967835186129e-02,-5.980720819690867746e-02,-6.466240591031086060e-02,-6.951760362371303681e-02,-7.437280133711521302e-02,-7.944868985567203612e-02,-8.430388756907421233e-02,-8.915908528247640241e-02,-9.423497380103322552e-02,-9.909017151443540172e-02,-1.039453692278375779e-01
-6.002789900206332435e-02,-5.571216770126138917e-02,-5.139643640045944706e-02,-4.688453549507559659e-02,-4.256880419427365447e-02,-3.825307289347174011e-02,-3.374117198808788964e-02,-2.942544068728594753e-02,-2.510970938648400541e-02,-2.079397808568206329e-02,-1.628207718029822670e-02,-1.196634587949629847e-02,-7.650614578694356349e-03,-3.334883277892428111e-03,-1.387778780781445676e-17,-1.387778780781445676e-17,-1.387778780781445676e-17,-1.387778780781445676e-17,-1.387778780781445676e-17,-1.387778780781445676e-17,-1.387778780781445676e-17,-1.387778780781445676e-17,-1.387778780781445676e-17,-1.387778780781445676e-17,-8.827632206185875852e-04,-5.737960934020749915e-03,-1.081384945257758690e-02,-1.566904716597976310e-02,-2.052424487938195319e-02,-2.560013339793877629e-02,-3.045533111134095250e-02,-3.531052882474312871e-02,-4.016572653814531879e-02,-4.524161505670214189e-02,-5.009681277010433198e-02,-5.495201048350649431e-02,-5.980720819690867746e-02,-6.488309671546549362e-02,-6.973829442886766983e-02,-7.459349214226985991e-02,-7.944868985567203612e-02,-8.452457837422885922e-02,-8.937977608763103543e-02,-9.423497380103321164e-02,-9.909017151443540172e-02,-1.041660600329922248e-01,-1.090212577463944010e-01
-5.551599809667948082e-02,-5.120026679587753871e-02,-4.688453549507559659e-02,-4.237263458969176000e-02,-3.805690328888983176e-02,-3.374117198808788964e-02,-2.922927108270403918e-02,-2.491353978190209706e-02,-2.059780848110016882e-02,-1.628207718029822670e-02,-1.177017627491439011e-02,-7.454444974112461875e-03,-3.138713673310519758e-03,-1.387778780781445676e-17,-1.387778780781445676e-17,-1.387778780781445676e-17,-1.387778780781445676e-17,-1.387778780781445676e-17,-1.387778780781445676e-17,-1.387778780781445676e-17,0.000000000000000000e+00,-1.387778780781445676e-17,-2.775557561562891351e-17,-1.103454025773234481e-03,-5.958651739175410689e-03,-1.081384945257758690e-02,-1.588973797113443776e-02,-2.074493568453661396e-02,-2.560013339793877629e-02,-3.067602191649559940e-02,-3.553121962989776172e-02,-4.038641734329996569e-02,-4.524161505670214189e-02,-5.031750357525897888e-02,-5.517270128866114121e-02,-6.002789900206331741e-02,-6.488309671546549362e-02,-6.995898523402233060e-02,-7.481418294742450681e-02,-7.966938066082668302e-02,-8.452457837422885922e-02,-8.960046689278568233e-02,-9.445566460618785853e-02,-9.931086231959004862e-02,-1.041660600329922248e-01,-1.092419485515490479e-01,-1.129936922391780035e-01
-5.100409719129563729e-02,-4.668836589049370212e-02,-4.237263458969176000e-02,-3.786073368430790953e-02,-3.354500238350598129e-02,-1.381667574891131678e-01,-1.336548565837293312e-01,-1.293391252829273752e-01,-1.250233939821254192e-01,-1.207076626813235187e-01,-7.258275369530553522e-03,-2.942544068728611406e-03,-1.387778780781445676e-17,-1.387778780781445676e-17,-1.387778780781445676e-17,-1.387778780781445676e-17,-1.387778780781445676e-17,-1.387778780781445676e-17,-1.387778780781445676e-17,-1.387778780781445676e-17,0.000000000000000000e+00,-1.387778780781445676e-17,-1.324144830927895256e-03,-6.179342544330057585e-03,-1.103454025773224767e-02,-1.588973797113442388e-02,-2.096562648969124698e-02,-2.582082420309342319e-02,-3.067602191649559940e-02,-3.575191043505240862e-02,-4.060710814845459871e-02,-4.546230586185678879e-02,-5.031750357525896500e-02,-5.539339209381578810e-02,-6.024858980721795737e-02,-6.510378752062014052e-02,-6.995898523402233060e-02,-7.503487375257913983e-02,-7.989007146598132991e-02,-8.474526917938350612e-02,-8.960046689278568233e-02,-9.467635541134250543e-02,-9.953155312474469552e-02,-1.043867508381468717e-01,-1.092419485515490479e-01,-1.129936922391780035e-01,-1.129936922391780035e-01
-4.649219628591179376e-02,-4.217646498510983777e-02,-3.786073368430790953e-02,-3.334883277892407294e-02,-2.903310147812213082e-02,-1.336548565837293034e-01,-1.293391252829273474e-01,-1.248272243775435247e-01,-1.205114930767415965e-01,-1.161957617759396683e-01,-2.746374464146703054e-03,-1.387778780781445676e-17,-1.387778780781445676e-17,-1.387778780781445676e-17,-2.775557561562891351e-17,-1.387778780781445676e-17,-1.387778780781445676e-17,-1.387778780781445676e-17,-1.387778780781445676e-17,-1.387778780781445676e-17,-1.387778780781445676e-17,-1.324144830927895256e-03,-6.400033349484690604e-03,-1.125523106288688069e-02,-1.611042877628905690e-02,-2.096562648969124698e-02,-2.604151500824807008e-02,-3.089671272165024629e-02,-3.575191043505242250e-02,-4.082779895360925948e-02,-4.568299666701143569e-02,-5.053819438041360496e-02,-5.539339209381578810e-02,-6.046928061237261121e-02,-6.532447832577478741e-02,-7.017967603917696362e-02,-7.503487375257915371e-02,-8.011076227113597681e-02,-8.496595998453815302e-02,-8.982115769794032922e-02,-9.467635541134250543e-02,-9.975224392989932853e-02,-1.046074416433015186e-01,-1.094626393567036948e-01,-1.129936922391780035e-01,-1.129936922391780035e-01,-1.129936922391780035e-01
-4.198029538052794329e-02,-3.766456407972601506e-02,-3.334883277892407294e-02,-2.883693187354023635e-02,-2.452120057273829423e-02,-1.291429556783454669e-01,-1.248272243775435247e-01,-1.203153234721596881e-01,-1.159995921713577738e-01,-1.116838608705558178e-01,-1.387778780781445676e-17,-1.387778780781445676e-17,-1.387778780781445676e-17,-1.387778780781445676e-17,-1.387778780781445676e-17,-1.387778780781445676e-17,-1.387778780781445676e-17,-1.387778780781445676e-17,-1.387778780781445676e-17,-1.387778780781445676e-17,-1.544835636082528274e-03,-6.400033349484704481e-03,-1.147592186804151371e-02,-1.633111958144371767e-02,-2.118631729484589388e-02,-2.604151500824805621e-02,-3.111740352680487931e-02,-3.597260124020705552e-02,-4.082779895360925948e-02,-4.590368747216608258e-02,-5.075888518556826573e-02,-5.561408289897043500e-02,-6.046928061237261121e-02,-6.554516913092943431e-02,-7.040036684433161052e-02,-7.525556455773380060e-02,-8.011076227113597681e-02,-8.518665078969279991e-02,-9.004184850309497612e-02,-9.489704621649715233e-02,-9.975224392989932853e-02,-1.048281324484561516e-01,-1.096833301618583417e-01,-1.129936922391780035e-01,-1.129936922391780035e-01,-1.129936922391780035e-01,-1.129936922391780035e-01
-3.746839447514410670e-02,-3.315266317434216459e-02,-2.883693187354022247e-02,-2.432503096815638588e-02,-2.000929966735444376e-02,-1.246310547729616164e-01,-1.203153234721596881e-01,-1.158034225667758654e-01,-1.114876912659739094e-01,-1.089374864064091286e-01,-1.387778780781445676e-17,-1.387778780781445676e-17,-1.387778780781445676e-17,0.000000000000000000e+00,-1.387778780781445676e-17,-1.387778780781445676e-17,-1.387778780781445676e-17,-1.387778780781445676e-17,-1.387778780781445676e-17,-1.765526441237175170e-03,-6.620724154639337500e-03,-1.147592186804152758e-02,-1.655181038659835069e-02,-2.140700810000052690e-02,-2.626220581340270310e-02,-3.111740352680489319e-02,-3.619329204536171629e-02,-4.104848975876389250e-02,-4.590368747216606871e-02,-5.075888518556825879e-02,-5.583477370412507496e-02,-6.068997141752725810e-02,-6.554516913092943431e-02,-7.062105764948625741e-02,-7.547625536288843362e-02,-8.033145307629060983e-02,-8.518665078969278603e-02,-9.026253930824962302e-02,-9.511773702165179922e-02,-9.997293473505397543e-02,-1.048281324484561516e-01,-1.099040209670129747e-01,-1.129936922391780035e-01,-1.129936922391780035e-01,-1.129936922391780035e-01,-1.129936922391780035e-01,-1.129936922391780035e-01
-3.295649356976025623e-02,-2.864076226895832800e-02,-2.432503096815638588e-02,-1.981313006277253541e-02,-1.549739876197060717e-02,-1.201191538675777798e-01,-1.158034225667758516e-01,-1.112915216613920150e-01,-1.089374864064091147e-01,-1.089374864064091286e-01,-2.775557561562891351e-17,-1.387778780781445676e-17,-1.387778780781445676e-17,-1.387778780781445676e-17,-1.387778780781445676e-17,0.000000000000000000e+00,-1.387778780781445676e-17,-1.387778780781445676e-17,-1.986217246391808189e-03,-6.841414959793998274e-03,-1.169661267319617448e-02,-1.655181038659836457e-02,-2.162769890515517379e-02,-2.648289661855736388e-02,-3.133809433195954008e-02,-3.619329204536170241e-02,-4.126918056391852552e-02,-4.612437827732071560e-02,-5.097957599072289875e-02,-5.583477370412508189e-02,-6.091066222268189806e-02,-6.576585993608408121e-02,-7.062105764948625741e-02,-7.569694616804308052e-02,-8.055214388144525672e-02,-8.540734159484744681e-02,-9.026253930824962302e-02,-9.533842782680644612e-02,-1.001936255402086223e-01,-1.050488232536107985e-01,-1.099040209670129747e-01,-1.129936922391780035e-01,-1.129936922391780035e-01,-1.129936922391780035e-01,-1.129936922391780035e-01,-1.129936922391780035e-01,-1.129936922391780035e-01
-2.844459266437641964e-02,-2.412886136357447753e-02,-1.981313006277253541e-02,-1.530122915738869882e-02,-1.098549785658675670e-02,-6.669766555784842343e-03,-2.354035254982900227e-03,-1.387778780781445676e-17,-1.387778780781445676e-17,-1.387778780781445676e-17,-1.387778780781445676e-17,-1.387778780781445676e-17,-1.387778780781445676e-17,-1.387778780781445676e-17,-1.387778780781445676e-17,-1.387778780781445676e-17,-1.387778780781445676e-17,-1.986217246391794311e-03,-7.062105764948631292e-03,-1.191730347835080750e-02,-1.677250119175301146e-02,-2.162769890515518767e-02,-2.670358742371199690e-02,-3.155878513711417310e-02,-3.641398285051636319e-02,-4.126918056391853940e-02,-4.634506908247536250e-02,-5.120026679587754564e-02,-5.605546450927971491e-02,-6.091066222268190500e-02,-6.598655074123872810e-02,-7.084174845464090431e-02,-7.569694616804308052e-02,-8.077283468659990362e-02,-8.562803240000207983e-02,-9.048323011340425603e-02,-9.533842782680644612e-02,-1.004143163453632692e-01,-1.052695140587654454e-01,-1.101247117721676216e-01,-1.129936922391780035e-01,-1.129936922391780035e-01,-1.129936922391780035e-01,-1.129936922391780035e-01,-1.129936922391780035e-01,-1.129936922391780035e-01,-1.129936922391780035e-01
-6.568003573407948936e-02,-1.961696045819062706e-02,-1.530122915738869882e-02,-1.078932825200486223e-02,-6.473596951202933991e-03,-2.157865650400991875e-03,-1.387778780781445676e-17,0.000000000000000000e+00,-1.387778780781445676e-17,-1.387778780781445676e-17,-1.387778780781445676e-17,-1.387778780781445676e-17,-2.775557561562891351e-17,-1.387778780781445676e-17,-1.387778780781445676e-17,-1.387778780781445676e-17,-2.206908051546455085e-03,-7.062105764948631292e-03,-1.213799428350545440e-02,-1.699319199690764448e-02,-2.184838971030982069e-02,-2.670358742371199690e-02,-3.177947594226880612e-02,-3.663467365567099621e-02,-4.148987136907318629e-02,-4.634506908247536250e-02,-5.142095760103219254e-02,-5.627615531443436875e-02,-6.113135302783654496e-02,-6.598655074123871422e-02,-7.106243925979555121e-02,-7.591763697319772741e-02,-8.077283468659990362e-02,-8.584872320515672672e-02,-9.070392091855890293e-02,-9.555911863196109302e-02,-1.004143163453632692e-01,-1.054902048639200923e-01,-1.103454025773222685e-01,-1.129936922391780035e-01,-1.129936922391780035e-01,-1.129936922391780035e-01,-1.129936922391780035e-01,-1.129936922391780035e-01,-1.129936922391780035e-01,-1.129936922391780035e-01,-1.129936922391780035e-01
-1.129936922391780035e-01,-6.099035612454329486e-02,-1.078932825200486223e-02,-6.277427346621025639e-03,-1.961696045819069645e-03,-1.387778780781445676e-17,-1.387778780781445676e-17,-1.387778780781445676e-17,-1.387778780781445676e-17,0.000000000000000000e+00,-1.387778780781445676e-17,-1.387778780781445676e-17,-1.387778780781445676e-17,-1.387778780781445676e-17,-1.387778780781445676e-17,-2.427598856701101981e-03,-7.282796570103264311e-03,-1.213799428350545440e-02,-1.721388280206229138e-02,-2.206908051546446758e-02,-2.692427822886665767e-02,-3.177947594226882000e-02,-3.685536446082564310e-02,-4.171056217422781931e-02,-4.656575988763000939e-02,-5.142095760103219254e-02,-5.649684611958900871e-02,-6.135204383299118491e-02,-6.620724154639337500e-02,-7.106243925979555121e-02,-7.613832777835236043e-02,-8.099352549175455052e-02,-8.584872320515672672e-02,-9.070392091855891681e-02,-9.577980943711572603e-02,-1.006350071505179161e-01,-1.054902048639200923e-01,-1.105660933824769154e-01,-1.129936922391780035e-01,-1.129936922391780035e-01,-1.129936922391780035e-01,-1.129936922391780035e-01,-1.129936922391780035e-01,-1.129936922391780035e-01,-1.129936922391780035e-01,-1.129936922391780035e-01,-1.129936922391780035e-01
-1.129936922391780035e-01,-1.129936922391780035e-01,-5.296579323711470000e-02,-1.765526441237161293e-03,-1.387778780781445676e-17,-1.387778780781445676e-17,-1.387778780781445676e-17,-1.387778780781445676e-17,-1.387778780781445676e-17,-1.387778780781445676e-17,-1.387778780781445676e-17,-1.387778780781445676e-17,-1.387778780781445676e-17,-1.387778780781445676e-17,-2.427598856701101981e-03,-7.503487375257911207e-03,-1.235868508866010129e-02,-1.721388280206229138e-02,-2.228977132061910060e-02,-2.714496903402129069e-02,-3.200016674742346690e-02,-3.685536446082564310e-02,-4.193125297938246621e-02,-4.678645069278465629e-02,-5.164164840618683250e-02,-5.649684611958900871e-02,-6.157273463814583181e-02,-6.642793235154800802e-02,-7.128313006495018422e-02,-7.613832777835236043e-02,-8.121421629690919741e-02,-8.606941401031137362e-02,-9.092461172371354983e-02,-9.577980943711572603e-02,-1.008556979556725630e-01,-1.057108956690747392e-01,-1.105660933824769154e-01,-1.129936922391780035e-01,-1.129936922391780035e-01,-1.129936922391780035e-01,-1.129936922391780035e-01,-1.129936922391780035e-01,-1.129936922391780035e-01,-1.129936922391780035e-01,-1.129936922391780035e-01,-1.129936922391780035e-01,-1.129936922391780035e-01
-1.129936922391780035e-01,-1.129936922391780035e-01,-1.129936922391780035e-01,-4.590368747216606871e-02,0.000000000000000000e+00,0.000000000000000000e+00,-1.387778780781445676e-17,-1.387778780781445676e-17,-1.387778780781445676e-17,-1.387778780781445676e-17,-1.387778780781445676e-17,-1.387778780781445676e-17,-1.387778780781445676e-17,-2.648289661855748878e-03,-7.503487375257911207e-03,-1.257937589381474819e-02,-1.743457360721693827e-02,-2.228977132061911448e-02,-2.736565983917593758e-02,-3.222085755257809991e-02,-3.707605526598029000e-02,-4.193125297938246621e-02,-4.700714149793930319e-02,-5.186233921134147939e-02,-5.671753692474365560e-02,-6.157273463814583181e-02,-6.664862315670266879e-02,-7.150382087010484500e-02,-7.635901858350702121e-02,-8.121421629690919741e-02,-8.629010481546602052e-02,-9.114530252886819672e-02,-9.600050024227037293e-02,-1.008556979556725630e-01,-1.059315864742293722e-01,-1.107867841876315623e-01,-1.129936922391780035e-01,-1.129936922391780035e-01,-1.129936922391780035e-01,-1.129936922391780035e-01,-1.129936922391780035e-01,-1.129936922391780035e-01,-1.129936922391780035e-01,-1.129936922391780035e-01,-1.129936922391780035e-01,-1.129936922391780035e-01,-1.129936922391780035e-01
-1.129936922391780035e-01,-1.129936922391780035e-01,-1.129936922391780035e-01,-1.129936922391780035e-01,-4.237263458969176000e-02,-1.387778780781445676e-17,0.000000000000000000e+00,-1.387778780781445676e-17,-1.387778780781445676e-17,-2.775557561562891351e-17,-1.387778780781445676e-17,-1.387778780781445676e-17,-2.868980467010381896e-03,-7.724178180412558103e-03,-1.257937589381474819e-02,-1.765526441237157129e-02,-2.251046212577374750e-02,-2.736565983917592371e-02,-3.244154835773276069e-02,-3.729674607113492302e-02,-4.215194378453711310e-02,-4.700714149793928931e-02,-5.208303001649612629e-02,-5.693822772989829556e-02,-6.179342544330047177e-02,-6.664862315670265491e-02,-7.172451167525947802e-02,-7.657970938866165422e-02,-8.143490710206384431e-02,-8.629010481546602052e-02,-9.136599333402284362e-02,-9.622119104742501983e-02,-1.010763887608271960e-01,-1.059315864742293722e-01,-1.110074749927862092e-01,-1.129936922391780035e-01,-1.129936922391780035e-01,-1.129936922391780035e-01,-1.129936922391780035e-01,-1.129936922391780035e-01,-1.129936922391780035e-01,-1.129936922391780035e-01,-1.129936922391780035e-01,-1.129936922391780035e-01,-1.129936922391780035e-01,-1.129936922391780035e-01,-1.129936922391780035e-01
-1.129936922391780035e-01,-1.129936922391780035e-01,-1.129936922391780035e-01,-1.129936922391780035e-01,-1.129936922391780035e-01,-4.237263458969176000e-02,-1.387778780781445676e-17,-2.775557561562891351e-17,-1.387778780781445676e-17,0.000000000000000000e+00,0.000000000000000000e+00,-3.089671272165042670e-03,-7.944868985567218878e-03,-1.280006669896939508e-02,-1.765526441237157129e-02,-2.273115293092840827e-02,-2.758635064433058448e-02,-3.244154835773276069e-02,-3.751743687628956991e-02,-4.237263458969176000e-02,-4.722783230309395008e-02,-5.208303001649612629e-02,-5.715891853505294246e-02,-6.201411624845511866e-02,-6.686931396185730181e-02,-7.172451167525947802e-02,-7.680040019381630112e-02,-8.165559790721849120e-02,-8.651079562062066741e-02,-9.136599333402284362e-02,-9.644188185257966672e-02,-1.012970795659818429e-01,-1.061522772793840191e-01,-1.110074749927862092e-01,-1.129936922391780035e-01,-1.129936922391780035e-01,-1.129936922391780035e-01,-1.129936922391780035e-01,-1.129936922391780035e-01,-1.129936922391780035e-01,-1.129936922391780035e-01,-1.129936922391780035e-01,-1.129936922391780035e-01,-1.129936922391780035e-01,-1.129936922391780035e-01,-1.129936922391780035e-01,-1.129936922391780035e-01
-1.129936922391780035e-01,-1.129936922391780035e-01,-1.129936922391780035e-01,-1.129936922391780035e-01,-1.129936922391780035e-01,-1.129936922391780035e-01,-3.884158170721745129e-02,-1.387778780781445676e-17,-2.775557561562891351e-17,-1.387778780781445676e-17,-3.089671272165042670e-03,-8.165559790721851896e-03,-1.302075750412402810e-02,-1.787595521752623207e-02,-2.273115293092840827e-02,-2.780704144948523138e-02,-3.266223916288739371e-02,-3.751743687628956991e-02,-4.237263458969176000e-02,-4.744852310824858310e-02,-5.230372082165077319e-02,-5.715891853505294246e-02,-6.223480705360977250e-02,-6.709000476701194871e-02,-7.194520248041412491e-02,-7.680040019381630112e-02,-8.187628871237312422e-02,-8.673148642577530043e-02,-9.158668413917747664e-02,-9.644188185257966672e-02,-1.015177703711364898e-01,-1.063729680845386660e-01,-1.112281657979408422e-01,-1.129936922391780035e-01,-1.129936922391780035e-01,-1.129936922391780035e-01,-1.129936922391780035e-01,-1.129936922391780035e-01,-1.129936922391780035e-01,-1.129936922391780035e-01,-1.129936922391780035e-01,-1.129936922391780035e-01,-1.129936922391780035e-01,-1.129936922391780035e-01,-1.129936922391780035e-01,-1.129936922391780035e-01,-1.129936922391780035e-01
-1.129936922391780035e-01,-1.129936922391780035e-01,-1.129936922391780035e-01,-1.129936922391780035e-01,-1.129936922391780035e-01,-1.129936922391780035e-01,-1.129936922391780035e-01,-3.531052882474314258e-02,-1.387778780781445676e-17,-3.310362077319689567e-03,-8.165559790721851896e-03,-1.324144830927868888e-02,-1.809664602268086508e-02,-2.295184373608304129e-02,-2.780704144948521750e-02,-3.288292996804204060e-02,-3.773812768144421681e-02,-4.259332539484640689e-02,-4.744852310824858310e-02,-5.252441162680540621e-02,-5.737960934020758935e-02,-6.223480705360976556e-02,-6.731069557216659560e-02,-7.216589328556877181e-02,-7.702109099897094802e-02,-8.187628871237312422e-02,-8.695217723092994733e-02,-9.180737494433213741e-02,-9.666257265773431362e-02,-1.015177703711364898e-01,-1.065936588896933129e-01,-1.114488566030954891e-01,-1.129936922391780035e-01,-1.129936922391780035e-01,-1.129936922391780035e-01,-1.129936922391780035e-01,-1.129936922391780035e-01,-1.129936922391780035e-01,-1.129936922391780035e-01,-1.129936922391780035e-01,-1.129936922391780035e-01,-1.129936922391780035e-01,-1.129936922391780035e-01,-1.129936922391780035e-01,-1.129936922391780035e-01,-1.129936922391780035e-01,-1.129936922391780035e-01
-1.129936922391780035e-01,-1.129936922391780035e-01,-1.129936922391780035e-01,-1.129936922391780035e-01,-1.129936922391780035e-01,-1.129936922391780035e-01,-1.129936922391780035e-01,-1.129936922391780035e-01,-3.773812768144421681e-02,-8.386250595876498792e-03,-1.324144830927867500e-02,-1.831733682783552586e-02,-2.317253454123770207e-02,-2.802773225463986440e-02,-3.288292996804204060e-02,-3.795881848659886371e-02,-4.281401620000106767e-02,-4.766921391340323000e-02,-5.252441162680540621e-02,-5.760030014536222931e-02,-6.245549785876441246e-02,-6.731069557216659560e-02,-7.216589328556877181e-02,-7.724178180412559491e-02,-8.209697951752777112e-02,-8.695217723092996120e-02,-9.202806574948677043e-02,-9.688326346288894664e-02,-1.017384611762911367e-01,-1.065936588896933129e-01,-1.116695474082501360e-01,-1.129936922391780035e-01,-1.129936922391780035e-01,-1.129936922391780035e-01,-1.129936922391780035e-01,-1.129936922391780035e-01,-1.129936922391780035e-01,-1.129936922391780035e-01,-1.129936922391780035e-01,-1.129936922391780035e-01,-1.129936922391780035e-01,-1.129936922391780035e-01,-1.129936922391780035e-01,-1.129936922391780035e-01,-1.129936922391780035e-01,-1.129936922391780035e-01,-1.129936922391780035e-01
-1.129936922391780035e-01,-1.129936922391780035e-01,-1.129936922391780035e-01,-1.129936922391780035e-01,-1.129936922391780035e-01,-1.129936922391780035e-01,-1.129936922391780035e-01,-1.129936922391780035e-01,-1.129936922391780035e-01,-4.145538843076776447e-02,-1.831733682783549810e-02,-2.339322534639233508e-02,-2.824842305979451129e-02,-3.310362077319668750e-02,-3.795881848659886371e-02,-4.303470700515570069e-02,-4.788990471855787689e-02,-5.274510243196006004e-02,-5.760030014536222931e-02,-6.267618866391905241e-02,-6.753138637732122862e-02,-7.238658409072340483e-02,-7.724178180412559491e-02,-8.231767032268241802e-02,-8.717286803608459422e-02,-9.202806574948677043e-02,-9.710395426804360741e-02,-1.019591519814457836e-01,-1.068143496948479598e-01,-1.116695474082501360e-01,-1.129936922391780035e-01,-1.129936922391780035e-01,-1.129936922391780035e-01,-1.129936922391780035e-01,-1.129936922391780035e-01,-1.129936922391780035e-01,-1.129936922391780035e-01,-1.129936922391780035e-01,-1.129936922391780035e-01,-1.129936922391780035e-01,-1.129936922391780035e-01,-1.129936922391780035e-01,-1.129936922391780035e-01,-1.129936922391780035e-01,-1.129936922391780035e-01,-1.129936922391780035e-01,-1.129936922391780035e-01
-1.129936922391780035e-01,-1.129936922391780035e-01,-1.129936922391780035e-01,-1.129936922391780035e-01,-1.129936922391780035e-01,-1.129936922391780035e-01,-1.129936922391780035e-01,-1.129936922391780035e-01,-1.129936922391780035e-01,-1.100419527202346343e-01,-4.579334206958875220e-02,-2.846911386494914431e-02,-3.332431157835133440e-02,-3.817950929175351060e-02,-4.303470700515570069e-02,-4.811059552371252379e-02,-5.296579323711470000e-02,-5.782099095051688314e-02,-6.267618866391905241e-02,-6.775207718247588939e-02,-7.260727489587806560e-02,-7.746247260928024181e-02,-8.231767032268241802e-02,-8.739355884123924112e-02,-9.224875655464141733e-02,-9.710395426804360741e-02,-1.021798427866004166e-01,-1.070350405000026067e-01,-1.118902382134047829e-01,-1.129936922391780035e-01,-1.129936922391780035e-01,-1.129936922391780035e-01,-1.129936922391780035e-01,-1.129936922391780035e-01,-1.129936922391780035e-01,-1.129936922391780035e-01,-1.129936922391780035e-01,-1.129936922391780035e-01,-1.129936922391780035e-01,-1.129936922391780035e-01,-1.129936922391780035e-01,-1.129936922391780035e-01,-1.129936922391780035e-01,-1.129936922391780035e-01,-1.129936922391780035e-01,-1.129936922391780035e-01,-1.129936922391780035e-01
-1.129936922391780035e-01,-1.129936922391780035e-01,-1.129936922391780035e-01,-1.129936922391780035e-01,-1.129936922391780035e-01,-1.129936922391780035e-01,-1.129936922391780035e-01,-1.129936922391780035e-01,-1.129936922391780035e-01,-1.129936922391780035e-01,-1.077109060907887050e-01,-5.092440328943423355e-02,-3.840020009690815750e-02,-4.325539781031033371e-02,-4.811059552371252379e-02,-5.318648404226934689e-02,-5.804168175567152310e-02,-6.289687946907369931e-02,-6.775207718247587552e-02,-7.282796570103269862e-02,-7.768316341443487483e-02,-8.253836112783706491e-02,-8.739355884123924112e-02,-9.246944735979606422e-02,-9.732464507319824043e-02,-1.021798427866004166e-01,-1.072557313051572536e-01,-1.121109290185594298e-01,-1.129936922391780035e-01,-1.129936922391780035e-01,-1.129936922391780035e-01,-1.129936922391780035e-01,-1.129936922391780035e-01,-1.129936922391780035e-01,-1.129936922391780035e-01,-1.129936922391780035e-01,-1.129936922391780035e-01,-1.129936922391780035e-01,-1.129936922391780035e-01,-1.129936922391780035e-01,-1.129936922391780035e-01,-1.129936922391780035e-01,-1.129936922391780035e-01,-1.129936922391780035e-01,-1.129936922391780035e-01,-1.129936922391780035e-01,-1.129936922391780035e-01
-1.129936922391780035e-01,-1.129936922391780035e-01,-1.129936922391780035e-01,-1.129936922391780035e-01,-1.129936922391780035e-01,-1.129936922391780035e-01,-1.129936922391780035e-01,-1.129936922391780035e-01,-1.129936922391780035e-01,-1.129936922391780035e-01,-1.129936922391780035e-01,-1.083453921556083027e-01,-5.868306440815220654e-02,-4.833128632886717069e-02,-5.318648404226934689e-02,-5.826237256082616306e-02,-6.311757027422834621e-02,-6.797276798763052241e-02,-7.282796570103269862e-02,-7.790385421958953560e-02,-8.275905193299171181e-02,-8.761424964639388802e-02,-9.246944735979606422e-02,-9.754533587835288733e-02,-1.024005335917550635e-01,-1.072557313051572536e-01,-1.121109290185594298e-01,-1.129936922391780035e-01,-1.129936922391780035e-01,-1.129936922391780035e-01,-1.129936922391780035e-01,-1.129936922391780035e-01,-1.129936922391780035e-01,-1.129936922391780035e-01,-1.129936922391780035e-01,-1.129936922391780035e-01,-1.129936922391780035e-01,-1.129936922391780035e-01,-1.129936922391780035e-01,-1.129936922391780035e-01,-1.129936922391780035e-01,-1.129936922391780035e-01,-1.129936922391780035e-01,-1.129936922391780035e-01,-1.129936922391780035e-01,-1.129936922391780035e-01,-1.129936922391780035e-01
-1.129936922391780035e-01,-1.129936922391780035e-01,-1.129936922391780035e-01,-1.129936922391780035e-01,-1.129936922391780035e-01,-1.129936922391780035e-01,-1.129936922391780035e-01,-1.129936922391780035e-01,-1.129936922391780035e-01,-1.129936922391780035e-01,-1.129936922391780035e-01,-1.129936922391780035e-01,-1.069522814480696055e-01,-6.457964685837785934e-02,-5.826237256082616306e-02,-6.333826107938297922e-02,-6.819345879278516931e-02,-7.304865650618734552e-02,-7.790385421958952172e-02,-8.297974273814634483e-02,-8.783494045154852103e-02,-9.269013816495071112e-02,-9.754533587835288733e-02,-1.026212243969097104e-01,-1.074764221103118866e-01,-1.123316198237140767e-01,-1.129936922391780035e-01,-1.129936922391780035e-01,-1.129936922391780035e-01,-1.129936922391780035e-01,-1.129936922391780035e-01,-1.129936922391780035e-01,-1.129936922391780035e-01,-1.129936922391780035e-01,-1.129936922391780035e-01,-1.129936922391780035e-01,-1.129936922391780035e-01,-1.129936922391780035e-01,-1.129936922391780035e-01,-1.129936922391780035e-01,-1.129936922391780035e-01,-1.129936922391780035e-01,-1.129936922391780035e-01,-1.129936922391780035e-01,-1.129936922391780035e-01,-1.129936922391780035e-01,-1.129936922391780035e-01
