-2.511538046078064523e-01,-2.511538046078064523e-01,-2.511538046078064523e-01,-2.511538046078064523e-01,-2.511538046078064523e-01,-2.511538046078064523e-01,-2.511538046078064523e-01,-2.511538046078064523e-01,-2.511538046078064523e-01,-2.511538046078064523e-01,-2.511538046078064523e-01,-2.511538046078064523e-01,-2.511538046078064523e-01,-2.511538046078064523e-01,-2.511538046078064523e-01,-2.511538046078064523e-01,-2.511538046078064523e-01,-2.511538046078064523e-01,-2.511538046078064523e-01,-2.511538046078064523e-01,-2.511538046078064523e-01,-2.511538046078064523e-01,-2.511538046078064523e-01,-2.511538046078064523e-01,-2.511538046078064523e-01,-2.511538046078064523e-01,-2.511538046078064523e-01,-2.511538046078064523e-01,-2.511538046078064523e-01,-2.511538046078064523e-01,-2.511538046078064523e-01,-2.511538046078064523e-01,-2.511538046078064523e-01,-2.511538046078064523e-01,-2.511538046078064523e-01,-2.511538046078064523e-01,-2.511538046078064523e-01,-2.511538046078064523e-01,-2.511538046078064523e-01,-2.511538046078064523e-01,-2.511538046078064523e-01,-2.511538046078064523e-01,-2.511538046078064523e-01,-2.511538046078064523e-01,-2.511538046078064523e-01,-2.511538046078064523e-01,-2.511538046078064523e-01
-2.511538046078064523e-01,-2.511538046078064523e-01,-2.511538046078064523e-01,-2.511538046078064523e-01,-2.511538046078064523e-01,-2.511538046078064523e-01,-2.511538046078064523e-01,-2.511538046078064523e-01,-2.511538046078064523e-01,-2.511538046078064523e-01,-2.511538046078064523e-01,-2.511538046078064523e-01,-2.511538046078064523e-01,-2.511538046078064523e-01,-2.511538046078064523e-01,-2.511538046078064523e-01,-2.511538046078064523e-01,-2.511538046078064523e-01,-2.511538046078064523e-01,-2.511538046078064523e-01,-2.511538046078064523e-01,-2.511538046078064523e-01,-2.511538046078064523e-01,-2.511538046078064523e-01,-2.511538046078064523e-01,-2.511538046078064523e-01,-2.511538046078064523e-01,-2.511538046078064523e-01,-2.511538046078064523e-01,-2.511538046078064523e-01,-2.511538046078064523e-01,-2.511538046078064523e-01,-2.511538046078064523e-01,-2.511538046078064523e-01,-2.511538046078064523e-01,-2.511538046078064523e-01,-2.511538046078064523e-01,-2.511538046078064523e-01,-2.511538046078064523e-01,-2.511538046078064523e-01,-2.511538046078064523e-01,-2.511538046078064523e-01,-2.511538046078064523e-01,-2.511538046078064523e-01,-2.511538046078064523e-01,-2.511538046078064523e-01,-2.511538046078064523e-01
-2.511538046078064523e-01,-2.511538046078064523e-01,-2.511538046078064523e-01,-2.511538046078064523e-01,-2.511538046078064523e-01,-2.511538046078064523e-01,-2.511538046078064523e-01,-2.511538046078064523e-01,-2.511538046078064523e-01,-2.511538046078064523e-01,-2.511538046078064523e-01,-2.511538046078064523e-01,-2.511538046078064523e-01,-2.511538046078064523e-01,-2.511538046078064523e-01,-2.511538046078064523e-01,-2.511538046078064523e-01,-2.511538046078064523e-01,-2.511538046078064523e-01,-2.511538046078064523e-01,-2.511538046078064523e-01,-2.511538046078064523e-01,-2.511538046078064523e-01,-2.511538046078064523e-01,-2.511538046078064523e-01,-2.511538046078064523e-01,-2.511538046078064523e-01,-2.511538046078064523e-01,-2.511538046078064523e-01,-2.511538046078064523e-01,-2.511538046078064523e-01,-2.511538046078064523e-01,-2.511538046078064523e-01,-2.511538046078064523e-01,-2.511538046078064523e-01,-2.511538046078064523e-01,-2.511538046078064523e-01,-2.511538046078064523e-01,-2.511538046078064523e-01,-2.511538046078064523e-01,-2.511538046078064523e-01,-2.511538046078064523e-01,-2.511538046078064523e-01,-2.511538046078064523e-01,-2.511538046078064523e-01,-2.511538046078064523e-01,-2.511538046078064523e-01
-2.511538046078064523e-01,-2.511538046078064523e-01,-2.511538046078064523e-01,-2.511538046078064523e-01,-2.511538046078064523e-01,-2.511538046078064523e-01,-2.511538046078064523e-01,-2.511538046078064523e-01,-2.511538046078064523e-01,-2.511538046078064523e-01,-2.511538046078064523e-01,-2.511538046078064523e-01,-2.511538046078064523e-01,-2.511538046078064523e-01,-2.511538046078064523e-01,-2.511538046078064523e-01,-2.511538046078064523e-01,-2.511538046078064523e-01,-2.511538046078064523e-01,-2.511538046078064523e-01,-2.511538046078064523e-01,-2.511538046078064523e-01,-2.511538046078064523e-01,-2.511538046078064523e-01,-2.511538046078064523e-01,-2.511538046078064523e-01,-2.511538046078064523e-01,-2.511538046078064523e-01,-2.511538046078064523e-01,-2.511538046078064523e-01,-2.511538046078064523e-01,-2.511538046078064523e-01,-2.511538046078064523e-01,-2.511538046078064523e-01,-2.511538046078064523e-01,-2.511538046078064523e-01,-2.511538046078064523e-01,-2.511538046078064523e-01,-2.511538046078064523e-01,-2.511538046078064523e-01,-2.511538046078064523e-01,-2.511538046078064523e-01,-2.511538046078064523e-01,-2.511538046078064523e-01,-2.511538046078064523e-01,-2.511538046078064523e-01,-2.511538046078064523e-01
-2.511538046078064523e-01,-2.511538046078064523e-01,-2.511538046078064523e-01,-2.511538046078064523e-01,-2.511538046078064523e-01,-2.511538046078064523e-01,-2.511538046078064523e-01,-2.511538046078064523e-01,-2.511538046078064523e-01,-2.511538046078064523e-01,-2.511538046078064523e-01,-2.511538046078064523e-01,-2.511538046078064523e-01,-2.511538046078064523e-01,-2.511538046078064523e-01,-2.511538046078064523e-01,-2.511538046078064523e-01,-2.511538046078064523e-01,-2.511538046078064523e-01,-2.511538046078064523e-01,-2.511538046078064523e-01,-2.511538046078064523e-01,-2.511538046078064523e-01,-2.511538046078064523e-01,-2.511538046078064523e-01,-2.511538046078064523e-01,-2.511538046078064523e-01,-2.511538046078064523e-01,-2.511538046078064523e-01,-2.511538046078064523e-01,-2.511538046078064523e-01,-2.511538046078064523e-01,-2.511538046078064523e-01,-2.511538046078064523e-01,-2.511538046078064523e-01,-2.511538046078064523e-01,-2.511538046078064523e-01,-2.511538046078064523e-01,-2.511538046078064523e-01,-2.511538046078064523e-01,-2.511538046078064523e-01,-2.511538046078064523e-01,-2.511538046078064523e-01,-2.511538046078064523e-01,-2.511538046078064523e-01,-2.511538046078064523e-01,-2.511538046078064523e-01
-2.511538046078064523e-01,-2.511538046078064523e-01,-2.511538046078064523e-01,-2.511538046078064523e-01,-2.511538046078064523e-01,-2.511538046078064523e-01,-2.511538046078064523e-01,-2.511538046078064523e-01,-2.511538046078064523e-01,-2.511538046078064523e-01,-2.511538046078064523e-01,-2.511538046078064523e-01,-2.511538046078064523e-01,-2.511538046078064523e-01,-2.511538046078064523e-01,-2.511538046078064523e-01,-2.511538046078064523e-01,-2.511538046078064523e-01,-2.511538046078064523e-01,-2.511538046078064523e-01,-2.511538046078064523e-01,-2.511538046078064523e-01,-2.511538046078064523e-01,-2.511538046078064523e-01,-2.511538046078064523e-01,-2.511538046078064523e-01,-2.511538046078064523e-01,-2.511538046078064523e-01,-2.511538046078064523e-01,-2.511538046078064523e-01,-2.511538046078064523e-01,-2.511538046078064523e-01,-2.511538046078064523e-01,-2.511538046078064523e-01,-2.511538046078064523e-01,-2.511538046078064523e-01,-2.511538046078064523e-01,-2.511538046078064523e-01,-2.511538046078064523e-01,-2.511538046078064523e-01,-2.511538046078064523e-01,-2.511538046078064523e-01,-2.511538046078064523e-01,-2.511538046078064523e-01,-2.511538046078064523e-01,-2.511538046078064523e-01,-2.511538046078064523e-01
-2.511538046078064523e-01,-2.511538046078064523e-01,-2.511538046078064523e-01,-2.511538046078064523e-01,-2.511538046078064523e-01,-2.511538046078064523e-01,-2.511538046078064523e-01,-2.511538046078064523e-01,-2.511538046078064523e-01,-2.511538046078064523e-01,-2.511538046078064523e-01,-2.511538046078064523e-01,-2.511538046078064523e-01,-2.511538046078064523e-01,-2.511538046078064523e-01,-2.511538046078064523e-01,-2.511538046078064523e-01,-2.511538046078064523e-01,-2.511538046078064523e-01,-2.511538046078064523e-01,-2.511538046078064523e-01,-2.511538046078064523e-01,-2.511538046078064523e-01,-2.511538046078064523e-01,-2.511538046078064523e-01,-2.511538046078064523e-01,-2.511538046078064523e-01,-2.511538046078064523e-01,-2.511538046078064523e-01,-2.511538046078064523e-01,-2.511538046078064523e-01,-2.511538046078064523e-01,-4.488942197675905299e-01,-4.488942197675905299e-01,-4.488942197675905299e-01,-2.511538046078064523e-01,-2.511538046078064523e-01,-2.511538046078064523e-01,-2.511538046078064523e-01,-2.511538046078064523e-01,-2.511538046078064523e-01,-2.511538046078064523e-01,-2.511538046078064523e-01,-2.511538046078064523e-01,-2.511538046078064523e-01,-2.511538046078064523e-01,-2.511538046078064523e-01
-2.511538046078064523e-01,-2.511538046078064523e-01,-2.511538046078064523e-01,-2.511538046078064523e-01,-2.511538046078064523e-01,-2.398224513139776970e-01,-2.378112587380167287e-01,-2.503689489684070568e-01,-2.511538046078064523e-01,-2.511538046078064523e-01,-2.511538046078064523e-01,-2.511538046078064523e-01,-2.511538046078064523e-01,-2.511538046078064523e-01,-2.511538046078064523e-01,-2.511538046078064523e-01,-2.511538046078064523e-01,-2.511538046078064523e-01,-2.511538046078064523e-01,-2.511538046078064523e-01,-2.511538046078064523e-01,-2.511538046078064523e-01,-2.511538046078064523e-01,-2.511538046078064523e-01,-2.511538046078064523e-01,-2.511538046078064523e-01,-2.511538046078064523e-01,-2.511538046078064523e-01,-2.511538046078064523e-01,-2.511538046078064523e-01,-2.511538046078064523e-01,-2.511538046078064523e-01,-4.488942197675905299e-01,-4.488942197675905299e-01,-4.488942197675905299e-01,-2.511538046078064523e-01,-2.511538046078064523e-01,-2.511538046078064523e-01,-2.511538046078064523e-01,-2.511538046078064523e-01,-2.511538046078064523e-01,-2.511538046078064523e-01,-2.511538046078064523e-01,-2.511538046078064523e-01,-2.511538046078064523e-01,-2.511538046078064523e-01,-2.511538046078064523e-01
-2.511538046078064523e-01,-2.511538046078064523e-01,-2.511538046078064523e-01,-2.511538046078064523e-01,-2.474257403206593375e-01,-2.062698727296535528e-01,-2.158353008348336821e-01,-2.283929910652239825e-01,-2.409506812956143107e-01,-2.511538046078064523e-01,-2.511538046078064523e-01,-2.511538046078064523e-01,-2.511538046078064523e-01,-2.511538046078064523e-01,-2.511538046078064523e-01,-2.511538046078064523e-01,-2.511538046078064523e-01,-2.511538046078064523e-01,-2.511538046078064523e-01,-2.511538046078064523e-01,-2.511538046078064523e-01,-2.511538046078064523e-01,-2.511538046078064523e-01,-2.511538046078064523e-01,-2.511538046078064523e-01,-2.511538046078064523e-01,-2.511538046078064523e-01,-2.511538046078064523e-01,-2.511538046078064523e-01,-2.511538046078064523e-01,-2.511538046078064523e-01,-2.511538046078064523e-01,-4.488942197675905299e-01,-4.488942197675905299e-01,-4.488942197675905299e-01,-2.511538046078064523e-01,-2.511538046078064523e-01,-2.511538046078064523e-01,-2.511538046078064523e-01,-2.511538046078064523e-01,-2.511538046078064523e-01,-2.511538046078064523e-01,-2.511538046078064523e-01,-2.511538046078064523e-01,-2.511538046078064523e-01,-2.511538046078064523e-01,-2.511538046078064523e-01
-2.511538046078064523e-01,-2.511538046078064523e-01,-2.511538046078064523e-01,-2.511538046078064523e-01,-2.052397497029418427e-01,-1.820865083406597029e-01,-1.946441985710500033e-01,-2.064170331620409360e-01,-2.189747233924312642e-01,-2.315324136228215646e-01,-2.440901038532118927e-01,-2.511538046078064523e-01,-2.511538046078064523e-01,-2.511538046078064523e-01,-2.511538046078064523e-01,-2.511538046078064523e-01,-2.511538046078064523e-01,-2.511538046078064523e-01,-2.511538046078064523e-01,-2.511538046078064523e-01,-2.511538046078064523e-01,-2.511538046078064523e-01,-2.511538046078064523e-01,-2.511538046078064523e-01,-2.511538046078064523e-01,-2.511538046078064523e-01,-2.511538046078064523e-01,-2.511538046078064523e-01,-2.511538046078064523e-01,-2.511538046078064523e-01,-2.511538046078064523e-01,-2.511538046078064523e-01,-2.511538046078064523e-01,-2.511538046078064523e-01,-2.511538046078064523e-01,-2.511538046078064523e-01,-2.511538046078064523e-01,-2.511538046078064523e-01,-2.511538046078064523e-01,-2.511538046078064523e-01,-2.511538046078064523e-01,-2.511538046078064523e-01,-2.511538046078064523e-01,-2.511538046078064523e-01,-2.511538046078064523e-01,-2.511538046078064523e-01,-2.511538046078064523e-01
-2.511538046078064523e-01,-2.511538046078064523e-01,-2.511538046078064523e-01,-2.293740606144732408e-01,-1.475528602070863005e-01,-1.601105504374766286e-01,-1.726682406678669568e-01,-1.852259308982572850e-01,-1.969987654892481899e-01,-2.095564557196385180e-01,-2.221141459500288462e-01,-2.346718361804191466e-01,-2.472295264108094748e-01,-2.511538046078064523e-01,-2.511538046078064523e-01,-2.511538046078064523e-01,-2.511538046078064523e-01,-2.511538046078064523e-01,-2.511538046078064523e-01,-2.511538046078064523e-01,-2.511538046078064523e-01,-2.511538046078064523e-01,-2.511538046078064523e-01,-2.511538046078064523e-01,-2.511538046078064523e-01,-2.511538046078064523e-01,-2.511538046078064523e-01,-2.511538046078064523e-01,-2.511538046078064523e-01,-2.511538046078064523e-01,-2.511538046078064523e-01,-2.511538046078064523e-01,-2.511538046078064523e-01,-2.511538046078064523e-01,-2.511538046078064523e-01,-2.511538046078064523e-01,-2.511538046078064523e-01,-2.511538046078064523e-01,-2.511538046078064523e-01,-2.511538046078064523e-01,-2.511538046078064523e-01,-2.511538046078064523e-01,-2.511538046078064523e-01,-2.511538046078064523e-01,-2.511538046078064523e-01,-2.511538046078064523e-01,-2.511538046078064523e-01
-2.511538046078064523e-01,-2.511538046078064523e-01,-2.511538046078064523e-01,-1.561862722404796511e-01,-1.255769023039032539e-01,-1.381345925342935821e-01,-1.506922827646839103e-01,-1.632499729950742107e-01,-1.758076632254645388e-01,-1.883653534558548670e-01,-2.001381880468457719e-01,-2.126958782772361001e-01,-2.252535685076264282e-01,-2.378112587380167287e-01,-2.503689489684070568e-01,-2.511538046078064523e-01,-2.511538046078064523e-01,-2.511538046078064523e-01,-2.511538046078064523e-01,-2.511538046078064523e-01,-2.511538046078064523e-01,-2.511538046078064523e-01,-2.511538046078064523e-01,-2.511538046078064523e-01,-2.511538046078064523e-01,-2.511538046078064523e-01,-2.511538046078064523e-01,-2.511538046078064523e-01,-2.511538046078064523e-01,-2.511538046078064523e-01,-2.511538046078064523e-01,-2.511538046078064523e-01,-2.511538046078064523e-01,-2.511538046078064523e-01,-2.511538046078064523e-01,-2.511538046078064523e-01,-2.511538046078064523e-01,-2.511538046078064523e-01,-2.511538046078064523e-01,-2.511538046078064523e-01,-2.511538046078064523e-01,-2.511538046078064523e-01,-2.511538046078064523e-01,-2.511538046078064523e-01,-2.511538046078064523e-01,-2.511538046078064523e-01,-2.511538046078064523e-01
-2.511538046078064523e-01,-2.511538046078064523e-01,-1.974402467864103672e-01,-9.182810980972927473e-02,-1.036009444007201796e-01,-1.161586346311105078e-01,-1.287163248615008360e-01,-1.412740150918911364e-01,-1.538317053222814645e-01,-1.663893955526717927e-01,-1.789470857830621209e-01,-1.907199203740530535e-01,-2.032776106044433539e-01,-2.158353008348336821e-01,-2.283929910652240103e-01,-2.409506812956143107e-01,-2.511538046078064523e-01,-2.511538046078064523e-01,-2.511538046078064523e-01,-2.511538046078064523e-01,-2.511538046078064523e-01,-2.511538046078064523e-01,-2.511538046078064523e-01,-2.511538046078064523e-01,-2.511538046078064523e-01,-2.511538046078064523e-01,-2.511538046078064523e-01,-2.511538046078064523e-01,-2.511538046078064523e-01,-2.511538046078064523e-01,-2.511538046078064523e-01,-2.511538046078064523e-01,-2.511538046078064523e-01,-2.511538046078064523e-01,-2.511538046078064523e-01,-2.511538046078064523e-01,-2.511538046078064523e-01,-2.511538046078064523e-01,-2.511538046078064523e-01,-2.511538046078064523e-01,-2.511538046078064523e-01,-2.511538046078064523e-01,-2.511538046078064523e-01,-2.511538046078064523e-01,-2.511538046078064523e-01,-2.511538046078064523e-01,-2.511538046078064523e-01
-2.511538046078064523e-01,-2.511538046078064523e-01,-9.364308847584038031e-02,-6.985215190654620043e-02,-8.240984213693652860e-02,-9.418267672792746126e-02,-1.067403669583177339e-01,-1.192980571887081176e-01,-1.318557474190983902e-01,-1.444134376494887184e-01,-1.569711278798790466e-01,-1.695288181102693748e-01,-1.813016527012603074e-01,-1.938593429316506078e-01,-2.064170331620409360e-01,-2.189747233924312642e-01,-2.315324136228215646e-01,-2.440901038532118927e-01,-2.511538046078064523e-01,-2.511538046078064523e-01,-2.511538046078064523e-01,-2.511538046078064523e-01,-2.511538046078064523e-01,-2.511538046078064523e-01,-2.511538046078064523e-01,-2.511538046078064523e-01,-2.511538046078064523e-01,-2.511538046078064523e-01,-2.511538046078064523e-01,-2.511538046078064523e-01,-2.511538046078064523e-01,-2.511538046078064523e-01,-2.511538046078064523e-01,-2.511538046078064523e-01,-2.511538046078064523e-01,-2.511538046078064523e-01,-2.511538046078064523e-01,-2.511538046078064523e-01,-2.511538046078064523e-01,-2.511538046078064523e-01,-2.511538046078064523e-01,-2.511538046078064523e-01,-2.511538046078064523e-01,-2.511538046078064523e-01,-2.511538046078064523e-01,-2.511538046078064523e-01,-2.511538046078064523e-01
-2.511538046078064523e-01,-1.512318710167709912e-01,-3.531850377297285348e-02,-4.787619400336315389e-02,-6.043388423375345431e-02,-7.299157446414378247e-02,-8.554926469453411064e-02,-9.732209928552501554e-02,-1.098797895159153437e-01,-1.224374797463056719e-01,-1.349951699766960000e-01,-1.475528602070863005e-01,-1.601105504374766286e-01,-1.726682406678669568e-01,-1.844410752588578895e-01,-1.969987654892481899e-01,-2.095564557196385180e-01,-2.221141459500288462e-01,-2.346718361804191466e-01,-2.472295264108094748e-01,-2.511538046078064523e-01,-2.511538046078064523e-01,-2.511538046078064523e-01,-2.511538046078064523e-01,-2.511538046078064523e-01,-2.511538046078064523e-01,-2.511538046078064523e-01,-2.511538046078064523e-01,-2.511538046078064523e-01,-2.511538046078064523e-01,-2.511538046078064523e-01,-2.511538046078064523e-01,-2.511538046078064523e-01,-2.511538046078064523e-01,-2.511538046078064523e-01,-2.511538046078064523e-01,-2.511538046078064523e-01,-2.511538046078064523e-01,-2.511538046078064523e-01,-2.511538046078064523e-01,-2.511538046078064523e-01,-2.511538046078064523e-01,-2.511538046078064523e-01,-2.511538046078064523e-01,-2.511538046078064523e-01,-2.511538046078064523e-01,-2.511538046078064523e-01
-2.354566918198185421e-01,-1.643291494992490942e-02,-1.334254586978977919e-02,-2.590023610018007960e-02,-3.845792633057040777e-02,-5.101561656096073594e-02,-6.357330679135103635e-02,-7.613099702174139227e-02,-8.790383161273229717e-02,-1.004615218431225976e-01,-1.130192120735129258e-01,-1.255769023039032539e-01,-1.381345925342935543e-01,-1.506922827646838825e-01,-1.632499729950742107e-01,-1.750228075860651433e-01,-1.875804978164554715e-01,-2.001381880468457719e-01,-2.126958782772361001e-01,-2.252535685076264282e-01,-2.378112587380167287e-01,-2.503689489684070568e-01,-2.511538046078064523e-01,-2.511538046078064523e-01,-2.511538046078064523e-01,-2.511538046078064523e-01,-2.511538046078064523e-01,-2.511538046078064523e-01,-2.511538046078064523e-01,-2.511538046078064523e-01,-2.511538046078064523e-01,-2.511538046078064523e-01,-2.511538046078064523e-01,-2.511538046078064523e-01,-2.511538046078064523e-01,-2.511538046078064523e-01,-2.511538046078064523e-01,-2.511538046078064523e-01,-2.511538046078064523e-01,-2.511538046078064523e-01,-2.511538046078064523e-01,-2.511538046078064523e-01,-2.511538046078064523e-01,-2.511538046078064523e-01,-2.511538046078064523e-01,-2.511538046078064523e-01,-2.511538046078064523e-01
-1.098797895159153715e-01,-5.551115123125782702e-17,-5.551115123125782702e-17,-3.924278196997005308e-03,-1.648196842738733348e-02,-2.903965865777766164e-02,-4.159734888816798981e-02,-5.415503911855829022e-02,-6.671272934894861839e-02,-7.927041957933897431e-02,-9.104325417032987922e-02,-1.036009444007202074e-01,-1.161586346311105078e-01,-1.287163248615008360e-01,-1.412740150918911364e-01,-1.538317053222814645e-01,-1.663893955526717927e-01,-1.781622301436627254e-01,-1.907199203740530535e-01,-2.032776106044433539e-01,-2.158353008348336821e-01,-2.283929910652239825e-01,-2.409506812956143107e-01,-2.511538046078064523e-01,-2.511538046078064523e-01,-2.511538046078064523e-01,-2.511538046078064523e-01,-2.511538046078064523e-01,-2.511538046078064523e-01,-2.511538046078064523e-01,-2.511538046078064523e-01,-2.511538046078064523e-01,-2.511538046078064523e-01,-2.511538046078064523e-01,-2.511538046078064523e-01,-2.511538046078064523e-01,-2.511538046078064523e-01,-2.511538046078064523e-01,-2.511538046078064523e-01,-2.511538046078064523e-01,-2.511538046078064523e-01,-2.511538046078064523e-01,-2.511538046078064523e-01,-2.511538046078064523e-01,-2.511538046078064523e-01,-2.511538046078064523e-01,-2.511538046078064523e-01
-5.551115123125782702e-17,-5.551115123125782702e-17,-5.551115123125782702e-17,-5.551115123125782702e-17,-5.551115123125782702e-17,-7.063700754594615105e-03,-1.962139098498491552e-02,-3.217908121537521593e-02,-4.473677144576557185e-02,-5.729446167615590002e-02,-6.985215190654620043e-02,-8.162498649753710533e-02,-9.418267672792743350e-02,-1.067403669583177617e-01,-1.192980571887080898e-01,-1.318557474190983902e-01,-1.444134376494887462e-01,-1.569711278798790466e-01,-1.687439624708699792e-01,-1.813016527012603074e-01,-1.938593429316506356e-01,-2.064170331620409360e-01,-2.189747233924312642e-01,-2.315324136228215646e-01,-2.440901038532118927e-01,-2.511538046078064523e-01,-2.511538046078064523e-01,-2.511538046078064523e-01,-2.511538046078064523e-01,-2.511538046078064523e-01,-2.511538046078064523e-01,-2.511538046078064523e-01,-2.511538046078064523e-01,-2.511538046078064523e-01,-2.511538046078064523e-01,-2.511538046078064523e-01,-2.511538046078064523e-01,-2.511538046078064523e-01,-2.511538046078064523e-01,-2.511538046078064523e-01,-2.511538046078064523e-01,-2.511538046078064523e-01,-2.511538046078064523e-01,-2.511538046078064523e-01,-2.511538046078064523e-01,-2.511538046078064523e-01,-2.511538046078064523e-01
-5.551115123125782702e-17,-1.110223024625156540e-16,-5.551115123125782702e-17,-5.551115123125782702e-17,-1.106327759565972624e-02,-1.106327759565972624e-02,-1.106327759565972624e-02,-2.126640090785186787e-02,-2.276081354258252532e-02,-3.531850377297282573e-02,-4.787619400336315389e-02,-6.043388423375345431e-02,-7.299157446414381023e-02,-8.476440905513471513e-02,-9.732209928552501554e-02,-1.098797895159153437e-01,-1.224374797463056719e-01,-1.349951699766960000e-01,-1.475528602070863282e-01,-1.601105504374766286e-01,-1.718833850284675613e-01,-1.844410752588578617e-01,-1.969987654892482176e-01,-2.095564557196385180e-01,-2.221141459500288462e-01,-2.346718361804191466e-01,-2.472295264108094748e-01,-2.511538046078064523e-01,-2.511538046078064523e-01,-2.511538046078064523e-01,-2.511538046078064523e-01,-2.511538046078064523e-01,-2.511538046078064523e-01,-2.511538046078064523e-01,-2.511538046078064523e-01,-2.511538046078064523e-01,-2.511538046078064523e-01,-2.511538046078064523e-01,-2.511538046078064523e-01,-2.511538046078064523e-01,-2.511538046078064523e-01,-2.511538046078064523e-01,-2.511538046078064523e-01,-2.511538046078064523e-01,-2.511538046078064523e-01,-2.511538046078064523e-01,-2.511538046078064523e-01
-5.551115123125782702e-17,-5.551115123125782702e-17,-5.551115123125782702e-17,-5.551115123125782702e-17,-1.106327759565972624e-02,-1.106327759565972624e-02,-1.106327759565972624e-02,-1.106327759565972624e-02,-7.848556393994510216e-04,-1.334254586978977919e-02,-2.590023610018010736e-02,-3.845792633057043552e-02,-5.101561656096073594e-02,-6.357330679135103635e-02,-7.534614138234196901e-02,-8.790383161273229717e-02,-1.004615218431225976e-01,-1.130192120735129258e-01,-1.255769023039032539e-01,-1.381345925342935543e-01,-1.506922827646838825e-01,-1.624651173556748152e-01,-1.750228075860651433e-01,-1.875804978164554715e-01,-2.001381880468457719e-01,-2.126958782772361001e-01,-2.252535685076264282e-01,-2.378112587380167287e-01,-2.495840933290076613e-01,-2.511538046078064523e-01,-2.511538046078064523e-01,-2.511538046078064523e-01,-2.511538046078064523e-01,-2.511538046078064523e-01,-2.511538046078064523e-01,-2.511538046078064523e-01,-2.511538046078064523e-01,-2.511538046078064523e-01,-2.511538046078064523e-01,-2.511538046078064523e-01,-2.511538046078064523e-01,-2.511538046078064523e-01,-2.511538046078064523e-01,-2.511538046078064523e-01,-2.511538046078064523e-01,-2.511538046078064523e-01,-2.511538046078064523e-01
-5.551115123125782702e-17,-5.551115123125782702e-17,0.000000000000000000e+00,-5.551115123125782702e-17,-1.106327759565972624e-02,-1.106327759565972624e-02,-1.106327759565972624e-02,-1.106327759565972624e-02,-5.551115123125782702e-17,-5.551115123125782702e-17,-3.924278196997033064e-03,-1.648196842738736123e-02,-2.903965865777766164e-02,-4.159734888816801757e-02,-5.415503911855831798e-02,-6.671272934894861839e-02,-7.848556393993955105e-02,-9.104325417032987922e-02,-1.036009444007201519e-01,-1.161586346311105078e-01,-1.287163248615008360e-01,-1.412740150918911641e-01,-1.538317053222814645e-01,-1.656045399132723972e-01,-1.781622301436626976e-01,-1.907199203740530258e-01,-2.032776106044433539e-01,-2.158353008348336821e-01,-2.283929910652239825e-01,-2.409506812956143107e-01,-2.511538046078064523e-01,-2.511538046078064523e-01,-2.511538046078064523e-01,-2.511538046078064523e-01,-2.511538046078064523e-01,-2.511538046078064523e-01,-2.511538046078064523e-01,-2.511538046078064523e-01,-2.511538046078064523e-01,-2.511538046078064523e-01,-2.511538046078064523e-01,-2.511538046078064523e-01,-2.511538046078064523e-01,-2.511538046078064523e-01,-2.511538046078064523e-01,-2.511538046078064523e-01,-2.511538046078064523e-01
-5.551115123125782702e-17,-5.551115123125782702e-17,-5.551115123125782702e-17,-5.551115123125782702e-17,-1.106327759565972624e-02,-1.106327759565972624e-02,-1.106327759565972624e-02,-1.106327759565972624e-02,-5.551115123125782702e-17,-5.551115123125782702e-17,-5.551115123125782702e-17,-5.551115123125782702e-17,-7.063700754594587350e-03,-1.962139098498494327e-02,-3.217908121537524369e-02,-4.473677144576559961e-02,-5.729446167615587227e-02,-6.906729626714680492e-02,-8.162498649753710533e-02,-9.418267672792743350e-02,-1.067403669583177617e-01,-1.192980571887080898e-01,-1.318557474190983902e-01,-1.444134376494887462e-01,-1.561862722404796511e-01,-1.687439624708699792e-01,-1.813016527012603074e-01,-1.938593429316506356e-01,-2.064170331620409360e-01,-2.189747233924312642e-01,-2.315324136228215646e-01,-2.433052482138124972e-01,-2.511538046078064523e-01,-2.511538046078064523e-01,-2.511538046078064523e-01,-2.511538046078064523e-01,-2.511538046078064523e-01,-2.511538046078064523e-01,-2.511538046078064523e-01,-2.511538046078064523e-01,-2.511538046078064523e-01,-2.511538046078064523e-01,-2.511538046078064523e-01,-2.511538046078064523e-01,-2.511538046078064523e-01,-2.511538046078064523e-01,-2.511538046078064523e-01
-1.111878822482481599e-02,-6.540463661662276884e-04,-5.551115123125782702e-17,-5.551115123125782702e-17,-5.551115123125782702e-17,-5.551115123125782702e-17,-5.551115123125782702e-17,-5.551115123125782702e-17,-1.110223024625156540e-16,-5.551115123125782702e-17,-1.110223024625156540e-16,-5.551115123125782702e-17,-5.551115123125782702e-17,-5.551115123125782702e-17,-1.020312331219216939e-02,-2.276081354258249756e-02,-3.531850377297282573e-02,-4.787619400336315389e-02,-6.043388423375345431e-02,-7.220671882474438696e-02,-8.476440905513471513e-02,-9.732209928552501554e-02,-1.098797895159153437e-01,-1.224374797463056719e-01,-1.349951699766960000e-01,-1.475528602070863005e-01,-1.593256947980772331e-01,-1.718833850284675613e-01,-1.844410752588578895e-01,-1.969987654892481899e-01,-2.095564557196385180e-01,-2.221141459500288462e-01,-2.346718361804191466e-01,-2.464446707714100793e-01,-2.511538046078064523e-01,-2.511538046078064523e-01,-2.511538046078064523e-01,-2.511538046078064523e-01,-2.511538046078064523e-01,-2.511538046078064523e-01,-2.511538046078064523e-01,-2.511538046078064523e-01,-2.511538046078064523e-01,-2.511538046078064523e-01,-2.511538046078064523e-01,-2.511538046078064523e-01,-2.511538046078064523e-01
-2.943208647747735940e-02,-1.896734461881874334e-02,-8.502602760160182793e-03,-5.551115123125782702e-17,-5.551115123125782702e-17,-5.551115123125782702e-17,-1.110223024625156540e-16,-5.551115123125782702e-17,-5.551115123125782702e-17,-5.551115123125782702e-17,-5.551115123125782702e-17,-5.551115123125782702e-17,-5.551115123125782702e-17,-5.551115123125782702e-17,-5.551115123125782702e-17,-7.848556393994510216e-04,-1.334254586978977919e-02,-2.590023610018007960e-02,-3.845792633057038001e-02,-5.101561656096073594e-02,-6.278845115195164084e-02,-7.534614138234196901e-02,-8.790383161273229717e-02,-1.004615218431225976e-01,-1.130192120735129258e-01,-1.255769023039032539e-01,-1.381345925342935543e-01,-1.499074271252844870e-01,-1.624651173556748152e-01,-1.750228075860651433e-01,-1.875804978164554715e-01,-2.001381880468457719e-01,-2.126958782772361001e-01,-2.252535685076264005e-01,-2.370264030986173331e-01,-2.495840933290076613e-01,-2.511538046078064523e-01,-2.511538046078064523e-01,-2.511538046078064523e-01,-2.511538046078064523e-01,-2.511538046078064523e-01,-2.511538046078064523e-01,-2.511538046078064523e-01,-2.511538046078064523e-01,-2.511538046078064523e-01,-2.511538046078064523e-01,-2.511538046078064523e-01
-4.774538473012993056e-02,-3.728064287147131450e-02,-2.681590101281272620e-02,-1.635115915415413790e-02,-5.886417295495494084e-03,-5.551115123125782702e-17,-5.551115123125782702e-17,-5.551115123125782702e-17,-5.551115123125782702e-17,-5.551115123125782702e-17,-5.551115123125782702e-17,-5.551115123125782702e-17,-5.551115123125782702e-17,0.000000000000000000e+00,-5.551115123125782702e-17,-5.551115123125782702e-17,0.000000000000000000e+00,-3.924278196997033064e-03,-1.648196842738733348e-02,-2.903965865777766164e-02,-4.159734888816798981e-02,-5.415503911855831798e-02,-6.592787370954922288e-02,-7.848556393993955105e-02,-9.104325417032985146e-02,-1.036009444007202074e-01,-1.161586346311105078e-01,-1.287163248615008637e-01,-1.412740150918911641e-01,-1.530468496828820968e-01,-1.656045399132723972e-01,-1.781622301436627254e-01,-1.907199203740530258e-01,-2.032776106044433817e-01,-2.158353008348336821e-01,-2.283929910652240103e-01,-2.401658256562149152e-01,-2.511538046078064523e-01,-2.511538046078064523e-01,-2.511538046078064523e-01,-2.511538046078064523e-01,-2.511538046078064523e-01,-2.511538046078064523e-01,-2.511538046078064523e-01,-2.511538046078064523e-01,-2.511538046078064523e-01,-2.511538046078064523e-01
-6.540463661661630179e-02,-5.493989475795771349e-02,-4.512919926546526961e-02,-3.466445740680670906e-02,-2.419971554814809300e-02,-1.373497368948944919e-02,-3.270231830830860886e-03,-5.551115123125782702e-17,-5.551115123125782702e-17,-5.551115123125782702e-17,-5.551115123125782702e-17,-5.551115123125782702e-17,0.000000000000000000e+00,-5.551115123125782702e-17,-5.551115123125782702e-17,-5.551115123125782702e-17,-5.551115123125782702e-17,-5.551115123125782702e-17,-1.110223024625156540e-16,-7.063700754594587350e-03,-1.962139098498488776e-02,-3.217908121537524369e-02,-4.473677144576554410e-02,-5.650960603675650451e-02,-6.906729626714680492e-02,-8.162498649753710533e-02,-9.418267672792746126e-02,-1.067403669583177617e-01,-1.192980571887080898e-01,-1.318557474190984180e-01,-1.436285820100893229e-01,-1.561862722404796511e-01,-1.687439624708699792e-01,-1.813016527012603074e-01,-1.938593429316506356e-01,-2.064170331620409360e-01,-2.189747233924312642e-01,-2.307475579834221691e-01,-2.433052482138124972e-01,-2.511538046078064523e-01,-2.511538046078064523e-01,-2.511538046078064523e-01,-2.511538046078064523e-01,-2.511538046078064523e-01,-2.511538046078064523e-01,-2.511538046078064523e-01,-2.511538046078064523e-01
-8.371793486926884520e-02,-7.325319301061022914e-02,-6.278845115195164084e-02,-5.297775565945922471e-02,-4.251301380080060865e-02,-3.204827194214202035e-02,-2.158353008348345980e-02,-1.111878822482481599e-02,-6.540463661662276884e-04,-5.551115123125782702e-17,-5.551115123125782702e-17,-1.110223024625156540e-16,-5.551115123125782702e-17,0.000000000000000000e+00,0.000000000000000000e+00,-5.551115123125782702e-17,-5.551115123125782702e-17,-5.551115123125782702e-17,-5.551115123125782702e-17,-5.551115123125782702e-17,-5.551115123125782702e-17,-1.020312331219219715e-02,-2.276081354258246980e-02,-3.531850377297282573e-02,-4.709133836396375838e-02,-5.964902859435405880e-02,-7.220671882474438696e-02,-8.476440905513471513e-02,-9.732209928552501554e-02,-1.098797895159153437e-01,-1.224374797463056719e-01,-1.349951699766960000e-01,-1.467680045676869049e-01,-1.593256947980772331e-01,-1.718833850284675613e-01,-1.844410752588578895e-01,-1.969987654892482176e-01,-2.095564557196385180e-01,-2.221141459500288462e-01,-2.338869805410197511e-01,-2.464446707714100793e-01,-2.511538046078064523e-01,-2.511538046078064523e-01,-2.511538046078064523e-01,-2.511538046078064523e-01,-2.511538046078064523e-01,-2.511538046078064523e-01
-1.020312331219213886e-01,-9.156649126326280030e-02,-8.110174940460418425e-02,-7.063700754594559594e-02,-6.017226568728700764e-02,-5.036157019479456376e-02,-3.989682833613600321e-02,-2.943208647747735940e-02,-1.896734461881877110e-02,-8.502602760160155038e-03,-5.551115123125782702e-17,-5.551115123125782702e-17,-5.551115123125782702e-17,-5.551115123125782702e-17,-5.551115123125782702e-17,-5.551115123125782702e-17,-5.551115123125782702e-17,-5.551115123125782702e-17,-5.551115123125782702e-17,-5.551115123125782702e-17,-5.551115123125782702e-17,-5.551115123125782702e-17,-7.848556393994510216e-04,-1.334254586978977919e-02,-2.590023610018010736e-02,-3.845792633057040777e-02,-5.023076092156134043e-02,-6.278845115195164084e-02,-7.534614138234196901e-02,-8.790383161273226942e-02,-1.004615218431225976e-01,-1.130192120735129258e-01,-1.255769023039032539e-01,-1.373497368948941588e-01,-1.499074271252844870e-01,-1.624651173556748152e-01,-1.750228075860651433e-01,-1.875804978164554715e-01,-2.001381880468457719e-01,-2.126958782772361001e-01,-2.244687128682270327e-01,-2.370264030986173331e-01,-2.495840933290076613e-01,-2.511538046078064523e-01,-2.511538046078064523e-01,-2.511538046078064523e-01,-2.511538046078064523e-01
-1.203445313745739598e-01,-1.098797895159153715e-01,-9.941504765725675541e-02,-8.895030579859813935e-02,-7.848556393993955105e-02,-6.802082208128096275e-02,-5.821012658878849111e-02,-4.774538473012993056e-02,-3.728064287147134226e-02,-2.681590101281272620e-02,-1.635115915415413790e-02,-5.886417295495494084e-03,-5.551115123125782702e-17,-5.551115123125782702e-17,0.000000000000000000e+00,-5.551115123125782702e-17,0.000000000000000000e+00,-5.551115123125782702e-17,-5.551115123125782702e-17,-5.551115123125782702e-17,-5.551115123125782702e-17,-5.551115123125782702e-17,-5.551115123125782702e-17,-5.551115123125782702e-17,-3.924278196997033064e-03,-1.648196842738733348e-02,-2.903965865777766164e-02,-4.081249324876859430e-02,-5.337018347915895022e-02,-6.592787370954922288e-02,-7.848556393993955105e-02,-9.104325417032985146e-02,-1.036009444007201796e-01,-1.161586346311105356e-01,-1.279314692221014682e-01,-1.404891594524917409e-01,-1.530468496828820690e-01,-1.656045399132723972e-01,-1.781622301436627254e-01,-1.907199203740530535e-01,-2.032776106044433539e-01,-2.158353008348336821e-01,-2.276081354258246148e-01,-2.401658256562149152e-01,-2.511538046078064523e-01,-2.511538046078064523e-01,-2.511538046078064523e-01
-1.386578296272265032e-01,-1.281930877685679149e-01,-1.177283459099092988e-01,-1.072636040512507105e-01,-9.679886219259209446e-02,-8.633412033393350615e-02,-7.586937847527489009e-02,-6.540463661661630179e-02,-5.559394112412383016e-02,-4.512919926546529736e-02,-3.466445740680670906e-02,-2.419971554814809300e-02,-1.373497368948944919e-02,-3.270231830830860886e-03,-5.551115123125782702e-17,-5.551115123125782702e-17,-5.551115123125782702e-17,-5.551115123125782702e-17,-5.551115123125782702e-17,-5.551115123125782702e-17,-5.551115123125782702e-17,-5.551115123125782702e-17,-5.551115123125782702e-17,-5.551115123125782702e-17,-5.551115123125782702e-17,-5.551115123125782702e-17,-7.063700754594615105e-03,-1.962139098498494327e-02,-3.217908121537527144e-02,-4.395191580636617634e-02,-5.650960603675650451e-02,-6.906729626714680492e-02,-8.162498649753713309e-02,-9.418267672792743350e-02,-1.067403669583177617e-01,-1.192980571887080898e-01,-1.310708917796990225e-01,-1.436285820100893229e-01,-1.561862722404796511e-01,-1.687439624708699792e-01,-1.813016527012603074e-01,-1.938593429316506078e-01,-2.064170331620409360e-01,-2.181898677530318686e-01,-2.307475579834221691e-01,-2.433052482138124972e-01,-2.511538046078064523e-01
-1.563170815137128744e-01,-1.458523396550542861e-01,-1.360416441625618700e-01,-1.255769023039032539e-01,-1.151121604452446656e-01,-1.046474185865860496e-01,-9.418267672792746126e-02,-8.371793486926884520e-02,-7.325319301061022914e-02,-6.344249751811781302e-02,-5.297775565945922471e-02,-4.251301380080063641e-02,-3.204827194214202035e-02,-2.158353008348340429e-02,-1.111878822482481599e-02,-6.540463661662276884e-04,-5.551115123125782702e-17,-5.551115123125782702e-17,-5.551115123125782702e-17,-5.551115123125782702e-17,-5.551115123125782702e-17,-5.551115123125782702e-17,-5.551115123125782702e-17,-5.551115123125782702e-17,-5.551115123125782702e-17,-5.551115123125782702e-17,-5.551115123125782702e-17,-5.551115123125782702e-17,-1.020312331219219715e-02,-2.276081354258249756e-02,-3.453364813357343022e-02,-4.709133836396375838e-02,-5.964902859435408655e-02,-7.220671882474438696e-02,-8.476440905513471513e-02,-9.732209928552504330e-02,-1.098797895159153437e-01,-1.224374797463056719e-01,-1.342103143372966045e-01,-1.467680045676869049e-01,-1.593256947980772331e-01,-1.718833850284675613e-01,-1.844410752588578895e-01,-1.969987654892481899e-01,-2.095564557196385180e-01,-2.213292903106294507e-01,-2.414412160702389398e-01
-1.746303797663654456e-01,-1.641656379077068295e-01,-1.537008960490482412e-01,-1.438902005565558251e-01,-1.334254586978972090e-01,-1.229607168392386207e-01,-1.124959749805800047e-01,-1.020312331219213886e-01,-9.156649126326277255e-02,-8.110174940460418425e-02,-7.129105391211174036e-02,-6.082631205345312431e-02,-5.036157019479456376e-02,-3.989682833613597546e-02,-2.943208647747735940e-02,-1.896734461881877110e-02,-8.502602760160182793e-03,-5.551115123125782702e-17,-5.551115123125782702e-17,-5.551115123125782702e-17,-5.551115123125782702e-17,-5.551115123125782702e-17,-5.551115123125782702e-17,-5.551115123125782702e-17,-5.551115123125782702e-17,-5.551115123125782702e-17,-5.551115123125782702e-17,-5.551115123125782702e-17,-5.551115123125782702e-17,-7.848556393994510216e-04,-1.334254586978977919e-02,-2.590023610018010736e-02,-3.767307069117098450e-02,-5.023076092156131267e-02,-6.278845115195164084e-02,-7.534614138234196901e-02,-8.790383161273229717e-02,-1.004615218431225976e-01,-1.130192120735129258e-01,-1.247920466645038584e-01,-1.373497368948941588e-01,-1.499074271252844870e-01,-1.624651173556748152e-01,-1.750228075860651433e-01,-1.875804978164554715e-01,-2.033266640819058335e-01,-2.487011307346833344e-01
-1.929436780190179890e-01,-1.824789361603593729e-01,-1.720141943017007846e-01,-1.615494524430421963e-01,-1.510847105843835803e-01,-1.412740150918911364e-01,-1.308092732332325481e-01,-1.203445313745739598e-01,-1.098797895159153437e-01,-9.941504765725672765e-02,-8.895030579859813935e-02,-7.848556393993955105e-02,-6.867486844744707941e-02,-5.821012658878851886e-02,-4.774538473012993056e-02,-3.728064287147137001e-02,-2.681590101281272620e-02,-1.635115915415411014e-02,-5.886417295495494084e-03,-5.551115123125782702e-17,-5.551115123125782702e-17,-5.551115123125782702e-17,-5.551115123125782702e-17,-5.551115123125782702e-17,-5.551115123125782702e-17,-5.551115123125782702e-17,-5.551115123125782702e-17,-5.551115123125782702e-17,-5.551115123125782702e-17,-5.551115123125782702e-17,-5.551115123125782702e-17,-3.924278196997033064e-03,-1.648196842738736123e-02,-2.825480301837823838e-02,-4.081249324876859430e-02,-5.337018347915892247e-02,-6.592787370954925064e-02,-7.848556393993952329e-02,-9.104325417032987922e-02,-1.036009444007201519e-01,-1.153737789917110845e-01,-1.279314692221014405e-01,-1.404891594524917686e-01,-1.530468496828820690e-01,-1.656045399132723972e-01,-2.192199907797435787e-01,-2.511538046078064523e-01
-2.112569762716705324e-01,-2.007922344130119441e-01,-1.903274925543533280e-01,-1.798627506956947397e-01,-1.693980088370361514e-01,-1.589332669783775354e-01,-1.491225714858851192e-01,-1.386578296272265032e-01,-1.281930877685679149e-01,-1.177283459099092988e-01,-1.072636040512507105e-01,-9.679886219259212221e-02,-8.633412033393350615e-02,-7.652342484144103452e-02,-6.605868298278244621e-02,-5.559394112412385791e-02,-4.512919926546529736e-02,-3.466445740680670906e-02,-2.419971554814809300e-02,-1.373497368948944919e-02,-3.924278196997033064e-03,-5.551115123125782702e-17,-5.551115123125782702e-17,-5.551115123125782702e-17,-5.551115123125782702e-17,-5.551115123125782702e-17,-5.551115123125782702e-17,-5.551115123125782702e-17,-5.551115123125782702e-17,-5.551115123125782702e-17,-5.551115123125782702e-17,-5.551115123125782702e-17,-5.551115123125782702e-17,-7.063700754594615105e-03,-1.962139098498491552e-02,-3.139422557597584817e-02,-4.395191580636617634e-02,-5.650960603675650451e-02,-6.906729626714680492e-02,-8.162498649753713309e-02,-9.418267672792746126e-02,-1.067403669583177617e-01,-1.185132015493086943e-01,-1.310708917796990225e-01,-1.637895612471612916e-01,-2.511538046078064523e-01,-2.511538046078064523e-01
-2.289162281581569314e-01,-2.191055326656644875e-01,-2.086407908070058714e-01,-1.981760489483472831e-01,-1.877113070896886948e-01,-1.772465652310301065e-01,-1.667818233723714627e-01,-1.563170815137128744e-01,-1.465063860212204583e-01,-1.360416441625618700e-01,-1.255769023039032539e-01,-1.151121604452446379e-01,-1.046474185865860496e-01,-9.418267672792746126e-02,-8.371793486926884520e-02,-7.390723937677640132e-02,-6.344249751811781302e-02,-5.297775565945922471e-02,-4.251301380080063641e-02,-3.204827194214204811e-02,-2.158353008348343205e-02,-1.111878822482481599e-02,-1.308092732332399866e-03,-1.110223024625156540e-16,-5.551115123125782702e-17,-5.551115123125782702e-17,-5.551115123125782702e-17,-5.551115123125782702e-17,-5.551115123125782702e-17,-5.551115123125782702e-17,-5.551115123125782702e-17,-5.551115123125782702e-17,-5.551115123125782702e-17,-5.551115123125782702e-17,-5.551115123125782702e-17,-1.020312331219219715e-02,-2.197595790318310205e-02,-3.453364813357343022e-02,-4.709133836396375838e-02,-5.964902859435405880e-02,-7.220671882474438696e-02,-8.476440905513471513e-02,-9.732209928552501554e-02,-1.090949338765159482e-01,-2.106846857012751595e-01,-2.511538046078064523e-01,-2.511538046078064523e-01
-2.472295264108094748e-01,-2.367647845521508865e-01,-2.269540890596584426e-01,-2.164893472009998265e-01,-2.060246053423412382e-01,-1.955598634836826499e-01,-1.850951216250240339e-01,-1.746303797663654456e-01,-1.641656379077068295e-01,-1.543549424152144134e-01,-1.438902005565558251e-01,-1.334254586978972090e-01,-1.229607168392386207e-01,-1.124959749805800047e-01,-1.020312331219213886e-01,-9.156649126326280030e-02,-8.175579577077035642e-02,-7.129105391211174036e-02,-6.082631205345315206e-02,-5.036157019479456376e-02,-3.989682833613597546e-02,-2.943208647747738715e-02,-1.896734461881874334e-02,-8.502602760160182793e-03,-5.551115123125782702e-17,-5.551115123125782702e-17,-5.551115123125782702e-17,-1.110223024625156540e-16,-5.551115123125782702e-17,-5.551115123125782702e-17,-5.551115123125782702e-17,-5.551115123125782702e-17,-5.551115123125782702e-17,-5.551115123125782702e-17,-5.551115123125782702e-17,-5.551115123125782702e-17,-7.848556393994510216e-04,-1.334254586978977919e-02,-2.511538046078068409e-02,-3.767307069117098450e-02,-5.023076092156136818e-02,-6.278845115195166859e-02,-7.534614138234196901e-02,-1.389194481736929498e-01,-2.511538046078064523e-01,-2.511538046078064523e-01,-2.511538046078064523e-01
-2.511538046078064523e-01,-2.511538046078064523e-01,-2.446133409461448138e-01,-2.341485990874862255e-01,-2.243379035949937816e-01,-2.138731617363351933e-01,-2.034084198776766050e-01,-1.929436780190179890e-01,-1.824789361603593729e-01,-1.720141943017007846e-01,-1.615494524430421963e-01,-1.517387569505497524e-01,-1.412740150918911364e-01,-1.308092732332325481e-01,-1.203445313745739320e-01,-1.098797895159153437e-01,-9.941504765725675541e-02,-8.895030579859813935e-02,-7.913961030610572323e-02,-6.867486844744707941e-02,-5.821012658878849111e-02,-4.774538473012993056e-02,-3.728064287147134226e-02,-2.681590101281269845e-02,-1.635115915415411014e-02,-6.540463661661694017e-03,-5.551115123125782702e-17,-5.551115123125782702e-17,-5.551115123125782702e-17,-5.551115123125782702e-17,-5.551115123125782702e-17,-5.551115123125782702e-17,-5.551115123125782702e-17,-5.551115123125782702e-17,-5.551115123125782702e-17,-5.551115123125782702e-17,-5.551115123125782702e-17,-5.551115123125782702e-17,-3.924278196997033064e-03,-1.569711278798796572e-02,-2.825480301837823838e-02,-4.081249324876859430e-02,-5.337018347915892247e-02,-2.164239425643832426e-01,-2.511538046078064523e-01,-2.511538046078064523e-01,-2.511538046078064523e-01
-2.511538046078064523e-01,-2.511538046078064523e-01,-2.511538046078064523e-01,-2.511538046078064523e-01,-2.419971554814801806e-01,-2.321864599889877367e-01,-2.217217181303291484e-01,-2.112569762716705324e-01,-2.007922344130119441e-01,-1.903274925543533280e-01,-1.798627506956947397e-01,-1.693980088370361514e-01,-1.595873133445437075e-01,-1.491225714858851192e-01,-1.386578296272265032e-01,-1.281930877685679149e-01,-1.177283459099093266e-01,-1.072636040512507105e-01,-9.679886219259209446e-02,-8.698816670009965057e-02,-7.652342484144106227e-02,-6.605868298278244621e-02,-5.559394112412385791e-02,-4.512919926546529736e-02,-3.466445740680665355e-02,-2.419971554814809300e-02,-1.438902005565562137e-02,-3.924278196997033064e-03,-5.551115123125782702e-17,-5.551115123125782702e-17,-5.551115123125782702e-17,-5.551115123125782702e-17,-5.551115123125782702e-17,-5.551115123125782702e-17,-5.551115123125782702e-17,-5.551115123125782702e-17,-5.551115123125782702e-17,-5.551115123125782702e-17,-5.551115123125782702e-17,-5.551115123125782702e-17,-7.063700754594615105e-03,-1.883653534558549225e-02,-1.275390414024017427e-01,-2.511538046078064523e-01,-2.511538046078064523e-01,-2.511538046078064523e-01,-2.511538046078064523e-01
-2.511538046078064523e-01,-2.511538046078064523e-01,-2.511538046078064523e-01,-2.511538046078064523e-01,-2.511538046078064523e-01,-2.498457118754741357e-01,-2.400350163829816919e-01,-2.295702745243231035e-01,-2.191055326656644875e-01,-2.086407908070058714e-01,-1.981760489483472831e-01,-1.877113070896886948e-01,-1.772465652310301065e-01,-1.667818233723714905e-01,-1.569711278798790466e-01,-1.465063860212204583e-01,-1.360416441625618700e-01,-1.255769023039032539e-01,-1.151121604452446379e-01,-1.046474185865860496e-01,-9.418267672792743350e-02,-8.437198123543501738e-02,-7.390723937677640132e-02,-6.344249751811781302e-02,-5.297775565945919696e-02,-4.251301380080063641e-02,-3.204827194214202035e-02,-2.158353008348340429e-02,-1.177283459099098817e-02,-1.308092732332372110e-03,-5.551115123125782702e-17,-5.551115123125782702e-17,-5.551115123125782702e-17,-5.551115123125782702e-17,-5.551115123125782702e-17,-5.551115123125782702e-17,-5.551115123125782702e-17,-5.551115123125782702e-17,-5.551115123125782702e-17,-5.551115123125782702e-17,0.000000000000000000e+00,-1.569711278798796572e-02,-2.360453335493681026e-01,-2.511538046078064523e-01,-2.511538046078064523e-01,-2.511538046078064523e-01,-2.511538046078064523e-01
-2.511538046078064523e-01,-2.511538046078064523e-01,-2.511538046078064523e-01,-2.511538046078064523e-01,-2.511538046078064523e-01,-2.511538046078064523e-01,-2.511538046078064523e-01,-2.472295264108094748e-01,-2.374188309183170309e-01,-2.269540890596584426e-01,-2.164893472009998265e-01,-2.060246053423412382e-01,-1.955598634836826499e-01,-1.850951216250240339e-01,-1.746303797663654178e-01,-1.648196842738729739e-01,-1.543549424152144134e-01,-1.438902005565558251e-01,-1.334254586978972090e-01,-1.229607168392386207e-01,-1.124959749805800047e-01,-1.020312331219213886e-01,-9.222053762942894473e-02,-8.175579577077035642e-02,-7.129105391211174036e-02,-6.082631205345312431e-02,-5.036157019479456376e-02,-3.989682833613597546e-02,-2.943208647747735940e-02,-1.962139098498491552e-02,-9.156649126326327215e-03,-5.551115123125782702e-17,-5.551115123125782702e-17,-5.551115123125782702e-17,-5.551115123125782702e-17,-5.551115123125782702e-17,-5.551115123125782702e-17,-5.551115123125782702e-17,-5.551115123125782702e-17,0.000000000000000000e+00,-5.551115123125782702e-17,-1.412740150918911641e-01,-2.511538046078064523e-01,-2.511538046078064523e-01,-2.511538046078064523e-01,-2.511538046078064523e-01,-2.511538046078064523e-01
-2.511538046078064523e-01,-2.511538046078064523e-01,-2.511538046078064523e-01,-2.511538046078064523e-01,-2.511538046078064523e-01,-2.511538046078064523e-01,-2.511538046078064523e-01,-2.511538046078064523e-01,-2.511538046078064523e-01,-2.446133409461448138e-01,-2.348026454536523977e-01,-2.243379035949937816e-01,-2.138731617363351933e-01,-2.034084198776765773e-01,-1.929436780190179890e-01,-1.824789361603593729e-01,-1.720141943017007846e-01,-1.622034988092083685e-01,-1.517387569505497524e-01,-1.412740150918911641e-01,-1.308092732332325481e-01,-1.203445313745739598e-01,-1.098797895159153715e-01,-9.941504765725672765e-02,-8.960435216476431153e-02,-7.913961030610569547e-02,-6.867486844744707941e-02,-5.821012658878854662e-02,-4.774538473012993056e-02,-3.728064287147131450e-02,-2.681590101281272620e-02,-1.700520552032028232e-02,-6.540463661661666261e-03,-5.551115123125782702e-17,-5.551115123125782702e-17,-5.551115123125782702e-17,-5.551115123125782702e-17,-5.551115123125782702e-17,-5.551115123125782702e-17,-1.110223024625156540e-16,-4.709133836396373063e-02,-2.511538046078064523e-01,-2.511538046078064523e-01,-2.511538046078064523e-01,-2.511538046078064523e-01,-2.511538046078064523e-01,-2.511538046078064523e-01
-2.511538046078064523e-01,-2.511538046078064523e-01,-2.511538046078064523e-01,-2.511538046078064523e-01,-2.511538046078064523e-01,-2.511538046078064523e-01,-2.511538046078064523e-01,-2.511538046078064523e-01,-2.511538046078064523e-01,-2.511538046078064523e-01,-2.511538046078064523e-01,-2.426512018476463250e-01,-2.321864599889877367e-01,-2.217217181303291484e-01,-2.112569762716705324e-01,-2.007922344130119441e-01,-1.903274925543533280e-01,-1.798627506956947397e-01,-1.700520552032022958e-01,-1.595873133445437075e-01,-1.491225714858850915e-01,-1.386578296272265032e-01,-1.281930877685679149e-01,-1.177283459099093266e-01,-1.072636040512507105e-01,-9.745290855875826663e-02,-8.698816670009965057e-02,-7.652342484144103452e-02,-6.605868298278244621e-02,-5.559394112412385791e-02,-4.512919926546526961e-02,-3.466445740680668131e-02,-2.485376191431423742e-02,-1.438902005565562137e-02,-3.924278196997033064e-03,-5.551115123125782702e-17,-5.551115123125782702e-17,-5.551115123125782702e-17,-5.551115123125782702e-17,-5.551115123125782702e-17,-1.726682406678669568e-01,-2.511538046078064523e-01,-2.511538046078064523e-01,-2.511538046078064523e-01,-2.511538046078064523e-01,-2.511538046078064523e-01,-2.511538046078064523e-01
-2.511538046078064523e-01,-2.511538046078064523e-01,-2.511538046078064523e-01,-2.511538046078064523e-01,-2.511538046078064523e-01,-2.511538046078064523e-01,-2.511538046078064523e-01,-2.511538046078064523e-01,-2.511538046078064523e-01,-2.511538046078064523e-01,-2.511538046078064523e-01,-2.511538046078064523e-01,-2.504997582416402802e-01,-2.400350163829816919e-01,-2.295702745243230758e-01,-2.191055326656644875e-01,-2.086407908070058714e-01,-1.981760489483472831e-01,-1.877113070896886948e-01,-1.772465652310301065e-01,-1.674358697385376349e-01,-1.569711278798790466e-01,-1.465063860212204583e-01,-1.360416441625618700e-01,-1.255769023039032539e-01,-1.151121604452446379e-01,-1.046474185865860496e-01,-9.483672309409360568e-02,-8.437198123543498962e-02,-7.390723937677640132e-02,-6.344249751811781302e-02,-5.297775565945922471e-02,-4.251301380080063641e-02,-3.204827194214202035e-02,-2.223757644964957647e-02,-1.177283459099096041e-02,-1.308092732332399866e-03,-5.551115123125782702e-17,-5.551115123125782702e-17,-7.848556393993955105e-02,-2.511538046078064523e-01,-2.511538046078064523e-01,-2.511538046078064523e-01,-2.511538046078064523e-01,-2.511538046078064523e-01,-2.511538046078064523e-01,-2.511538046078064523e-01
-2.511538046078064523e-01,-2.511538046078064523e-01,-2.511538046078064523e-01,-2.511538046078064523e-01,-2.511538046078064523e-01,-2.511538046078064523e-01,-2.511538046078064523e-01,-2.511538046078064523e-01,-2.511538046078064523e-01,-2.511538046078064523e-01,-2.511538046078064523e-01,-2.511538046078064523e-01,-2.511538046078064523e-01,-2.511538046078064523e-01,-2.478835727769756470e-01,-2.374188309183170309e-01,-2.269540890596584426e-01,-2.164893472009998265e-01,-2.060246053423412382e-01,-1.955598634836826499e-01,-1.850951216250240616e-01,-1.752844261325315900e-01,-1.648196842738729739e-01,-1.543549424152144134e-01,-1.438902005565558251e-01,-1.334254586978972090e-01,-1.229607168392386207e-01,-1.124959749805800047e-01,-1.026852794880875608e-01,-9.222053762942894473e-02,-8.175579577077035642e-02,-7.129105391211174036e-02,-6.082631205345315206e-02,-5.036157019479459152e-02,-3.989682833613600321e-02,-3.008613284364353158e-02,-1.962139098498497103e-02,-9.156649126326354970e-03,-5.551115123125782702e-17,-2.040624662438427495e-01,-2.511538046078064523e-01,-2.511538046078064523e-01,-2.511538046078064523e-01,-2.511538046078064523e-01,-2.511538046078064523e-01,-2.511538046078064523e-01,-2.511538046078064523e-01
-2.511538046078064523e-01,-2.511538046078064523e-01,-2.511538046078064523e-01,-2.511538046078064523e-01,-2.511538046078064523e-01,-2.511538046078064523e-01,-2.511538046078064523e-01,-2.511538046078064523e-01,-2.511538046078064523e-01,-2.511538046078064523e-01,-2.511538046078064523e-01,-2.511538046078064523e-01,-2.511538046078064523e-01,-2.511538046078064523e-01,-2.511538046078064523e-01,-2.511538046078064523e-01,-2.452673873123109860e-01,-2.348026454536523977e-01,-2.243379035949937816e-01,-2.138731617363351933e-01,-2.034084198776765773e-01,-1.929436780190179890e-01,-1.831329825265255451e-01,-1.726682406678669568e-01,-1.622034988092083685e-01,-1.517387569505497524e-01,-1.412740150918911641e-01,-1.308092732332325481e-01,-1.203445313745739320e-01,-1.098797895159153437e-01,-1.000690940234229276e-01,-8.960435216476431153e-02,-7.913961030610572323e-02,-6.867486844744710717e-02,-5.821012658878849111e-02,-4.774538473012990281e-02,-3.728064287147131450e-02,-2.746994737897889838e-02,-1.194452176210954730e-01,-2.511538046078064523e-01,-2.511538046078064523e-01,-2.511538046078064523e-01,-2.511538046078064523e-01,-2.511538046078064523e-01,-2.511538046078064523e-01,-2.511538046078064523e-01,-2.511538046078064523e-01
-2.511538046078064523e-01,-2.511538046078064523e-01,-2.511538046078064523e-01,-2.511538046078064523e-01,-2.511538046078064523e-01,-2.511538046078064523e-01,-2.511538046078064523e-01,-2.511538046078064523e-01,-2.511538046078064523e-01,-2.511538046078064523e-01,-2.511538046078064523e-01,-2.511538046078064523e-01,-2.511538046078064523e-01,-2.511538046078064523e-01,-2.511538046078064523e-01,-2.511538046078064523e-01,-2.511538046078064523e-01,-2.511538046078064523e-01,-2.426512018476463250e-01,-2.321864599889877367e-01,-2.217217181303291484e-01,-2.112569762716705324e-01,-2.007922344130119163e-01,-1.903274925543533280e-01,-1.805167970618609119e-01,-1.700520552032022958e-01,-1.595873133445436798e-01,-1.491225714858850915e-01,-1.386578296272265032e-01,-1.281930877685679149e-01,-1.177283459099092988e-01,-1.079176504174168549e-01,-9.745290855875826663e-02,-8.698816670009967833e-02,-7.652342484144103452e-02,-6.605868298278244621e-02,-5.559394112412385791e-02,-5.800573709936160394e-02,-2.376640983056293455e-01,-2.511538046078064523e-01,-2.511538046078064523e-01,-2.511538046078064523e-01,-2.511538046078064523e-01,-2.511538046078064523e-01,-2.511538046078064523e-01,-2.511538046078064523e-01,-2.511538046078064523e-01
-2.511538046078064523e-01,-2.511538046078064523e-01,-2.511538046078064523e-01,-2.511538046078064523e-01,-2.511538046078064523e-01,-2.511538046078064523e-01,-2.511538046078064523e-01,-2.511538046078064523e-01,-2.511538046078064523e-01,-2.511538046078064523e-01,-2.511538046078064523e-01,-2.511538046078064523e-01,-2.511538046078064523e-01,-2.511538046078064523e-01,-2.511538046078064523e-01,-2.511538046078064523e-01,-2.511538046078064523e-01,-2.511538046078064523e-01,-2.511538046078064523e-01,-2.504997582416402802e-01,-2.400350163829816919e-01,-2.295702745243231035e-01,-2.191055326656644875e-01,-2.086407908070058714e-01,-1.981760489483472831e-01,-1.883653534558548670e-01,-1.779006115971962509e-01,-1.674358697385376349e-01,-1.569711278798790466e-01,-1.465063860212204583e-01,-1.360416441625618700e-01,-1.255769023039032539e-01,-1.157662068114108100e-01,-1.053014649527521940e-01,-9.483672309409360568e-02,-8.437198123543498962e-02,-7.390723937677640132e-02,-1.690301077560676657e-01,-2.511538046078064523e-01,-2.511538046078064523e-01,-2.511538046078064523e-01,-2.511538046078064523e-01,-2.511538046078064523e-01,-2.511538046078064523e-01,-2.511538046078064523e-01,-2.511538046078064523e-01,-2.511538046078064523e-01
