5.835105702505405390e-02,5.835105702505405390e-02,5.835105702505405390e-02,5.835105702505405390e-02,5.835105702505405390e-02,5.835105702505405390e-02,5.835105702505405390e-02,5.835105702505405390e-02,5.835105702505405390e-02,5.835105702505405390e-02,5.835105702505405390e-02,5.835105702505405390e-02,5.835105702505405390e-02,5.835105702505405390e-02,5.835105702505405390e-02,5.835105702505405390e-02,5.835105702505405390e-02,2.727652961526194977e-02,-3.797997794530154347e-03,-3.797997794530147408e-02,-4.108743068628069317e-02,-4.108743068628067929e-02,-4.108743068628067929e-02,-4.108743068628067929e-02,-4.108743068628067929e-02,-3.625361531142412552e-02,-2.589543950816010354e-02,-1.519199117812058963e-02,-4.833815374856553770e-03,5.524360428407482093e-03,1.588253623167150408e-02,2.658598456171101104e-02,3.694416036497504691e-02,4.730233616823908277e-02,5.766051197150311863e-02,5.835105702505405390e-02,5.835105702505405390e-02,5.835105702505405390e-02,5.835105702505405390e-02,5.835105702505405390e-02,5.835105702505405390e-02,5.835105702505405390e-02,5.835105702505405390e-02,5.835105702505405390e-02,5.835105702505405390e-02,5.835105702505405390e-02,5.835105702505405390e-02
5.835105702505405390e-02,5.835105702505405390e-02,5.835105702505405390e-02,5.835105702505405390e-02,5.835105702505405390e-02,4.130329388042926209e-02,4.130329388042926209e-02,4.130329388042926209e-02,4.130329388042926209e-02,5.835105702505405390e-02,5.835105702505405390e-02,5.835105702505405390e-02,5.835105702505405390e-02,5.835105702505405390e-02,3.349143509722037060e-02,-6.905450535509422005e-04,-3.176507246334304979e-02,-4.108743068628067929e-02,-4.108743068628067929e-02,-4.108743068628067929e-02,-4.108743068628067929e-02,-4.108743068628067929e-02,-4.108743068628067929e-02,-4.108743068628067929e-02,-4.108743068628067929e-02,-3.970634057917880877e-02,-2.934816477591478678e-02,-1.898998897265073704e-02,-8.631813169386701179e-03,2.071635160652798846e-03,1.242981096391682777e-02,2.278798676718086363e-02,3.314616257044490644e-02,4.384961090048440646e-02,5.420778670374844233e-02,5.835105702505405390e-02,5.835105702505405390e-02,5.835105702505405390e-02,5.835105702505405390e-02,5.835105702505405390e-02,5.835105702505405390e-02,5.835105702505405390e-02,5.835105702505405390e-02,5.835105702505405390e-02,5.835105702505405390e-02,5.835105702505405390e-02,5.835105702505405390e-02
5.835105702505405390e-02,5.835105702505405390e-02,5.835105702505405390e-02,5.835105702505405390e-02,5.835105702505405390e-02,4.130329388042926209e-02,4.130329388042926209e-02,4.130329388042926209e-02,4.130329388042926209e-02,5.835105702505405390e-02,5.835105702505405390e-02,3.659888783819958274e-02,2.416907687428263007e-03,-2.865761972236383071e-02,-4.108743068628066542e-02,-4.108743068628067929e-02,-4.108743068628067929e-02,-4.108743068628066542e-02,-4.108743068628067929e-02,-4.108743068628067929e-02,-4.108743068628067929e-02,-4.108743068628067929e-02,-4.108743068628066542e-02,-4.108743068628066542e-02,-4.108743068628067929e-02,-4.108743068628066542e-02,-3.314616257044492031e-02,-2.244271424040542029e-02,-1.208453843714138443e-02,-1.726362633877348562e-03,8.631813169386687301e-03,1.933526149942618733e-02,2.969343730269022319e-02,4.005161310595425905e-02,5.040978890921829492e-02,5.835105702505405390e-02,5.835105702505405390e-02,5.835105702505405390e-02,5.835105702505405390e-02,5.835105702505405390e-02,5.835105702505405390e-02,5.835105702505405390e-02,5.835105702505405390e-02,5.835105702505405390e-02,5.835105702505405390e-02,5.835105702505405390e-02,5.835105702505405390e-02
5.835105702505405390e-02,5.835105702505405390e-02,5.835105702505405390e-02,5.835105702505405390e-02,5.835105702505405390e-02,4.130329388042926209e-02,4.130329388042926209e-02,4.130329388042926209e-02,2.265857743455399614e-02,8.631813169386687301e-03,-2.555016698138462550e-02,-4.108743068628067929e-02,-4.108743068628067929e-02,-4.108743068628067929e-02,-4.108743068628067929e-02,-4.108743068628067929e-02,-4.108743068628067929e-02,-4.108743068628067929e-02,-4.108743068628066542e-02,-4.108743068628066542e-02,-4.108743068628067929e-02,-4.108743068628067929e-02,-4.108743068628067929e-02,-4.108743068628067929e-02,-4.108743068628067929e-02,-4.108743068628067929e-02,-3.659888783819960356e-02,-2.624071203493555382e-02,-1.588253623167153183e-02,-5.179087901632031810e-03,5.179087901632010993e-03,1.553726370489603992e-02,2.589543950816007578e-02,3.625361531142411164e-02,4.695706364146361167e-02,5.731523944472764753e-02,5.835105702505405390e-02,5.835105702505405390e-02,5.835105702505405390e-02,5.835105702505405390e-02,5.835105702505405390e-02,5.835105702505405390e-02,5.835105702505405390e-02,5.835105702505405390e-02,5.835105702505405390e-02,5.835105702505405390e-02,5.835105702505405390e-02
5.835105702505405390e-02,5.835105702505405390e-02,5.835105702505405390e-02,5.835105702505405390e-02,5.835105702505405390e-02,2.576603017553320829e-02,-5.308497234258899300e-03,-3.949047738503021210e-02,-5.813519383090547110e-02,-4.108743068628067929e-02,-4.108743068628067929e-02,-4.108743068628067929e-02,-4.108743068628067929e-02,-4.108743068628066542e-02,-4.108743068628067929e-02,-4.108743068628067929e-02,-4.108743068628067929e-02,-4.108743068628067929e-02,-4.108743068628067929e-02,-4.108743068628067929e-02,-4.108743068628067929e-02,-4.108743068628067929e-02,-4.108743068628067929e-02,-4.108743068628067929e-02,-4.108743068628067929e-02,-4.108743068628067929e-02,-4.039688563272973709e-02,-2.969343730269025095e-02,-1.933526149942620120e-02,-8.977085696162165340e-03,1.381090107101863584e-03,1.208453843714136361e-02,2.244271424040539947e-02,3.280089004366943534e-02,4.315906584693346426e-02,5.351724165019750012e-02,5.835105702505405390e-02,5.835105702505405390e-02,5.835105702505405390e-02,5.835105702505405390e-02,5.835105702505405390e-02,5.835105702505405390e-02,5.835105702505405390e-02,5.835105702505405390e-02,5.835105702505405390e-02,5.835105702505405390e-02,5.835105702505405390e-02
5.835105702505405390e-02,5.835105702505405390e-02,5.173800916065766919e-02,2.341163526866905931e-02,-8.536863224523461025e-03,-4.015519486398691495e-02,-4.108743068628066542e-02,-4.108743068628069317e-02,-4.108743068628067929e-02,-4.108743068628067929e-02,-4.108743068628066542e-02,-4.108743068628067929e-02,-4.108743068628067929e-02,-4.108743068628067929e-02,-4.108743068628067929e-02,-4.108743068628067929e-02,-4.108743068628067929e-02,-4.108743068628067929e-02,-4.108743068628067929e-02,-4.108743068628067929e-02,-4.108743068628067929e-02,-4.108743068628067929e-02,-4.108743068628069317e-02,-4.108743068628067929e-02,-4.108743068628066542e-02,-4.108743068628067929e-02,-4.108743068628067929e-02,-1.913276665382779851e-01,-1.809694907350139492e-01,-1.702660424049744492e-01,-1.599078666017104133e-01,-1.495496907984463775e-01,1.864471644587525206e-02,2.900289224913928793e-02,3.970634057917879489e-02,5.006451638244282382e-02,5.835105702505405390e-02,5.835105702505405390e-02,5.835105702505405390e-02,5.835105702505405390e-02,5.835105702505405390e-02,5.835105702505405390e-02,5.835105702505405390e-02,5.835105702505405390e-02,5.835105702505405390e-02,5.835105702505405390e-02,5.835105702505405390e-02
4.017245849032567706e-02,1.680829819408823089e-02,-8.769922180096881292e-03,-1.809228040303452467e-02,-2.741463862597215417e-02,-3.704774212300772362e-02,-4.108743068628066542e-02,-4.108743068628067929e-02,-4.108743068628067929e-02,-4.108743068628067929e-02,-4.108743068628067929e-02,-4.108743068628067929e-02,-4.108743068628067929e-02,-4.108743068628067929e-02,-4.108743068628067929e-02,-4.108743068628067929e-02,-4.108743068628069317e-02,-4.108743068628067929e-02,-4.108743068628067929e-02,-4.108743068628067929e-02,-4.108743068628067929e-02,-4.108743068628067929e-02,-4.108743068628067929e-02,-4.108743068628067929e-02,-4.108743068628067929e-02,-4.108743068628067929e-02,-4.108743068628067929e-02,-1.947803918060326822e-01,-1.844222160027686463e-01,-1.740640401995046105e-01,-1.637058643962405746e-01,-1.530024160662010746e-01,1.519199117812057576e-02,2.555016698138461162e-02,3.590834278464864748e-02,4.626651858791267641e-02,5.696996691795218337e-02,5.835105702505405390e-02,5.835105702505405390e-02,5.835105702505405390e-02,5.835105702505405390e-02,5.835105702505405390e-02,5.835105702505405390e-02,5.835105702505405390e-02,5.835105702505405390e-02,5.835105702505405390e-02,5.835105702505405390e-02
1.329299228085550899e-02,3.970634057917865611e-03,-5.662469439117676084e-03,-1.498482766205530559e-02,-2.430718588499294897e-02,-3.362954410793057847e-02,-4.108743068628067929e-02,-4.108743068628067929e-02,-4.108743068628067929e-02,-4.108743068628067929e-02,-4.108743068628067929e-02,-4.108743068628067929e-02,-4.108743068628066542e-02,-4.108743068628069317e-02,-4.108743068628067929e-02,-4.108743068628067929e-02,-4.108743068628067929e-02,-4.108743068628067929e-02,-4.108743068628067929e-02,-4.108743068628067929e-02,-4.108743068628067929e-02,-4.108743068628067929e-02,-4.108743068628067929e-02,-4.108743068628067929e-02,-4.108743068628066542e-02,-4.108743068628067929e-02,-4.108743068628067929e-02,-1.985783896005628435e-01,-1.882202137972987799e-01,-1.775167654672592799e-01,-1.671585896639952440e-01,-1.568004138607312081e-01,1.139399338359042835e-02,2.175216918685446421e-02,3.245561751689396424e-02,4.281379332015800010e-02,5.317196912342203596e-02,5.835105702505405390e-02,5.835105702505405390e-02,5.835105702505405390e-02,5.835105702505405390e-02,5.835105702505405390e-02,5.835105702505405390e-02,5.835105702505405390e-02,5.835105702505405390e-02,5.835105702505405390e-02,5.835105702505405390e-02
1.640044502183471420e-02,7.078086798897084697e-03,-2.244271424040544805e-03,-1.156662964697816043e-02,-2.088898786991581769e-02,-3.052209136695137326e-02,-3.984444958988898888e-02,-4.108743068628067929e-02,-4.108743068628067929e-02,-4.108743068628066542e-02,-4.108743068628067929e-02,-4.108743068628067929e-02,-4.108743068628066542e-02,-4.108743068628067929e-02,-4.108743068628067929e-02,-4.108743068628067929e-02,-4.108743068628067929e-02,-4.108743068628067929e-02,-4.108743068628066542e-02,-4.108743068628067929e-02,-4.108743068628067929e-02,-4.108743068628067929e-02,-4.108743068628067929e-02,-4.108743068628067929e-02,-4.108743068628067929e-02,-4.108743068628067929e-02,-4.108743068628067929e-02,-1.989236621273382521e-01,-1.916729390650534492e-01,-1.813147632617894134e-01,-1.709565874585253775e-01,-1.605984116552613417e-01,7.941268115835745101e-03,1.829944391909978790e-02,2.865761972236381683e-02,3.901579552562785269e-02,4.971924385566735966e-02,5.835105702505405390e-02,5.835105702505405390e-02,5.835105702505405390e-02,5.835105702505405390e-02,5.835105702505405390e-02,5.835105702505405390e-02,5.835105702505405390e-02,5.835105702505405390e-02,5.835105702505405390e-02,5.835105702505405390e-02
1.981864303691184548e-02,1.049628481397421598e-02,1.173926591036586475e-03,-8.459176905998955220e-03,-1.778153512893659860e-02,-2.710389335187422810e-02,-3.642625157481187148e-02,-4.108743068628067929e-02,-4.108743068628067929e-02,-4.108743068628067929e-02,-4.108743068628067929e-02,-4.108743068628067929e-02,-4.108743068628067929e-02,-4.108743068628067929e-02,-4.108743068628067929e-02,-4.108743068628066542e-02,-4.108743068628067929e-02,-4.108743068628066542e-02,-4.108743068628066542e-02,-4.108743068628067929e-02,-4.108743068628066542e-02,-4.108743068628066542e-02,-4.108743068628067929e-02,-4.108743068628067929e-02,-4.108743068628066542e-02,-4.108743068628067929e-02,-4.108743068628067929e-02,-1.989236621273382521e-01,-1.954709368595836105e-01,-1.847674885295441105e-01,-1.744093127262800746e-01,-1.640511369230160388e-01,4.143270321305611570e-03,1.450144612456963356e-02,2.520489445460914052e-02,3.556307025787316944e-02,4.592124606113721225e-02,5.627942186440124811e-02,5.835105702505405390e-02,5.835105702505405390e-02,5.835105702505405390e-02,5.835105702505405390e-02,5.835105702505405390e-02,5.835105702505405390e-02,5.835105702505405390e-02,5.835105702505405390e-02,5.835105702505405390e-02
2.292609577789105763e-02,1.360373755495342118e-02,4.281379332015798622e-03,-5.040978890921837818e-03,-1.436333711385945344e-02,-2.399644061089502289e-02,-3.331879883383266627e-02,-4.108743068628067929e-02,-4.108743068628067929e-02,-4.108743068628067929e-02,-4.108743068628067929e-02,-4.108743068628067929e-02,-4.108743068628067929e-02,-4.108743068628069317e-02,-4.108743068628067929e-02,-4.108743068628066542e-02,-4.108743068628067929e-02,-4.108743068628067929e-02,-4.108743068628067929e-02,-4.108743068628067929e-02,-4.108743068628067929e-02,-4.108743068628067929e-02,-4.108743068628067929e-02,-4.108743068628067929e-02,-4.108743068628066542e-02,-4.108743068628067929e-02,-4.108743068628067929e-02,-4.108743068628067929e-02,-4.108743068628067929e-02,-3.072925488301665731e-02,-2.037107907975260757e-02,-1.001290327648858558e-02,6.905450535509283227e-04,1.104872085681496419e-02,2.140689666007899311e-02,3.176507246334302897e-02,4.246852079338253594e-02,5.282669659664657180e-02,5.835105702505405390e-02,5.835105702505405390e-02,5.835105702505405390e-02,5.835105702505405390e-02,5.835105702505405390e-02,5.835105702505405390e-02,5.835105702505405390e-02,5.835105702505405390e-02,5.835105702505405390e-02
2.634429379296818891e-02,1.702193557003055940e-02,7.699577347092922963e-03,-1.933526149942632610e-03,-1.125588437288024823e-02,-2.057824259581789161e-02,-2.990060081875553499e-02,-3.953370431579107669e-02,-4.108743068628067929e-02,-4.108743068628067929e-02,-4.108743068628067929e-02,-4.108743068628067929e-02,-4.108743068628067929e-02,-4.108743068628067929e-02,-4.108743068628067929e-02,-4.108743068628067929e-02,-4.108743068628067929e-02,-4.108743068628067929e-02,-4.108743068628067929e-02,-4.108743068628067929e-02,-4.108743068628067929e-02,-4.108743068628067929e-02,-4.108743068628067929e-02,-4.108743068628066542e-02,-4.108743068628067929e-02,-4.108743068628067929e-02,-4.108743068628067929e-02,-4.108743068628067929e-02,-4.108743068628067929e-02,-3.452725267754679084e-02,-2.382380434750730469e-02,-1.346562854424325495e-02,-3.107452740979219086e-03,7.250723062284816778e-03,1.795417139232431680e-02,2.831234719558835267e-02,3.867052299885238853e-02,4.902869880211642439e-02,5.835105702505405390e-02,5.835105702505405390e-02,5.835105702505405390e-02,5.835105702505405390e-02,5.835105702505405390e-02,5.835105702505405390e-02,5.835105702505405390e-02,5.835105702505405390e-02,5.835105702505405390e-02
2.976249180804532019e-02,2.012938831100976461e-02,1.080703008807213511e-02,1.484671865134505608e-03,-7.837686357803116954e-03,-1.747078985483867253e-02,-2.679314807777630203e-02,-3.611550630071394541e-02,-4.108743068628067929e-02,-4.108743068628067929e-02,-4.108743068628067929e-02,-4.108743068628067929e-02,-4.108743068628067929e-02,-4.108743068628067929e-02,-4.108743068628067929e-02,-4.108743068628067929e-02,-4.108743068628067929e-02,-4.108743068628067929e-02,-4.108743068628067929e-02,-4.108743068628066542e-02,-4.108743068628067929e-02,-4.108743068628067929e-02,-4.108743068628067929e-02,-4.108743068628067929e-02,-4.108743068628067929e-02,-4.108743068628069317e-02,-4.108743068628066542e-02,-4.108743068628067929e-02,-4.108743068628067929e-02,-3.797997794530147408e-02,-2.762180214203743822e-02,-1.726362633877340236e-02,-6.560178008733902333e-03,3.797997794530140470e-03,1.415617359779416939e-02,2.451434940105820526e-02,3.521779773109770528e-02,4.557597353436174115e-02,5.593414933762577701e-02,5.835105702505405390e-02,5.835105702505405390e-02,5.835105702505405390e-02,5.835105702505405390e-02,5.835105702505405390e-02,5.835105702505405390e-02,5.835105702505405390e-02,5.835105702505405390e-02
3.286994454902452539e-02,2.354758632608689589e-02,1.422522810314926639e-02,4.592124606113710816e-03,-4.730233616823911746e-03,-1.405259183976154125e-02,-2.337495006269918463e-02,-3.300805355973474020e-02,-4.108743068628067929e-02,-4.108743068628067929e-02,-4.108743068628067929e-02,-4.108743068628067929e-02,-4.108743068628067929e-02,-4.108743068628066542e-02,-4.108743068628067929e-02,-4.108743068628067929e-02,-4.108743068628067929e-02,-4.108743068628067929e-02,-4.108743068628067929e-02,-4.108743068628067929e-02,-4.108743068628067929e-02,-4.108743068628067929e-02,-4.108743068628067929e-02,-4.108743068628067929e-02,-4.108743068628067929e-02,-4.108743068628066542e-02,-4.108743068628067929e-02,-4.108743068628067929e-02,-3.404304637055341476e-01,-3.404304637055341476e-01,-3.304175604290455759e-01,-2.071635160652808560e-02,-1.035817580326404974e-02,0.000000000000000000e+00,1.070344833003948615e-02,2.106162413330352201e-02,3.141979993656755787e-02,4.177797573983159374e-02,5.213615154309562960e-02,5.835105702505405390e-02,5.835105702505405390e-02,5.835105702505405390e-02,5.835105702505405390e-02,5.835105702505405390e-02,5.835105702505405390e-02,5.835105702505405390e-02,5.835105702505405390e-02
3.628814256410166361e-02,2.665503906706610804e-02,1.733268084412847854e-02,8.010322621190849035e-03,-1.312035601746787405e-03,-1.094513909878233604e-02,-2.026749732171996554e-02,-2.958985554465759504e-02,-3.891221376759522455e-02,-4.108743068628067929e-02,-4.108743068628067929e-02,-4.108743068628066542e-02,-4.108743068628067929e-02,-4.108743068628067929e-02,-4.108743068628067929e-02,-4.108743068628067929e-02,-4.108743068628067929e-02,-4.108743068628067929e-02,-4.108743068628067929e-02,-4.108743068628067929e-02,-4.108743068628067929e-02,-4.108743068628067929e-02,-4.108743068628067929e-02,-4.108743068628067929e-02,-4.108743068628066542e-02,-4.108743068628066542e-02,-4.108743068628066542e-02,-4.108743068628067929e-02,-3.404304637055341476e-01,-3.404304637055341476e-01,-3.342155582235757372e-01,-2.451434940105823301e-02,-1.381090107101871911e-02,-3.452725267754690186e-03,6.905450535509352616e-03,1.726362633877337460e-02,2.796707466881288157e-02,3.832525047207692437e-02,4.868342627534095329e-02,5.835105702505405390e-02,5.835105702505405390e-02,5.835105702505405390e-02,5.835105702505405390e-02,5.835105702505405390e-02,5.835105702505405390e-02,5.835105702505405390e-02,5.835105702505405390e-02
3.939559530508086882e-02,3.007323708214323932e-02,2.075087885920560982e-02,1.111777536217005424e-02,1.795417139232417802e-03,-7.526941083705204760e-03,-1.684929930664282038e-02,-2.648240280367838984e-02,-3.580476102661601934e-02,-4.108743068628067929e-02,-4.108743068628067929e-02,-4.108743068628067929e-02,-4.108743068628067929e-02,-4.108743068628067929e-02,-4.108743068628067929e-02,-4.108743068628067929e-02,-4.108743068628066542e-02,-4.108743068628067929e-02,-4.108743068628069317e-02,-4.108743068628067929e-02,-4.108743068628066542e-02,-4.108743068628067929e-02,-4.108743068628067929e-02,-4.108743068628067929e-02,-4.108743068628067929e-02,-4.108743068628066542e-02,-4.108743068628067929e-02,-4.108743068628067929e-02,-3.404304637055341476e-01,-3.404304637055341476e-01,-3.376682834913303788e-01,-2.796707466881290238e-02,-1.760889886554886652e-02,-7.250723062284830656e-03,3.452725267754669369e-03,1.381090107101869829e-02,2.416907687428273416e-02,3.452725267754677002e-02,4.488542848081080588e-02,5.558887681085031285e-02,5.835105702505405390e-02,5.835105702505405390e-02,5.835105702505405390e-02,5.835105702505405390e-02,5.835105702505405390e-02,5.835105702505405390e-02,5.835105702505405390e-02
4.281379332015800010e-02,3.318068982312245147e-02,2.385833160018481502e-02,1.453597337724718552e-02,5.213615154309562960e-03,-4.419488342725985675e-03,-1.374184656566361518e-02,-2.306420478860124468e-02,-3.238656301153888806e-02,-4.108743068628067929e-02,-4.108743068628067929e-02,-4.108743068628069317e-02,-4.108743068628067929e-02,-4.108743068628066542e-02,-4.108743068628069317e-02,-4.108743068628067929e-02,-4.108743068628067929e-02,-4.108743068628066542e-02,-4.108743068628067929e-02,-4.108743068628067929e-02,-4.108743068628067929e-02,-4.108743068628067929e-02,-4.108743068628066542e-02,-4.108743068628067929e-02,-4.108743068628067929e-02,-4.108743068628067929e-02,-4.108743068628067929e-02,-4.108743068628067929e-02,-4.108743068628067929e-02,-4.108743068628067929e-02,-4.108743068628067929e-02,-3.176507246334304979e-02,-2.106162413330353589e-02,-1.070344833003951390e-02,-3.452725267754780392e-04,1.001290327648855782e-02,2.037107907975259369e-02,3.107452740979209371e-02,4.143270321305612958e-02,5.179087901632016544e-02,5.835105702505405390e-02,5.835105702505405390e-02,5.835105702505405390e-02,5.835105702505405390e-02,5.835105702505405390e-02,5.835105702505405390e-02,5.835105702505405390e-02
4.592124606113721225e-02,3.659888783819958274e-02,2.727652961526194977e-02,1.764342611822639767e-02,8.321067895288761229e-03,-1.001290327648868272e-03,-1.032364855058649777e-02,-1.964600677352412728e-02,-2.927911027055968285e-02,-3.860146849349731235e-02,-4.108743068628067929e-02,-4.108743068628066542e-02,-4.108743068628067929e-02,-4.108743068628067929e-02,-4.108743068628067929e-02,-4.108743068628067929e-02,-4.108743068628067929e-02,-4.108743068628067929e-02,-4.108743068628067929e-02,-4.108743068628067929e-02,-4.108743068628066542e-02,-4.108743068628067929e-02,-4.108743068628067929e-02,-4.108743068628069317e-02,-4.108743068628067929e-02,-4.108743068628067929e-02,-4.108743068628067929e-02,-4.108743068628067929e-02,-4.108743068628067929e-02,-4.108743068628067929e-02,-4.108743068628067929e-02,-3.521779773109773304e-02,-2.485962192783368330e-02,-1.450144612456966131e-02,-3.797997794530161286e-03,6.560178008733881516e-03,1.691835381199791044e-02,2.727652961526194630e-02,3.763470541852598217e-02,4.833815374856548219e-02,5.835105702505405390e-02,5.835105702505405390e-02,5.835105702505405390e-02,5.835105702505405390e-02,5.835105702505405390e-02,5.835105702505405390e-02,5.835105702505405390e-02
4.933944407621434353e-02,3.970634057917878795e-02,3.038398235624116192e-02,2.106162413330352895e-02,1.173926591036589945e-02,2.106162413330343874e-03,-7.216195809607278688e-03,-1.653855403254490819e-02,-2.586091225548255157e-02,-3.518327047842018107e-02,-4.108743068628067929e-02,-4.108743068628066542e-02,-4.108743068628067929e-02,-4.108743068628067929e-02,-4.108743068628067929e-02,-4.108743068628067929e-02,-4.108743068628067929e-02,-4.108743068628067929e-02,-4.108743068628067929e-02,-4.108743068628069317e-02,-4.108743068628067929e-02,-4.108743068628067929e-02,-4.108743068628067929e-02,-4.108743068628067929e-02,-4.108743068628067929e-02,-4.108743068628067929e-02,-4.108743068628067929e-02,-4.108743068628067929e-02,-4.108743068628067929e-02,-4.108743068628067929e-02,-4.108743068628067929e-02,-3.901579552562786657e-02,-2.831234719558836654e-02,-1.795417139232433068e-02,-7.595995589060308695e-03,2.762180214203741047e-03,1.312035601746776303e-02,2.382380434750727000e-02,3.418198015077130586e-02,4.454015595403534172e-02,5.489833175729937759e-02,5.835105702505405390e-02,5.835105702505405390e-02,5.835105702505405390e-02,5.835105702505405390e-02,5.835105702505405390e-02,5.835105702505405390e-02
5.244689681719355567e-02,4.312453859425592617e-02,3.380218037131829667e-02,2.416907687428274110e-02,1.484671865134511159e-02,5.524360428407475154e-03,-3.797997794530154347e-03,-1.312035601746777691e-02,-2.275345951450334636e-02,-3.207581773744097586e-02,-4.108743068628067929e-02,-4.108743068628067929e-02,-4.108743068628067929e-02,-4.108743068628067929e-02,-4.108743068628069317e-02,-4.108743068628067929e-02,-4.108743068628067929e-02,-4.108743068628067929e-02,-4.108743068628067929e-02,-4.108743068628067929e-02,-4.108743068628067929e-02,-4.108743068628067929e-02,-4.108743068628067929e-02,-4.108743068628067929e-02,-4.108743068628067929e-02,-4.108743068628067929e-02,-4.108743068628067929e-02,-4.108743068628067929e-02,-4.108743068628067929e-02,-4.108743068628067929e-02,-4.108743068628067929e-02,-4.108743068628067929e-02,-3.211034499011851395e-02,-2.175216918685446421e-02,-1.139399338359044223e-02,-6.905450535509422005e-04,9.667630749713086724e-03,2.002580655297712259e-02,3.038398235624115845e-02,4.108743068628066542e-02,5.144560648954469434e-02,5.835105702505405390e-02,5.835105702505405390e-02,5.835105702505405390e-02,5.835105702505405390e-02,5.835105702505405390e-02,5.835105702505405390e-02
5.586509483227068695e-02,4.623199133523513138e-02,3.690963311229750188e-02,2.758727488935987238e-02,1.826491666642224287e-02,8.631813169386687301e-03,-6.905450535509491394e-04,-1.001290327648855782e-02,-1.933526149942620120e-02,-2.865761972236384458e-02,-3.829072321939938628e-02,-4.108743068628067929e-02,-4.108743068628067929e-02,-4.108743068628067929e-02,-4.108743068628067929e-02,-4.108743068628067929e-02,-4.108743068628067929e-02,-4.108743068628067929e-02,-4.108743068628067929e-02,-4.108743068628067929e-02,-4.108743068628067929e-02,-4.108743068628067929e-02,-4.108743068628067929e-02,-4.108743068628067929e-02,-4.108743068628066542e-02,-4.108743068628067929e-02,-4.108743068628067929e-02,-4.108743068628067929e-02,-4.108743068628067929e-02,-4.108743068628067929e-02,-4.108743068628067929e-02,-4.108743068628066542e-02,-3.556307025787319720e-02,-2.520489445460916134e-02,-1.484671865134512547e-02,-4.488542848081089609e-03,5.869632955182946255e-03,1.657308128522244628e-02,2.693125708848648214e-02,3.728943289175051801e-02,4.764760869501455387e-02,5.835105702505405390e-02,5.835105702505405390e-02,5.835105702505405390e-02,5.835105702505405390e-02,5.835105702505405390e-02,5.835105702505405390e-02
5.835105702505405390e-02,4.965018935031226266e-02,4.032783112737463316e-02,3.069472763033908105e-02,2.137236940740144808e-02,1.205001118446381858e-02,2.727652961526189079e-03,-6.594705261411440422e-03,-1.622780875844698212e-02,-2.555016698138462550e-02,-3.487252520432226888e-02,-4.108743068628067929e-02,-4.108743068628067929e-02,-4.108743068628067929e-02,-4.108743068628067929e-02,-4.108743068628067929e-02,-4.108743068628067929e-02,-4.108743068628067929e-02,-4.108743068628067929e-02,-4.108743068628067929e-02,-4.108743068628069317e-02,-4.108743068628066542e-02,-4.108743068628066542e-02,-4.108743068628067929e-02,-4.108743068628066542e-02,-4.108743068628066542e-02,-4.108743068628067929e-02,-4.108743068628067929e-02,-4.108743068628067929e-02,-4.108743068628067929e-02,-4.108743068628067929e-02,-4.108743068628067929e-02,-3.936106805240334461e-02,-2.900289224913930874e-02,-1.864471644587527288e-02,-7.941268115835772856e-03,2.416907687428276885e-03,1.277508349069229887e-02,2.313325929395633473e-02,3.383670762399583476e-02,4.419488342725987062e-02,5.455305923052390649e-02,5.835105702505405390e-02,5.835105702505405390e-02,5.835105702505405390e-02,5.835105702505405390e-02,5.835105702505405390e-02
5.835105702505405390e-02,5.275764209129147481e-02,4.343528386835383837e-02,3.411292564541620886e-02,2.479056742247857936e-02,1.546820919954094986e-02,5.835105702505401226e-03,-3.487252520432235214e-03,-1.280961074336986472e-02,-2.213196896630749422e-02,-3.176507246334304979e-02,-4.108743068628067929e-02,-4.108743068628067929e-02,-4.108743068628067929e-02,-4.108743068628069317e-02,-4.108743068628067929e-02,-4.108743068628067929e-02,-4.108743068628067929e-02,-4.108743068628067929e-02,-4.108743068628067929e-02,-4.108743068628067929e-02,-4.108743068628067929e-02,-4.108743068628067929e-02,-4.108743068628067929e-02,-4.108743068628067929e-02,-4.108743068628067929e-02,-4.108743068628067929e-02,-4.108743068628067929e-02,-4.108743068628067929e-02,-4.108743068628067929e-02,-4.108743068628066542e-02,-4.108743068628067929e-02,-4.108743068628067929e-02,-3.245561751689399199e-02,-2.209744171362995613e-02,-1.173926591036592026e-02,-1.381090107101884401e-03,9.322358222937629502e-03,1.968053402620165149e-02,3.003870982946568735e-02,4.039688563272972321e-02,5.110033396276923018e-02,5.835105702505405390e-02,5.835105702505405390e-02,5.835105702505405390e-02,5.835105702505405390e-02,5.835105702505405390e-02
5.835105702505405390e-02,5.617584010636860609e-02,4.685348188343097658e-02,3.722037838639542795e-02,2.789802016345779151e-02,1.857566194052016201e-02,9.253303717582532506e-03,-6.905450535509699561e-05,-9.702158002390645630e-03,-1.902451622532827513e-02,-2.834687444826591851e-02,-3.766923267120354801e-02,-4.108743068628067929e-02,-4.108743068628067929e-02,-4.108743068628067929e-02,-4.108743068628066542e-02,-4.108743068628067929e-02,-4.108743068628067929e-02,-4.108743068628067929e-02,-4.108743068628067929e-02,-4.108743068628067929e-02,-4.108743068628066542e-02,-4.108743068628067929e-02,-4.108743068628067929e-02,-4.108743068628066542e-02,-4.108743068628067929e-02,-4.108743068628067929e-02,-4.108743068628067929e-02,-4.108743068628066542e-02,-4.108743068628067929e-02,-4.108743068628067929e-02,-4.108743068628067929e-02,-4.108743068628067929e-02,-3.625361531142413940e-02,-2.589543950816008966e-02,-1.519199117812058963e-02,-4.833815374856553770e-03,5.524360428407482093e-03,1.588253623167150408e-02,2.658598456171101104e-02,3.694416036497504691e-02,4.730233616823908277e-02,5.766051197150311863e-02,5.835105702505405390e-02,5.835105702505405390e-02,5.835105702505405390e-02,5.835105702505405390e-02
5.835105702505405390e-02,5.835105702505405390e-02,4.996093462441018873e-02,4.063857640147255923e-02,3.131621817853492279e-02,2.199385995559729329e-02,1.236075645856174465e-02,3.038398235624108212e-03,-6.283959987313514350e-03,-1.560631821025114385e-02,-2.523942170728671330e-02,-3.456177993022434281e-02,-4.108743068628067929e-02,-4.108743068628067929e-02,-4.108743068628067929e-02,-4.108743068628067929e-02,-4.108743068628067929e-02,-4.108743068628067929e-02,-4.108743068628067929e-02,-4.108743068628067929e-02,-4.108743068628066542e-02,-4.108743068628067929e-02,-4.108743068628067929e-02,-4.108743068628067929e-02,-4.108743068628067929e-02,-4.108743068628067929e-02,-4.108743068628067929e-02,-4.108743068628067929e-02,-4.108743068628067929e-02,-4.108743068628067929e-02,-4.108743068628069317e-02,-4.108743068628067929e-02,-4.108743068628067929e-02,-3.970634057917880877e-02,-2.934816477591478678e-02,-1.898998897265073704e-02,-8.631813169386715057e-03,2.071635160652798846e-03,1.242981096391683471e-02,2.278798676718086363e-02,3.314616257044489950e-02,4.350433837370893536e-02,5.420778670374844233e-02,5.835105702505405390e-02,5.835105702505405390e-02,5.835105702505405390e-02,5.835105702505405390e-02
5.835105702505405390e-02,5.835105702505405390e-02,5.337913263948732001e-02,4.405677441654969051e-02,3.442367091951413494e-02,2.510131269657650543e-02,1.577895447363887593e-02,6.456596250701246431e-03,-3.176507246334309142e-03,-1.249886546927193864e-02,-2.182122369220956815e-02,-3.114358191514721153e-02,-4.077668541218276710e-02,-4.108743068628067929e-02,-4.108743068628067929e-02,-4.108743068628066542e-02,-4.108743068628067929e-02,-4.108743068628067929e-02,-4.108743068628067929e-02,-4.108743068628067929e-02,-4.108743068628067929e-02,-4.108743068628066542e-02,-4.108743068628067929e-02,-4.108743068628067929e-02,-4.108743068628067929e-02,-4.108743068628067929e-02,-4.108743068628067929e-02,-4.108743068628066542e-02,-4.108743068628067929e-02,-4.108743068628067929e-02,-4.108743068628067929e-02,-4.108743068628066542e-02,-4.108743068628066542e-02,-4.108743068628066542e-02,-3.314616257044493419e-02,-2.244271424040542029e-02,-1.208453843714138443e-02,-1.726362633877341624e-03,8.631813169386687301e-03,1.933526149942618039e-02,2.969343730269022319e-02,4.005161310595425905e-02,5.040978890921829492e-02,5.835105702505405390e-02,5.835105702505405390e-02,5.835105702505405390e-02,5.835105702505405390e-02
5.835105702505405390e-02,5.835105702505405390e-02,5.648658538046652522e-02,4.716422715752889572e-02,3.784186893459126622e-02,2.851951071165363324e-02,1.888640721461808114e-02,9.564048991680444700e-03,2.416907687428290763e-04,-9.080667454194793486e-03,-1.871377095123036294e-02,-2.803612917416799244e-02,-3.735848739710562194e-02,-4.108743068628067929e-02,-4.108743068628067929e-02,-4.108743068628066542e-02,-4.108743068628067929e-02,-4.108743068628067929e-02,-4.108743068628067929e-02,-4.108743068628067929e-02,-4.108743068628067929e-02,-4.108743068628067929e-02,-4.108743068628067929e-02,-4.108743068628067929e-02,-4.108743068628066542e-02,-4.108743068628069317e-02,-4.108743068628067929e-02,-4.108743068628066542e-02,-4.108743068628067929e-02,-4.108743068628067929e-02,-4.108743068628067929e-02,-4.108743068628069317e-02,-4.108743068628067929e-02,-4.108743068628067929e-02,-3.659888783819958968e-02,-2.624071203493556770e-02,-1.588253623167153183e-02,-5.179087901632031810e-03,5.179087901632010993e-03,1.553726370489603992e-02,2.589543950816007578e-02,3.625361531142411164e-02,4.695706364146361167e-02,5.731523944472764753e-02,5.835105702505405390e-02,5.835105702505405390e-02,5.835105702505405390e-02
5.835105702505405390e-02,5.835105702505405390e-02,5.835105702505405390e-02,5.058242517260602700e-02,4.094932167557047142e-02,3.162696345263284886e-02,2.230460522969521242e-02,1.298224700675758292e-02,3.349143509722034284e-03,-5.973214713215602156e-03,-1.529557293615321778e-02,-2.461793115909086116e-02,-3.394028938202850454e-02,-4.108743068628067929e-02,-4.108743068628067929e-02,-4.108743068628067929e-02,-4.108743068628067929e-02,-4.108743068628067929e-02,-4.108743068628069317e-02,-4.108743068628066542e-02,-4.108743068628066542e-02,-4.108743068628067929e-02,-4.108743068628067929e-02,-4.108743068628067929e-02,-4.108743068628067929e-02,-4.108743068628067929e-02,-4.108743068628067929e-02,-4.108743068628067929e-02,-4.108743068628069317e-02,-4.108743068628067929e-02,-4.108743068628067929e-02,-4.108743068628067929e-02,-4.108743068628067929e-02,-4.108743068628066542e-02,-4.039688563272975097e-02,-2.969343730269025095e-02,-1.933526149942620120e-02,-8.977085696162179218e-03,1.381090107101863584e-03,1.208453843714135667e-02,2.244271424040539947e-02,3.280089004366943534e-02,4.315906584693346426e-02,5.351724165019750012e-02,5.835105702505405390e-02,5.835105702505405390e-02,5.835105702505405390e-02
5.835105702505405390e-02,5.835105702505405390e-02,5.835105702505405390e-02,5.368987791358523914e-02,4.436751969064760964e-02,3.504516146770997320e-02,2.541205797067442457e-02,1.608969974773679507e-02,6.767341524799165564e-03,-2.555016698138477815e-03,-1.218812019517401257e-02,-2.151047841811165595e-02,-3.083283664104928545e-02,-4.015519486398691495e-02,-4.108743068628066542e-02,-4.108743068628069317e-02,-4.108743068628067929e-02,-4.108743068628067929e-02,-4.108743068628067929e-02,-4.108743068628067929e-02,-4.108743068628067929e-02,-4.108743068628067929e-02,-4.108743068628069317e-02,-4.108743068628067929e-02,-4.108743068628067929e-02,-4.108743068628067929e-02,-4.108743068628067929e-02,-4.108743068628067929e-02,-4.108743068628067929e-02,-4.108743068628067929e-02,-4.108743068628069317e-02,-4.108743068628067929e-02,-4.108743068628067929e-02,-4.108743068628067929e-02,-4.108743068628067929e-02,-3.349143509722038448e-02,-2.313325929395634861e-02,-1.242981096391684859e-02,-2.071635160652812724e-03,8.286540642611223140e-03,1.864471644587524513e-02,2.900289224913928793e-02,3.970634057917878795e-02,5.006451638244282382e-02,5.835105702505405390e-02,5.835105702505405390e-02,5.835105702505405390e-02
5.835105702505405390e-02,5.835105702505405390e-02,5.835105702505405390e-02,5.710807592866237042e-02,4.747497243162682179e-02,3.815261420868918535e-02,2.883025598575155585e-02,1.950789776281392635e-02,9.874794265778377711e-03,5.524360428407412704e-04,-8.769922180096881292e-03,-1.809228040303451079e-02,-2.741463862597215417e-02,-3.704774212300770975e-02,-4.108743068628067929e-02,-4.108743068628067929e-02,-4.108743068628067929e-02,-4.108743068628067929e-02,-4.108743068628067929e-02,-4.108743068628067929e-02,-4.108743068628067929e-02,-4.108743068628067929e-02,-4.108743068628067929e-02,-4.108743068628067929e-02,-4.108743068628067929e-02,-4.108743068628067929e-02,-4.108743068628067929e-02,-4.108743068628067929e-02,-4.108743068628067929e-02,-4.108743068628067929e-02,-4.108743068628067929e-02,-4.108743068628067929e-02,-4.108743068628067929e-02,-4.108743068628067929e-02,-4.108743068628067929e-02,-3.694416036497505385e-02,-2.658598456171104574e-02,-1.622780875844700987e-02,-5.869632955182960132e-03,4.488542848081075731e-03,1.519199117812057576e-02,2.555016698138461162e-02,3.590834278464864748e-02,4.626651858791267641e-02,5.696996691795218337e-02,5.835105702505405390e-02,5.835105702505405390e-02
5.835105702505405390e-02,5.835105702505405390e-02,5.835105702505405390e-02,5.835105702505405390e-02,5.089317044670395307e-02,4.157081222376631663e-02,3.193770872673076799e-02,2.261535050379313155e-02,1.329299228085550899e-02,3.970634057917865611e-03,-5.351724165019750012e-03,-1.498482766205530559e-02,-2.430718588499294897e-02,-3.362954410793057847e-02,-4.108743068628067929e-02,-4.108743068628067929e-02,-4.108743068628067929e-02,-4.108743068628067929e-02,-4.108743068628069317e-02,-4.108743068628067929e-02,-4.108743068628067929e-02,-4.108743068628067929e-02,-4.108743068628067929e-02,-4.108743068628067929e-02,-4.108743068628067929e-02,-4.108743068628067929e-02,-4.108743068628067929e-02,-4.108743068628067929e-02,-4.108743068628067929e-02,-4.108743068628067929e-02,-4.108743068628067929e-02,-4.108743068628067929e-02,-4.108743068628067929e-02,-4.108743068628067929e-02,-4.108743068628067929e-02,-4.074215815950521513e-02,-3.038398235624119315e-02,-1.968053402620166537e-02,-9.322358222937643379e-03,1.035817580326399423e-03,1.139399338359042835e-02,2.175216918685446421e-02,3.245561751689396424e-02,4.281379332015800010e-02,5.317196912342203596e-02,5.835105702505405390e-02,5.835105702505405390e-02
5.835105702505405390e-02,5.835105702505405390e-02,5.835105702505405390e-02,5.835105702505405390e-02,5.400062318768315828e-02,4.467826496474552878e-02,3.535590674180789927e-02,2.603354851887026283e-02,1.640044502183471420e-02,7.078086798897084697e-03,-2.244271424040558682e-03,-1.156662964697816043e-02,-2.088898786991581769e-02,-3.052209136695135938e-02,-3.984444958988898888e-02,-4.108743068628066542e-02,-4.108743068628067929e-02,-4.108743068628067929e-02,-4.108743068628067929e-02,-4.108743068628067929e-02,-4.108743068628067929e-02,-4.108743068628067929e-02,-4.108743068628067929e-02,-4.108743068628067929e-02,-4.108743068628067929e-02,-4.108743068628067929e-02,-4.108743068628067929e-02,-4.108743068628067929e-02,-4.108743068628067929e-02,-4.108743068628067929e-02,-4.108743068628066542e-02,-4.108743068628066542e-02,-4.108743068628067929e-02,-4.108743068628067929e-02,-4.108743068628067929e-02,-4.108743068628069317e-02,-3.383670762399586252e-02,-2.347853182073181277e-02,-1.312035601746779079e-02,-2.762180214203754924e-03,7.941268115835752039e-03,1.829944391909978096e-02,2.865761972236381683e-02,3.901579552562785269e-02,4.971924385566735966e-02,5.835105702505405390e-02,5.835105702505405390e-02
5.835105702505405390e-02,5.835105702505405390e-02,5.835105702505405390e-02,5.835105702505405390e-02,5.741882120276028956e-02,4.809646297982266006e-02,3.846335948278710448e-02,2.914100125984947151e-02,1.981864303691184548e-02,1.049628481397420904e-02,1.173926591036579536e-03,-8.459176905998955220e-03,-1.778153512893659860e-02,-2.710389335187424198e-02,-3.642625157481185760e-02,-4.108743068628067929e-02,-4.108743068628067929e-02,-4.108743068628067929e-02,-4.108743068628067929e-02,-4.108743068628069317e-02,-4.108743068628067929e-02,-4.108743068628067929e-02,-4.108743068628067929e-02,-4.108743068628067929e-02,-4.108743068628067929e-02,-4.108743068628067929e-02,-4.108743068628067929e-02,-4.108743068628067929e-02,-4.108743068628067929e-02,-4.108743068628066542e-02,-4.108743068628067929e-02,-4.108743068628067929e-02,-4.108743068628066542e-02,-4.108743068628067929e-02,-4.108743068628067929e-02,-4.108743068628067929e-02,-3.763470541852599605e-02,-2.693125708848650990e-02,-1.657308128522246016e-02,-6.214905481958438171e-03,4.143270321305611570e-03,1.450144612456963356e-02,2.520489445460914052e-02,3.556307025787317638e-02,4.592124606113721225e-02,5.627942186440124811e-02,5.835105702505405390e-02
5.835105702505405390e-02,5.835105702505405390e-02,5.835105702505405390e-02,5.835105702505405390e-02,5.835105702505405390e-02,5.120391572080187220e-02,4.188155749786423576e-02,3.255919927492660626e-02,2.323684105198897676e-02,1.360373755495342118e-02,4.281379332015791683e-03,-5.040978890921837818e-03,-1.436333711385946732e-02,-2.399644061089502289e-02,-3.331879883383265240e-02,-4.108743068628067929e-02,-4.108743068628066542e-02,-4.108743068628067929e-02,-4.108743068628067929e-02,-4.108743068628067929e-02,-4.108743068628067929e-02,-4.108743068628066542e-02,-4.108743068628067929e-02,-4.108743068628066542e-02,-4.108743068628067929e-02,-4.108743068628067929e-02,-4.108743068628067929e-02,-4.108743068628067929e-02,-4.108743068628067929e-02,-4.108743068628067929e-02,-4.108743068628067929e-02,-4.108743068628066542e-02,-4.108743068628066542e-02,-4.108743068628067929e-02,-4.108743068628067929e-02,-4.108743068628067929e-02,-4.108743068628067929e-02,-3.072925488301664343e-02,-2.037107907975260757e-02,-1.001290327648858558e-02,6.905450535509352616e-04,1.104872085681495725e-02,2.140689666007899311e-02,3.176507246334302897e-02,4.246852079338253594e-02,5.282669659664657180e-02,5.835105702505405390e-02
5.835105702505405390e-02,5.835105702505405390e-02,5.835105702505405390e-02,5.835105702505405390e-02,5.835105702505405390e-02,5.462211373587900348e-02,4.498901023884344791e-02,3.566665201590581147e-02,2.634429379296818891e-02,1.702193557003055246e-02,7.699577347092922963e-03,-1.933526149942632610e-03,-1.125588437288024823e-02,-2.057824259581787774e-02,-2.990060081875552112e-02,-3.953370431579106281e-02,-4.108743068628067929e-02,-4.108743068628067929e-02,-4.108743068628067929e-02,-4.108743068628067929e-02,-4.108743068628066542e-02,-4.108743068628067929e-02,-4.108743068628066542e-02,-4.108743068628067929e-02,-4.108743068628067929e-02,-4.108743068628067929e-02,-4.108743068628067929e-02,-4.108743068628067929e-02,-4.108743068628067929e-02,-4.108743068628067929e-02,-4.108743068628067929e-02,-4.108743068628066542e-02,-4.108743068628067929e-02,-4.108743068628067929e-02,-4.108743068628067929e-02,-4.108743068628066542e-02,-4.108743068628067929e-02,-3.452725267754680472e-02,-2.382380434750729081e-02,-1.346562854424325495e-02,-3.107452740979219086e-03,7.250723062284816778e-03,1.795417139232431680e-02,2.831234719558834920e-02,3.867052299885238853e-02,4.902869880211642439e-02,5.835105702505405390e-02
5.835105702505405390e-02,5.835105702505405390e-02,5.835105702505405390e-02,5.835105702505405390e-02,5.835105702505405390e-02,5.772956647685820869e-02,4.840720825392057919e-02,3.908485003098294969e-02,2.976249180804532019e-02,2.012938831100976461e-02,1.080703008807214205e-02,1.484671865134498669e-03,-7.837686357803116954e-03,-1.747078985483867253e-02,-2.679314807777631591e-02,-3.611550630071394541e-02,-4.108743068628069317e-02,-4.108743068628067929e-02,-4.108743068628067929e-02,-4.108743068628067929e-02,-4.108743068628067929e-02,-4.108743068628067929e-02,-4.108743068628067929e-02,-4.108743068628067929e-02,-4.108743068628067929e-02,-4.108743068628067929e-02,-4.108743068628067929e-02,-4.108743068628066542e-02,-4.108743068628067929e-02,-4.108743068628069317e-02,-4.108743068628067929e-02,-4.108743068628067929e-02,-4.108743068628067929e-02,-4.108743068628067929e-02,-4.108743068628067929e-02,-4.108743068628067929e-02,-4.108743068628067929e-02,-3.797997794530147408e-02,-2.762180214203743822e-02,-1.726362633877340236e-02,-6.560178008733902333e-03,3.797997794530140470e-03,1.415617359779416939e-02,2.451434940105820526e-02,3.521779773109770528e-02,4.557597353436174115e-02,5.593414933762577701e-02
5.835105702505405390e-02,5.835105702505405390e-02,5.835105702505405390e-02,5.835105702505405390e-02,5.835105702505405390e-02,5.835105702505405390e-02,5.151466099489979134e-02,4.219230277196216183e-02,3.286994454902452539e-02,2.354758632608690283e-02,1.422522810314927333e-02,4.592124606113710816e-03,-4.730233616823911746e-03,-1.405259183976154125e-02,-2.337495006269918463e-02,-3.300805355973474020e-02,-4.108743068628067929e-02,-4.108743068628067929e-02,-4.108743068628067929e-02,-4.108743068628066542e-02,-4.108743068628066542e-02,-4.108743068628067929e-02,-4.108743068628067929e-02,-4.108743068628069317e-02,-4.108743068628067929e-02,-4.108743068628067929e-02,-4.108743068628067929e-02,-4.108743068628067929e-02,-4.108743068628067929e-02,-4.108743068628067929e-02,-4.108743068628067929e-02,-4.108743068628067929e-02,-4.108743068628067929e-02,-4.108743068628067929e-02,-4.108743068628067929e-02,-4.108743068628067929e-02,-4.108743068628067929e-02,-4.108743068628067929e-02,-3.107452740979212147e-02,-2.071635160652808560e-02,-1.035817580326404974e-02,-6.938893903907228378e-18,1.070344833003948615e-02,2.106162413330352201e-02,3.141979993656756481e-02,4.177797573983159374e-02,5.213615154309562960e-02
5.835105702505405390e-02,5.835105702505405390e-02,5.835105702505405390e-02,5.835105702505405390e-02,5.835105702505405390e-02,5.835105702505405390e-02,5.493285900997692262e-02,4.561050078703929311e-02,3.628814256410166361e-02,2.665503906706610804e-02,1.733268084412847854e-02,8.010322621190849035e-03,-1.312035601746780467e-03,-1.094513909878232216e-02,-2.026749732171996554e-02,-2.958985554465759504e-02,-3.891221376759522455e-02,-4.108743068628067929e-02,-4.108743068628067929e-02,-4.108743068628067929e-02,-4.108743068628067929e-02,-4.108743068628067929e-02,-4.108743068628067929e-02,-4.108743068628066542e-02,-4.108743068628067929e-02,-4.108743068628067929e-02,-4.108743068628067929e-02,-4.108743068628067929e-02,-4.108743068628067929e-02,-4.108743068628067929e-02,-4.108743068628067929e-02,-4.108743068628066542e-02,-4.108743068628069317e-02,-4.108743068628067929e-02,-4.108743068628066542e-02,-4.108743068628066542e-02,-4.108743068628067929e-02,-4.108743068628067929e-02,-3.487252520432226888e-02,-2.451434940105823301e-02,-1.381090107101871911e-02,-3.452725267754690186e-03,6.905450535509352616e-03,1.726362633877338154e-02,2.762180214203741394e-02,3.832525047207691743e-02,4.868342627534095329e-02
5.835105702505405390e-02,5.835105702505405390e-02,5.835105702505405390e-02,5.835105702505405390e-02,5.835105702505405390e-02,5.835105702505405390e-02,5.835105702505405390e-02,4.871795352801849832e-02,3.939559530508086882e-02,3.007323708214323932e-02,2.075087885920560288e-02,1.111777536217005424e-02,1.795417139232424741e-03,-7.526941083705190882e-03,-1.684929930664282038e-02,-2.617165752958046376e-02,-3.580476102661603321e-02,-4.108743068628067929e-02,-4.108743068628067929e-02,-4.108743068628067929e-02,-4.108743068628069317e-02,-4.108743068628067929e-02,-4.108743068628067929e-02,-4.108743068628067929e-02,-4.108743068628067929e-02,-4.108743068628067929e-02,-4.108743068628066542e-02,-4.108743068628066542e-02,-4.108743068628066542e-02,-4.108743068628067929e-02,-4.108743068628067929e-02,-4.108743068628067929e-02,-4.108743068628067929e-02,-4.108743068628066542e-02,-4.108743068628067929e-02,-4.108743068628067929e-02,-4.108743068628067929e-02,-4.108743068628067929e-02,-3.832525047207693825e-02,-2.796707466881290238e-02,-1.760889886554886652e-02,-7.250723062284830656e-03,3.452725267754669369e-03,1.381090107101869829e-02,2.416907687428274110e-02,3.452725267754677696e-02,4.488542848081081282e-02
5.835105702505405390e-02,5.835105702505405390e-02,5.835105702505405390e-02,5.835105702505405390e-02,5.835105702505405390e-02,5.835105702505405390e-02,5.835105702505405390e-02,5.213615154309562960e-02,4.281379332015800010e-02,3.318068982312245147e-02,2.385833160018481502e-02,1.453597337724719246e-02,5.213615154309556021e-03,-4.419488342725985675e-03,-1.374184656566362905e-02,-2.306420478860125856e-02,-3.238656301153890194e-02,-4.108743068628067929e-02,-4.108743068628067929e-02,-4.108743068628067929e-02,-4.108743068628067929e-02,-4.108743068628066542e-02,-4.108743068628066542e-02,-4.108743068628067929e-02,-2.171371237698085377e-01,-2.171371237698085377e-01,-2.171371237698085377e-01,-2.171371237698085377e-01,-4.108743068628067929e-02,-4.108743068628067929e-02,-4.108743068628067929e-02,-4.108743068628067929e-02,-4.108743068628067929e-02,-4.108743068628067929e-02,-4.108743068628067929e-02,-4.108743068628067929e-02,-4.108743068628067929e-02,-4.108743068628067929e-02,-4.108743068628067929e-02,-3.176507246334306367e-02,-2.106162413330354977e-02,-1.070344833003950002e-02,-3.452725267754780392e-04,1.001290327648855782e-02,2.037107907975259369e-02,3.107452740979209371e-02,4.143270321305612958e-02
5.835105702505405390e-02,5.835105702505405390e-02,5.835105702505405390e-02,5.835105702505405390e-02,5.835105702505405390e-02,5.835105702505405390e-02,5.835105702505405390e-02,5.524360428407484175e-02,4.592124606113721225e-02,3.659888783819958274e-02,2.727652961526194977e-02,1.764342611822640461e-02,8.321067895288768168e-03,-1.001290327648861334e-03,-1.032364855058649777e-02,-1.964600677352412728e-02,-2.927911027055969673e-02,-3.860146849349731235e-02,-4.108743068628067929e-02,-4.108743068628067929e-02,-4.108743068628067929e-02,-4.108743068628067929e-02,-4.108743068628067929e-02,-4.108743068628067929e-02,-2.171371237698085377e-01,-2.171371237698085377e-01,-2.171371237698085377e-01,-2.171371237698085377e-01,-4.108743068628067929e-02,-4.108743068628067929e-02,-4.108743068628067929e-02,-4.108743068628067929e-02,-4.108743068628067929e-02,-4.108743068628066542e-02,-4.108743068628067929e-02,-4.108743068628067929e-02,-4.108743068628067929e-02,-4.108743068628066542e-02,-4.108743068628067929e-02,-3.521779773109771916e-02,-2.485962192783369717e-02,-1.450144612456966131e-02,-4.143270321305625448e-03,6.560178008733881516e-03,1.691835381199791738e-02,3.601624044926597656e-02,5.058242517260602700e-02
5.835105702505405390e-02,5.835105702505405390e-02,5.835105702505405390e-02,5.835105702505405390e-02,5.835105702505405390e-02,5.835105702505405390e-02,5.835105702505405390e-02,5.835105702505405390e-02,4.933944407621434353e-02,3.970634057917879489e-02,3.038398235624115845e-02,2.106162413330352895e-02,1.173926591036589945e-02,2.106162413330343874e-03,-7.216195809607278688e-03,-1.653855403254490819e-02,-2.586091225548253769e-02,-3.518327047842018107e-02,-4.108743068628067929e-02,-4.108743068628067929e-02,-4.108743068628067929e-02,-4.108743068628067929e-02,-4.108743068628067929e-02,-4.108743068628067929e-02,-2.171371237698085377e-01,-2.171371237698085932e-01,-2.171371237698085377e-01,-2.171371237698085377e-01,-4.108743068628067929e-02,-4.108743068628067929e-02,-4.108743068628067929e-02,-4.108743068628067929e-02,-4.108743068628067929e-02,-4.108743068628067929e-02,-4.108743068628067929e-02,-4.108743068628067929e-02,-4.108743068628067929e-02,-4.108743068628067929e-02,-4.108743068628067929e-02,-3.901579552562786657e-02,-2.831234719558836654e-02,-1.795417139232433068e-02,8.890767564468285422e-03,3.403092342030704376e-02,5.411067880559283783e-02,5.835105702505405390e-02,5.835105702505405390e-02
5.835105702505405390e-02,5.835105702505405390e-02,5.835105702505405390e-02,5.835105702505405390e-02,5.835105702505405390e-02,5.835105702505405390e-02,5.835105702505405390e-02,5.835105702505405390e-02,5.244689681719355567e-02,4.312453859425592617e-02,3.380218037131828973e-02,2.416907687428274110e-02,1.484671865134510466e-02,5.524360428407475154e-03,-3.797997794530154347e-03,-1.312035601746777691e-02,-2.275345951450333248e-02,-3.207581773744097586e-02,-4.108743068628067929e-02,-4.108743068628067929e-02,-4.108743068628066542e-02,-4.108743068628066542e-02,-4.108743068628067929e-02,-4.108743068628067929e-02,-2.171371237698085377e-01,-2.171371237698085377e-01,-2.171371237698085377e-01,-2.171371237698085377e-01,-4.108743068628067929e-02,-4.108743068628067929e-02,-4.108743068628067929e-02,-4.108743068628067929e-02,-4.108743068628067929e-02,-4.108743068628066542e-02,-4.108743068628067929e-02,-4.108743068628067929e-02,-4.108743068628067929e-02,-4.108743068628067929e-02,-4.108743068628067929e-02,-2.244271424040542029e-02,1.594727483044190708e-02,4.833815374856548913e-02,5.835105702505405390e-02,5.835105702505405390e-02,5.835105702505405390e-02,5.835105702505405390e-02,5.835105702505405390e-02
5.835105702505405390e-02,5.835105702505405390e-02,5.835105702505405390e-02,5.835105702505405390e-02,5.835105702505405390e-02,5.835105702505405390e-02,5.835105702505405390e-02,5.835105702505405390e-02,5.586509483227068695e-02,4.623199133523513138e-02,3.690963311229750188e-02,2.758727488935987238e-02,1.826491666642224287e-02,8.942558443484606434e-03,-6.905450535509422005e-04,-1.001290327648857170e-02,-1.933526149942618733e-02,-2.865761972236384458e-02,-3.829072321939940016e-02,-4.108743068628067929e-02,-4.108743068628067929e-02,-4.108743068628066542e-02,-4.108743068628067929e-02,-4.108743068628067929e-02,-4.108743068628067929e-02,-4.108743068628067929e-02,-4.108743068628067929e-02,-4.108743068628067929e-02,-4.108743068628067929e-02,-4.108743068628067929e-02,-4.108743068628067929e-02,-4.108743068628067929e-02,-4.108743068628067929e-02,-4.108743068628067929e-02,-4.108743068628067929e-02,-4.108743068628067929e-02,-2.555016698138462550e-02,8.631813169386687301e-03,3.970634057917879489e-02,5.835105702505405390e-02,5.835105702505405390e-02,5.835105702505405390e-02,-2.071762656100427091e-01,-2.071762656100427091e-01,-2.071762656100427091e-01,-2.071762656100427091e-01,5.835105702505405390e-02
5.835105702505405390e-02,5.835105702505405390e-02,5.835105702505405390e-02,5.835105702505405390e-02,5.835105702505405390e-02,5.835105702505405390e-02,5.835105702505405390e-02,5.835105702505405390e-02,5.835105702505405390e-02,4.965018935031226266e-02,4.032783112737463316e-02,3.069472763033908452e-02,2.137236940740145502e-02,1.205001118446381858e-02,2.727652961526189079e-03,-6.594705261411440422e-03,-1.622780875844699600e-02,-2.555016698138462550e-02,-3.487252520432226888e-02,-4.108743068628067929e-02,-4.108743068628067929e-02,-4.108743068628066542e-02,-4.108743068628067929e-02,-4.108743068628067929e-02,-4.108743068628066542e-02,-4.108743068628067929e-02,-4.108743068628066542e-02,-4.108743068628067929e-02,-4.108743068628067929e-02,-4.108743068628066542e-02,-4.108743068628066542e-02,-4.108743068628067929e-02,-4.108743068628067929e-02,-2.865761972236383071e-02,2.416907687428263007e-03,3.659888783819958274e-02,5.835105702505405390e-02,5.835105702505405390e-02,5.835105702505405390e-02,5.835105702505405390e-02,5.835105702505405390e-02,5.835105702505405390e-02,-2.071762656100427091e-01,-2.071762656100427091e-01,-2.071762656100427091e-01,-2.071762656100427091e-01,5.835105702505405390e-02
5.835105702505405390e-02,5.835105702505405390e-02,5.835105702505405390e-02,5.835105702505405390e-02,5.835105702505405390e-02,5.835105702505405390e-02,5.835105702505405390e-02,5.835105702505405390e-02,5.835105702505405390e-02,5.275764209129147481e-02,4.343528386835384530e-02,3.411292564541620886e-02,2.479056742247858630e-02,1.546820919954094986e-02,5.835105702505394287e-03,-3.487252520432228275e-03,-1.280961074336986472e-02,-2.213196896630749422e-02,-3.176507246334306367e-02,-4.108743068628067929e-02,-4.108743068628067929e-02,-4.108743068628066542e-02,-4.108743068628069317e-02,-4.108743068628066542e-02,-4.108743068628066542e-02,-4.108743068628067929e-02,-4.108743068628067929e-02,-4.108743068628067929e-02,-4.108743068628067929e-02,-4.108743068628067929e-02,-3.176507246334304979e-02,-6.905450535509422005e-04,3.349143509722037060e-02,5.835105702505405390e-02,5.835105702505405390e-02,5.835105702505405390e-02,5.835105702505405390e-02,5.835105702505405390e-02,5.835105702505405390e-02,5.835105702505405390e-02,5.835105702505405390e-02,5.835105702505405390e-02,-2.071762656100427091e-01,-2.071762656100427091e-01,-2.071762656100427091e-01,-2.071762656100427091e-01,5.835105702505405390e-02
5.835105702505405390e-02,5.835105702505405390e-02,5.835105702505405390e-02,5.835105702505405390e-02,5.835105702505405390e-02,5.835105702505405390e-02,5.835105702505405390e-02,5.835105702505405390e-02,5.835105702505405390e-02,5.617584010636860609e-02,4.685348188343097658e-02,3.753112366049334014e-02,2.789802016345779151e-02,1.857566194052016201e-02,9.253303717582532506e-03,-6.905450535509699561e-05,-9.702158002390645630e-03,-1.902451622532827513e-02,-2.834687444826591851e-02,-3.766923267120356189e-02,-4.108743068628067929e-02,-4.108743068628067929e-02,-4.108743068628067929e-02,-4.108743068628067929e-02,-4.108743068628067929e-02,-4.108743068628067929e-02,-4.108743068628067929e-02,-3.797997794530147408e-02,-3.797997794530154347e-03,2.727652961526194977e-02,5.835105702505405390e-02,5.835105702505405390e-02,5.835105702505405390e-02,5.835105702505405390e-02,5.835105702505405390e-02,5.835105702505405390e-02,5.835105702505405390e-02,5.835105702505405390e-02,5.835105702505405390e-02,5.835105702505405390e-02,5.835105702505405390e-02,5.835105702505405390e-02,-2.071762656100427091e-01,-2.071762656100427091e-01,-2.071762656100427091e-01,-2.071762656100427091e-01,5.835105702505405390e-02
