1.153755808919435313e-02,1.153755808919435313e-02,1.153755808919435313e-02,1.153755808919435313e-02,1.153755808919435313e-02,1.153755808919435313e-02,1.153755808919435313e-02,1.153755808919435313e-02,1.153755808919435313e-02,1.153755808919435313e-02,1.153755808919435313e-02,1.153755808919435313e-02,1.153755808919435313e-02,1.153755808919435313e-02,1.153755808919435313e-02,1.153755808919435313e-02,1.153755808919435313e-02,1.153755808919435313e-02,1.153755808919435313e-02,1.153755808919435313e-02,1.153755808919435313e-02,1.153755808919435313e-02,1.153755808919435313e-02,1.153755808919435313e-02,1.153755808919435313e-02,1.153755808919435313e-02,1.153755808919435313e-02,1.153755808919435313e-02,1.153755808919435313e-02,1.153755808919435313e-02,1.153755808919435313e-02,5.839998538974919273e-03,-1.125268011168338231e-02,-2.720584685229779712e-02,-4.429852550295609870e-02,-6.025169224357053432e-02,-7.734437089422882550e-02,-9.443704954488711667e-02,-8.973656291595608764e-03,1.153755808919435313e-02,1.153755808919435313e-02,1.153755808919435313e-02,1.153755808919435313e-02,1.153755808919435313e-02,1.153755808919435313e-02,1.153755808919435313e-02,1.153755808919435313e-02
1.153755808919435313e-02,1.153755808919435313e-02,1.153755808919435313e-02,1.153755808919435313e-02,1.153755808919435313e-02,1.153755808919435313e-02,1.153755808919435313e-02,1.153755808919435313e-02,1.153755808919435313e-02,1.153755808919435313e-02,1.153755808919435313e-02,1.153755808919435313e-02,1.153755808919435313e-02,1.153755808919435313e-02,1.153755808919435313e-02,1.153755808919435313e-02,1.153755808919435313e-02,1.153755808919435313e-02,1.153755808919435313e-02,1.153755808919435313e-02,1.153755808919435313e-02,1.153755808919435313e-02,1.153755808919435313e-02,1.153755808919435313e-02,1.153755808919435313e-02,1.153755808919435313e-02,1.153755808919435313e-02,1.153755808919435313e-02,1.153755808919435313e-02,6.979510449018806045e-03,-1.011316820163949554e-02,-2.720584685229779712e-02,-4.315901359291221540e-02,-6.025169224357052045e-02,-7.620485898418494219e-02,-9.329753763484323337e-02,-9.785558527501878046e-02,-9.785558527501878046e-02,-5.683315651343885666e-02,1.153755808919435313e-02,1.153755808919435313e-02,1.153755808919435313e-02,1.153755808919435313e-02,1.153755808919435313e-02,1.153755808919435313e-02,1.153755808919435313e-02,1.153755808919435313e-02
1.153755808919435313e-02,1.153755808919435313e-02,1.153755808919435313e-02,1.153755808919435313e-02,1.153755808919435313e-02,1.153755808919435313e-02,1.153755808919435313e-02,1.153755808919435313e-02,1.153755808919435313e-02,1.153755808919435313e-02,1.153755808919435313e-02,1.153755808919435313e-02,1.153755808919435313e-02,1.153755808919435313e-02,1.153755808919435313e-02,1.153755808919435313e-02,1.153755808919435313e-02,1.153755808919435313e-02,1.153755808919435313e-02,1.153755808919435313e-02,1.153755808919435313e-02,1.153755808919435313e-02,1.153755808919435313e-02,1.153755808919435313e-02,1.153755808919435313e-02,1.153755808919435313e-02,1.153755808919435313e-02,6.979510449018806045e-03,-8.973656291595608764e-03,-2.606633494225391381e-02,-4.315901359291221540e-02,-5.911218033352663714e-02,-7.620485898418492832e-02,-9.215802572479935006e-02,-9.785558527501878046e-02,-9.785558527501878046e-02,-9.785558527501878046e-02,-9.785558527501876658e-02,-9.785558527501878046e-02,-8.973656291595608764e-03,1.153755808919435313e-02,1.153755808919435313e-02,1.153755808919435313e-02,1.153755808919435313e-02,1.153755808919435313e-02,1.153755808919435313e-02,1.153755808919435313e-02
1.153755808919435313e-02,1.153755808919435313e-02,1.153755808919435313e-02,1.153755808919435313e-02,1.153755808919435313e-02,1.153755808919435313e-02,1.153755808919435313e-02,1.153755808919435313e-02,1.153755808919435313e-02,1.153755808919435313e-02,1.153755808919435313e-02,1.153755808919435313e-02,1.153755808919435313e-02,1.153755808919435313e-02,1.153755808919435313e-02,1.153755808919435313e-02,1.153755808919435313e-02,1.153755808919435313e-02,1.153755808919435313e-02,1.153755808919435313e-02,1.153755808919435313e-02,1.153755808919435313e-02,1.153755808919435313e-02,1.153755808919435313e-02,1.153755808919435313e-02,8.119022359062692817e-03,-8.973656291595608764e-03,-2.492682303221002357e-02,-4.201950168286833209e-02,-5.797266842348273996e-02,-7.506534707414104501e-02,-9.215802572479933619e-02,-9.785558527501878046e-02,-9.785558527501878046e-02,-9.785558527501876658e-02,-9.785558527501878046e-02,-9.785558527501878046e-02,-9.785558527501879433e-02,-9.785558527501878046e-02,-6.025169224357052045e-02,1.153755808919435313e-02,1.153755808919435313e-02,1.153755808919435313e-02,1.153755808919435313e-02,1.153755808919435313e-02,1.153755808919435313e-02,1.153755808919435313e-02
1.153755808919435313e-02,1.153755808919435313e-02,1.153755808919435313e-02,1.153755808919435313e-02,1.153755808919435313e-02,1.153755808919435313e-02,1.153755808919435313e-02,1.153755808919435313e-02,1.153755808919435313e-02,1.153755808919435313e-02,1.153755808919435313e-02,1.153755808919435313e-02,1.153755808919435313e-02,1.153755808919435313e-02,1.153755808919435313e-02,1.153755808919435313e-02,1.153755808919435313e-02,1.153755808919435313e-02,1.153755808919435313e-02,1.153755808919435313e-02,1.153755808919435313e-02,1.153755808919435313e-02,1.153755808919435313e-02,8.119022359062692817e-03,-7.834144381551721992e-03,-2.492682303221002357e-02,-4.087998977282443491e-02,-5.797266842348273996e-02,-7.392583516409714783e-02,-9.101851381475546676e-02,-9.785558527501878046e-02,-9.785558527501878046e-02,-9.785558527501878046e-02,-9.785558527501878046e-02,-9.785558527501878046e-02,-9.785558527501878046e-02,-9.785558527501878046e-02,-9.785558527501878046e-02,-9.785558527501878046e-02,-9.785558527501878046e-02,-1.239219202172727255e-02,1.153755808919435313e-02,1.153755808919435313e-02,1.153755808919435313e-02,1.153755808919435313e-02,1.153755808919435313e-02,1.153755808919435313e-02
1.153755808919435313e-02,1.153755808919435313e-02,1.153755808919435313e-02,1.153755808919435313e-02,1.153755808919435313e-02,1.153755808919435313e-02,1.153755808919435313e-02,1.153755808919435313e-02,1.153755808919435313e-02,1.153755808919435313e-02,1.153755808919435313e-02,1.153755808919435313e-02,1.153755808919435313e-02,1.153755808919435313e-02,1.153755808919435313e-02,1.153755808919435313e-02,1.153755808919435313e-02,1.153755808919435313e-02,1.153755808919435313e-02,1.153755808919435313e-02,1.153755808919435313e-02,9.258534269106579589e-03,-7.834144381551721992e-03,-2.378731112216614027e-02,-4.087998977282443491e-02,-5.683315651343885666e-02,-7.392583516409716171e-02,-8.987900190471158346e-02,-9.785558527501879433e-02,-9.785558527501878046e-02,-9.785558527501878046e-02,-9.785558527501878046e-02,-9.785558527501878046e-02,-9.785558527501878046e-02,-9.785558527501878046e-02,-9.785558527501878046e-02,-9.785558527501878046e-02,-9.785558527501876658e-02,-9.785558527501878046e-02,-9.785558527501878046e-02,-6.025169224357052045e-02,1.153755808919435313e-02,1.153755808919435313e-02,1.153755808919435313e-02,1.153755808919435313e-02,1.153755808919435313e-02,1.153755808919435313e-02
1.153755808919435313e-02,1.153755808919435313e-02,1.153755808919435313e-02,1.153755808919435313e-02,1.153755808919435313e-02,1.153755808919435313e-02,1.153755808919435313e-02,1.153755808919435313e-02,1.153755808919435313e-02,1.153755808919435313e-02,1.153755808919435313e-02,1.153755808919435313e-02,1.153755808919435313e-02,1.153755808919435313e-02,1.153755808919435313e-02,1.153755808919435313e-02,1.153755808919435313e-02,1.153755808919435313e-02,1.153755808919435313e-02,1.039804617915046636e-02,-6.694632471507835220e-03,-2.264779921212225003e-02,-3.974047786278055161e-02,-5.683315651343885666e-02,-7.278632325405327841e-02,-8.987900190471156958e-02,-9.785558527501878046e-02,-9.785558527501878046e-02,-9.785558527501878046e-02,-9.785558527501878046e-02,-9.785558527501876658e-02,-9.785558527501878046e-02,-9.785558527501878046e-02,-9.785558527501878046e-02,-9.785558527501878046e-02,-9.785558527501878046e-02,-9.785558527501879433e-02,-9.785558527501878046e-02,-9.785558527501878046e-02,-9.714339033124136380e-02,-9.514924448866454720e-02,-1.459999634743729818e-02,1.153755808919435313e-02,1.153755808919435313e-02,1.153755808919435313e-02,1.153755808919435313e-02,1.153755808919435313e-02
1.153755808919435313e-02,1.153755808919435313e-02,1.153755808919435313e-02,1.153755808919435313e-02,1.153755808919435313e-02,1.153755808919435313e-02,1.153755808919435313e-02,1.153755808919435313e-02,1.153755808919435313e-02,1.153755808919435313e-02,1.153755808919435313e-02,1.153755808919435313e-02,1.153755808919435313e-02,1.153755808919435313e-02,1.153755808919435313e-02,1.153755808919435313e-02,1.153755808919435313e-02,1.039804617915046636e-02,-5.555120561463948448e-03,-2.264779921212225003e-02,-3.860096595273666831e-02,-5.569364460339497336e-02,-7.278632325405326453e-02,-8.873948999466768628e-02,-9.785558527501878046e-02,-9.785558527501878046e-02,-9.785558527501878046e-02,-9.785558527501878046e-02,-9.785558527501878046e-02,-9.785558527501878046e-02,-9.785558527501878046e-02,-9.785558527501878046e-02,-9.785558527501878046e-02,-9.785558527501878046e-02,-9.785558527501878046e-02,-9.785558527501878046e-02,-9.785558527501878046e-02,-9.728582931999683880e-02,-9.514924448866454720e-02,-9.315509864608775836e-02,-9.101851381475545288e-02,-5.759876607799958859e-02,1.153755808919435313e-02,1.153755808919435313e-02,1.153755808919435313e-02,1.153755808919435313e-02,1.153755808919435313e-02
1.153755808919435313e-02,1.153755808919435313e-02,1.153755808919435313e-02,1.153755808919435313e-02,1.153755808919435313e-02,1.153755808919435313e-02,1.153755808919435313e-02,1.153755808919435313e-02,1.153755808919435313e-02,1.153755808919435313e-02,1.153755808919435313e-02,1.153755808919435313e-02,1.153755808919435313e-02,1.153755808919435313e-02,1.153755808919435313e-02,1.153755808919435313e-02,-5.555120561463948448e-03,-2.150828730207835979e-02,-3.860096595273666831e-02,-5.455413269335109006e-02,-7.164681134400938123e-02,-8.759997808462380298e-02,-9.785558527501878046e-02,-9.785558527501878046e-02,-9.785558527501878046e-02,-9.785558527501878046e-02,-9.785558527501878046e-02,-9.785558527501878046e-02,-9.785558527501879433e-02,-9.785558527501878046e-02,-9.785558527501878046e-02,-9.785558527501878046e-02,-9.785558527501876658e-02,-9.785558527501878046e-02,-9.785558527501878046e-02,-9.742826830875232769e-02,-9.529168347742003609e-02,-9.329753763484323337e-02,-9.116095280351094177e-02,-8.902436797217865017e-02,-8.703022212960184745e-02,-8.489363729826956972e-02,-1.207170429702742256e-02,1.153755808919435313e-02,1.153755808919435313e-02,1.153755808919435313e-02,1.153755808919435313e-02
1.153755808919435313e-02,1.153755808919435313e-02,1.153755808919435313e-02,1.153755808919435313e-02,1.153755808919435313e-02,1.153755808919435313e-02,1.153755808919435313e-02,1.153755808919435313e-02,1.153755808919435313e-02,1.153755808919435313e-02,1.153755808919435313e-02,1.153755808919435313e-02,1.153755808919435313e-02,1.153755808919435313e-02,-4.415608651420061675e-03,-2.150828730207835979e-02,-3.746145404269278500e-02,-5.455413269335107618e-02,-7.050729943396549793e-02,-8.759997808462380298e-02,-9.785558527501879433e-02,-9.785558527501878046e-02,-9.785558527501878046e-02,-9.785558527501878046e-02,-9.785558527501878046e-02,-9.785558527501878046e-02,-9.785558527501879433e-02,-9.785558527501879433e-02,-9.785558527501878046e-02,-9.785558527501878046e-02,-9.785558527501879433e-02,-9.785558527501878046e-02,-9.785558527501878046e-02,-9.742826830875232769e-02,-9.543412246617552497e-02,-9.329753763484323337e-02,-9.130339179226643065e-02,-8.916680696093413905e-02,-8.703022212960184745e-02,-8.503607628702505861e-02,-8.289949145569275313e-02,-8.090534561311596429e-02,-5.337010859932110607e-02,1.153755808919435313e-02,1.153755808919435313e-02,1.153755808919435313e-02,1.153755808919435313e-02
1.153755808919435313e-02,1.153755808919435313e-02,1.153755808919435313e-02,1.153755808919435313e-02,1.153755808919435313e-02,1.153755808919435313e-02,1.153755808919435313e-02,1.153755808919435313e-02,1.153755808919435313e-02,1.153755808919435313e-02,1.153755808919435313e-02,1.153755808919435313e-02,-3.276096741376174903e-03,-2.036877539203447648e-02,-3.746145404269277113e-02,-5.341462078330719288e-02,-7.050729943396549793e-02,-8.646046617457990580e-02,-9.785558527501878046e-02,-9.785558527501878046e-02,-9.785558527501878046e-02,-9.785558527501878046e-02,-9.785558527501878046e-02,-9.785558527501878046e-02,-9.785558527501879433e-02,-9.785558527501878046e-02,-9.785558527501876658e-02,-9.785558527501878046e-02,-9.785558527501878046e-02,-9.785558527501878046e-02,-9.785558527501878046e-02,-9.757070729750780269e-02,-9.543412246617551109e-02,-9.343997662359872225e-02,-9.130339179226643065e-02,-8.930924594968961405e-02,-8.717266111835732245e-02,-8.517851527578053361e-02,-8.304193044444825589e-02,-8.090534561311596429e-02,-7.891119977053916157e-02,-7.677461493920688385e-02,-7.478046909663008113e-02,-1.213847257300655971e-02,1.153755808919435313e-02,1.153755808919435313e-02,1.153755808919435313e-02
1.153755808919435313e-02,1.153755808919435313e-02,1.153755808919435313e-02,1.153755808919435313e-02,1.153755808919435313e-02,1.153755808919435313e-02,1.153755808919435313e-02,1.153755808919435313e-02,1.153755808919435313e-02,1.153755808919435313e-02,-3.276096741376174903e-03,-1.922926348199058971e-02,-3.632194213264890170e-02,-5.227510887326330957e-02,-6.936778752392161462e-02,-8.646046617457990580e-02,-9.785558527501878046e-02,-9.785558527501878046e-02,-9.785558527501878046e-02,-9.785558527501878046e-02,-9.785558527501878046e-02,-9.785558527501878046e-02,-9.785558527501878046e-02,-9.785558527501878046e-02,-9.785558527501878046e-02,-9.785558527501878046e-02,-9.785558527501876658e-02,-9.785558527501878046e-02,-9.785558527501878046e-02,-9.771314628626329157e-02,-9.557656145493099997e-02,-9.343997662359872225e-02,-9.144583078102190565e-02,-8.930924594968960017e-02,-8.731510010711281133e-02,-8.517851527578053361e-02,-8.318436943320373089e-02,-8.104778460187145317e-02,-7.891119977053916157e-02,-7.691705392796235885e-02,-7.478046909663006725e-02,-7.278632325405327841e-02,-7.064973842272098681e-02,-4.610126895439271844e-02,1.153755808919435313e-02,1.153755808919435313e-02,1.153755808919435313e-02
1.153755808919435313e-02,1.153755808919435313e-02,1.153755808919435313e-02,1.153755808919435313e-02,1.153755808919435313e-02,1.153755808919435313e-02,1.153755808919435313e-02,1.153755808919435313e-02,-2.136584831332288131e-03,-1.922926348199059318e-02,-3.518243022260500452e-02,-5.227510887326330957e-02,-6.822827561387773132e-02,-8.532095426453602249e-02,-9.785558527501878046e-02,-9.785558527501878046e-02,-9.785558527501878046e-02,-9.785558527501878046e-02,-9.785558527501876658e-02,-9.785558527501878046e-02,-9.785558527501878046e-02,-9.785558527501878046e-02,-9.785558527501878046e-02,-9.785558527501878046e-02,-9.785558527501878046e-02,-9.785558527501878046e-02,-9.785558527501878046e-02,-9.771314628626329157e-02,-9.571900044368650273e-02,-9.358241561235419725e-02,-9.158826976977740841e-02,-8.945168493844510293e-02,-8.731510010711281133e-02,-8.532095426453602249e-02,-8.318436943320373089e-02,-8.119022359062692817e-02,-7.905363875929465045e-02,-7.705949291671784773e-02,-7.492290808538555613e-02,-7.278632325405326453e-02,-7.079217741147646181e-02,-6.865559258014418409e-02,-6.666144673756738137e-02,-6.452486190623508977e-02,-9.294144016295451810e-03,1.153755808919435313e-02,1.153755808919435313e-02
1.153755808919435313e-02,1.153755808919435313e-02,1.153755808919435313e-02,1.153755808919435313e-02,1.153755808919435313e-02,1.153755808919435313e-02,-9.970729212884013593e-04,-1.808975157194670294e-02,-3.518243022260500452e-02,-5.113559696321942627e-02,-6.822827561387771744e-02,-8.418144235449213919e-02,-9.785558527501878046e-02,-9.785558527501878046e-02,-9.785558527501878046e-02,-9.785558527501878046e-02,-9.785558527501878046e-02,-9.785558527501878046e-02,-9.785558527501878046e-02,-9.785558527501878046e-02,-9.785558527501878046e-02,-9.785558527501878046e-02,-9.785558527501878046e-02,-9.785558527501878046e-02,-9.785558527501879433e-02,-9.785558527501878046e-02,-9.571900044368650273e-02,-9.372485460110968614e-02,-9.158826976977739454e-02,-8.959412392720059182e-02,-8.745753909586828634e-02,-8.532095426453602249e-02,-8.332680842195921977e-02,-8.119022359062692817e-02,-7.919607774805012546e-02,-7.705949291671784773e-02,-7.506534707414104501e-02,-7.292876224280875341e-02,-7.079217741147644793e-02,-6.879803156889967297e-02,-6.666144673756736749e-02,-6.466730089499057865e-02,-6.253071606365828705e-02,-6.053657022108149821e-02,-4.091559952001330713e-02,1.153755808919435313e-02,1.153755808919435313e-02
1.153755808919435313e-02,1.153755808919435313e-02,1.153755808919435313e-02,1.153755808919435313e-02,-9.970729212884013593e-04,-1.695023966190281617e-02,-3.404291831256110734e-02,-5.113559696321942627e-02,-6.708876370383383414e-02,-8.418144235449213919e-02,-9.785558527501878046e-02,-9.785558527501878046e-02,-9.785558527501876658e-02,-9.785558527501878046e-02,-9.785558527501878046e-02,-9.785558527501878046e-02,-9.785558527501878046e-02,-9.785558527501878046e-02,-9.785558527501879433e-02,-9.785558527501878046e-02,-9.785558527501878046e-02,-9.785558527501878046e-02,-9.785558527501878046e-02,-9.785558527501878046e-02,-9.586143943244197774e-02,-9.372485460110968614e-02,-9.173070875853286954e-02,-8.959412392720057794e-02,-8.759997808462378910e-02,-8.546339325329149750e-02,-8.346924741071470866e-02,-8.133266257938243093e-02,-7.919607774805012546e-02,-7.720193190547333661e-02,-7.506534707414104501e-02,-7.307120123156425617e-02,-7.093461640023195069e-02,-6.894047055765514798e-02,-6.680388572632287025e-02,-6.466730089499057865e-02,-6.267315505241377593e-02,-6.053657022108149821e-02,-5.854242437850468161e-02,-5.640583954717240389e-02,-5.441169370459560117e-02,-8.403900336573667113e-03,1.153755808919435313e-02
1.153755808919435313e-02,1.153755808919435313e-02,1.424389887554854128e-04,-1.695023966190281617e-02,-3.290340640251723792e-02,-4.999608505317552909e-02,-6.594925179378995084e-02,-8.304193044444825589e-02,-9.785558527501878046e-02,-9.785558527501878046e-02,-9.785558527501878046e-02,-9.785558527501878046e-02,-9.785558527501878046e-02,-9.785558527501878046e-02,-9.785558527501878046e-02,-9.785558527501878046e-02,-9.785558527501878046e-02,-9.785558527501878046e-02,-9.785558527501878046e-02,-9.785558527501878046e-02,-9.785558527501876658e-02,-9.785558527501878046e-02,-9.600387842119746662e-02,-9.386729358986517502e-02,-9.173070875853288342e-02,-8.973656291595608070e-02,-8.759997808462378910e-02,-8.560583224204700026e-02,-8.346924741071470866e-02,-8.147510156813790594e-02,-7.933851673680562822e-02,-7.720193190547333661e-02,-7.520778606289653390e-02,-7.307120123156424230e-02,-7.107705538898745345e-02,-6.894047055765514798e-02,-6.694632471507834526e-02,-6.480973988374605366e-02,-6.267315505241377593e-02,-6.067900920983697322e-02,-5.854242437850468161e-02,-5.654827853592789277e-02,-5.441169370459560117e-02,-5.241754786201879845e-02,-5.028096303068650685e-02,-3.520023509619944757e-02,1.153755808919435313e-02
1.424389887554854128e-04,-1.581072775185892940e-02,-3.290340640251722404e-02,-4.885657314313164579e-02,-6.594925179378995084e-02,-8.190241853440437259e-02,-9.785558527501878046e-02,-9.785558527501878046e-02,-9.785558527501876658e-02,-9.785558527501879433e-02,-9.785558527501878046e-02,-9.785558527501878046e-02,-9.785558527501878046e-02,-9.785558527501878046e-02,-9.785558527501878046e-02,-9.785558527501878046e-02,-9.785558527501878046e-02,-9.785558527501878046e-02,-9.785558527501878046e-02,-9.785558527501878046e-02,-9.600387842119745274e-02,-9.400973257862065002e-02,-9.187314774728835842e-02,-8.973656291595608070e-02,-8.774241707337927798e-02,-8.560583224204698638e-02,-8.361168639947018366e-02,-8.147510156813790594e-02,-7.948095572556110322e-02,-7.734437089422881162e-02,-7.535022505165200890e-02,-7.321364022031973118e-02,-7.107705538898745345e-02,-6.908290954641063686e-02,-6.694632471507834526e-02,-6.495217887250155642e-02,-6.281559404116926482e-02,-6.082144819859246210e-02,-5.868486336726018437e-02,-5.654827853592789277e-02,-5.455413269335107618e-02,-5.241754786201879845e-02,-5.042340201944199574e-02,-4.828681718810971801e-02,-4.629267134553290142e-02,-4.415608651420060982e-02,-6.921644609836890422e-03
-3.176389449247334074e-02,-4.885657314313164579e-02,-6.480973988374606753e-02,-8.190241853440435871e-02,-9.785558527501878046e-02,-9.785558527501878046e-02,-9.785558527501879433e-02,-9.785558527501878046e-02,-9.785558527501878046e-02,-9.785558527501878046e-02,-9.785558527501878046e-02,-9.785558527501878046e-02,-9.785558527501878046e-02,-9.785558527501878046e-02,-9.785558527501876658e-02,-9.785558527501878046e-02,-9.785558527501878046e-02,-9.785558527501878046e-02,-9.614631740995294162e-02,-9.400973257862066390e-02,-9.201558673604384730e-02,-8.987900190471155570e-02,-8.788485606213475299e-02,-8.574827123080248914e-02,-8.361168639947019754e-02,-8.161754055689339482e-02,-7.948095572556110322e-02,-7.748680988298430050e-02,-7.535022505165200890e-02,-7.335607920907522006e-02,-7.121949437774291458e-02,-6.908290954641063686e-02,-6.708876370383383414e-02,-6.495217887250155642e-02,-6.295803302992475370e-02,-6.082144819859246210e-02,-5.882730235601565938e-02,-5.669071752468336778e-02,-5.469657168210656506e-02,-5.255998685077428734e-02,-5.042340201944199574e-02,-4.842925617686519302e-02,-4.629267134553291529e-02,-4.429852550295609870e-02,-4.216194067162380710e-02,-4.016779482904700438e-02,-2.718804197870335407e-02
-6.480973988374606753e-02,-8.076290662436047540e-02,-9.785558527501878046e-02,-9.785558527501878046e-02,-9.785558527501879433e-02,-9.785558527501878046e-02,-9.785558527501878046e-02,-9.785558527501878046e-02,-9.785558527501879433e-02,-9.785558527501878046e-02,-9.785558527501878046e-02,-9.785558527501878046e-02,-9.785558527501878046e-02,-9.785558527501878046e-02,-9.785558527501878046e-02,-9.785558527501879433e-02,-9.614631740995294162e-02,-9.415217156737615278e-02,-9.201558673604384730e-02,-9.002144089346704459e-02,-8.788485606213475299e-02,-8.589071021955796414e-02,-8.375412538822568642e-02,-8.161754055689339482e-02,-7.962339471431659210e-02,-7.748680988298431438e-02,-7.549266404040749778e-02,-7.335607920907522006e-02,-7.136193336649841734e-02,-6.922534853516612574e-02,-6.723120269258932302e-02,-6.509461786125703142e-02,-6.295803302992475370e-02,-6.096388718734793710e-02,-5.882730235601565938e-02,-5.683315651343885666e-02,-5.469657168210656506e-02,-5.270242583952977622e-02,-5.056584100819748462e-02,-4.842925617686519302e-02,-4.643511033428839030e-02,-4.429852550295609870e-02,-4.230437966037929598e-02,-4.016779482904700438e-02,-3.817364898647020166e-02,-3.603706415513792394e-02,-3.404291831256112122e-02
-9.671607336497489715e-02,-9.785558527501878046e-02,-9.785558527501878046e-02,-9.785558527501878046e-02,-9.785558527501879433e-02,-9.785558527501878046e-02,-9.785558527501878046e-02,-9.785558527501878046e-02,-9.785558527501878046e-02,-9.785558527501878046e-02,-9.785558527501878046e-02,-9.785558527501878046e-02,-9.785558527501878046e-02,-9.785558527501878046e-02,-9.628875639870843051e-02,-9.415217156737613891e-02,-9.215802572479935006e-02,-9.002144089346704459e-02,-8.802729505089024187e-02,-8.589071021955796414e-02,-8.389656437698117530e-02,-8.175997954564886983e-02,-7.976583370307206711e-02,-7.762924887173978938e-02,-7.549266404040751166e-02,-7.349851819783070894e-02,-7.136193336649843122e-02,-6.936778752392161462e-02,-6.723120269258932302e-02,-6.523705685001252030e-02,-6.310047201868022870e-02,-6.096388718734795098e-02,-5.896974134477114826e-02,-5.683315651343885666e-02,-5.483901067086205394e-02,-5.270242583952976234e-02,-5.070827999695295962e-02,-4.857169516562068190e-02,-4.657754932304387918e-02,-4.444096449171158758e-02,-4.230437966037929598e-02,-4.031023381780249326e-02,-3.817364898647020166e-02,-3.617950314389339894e-02,-3.404291831256112122e-02,-3.204877246998431850e-02,-2.991218763865203037e-02
-9.785558527501878046e-02,-9.785558527501879433e-02,-9.785558527501878046e-02,-9.785558527501878046e-02,-9.785558527501878046e-02,-9.785558527501878046e-02,-9.785558527501878046e-02,-9.785558527501878046e-02,-9.785558527501878046e-02,-9.785558527501879433e-02,-9.785558527501876658e-02,-9.785558527501876658e-02,-9.643119538746391939e-02,-9.429461055613164167e-02,-9.230046471355482507e-02,-9.016387988222251959e-02,-8.802729505089024187e-02,-8.603314920831345303e-02,-8.389656437698116143e-02,-8.190241853440435871e-02,-7.976583370307208098e-02,-7.777168786049527827e-02,-7.563510302916300054e-02,-7.349851819783070894e-02,-7.150437235525390622e-02,-6.936778752392161462e-02,-6.737364168134481190e-02,-6.523705685001252030e-02,-6.324291100743571759e-02,-6.110632617610342598e-02,-5.911218033352662327e-02,-5.697559550219433167e-02,-5.483901067086205394e-02,-5.284486482828526510e-02,-5.070827999695297350e-02,-4.871413415437617078e-02,-4.657754932304387918e-02,-4.458340348046707646e-02,-4.244681864913478486e-02,-4.031023381780249326e-02,-3.831608797522569054e-02,-3.617950314389339894e-02,-3.418535730131659622e-02,-3.204877246998431850e-02,-3.005462662740751925e-02,-2.791804179607522765e-02,-2.592389595349841799e-02
-9.785558527501878046e-02,-9.785558527501878046e-02,-9.785558527501878046e-02,-9.785558527501878046e-02,-9.785558527501878046e-02,-9.785558527501879433e-02,-9.785558527501878046e-02,-9.785558527501878046e-02,-9.785558527501878046e-02,-9.785558527501876658e-02,-9.643119538746391939e-02,-9.443704954488711667e-02,-9.230046471355482507e-02,-9.030631887097800847e-02,-8.816973403964573075e-02,-8.617558819706892803e-02,-8.403900336573665031e-02,-8.190241853440437259e-02,-7.990827269182755599e-02,-7.777168786049527827e-02,-7.577754201791848943e-02,-7.364095718658618395e-02,-7.164681134400938123e-02,-6.951022651267710351e-02,-6.737364168134481190e-02,-6.537949583876800919e-02,-6.324291100743573146e-02,-6.124876516485891487e-02,-5.911218033352663714e-02,-5.711803449094983443e-02,-5.498144965961754282e-02,-5.298730381704074011e-02,-5.085071898570846238e-02,-4.871413415437617078e-02,-4.671998831179936806e-02,-4.458340348046707646e-02,-4.258925763789027374e-02,-4.045267280655796827e-02,-3.845852696398117943e-02,-3.632194213264888782e-02,-3.418535730131659622e-02,-3.219121145873980738e-02,-3.005462662740751231e-02,-2.806048078483070959e-02,-2.592389595349842493e-02,-2.392975011092162221e-02,-2.179316527958933755e-02
-9.785558527501878046e-02,-9.785558527501878046e-02,-9.785558527501878046e-02,-9.785558527501878046e-02,-9.785558527501876658e-02,-9.785558527501878046e-02,-9.785558527501878046e-02,-9.785558527501878046e-02,-9.657363437621940827e-02,-9.443704954488711667e-02,-9.244290370231032783e-02,-9.030631887097800847e-02,-8.831217302840121963e-02,-8.617558819706892803e-02,-8.418144235449213919e-02,-8.204485752315984759e-02,-7.990827269182755599e-02,-7.791412684925075327e-02,-7.577754201791847555e-02,-7.378339617534167283e-02,-7.164681134400938123e-02,-6.965266550143257851e-02,-6.751608067010028691e-02,-6.552193482752349807e-02,-6.338534999619120647e-02,-6.124876516485891487e-02,-5.925461932228212603e-02,-5.711803449094983443e-02,-5.512388864837301783e-02,-5.298730381704074011e-02,-5.099315797446393739e-02,-4.885657314313164579e-02,-4.671998831179936806e-02,-4.472584246922256535e-02,-4.258925763789027374e-02,-4.059511179531345715e-02,-3.845852696398116555e-02,-3.646438112140437671e-02,-3.432779629007208511e-02,-3.219121145873980738e-02,-3.019706561616300119e-02,-2.806048078483070959e-02,-2.606633494225390688e-02,-2.392975011092162221e-02,-2.193560426834481950e-02,-1.979901943701253483e-02,-1.780487359443573211e-02
-9.785558527501878046e-02,-9.785558527501878046e-02,-9.785558527501878046e-02,-9.785558527501878046e-02,-9.785558527501878046e-02,-9.785558527501879433e-02,-9.671607336497489715e-02,-9.457948853364259167e-02,-9.244290370231031395e-02,-9.044875785973351123e-02,-8.831217302840121963e-02,-8.631802718582443079e-02,-8.418144235449213919e-02,-8.218729651191533647e-02,-8.005071168058304487e-02,-7.805656583800624215e-02,-7.591998100667395055e-02,-7.378339617534167283e-02,-7.178925033276487011e-02,-6.965266550143259239e-02,-6.765851965885577579e-02,-6.552193482752349807e-02,-6.352778898494668147e-02,-6.139120415361440375e-02,-5.925461932228212603e-02,-5.726047347970532331e-02,-5.512388864837303171e-02,-5.312974280579622899e-02,-5.099315797446393739e-02,-4.899901213188713467e-02,-4.686242730055485695e-02,-4.486828145797804035e-02,-4.273169662664576263e-02,-4.059511179531345715e-02,-3.860096595273665443e-02,-3.646438112140437671e-02,-3.447023527882757399e-02,-3.233365044749529627e-02,-3.033950460491849008e-02,-2.820291977358619848e-02,-2.606633494225390688e-02,-2.407218909967711110e-02,-2.193560426834481950e-02,-1.994145842576801678e-02,-1.780487359443572865e-02,-1.581072775185892940e-02,-1.367414292052664473e-02
-9.785558527501878046e-02,-9.785558527501878046e-02,-9.785558527501878046e-02,-9.785558527501879433e-02,-9.671607336497488328e-02,-9.472192752239810831e-02,-9.258534269106580283e-02,-9.059119684848898624e-02,-8.845461201715670851e-02,-8.631802718582443079e-02,-8.432388134324764195e-02,-8.218729651191535035e-02,-8.019315066933853375e-02,-7.805656583800624215e-02,-7.606241999542943943e-02,-7.392583516409716171e-02,-7.178925033276487011e-02,-6.979510449018806739e-02,-6.765851965885577579e-02,-6.566437381627897307e-02,-6.352778898494668147e-02,-6.153364314236989263e-02,-5.939705831103760103e-02,-5.740291246846079831e-02,-5.526632763712850671e-02,-5.312974280579622899e-02,-5.113559696321942627e-02,-4.899901213188713467e-02,-4.700486628931033195e-02,-4.486828145797805423e-02,-4.287413561540123763e-02,-4.073755078406894603e-02,-3.860096595273665443e-02,-3.660682011015986559e-02,-3.447023527882757399e-02,-3.247608943625077127e-02,-3.033950460491849008e-02,-2.834535876234168736e-02,-2.620877393100939576e-02,-2.407218909967711110e-02,-2.207804325710030838e-02,-1.994145842576801678e-02,-1.794731258319122100e-02,-1.581072775185892940e-02,-1.381658190928212668e-02,-1.167999707794983855e-02,-9.685851235373039297e-03
-9.785558527501879433e-02,-9.785558527501879433e-02,-9.685851235373038604e-02,-9.472192752239808056e-02,-9.272778167982129172e-02,-9.059119684848898624e-02,-8.859705100591218352e-02,-8.646046617457990580e-02,-8.432388134324761420e-02,-8.232973550067082535e-02,-8.019315066933854763e-02,-7.819900482676173104e-02,-7.606241999542945331e-02,-7.406827415285265059e-02,-7.193168932152035899e-02,-6.993754347894355627e-02,-6.780095864761126467e-02,-6.566437381627898695e-02,-6.367022797370218423e-02,-6.153364314236989263e-02,-5.953949729979307604e-02,-5.740291246846079831e-02,-5.540876662588399559e-02,-5.327218179455170399e-02,-5.113559696321942627e-02,-4.914145112064262355e-02,-4.700486628931033195e-02,-4.501072044673352923e-02,-4.287413561540123763e-02,-4.087998977282443491e-02,-3.874340494149214331e-02,-3.674925909891534059e-02,-3.461267426758306287e-02,-3.247608943625077127e-02,-3.048194359367397202e-02,-2.834535876234168042e-02,-2.635121291976488464e-02,-2.421462808843259998e-02,-2.222048224585579032e-02,-2.008389741452350566e-02,-1.794731258319121406e-02,-1.595316674061441828e-02,-1.381658190928212668e-02,-1.182243606670532743e-02,-9.685851235373035828e-03,-7.691705392796236579e-03,-5.555120561463948448e-03
-9.700095134248587492e-02,-9.486436651115356944e-02,-9.272778167982129172e-02,-9.073363583724447512e-02,-8.859705100591218352e-02,-8.660290516333538080e-02,-8.446632033200310308e-02,-8.247217448942631424e-02,-8.033558965809402264e-02,-7.819900482676173104e-02,-7.620485898418492832e-02,-7.406827415285263672e-02,-7.207412831027584788e-02,-6.993754347894355627e-02,-6.794339763636673968e-02,-6.580681280503447583e-02,-6.367022797370218423e-02,-6.167608213112536764e-02,-5.953949729979308991e-02,-5.754535145721628719e-02,-5.540876662588399559e-02,-5.341462078330719288e-02,-5.127803595197491515e-02,-4.928389010939811243e-02,-4.714730527806582083e-02,-4.501072044673352923e-02,-4.301657460415672651e-02,-4.087998977282443491e-02,-3.888584393024763219e-02,-3.674925909891534059e-02,-3.475511325633855175e-02,-3.261852842500626015e-02,-3.048194359367397202e-02,-2.848779775109716930e-02,-2.635121291976488464e-02,-2.435706707718808192e-02,-2.222048224585579032e-02,-2.022633640327898760e-02,-1.808975157194670294e-02,-1.609560572936989675e-02,-1.395902089803761209e-02,-1.182243606670532743e-02,-9.828290224128524710e-03,-7.691705392796240048e-03,-5.697559550219433860e-03,-3.560974718887149199e-03,-1.566828876310343011e-03
-9.287022066857678060e-02,-9.073363583724448900e-02,-8.873948999466767240e-02,-8.660290516333538080e-02,-8.460875932075859196e-02,-8.247217448942631424e-02,-8.047802864684949764e-02,-7.834144381551721992e-02,-7.634729797294043108e-02,-7.421071314160812560e-02,-7.207412831027583400e-02,-7.007998246769904516e-02,-6.794339763636675356e-02,-6.594925179378995084e-02,-6.381266696245765924e-02,-6.181852111988087040e-02,-5.968193628854857880e-02,-5.754535145721627332e-02,-5.555120561463948448e-02,-5.341462078330719288e-02,-5.142047494073039016e-02,-4.928389010939811243e-02,-4.728974426682130971e-02,-4.515315943548901811e-02,-4.301657460415672651e-02,-4.102242876157992379e-02,-3.888584393024763219e-02,-3.689169808767082948e-02,-3.475511325633855175e-02,-3.276096741376174903e-02,-3.062438258242945396e-02,-2.863023673985265125e-02,-2.649365190852037352e-02,-2.435706707718808192e-02,-2.236292123461127920e-02,-2.022633640327899454e-02,-1.823219056070218835e-02,-1.609560572936990369e-02,-1.410145988679310097e-02,-1.196487505546080937e-02,-9.828290224128524710e-03,-7.834144381551721992e-03,-5.697559550219433860e-03,-3.703413707642632877e-03,-1.566828876310344745e-03,4.273169662664562385e-04,2.563901797598744370e-03
-8.888192898342316128e-02,-8.674534415209086968e-02,-8.460875932075860584e-02,-8.261461347818178924e-02,-8.047802864684949764e-02,-7.848388280427270880e-02,-7.634729797294040332e-02,-7.435315213036361448e-02,-7.221656729903133676e-02,-7.007998246769904516e-02,-6.808583662512224244e-02,-6.594925179378995084e-02,-6.395510595121314812e-02,-6.181852111988085652e-02,-5.982437527730405380e-02,-5.768779044597177608e-02,-5.555120561463948448e-02,-5.355705977206268176e-02,-5.142047494073040403e-02,-4.942632909815360132e-02,-4.728974426682130971e-02,-4.529559842424450700e-02,-4.315901359291221540e-02,-4.116486775033541268e-02,-3.902828291900312108e-02,-3.689169808767082948e-02,-3.489755224509402676e-02,-3.276096741376174903e-02,-3.076682157118494285e-02,-2.863023673985265125e-02,-2.663609089727585547e-02,-2.449950606594357080e-02,-2.236292123461127920e-02,-2.036877539203447648e-02,-1.823219056070218488e-02,-1.623804471812538910e-02,-1.410145988679310097e-02,-1.210731404421629478e-02,-9.970729212884010123e-03,-7.976583370307207405e-03,-5.839998538974922743e-03,-3.703413707642632877e-03,-1.709267865065828423e-03,4.273169662664562385e-04,2.421462808843258957e-03,4.558047640175547088e-03,6.552193482752348939e-03
-6.368803284729661340e-02,-8.261461347818178924e-02,-8.062046763560500040e-02,-7.848388280427270880e-02,-7.648973696169589220e-02,-7.435315213036361448e-02,-7.235900628778681176e-02,-7.022242145645452016e-02,-6.822827561387773132e-02,-6.609169078254543972e-02,-6.395510595121314812e-02,-6.196096010863634540e-02,-5.982437527730405380e-02,-5.783022943472726496e-02,-5.569364460339497336e-02,-5.369949876081817064e-02,-5.156291392948587904e-02,-4.942632909815358744e-02,-4.743218325557678472e-02,-4.529559842424450700e-02,-4.330145258166769040e-02,-4.116486775033541268e-02,-3.917072190775859608e-02,-3.703413707642631836e-02,-3.489755224509402676e-02,-3.290340640251723792e-02,-3.076682157118494979e-02,-2.877267572860814013e-02,-2.663609089727585547e-02,-2.464194505469905275e-02,-2.250536022336676809e-02,-2.051121438078996537e-02,-1.837462954945767377e-02,-1.623804471812538910e-02,-1.424389887554858639e-02,-1.210731404421629825e-02,-1.011316820163949901e-02,-7.976583370307207405e-03,-5.982437527730404686e-03,-3.845852696398118289e-03,-1.709267865065830158e-03,2.848779775109708257e-04,2.421462808843258957e-03,4.415608651420060808e-03,6.552193482752348072e-03,8.546339325329150791e-03,1.068292415666143719e-02
-2.019072665609012232e-02,-7.862632179302819768e-02,-7.648973696169590608e-02,-7.449559111911910336e-02,-7.235900628778681176e-02,-7.036486044521000904e-02,-6.822827561387771744e-02,-6.623412977130092860e-02,-6.409754493996863700e-02,-6.196096010863634540e-02,-5.996681426605954268e-02,-5.783022943472726496e-02,-5.583608359215044836e-02,-5.369949876081815676e-02,-5.170535291824136792e-02,-4.956876808690907632e-02,-4.743218325557679860e-02,-4.543803741299999588e-02,-4.330145258166769040e-02,-4.130730673909088768e-02,-3.917072190775860996e-02,-3.717657606518180724e-02,-3.503999123384951564e-02,-3.304584539127271292e-02,-3.090926055994042479e-02,-2.877267572860814013e-02,-2.677852988603133741e-02,-2.464194505469905275e-02,-2.264779921212225003e-02,-2.051121438078996537e-02,-1.851706853821316265e-02,-1.638048370688087105e-02,-1.424389887554858292e-02,-1.224975303297178714e-02,-1.011316820163949554e-02,-8.119022359062692817e-03,-5.982437527730404686e-03,-3.988291685153601968e-03,-1.851706853821317306e-03,1.424389887554854128e-04,2.279023820087773544e-03,4.415608651420060808e-03,6.409754493996862659e-03,8.546339325329150791e-03,1.054048516790595177e-02,1.153755808919435313e-02,1.153755808919435313e-02
1.153755808919435313e-02,-5.567583972980053031e-02,-7.250144527654230064e-02,-7.036486044521000904e-02,-6.837071460263320632e-02,-6.623412977130091472e-02,-6.423998392872412588e-02,-6.210339909739183428e-02,-6.010925325481503156e-02,-5.797266842348273996e-02,-5.583608359215046224e-02,-5.384193774957365952e-02,-5.170535291824136792e-02,-4.971120707566456520e-02,-4.757462224433228748e-02,-4.558047640175547088e-02,-4.344389157042317928e-02,-4.130730673909088768e-02,-3.931316089651409884e-02,-3.717657606518179336e-02,-3.518243022260500452e-02,-3.304584539127271292e-02,-3.105169954869591367e-02,-2.891511471736362901e-02,-2.692096887478682629e-02,-2.478438404345453469e-02,-2.264779921212225003e-02,-2.065365336954544731e-02,-1.851706853821315918e-02,-1.652292269563635993e-02,-1.438633786430407180e-02,-1.239219202172726908e-02,-1.025560719039498095e-02,-8.119022359062692817e-03,-6.124876516485893568e-03,-3.988291685153603702e-03,-1.994145842576802719e-03,1.424389887554854128e-04,2.136584831332288131e-03,4.273169662664574528e-03,6.409754493996862659e-03,8.403900336573663643e-03,1.054048516790595177e-02,1.153755808919435313e-02,1.153755808919435313e-02,1.153755808919435313e-02,1.153755808919435313e-02
1.153755808919435313e-02,-1.410145988679309750e-02,-6.837071460263320632e-02,-6.637656876005640361e-02,-6.423998392872412588e-02,-6.224583808614730929e-02,-6.010925325481503156e-02,-5.811510741223822885e-02,-5.597852258090593724e-02,-5.384193774957365952e-02,-5.184779190699685680e-02,-4.971120707566456520e-02,-4.771706123308776248e-02,-4.558047640175547088e-02,-4.358633055917866816e-02,-4.144974572784637656e-02,-3.945559988526957385e-02,-3.731901505393728224e-02,-3.518243022260500452e-02,-3.318828438002820180e-02,-3.105169954869591367e-02,-2.905755370611911095e-02,-2.692096887478682629e-02,-2.492682303221002357e-02,-2.279023820087773197e-02,-2.065365336954544731e-02,-1.865950752696864459e-02,-1.652292269563635646e-02,-1.452877685305955721e-02,-1.239219202172726561e-02,-1.039804617915046636e-02,-8.261461347818178230e-03,-6.267315505241375512e-03,-4.130730673909090850e-03,-1.994145842576800984e-03,-1.734723475976807094e-18,2.136584831332288131e-03,4.130730673909089115e-03,6.267315505241376379e-03,8.261461347818178230e-03,1.039804617915046636e-02,1.153755808919435313e-02,1.153755808919435313e-02,1.153755808919435313e-02,1.153755808919435313e-02,1.153755808919435313e-02,1.153755808919435313e-02
1.153755808919435313e-02,1.153755808919435313e-02,-4.540242766581110978e-02,-6.224583808614732316e-02,-6.025169224357052045e-02,-5.811510741223822885e-02,-5.612096156966142613e-02,-5.398437673832913453e-02,-5.199023089575233181e-02,-4.985364606442005408e-02,-4.771706123308776248e-02,-4.572291539051095977e-02,-4.358633055917866816e-02,-4.159218471660187932e-02,-3.945559988526957385e-02,-3.746145404269277113e-02,-3.532486921136049340e-02,-3.318828438002820180e-02,-3.119413853745139562e-02,-2.905755370611911095e-02,-2.706340786354230823e-02,-2.492682303221002357e-02,-2.293267718963322085e-02,-2.079609235830093619e-02,-1.880194651572413000e-02,-1.666536168439184187e-02,-1.452877685305955721e-02,-1.253463101048275449e-02,-1.039804617915046636e-02,-8.403900336573667113e-03,-6.267315505241375512e-03,-4.273169662664576263e-03,-2.136584831332288131e-03,0.000000000000000000e+00,1.994145842576802719e-03,4.130730673909089115e-03,6.124876516485890966e-03,8.261461347818178230e-03,1.025560719039498095e-02,1.153755808919435313e-02,1.153755808919435313e-02,1.153755808919435313e-02,1.153755808919435313e-02,1.153755808919435313e-02,1.153755808919435313e-02,1.153755808919435313e-02,1.153755808919435313e-02
1.153755808919435313e-02,1.153755808919435313e-02,-8.653168566895765718e-03,-5.825754640099371773e-02,-5.612096156966142613e-02,-5.412681572708462341e-02,-5.199023089575234569e-02,-4.999608505317554297e-02,-4.785950022184325137e-02,-4.572291539051095977e-02,-4.372876954793415705e-02,-4.159218471660186545e-02,-3.959803887402506273e-02,-3.746145404269277113e-02,-3.546730820011598229e-02,-3.333072336878369069e-02,-3.133657752620688797e-02,-2.919999269487459984e-02,-2.706340786354231517e-02,-2.506926202096551246e-02,-2.293267718963322085e-02,-2.093853134705641814e-02,-1.880194651572413347e-02,-1.680780067314733076e-02,-1.467121584181504262e-02,-1.253463101048275796e-02,-1.054048516790595177e-02,-8.403900336573663643e-03,-6.409754493996864394e-03,-4.273169662664576263e-03,-2.279023820087775279e-03,-1.424389887554854128e-04,1.851706853821315571e-03,3.988291685153603702e-03,6.124876516485890966e-03,8.119022359062692817e-03,1.025560719039498095e-02,1.153755808919435313e-02,1.153755808919435313e-02,1.153755808919435313e-02,1.153755808919435313e-02,1.153755808919435313e-02,1.153755808919435313e-02,1.153755808919435313e-02,1.153755808919435313e-02,1.153755808919435313e-02,1.153755808919435313e-02
1.153755808919435313e-02,1.153755808919435313e-02,1.153755808919435313e-02,-3.565871059125616527e-02,-5.213266988450782069e-02,-4.999608505317552909e-02,-4.800193921059874025e-02,-4.586535437926644865e-02,-4.387120853668964593e-02,-4.173462370535735433e-02,-3.959803887402506273e-02,-3.760389303144826001e-02,-3.546730820011598229e-02,-3.347316235753917957e-02,-3.133657752620688797e-02,-2.934243168363008178e-02,-2.720584685229779712e-02,-2.506926202096551246e-02,-2.307511617838870974e-02,-2.093853134705642507e-02,-1.894438550447961889e-02,-1.680780067314733076e-02,-1.481365483057052804e-02,-1.267706999923824338e-02,-1.068292415666144066e-02,-8.546339325329152525e-03,-6.409754493996864394e-03,-4.415608651420061675e-03,-2.279023820087773544e-03,-2.848779775109708257e-04,1.851706853821315571e-03,3.845852696398117422e-03,5.982437527730404686e-03,8.119022359062692817e-03,1.011316820163949554e-02,1.153755808919435313e-02,1.153755808919435313e-02,1.153755808919435313e-02,1.153755808919435313e-02,1.153755808919435313e-02,1.153755808919435313e-02,1.153755808919435313e-02,1.153755808919435313e-02,1.153755808919435313e-02,1.153755808919435313e-02,1.153755808919435313e-02,1.153755808919435313e-02
1.153755808919435313e-02,1.153755808919435313e-02,1.153755808919435313e-02,-5.808840010184657815e-03,-4.800193921059874025e-02,-4.600779336802193753e-02,-4.387120853668964593e-02,-4.187706269411284321e-02,-3.974047786278055161e-02,-3.774633202020374889e-02,-3.560974718887145729e-02,-3.347316235753917957e-02,-3.147901651496237685e-02,-2.934243168363008178e-02,-2.734828584105327906e-02,-2.521170100972099440e-02,-2.321755516714419168e-02,-2.108097033581190702e-02,-1.894438550447962236e-02,-1.695023966190281617e-02,-1.481365483057052804e-02,-1.281950898799372532e-02,-1.068292415666143719e-02,-8.688778314084637938e-03,-6.552193482752349807e-03,-4.415608651420061675e-03,-2.421462808843258957e-03,-2.848779775109725604e-04,1.709267865065828423e-03,3.845852696398116555e-03,5.839998538974919273e-03,7.976583370307207405e-03,9.970729212884008388e-03,1.153755808919435313e-02,1.153755808919435313e-02,1.153755808919435313e-02,1.153755808919435313e-02,1.153755808919435313e-02,1.153755808919435313e-02,1.153755808919435313e-02,1.153755808919435313e-02,1.153755808919435313e-02,1.153755808919435313e-02,1.153755808919435313e-02,1.153755808919435313e-02,1.153755808919435313e-02,1.153755808919435313e-02
1.153755808919435313e-02,1.153755808919435313e-02,1.153755808919435313e-02,1.153755808919435313e-02,-2.838987094632777416e-02,-4.187706269411284321e-02,-3.988291685153602661e-02,-3.774633202020374889e-02,-3.575218617762694617e-02,-3.361560134629465457e-02,-3.147901651496237685e-02,-2.948487067238557066e-02,-2.734828584105328600e-02,-2.535413999847647634e-02,-2.321755516714419168e-02,-2.122340932456739590e-02,-1.908682449323510430e-02,-1.695023966190281617e-02,-1.495609381932601345e-02,-1.281950898799372532e-02,-1.082536314541692607e-02,-8.688778314084634469e-03,-6.694632471507835220e-03,-4.558047640175547088e-03,-2.563901797598746105e-03,-4.273169662664562385e-04,1.709267865065830158e-03,3.703413707642631142e-03,5.839998538974919273e-03,7.834144381551721992e-03,9.970729212884008388e-03,1.153755808919435313e-02,1.153755808919435313e-02,1.153755808919435313e-02,1.153755808919435313e-02,1.153755808919435313e-02,1.153755808919435313e-02,1.153755808919435313e-02,1.153755808919435313e-02,1.153755808919435313e-02,1.153755808919435313e-02,1.153755808919435313e-02,1.153755808919435313e-02,1.153755808919435313e-02,1.153755808919435313e-02,1.153755808919435313e-02,1.153755808919435313e-02
1.153755808919435313e-02,1.153755808919435313e-02,1.153755808919435313e-02,1.153755808919435313e-02,-1.317560645988244405e-03,-3.788877100895922390e-02,-3.575218617762694617e-02,-3.375804033505014345e-02,-3.162145550371785185e-02,-2.962730966114105260e-02,-2.749072482980876794e-02,-2.535413999847647634e-02,-2.335999415589968056e-02,-2.122340932456738896e-02,-1.922926348199058971e-02,-1.709267865065830158e-02,-1.509853280808149886e-02,-1.296194797674921420e-02,-1.082536314541692607e-02,-8.831217302840126820e-03,-6.694632471507835220e-03,-4.700486628931032501e-03,-2.563901797598746105e-03,-5.697559550219451208e-04,1.566828876310343011e-03,3.703413707642632877e-03,5.697559550219433860e-03,7.834144381551721992e-03,9.828290224128522976e-03,1.153755808919435313e-02,1.153755808919435313e-02,1.153755808919435313e-02,1.153755808919435313e-02,1.153755808919435313e-02,1.153755808919435313e-02,1.153755808919435313e-02,1.153755808919435313e-02,1.153755808919435313e-02,1.153755808919435313e-02,1.153755808919435313e-02,1.153755808919435313e-02,1.153755808919435313e-02,1.153755808919435313e-02,1.153755808919435313e-02,1.153755808919435313e-02,1.153755808919435313e-02,1.153755808919435313e-02
1.153755808919435313e-02,1.153755808919435313e-02,1.153755808919435313e-02,1.153755808919435313e-02,1.153755808919435313e-02,-1.960316582747374109e-02,-3.176389449247335461e-02,-2.962730966114105260e-02,-2.763316381856425683e-02,-2.549657898723196522e-02,-2.335999415589968056e-02,-2.136584831332287784e-02,-1.922926348199058971e-02,-1.723511763941378352e-02,-1.509853280808149886e-02,-1.310438696550469961e-02,-1.096780213417241148e-02,-8.831217302840123351e-03,-6.837071460263324102e-03,-4.700486628931032501e-03,-2.706340786354231517e-03,-5.697559550219433860e-04,1.424389887554857598e-03,3.560974718887145729e-03,5.555120561463946713e-03,7.691705392796234844e-03,9.828290224128522976e-03,1.153755808919435313e-02,1.153755808919435313e-02,1.153755808919435313e-02,1.153755808919435313e-02,1.153755808919435313e-02,1.153755808919435313e-02,1.153755808919435313e-02,1.153755808919435313e-02,1.153755808919435313e-02,1.153755808919435313e-02,1.153755808919435313e-02,1.153755808919435313e-02,1.153755808919435313e-02,1.153755808919435313e-02,1.153755808919435313e-02,1.153755808919435313e-02,1.153755808919435313e-02,1.153755808919435313e-02,1.153755808919435313e-02,1.153755808919435313e-02
1.153755808919435313e-02,1.153755808919435313e-02,1.153755808919435313e-02,1.153755808919435313e-02,1.153755808919435313e-02,1.210731404421629478e-03,-2.763316381856425683e-02,-2.563901797598745411e-02,-2.350243314465516944e-02,-2.150828730207835979e-02,-1.937170247074607513e-02,-1.723511763941378699e-02,-1.524097179683698774e-02,-1.310438696550469614e-02,-1.111024112292789343e-02,-8.973656291595608764e-03,-6.979510449018806045e-03,-4.842925617686517914e-03,-2.706340786354233252e-03,-7.121949437774305336e-04,1.424389887554857598e-03,3.418535730131660316e-03,5.555120561463947580e-03,7.549266404040749431e-03,9.685851235373037563e-03,1.153755808919435313e-02,1.153755808919435313e-02,1.153755808919435313e-02,1.153755808919435313e-02,1.153755808919435313e-02,1.153755808919435313e-02,1.153755808919435313e-02,1.153755808919435313e-02,1.153755808919435313e-02,1.153755808919435313e-02,1.153755808919435313e-02,1.153755808919435313e-02,1.153755808919435313e-02,1.153755808919435313e-02,1.153755808919435313e-02,1.153755808919435313e-02,1.153755808919435313e-02,1.153755808919435313e-02,1.153755808919435313e-02,1.153755808919435313e-02,1.153755808919435313e-02,1.153755808919435313e-02
1.153755808919435313e-02,1.153755808919435313e-02,1.153755808919435313e-02,1.153755808919435313e-02,1.153755808919435313e-02,1.153755808919435313e-02,-1.155091174439017848e-02,-2.150828730207836673e-02,-1.951414145950156401e-02,-1.737755662816927241e-02,-1.524097179683698428e-02,-1.324682595426018503e-02,-1.111024112292789343e-02,-9.116095280351090707e-03,-6.979510449018806045e-03,-4.985364606442006796e-03,-2.848779775109716930e-03,-8.546339325329159464e-04,1.281950898799372185e-03,3.418535730131660316e-03,5.412681572708461300e-03,7.549266404040749431e-03,9.543412246617550415e-03,1.153755808919435313e-02,1.153755808919435313e-02,1.153755808919435313e-02,1.153755808919435313e-02,1.153755808919435313e-02,1.153755808919435313e-02,1.153755808919435313e-02,1.153755808919435313e-02,1.153755808919435313e-02,1.153755808919435313e-02,1.153755808919435313e-02,1.153755808919435313e-02,1.153755808919435313e-02,1.153755808919435313e-02,1.153755808919435313e-02,1.153755808919435313e-02,1.153755808919435313e-02,1.153755808919435313e-02,1.153755808919435313e-02,1.153755808919435313e-02,1.153755808919435313e-02,1.153755808919435313e-02,1.153755808919435313e-02,1.153755808919435313e-02
1.153755808919435313e-02,1.153755808919435313e-02,1.153755808919435313e-02,1.153755808919435313e-02,1.153755808919435313e-02,1.153755808919435313e-02,4.744998812917121042e-03,-1.751999561692476129e-02,-1.538341078559247316e-02,-1.338926494301566697e-02,-1.125268011168338231e-02,-9.116095280351094177e-03,-7.121949437774291458e-03,-4.985364606442003327e-03,-2.991218763865204078e-03,-8.546339325329159464e-04,1.139511910043886772e-03,3.276096741376174903e-03,5.412681572708462167e-03,7.406827415285264019e-03,9.543412246617550415e-03,1.153755808919435313e-02,1.153755808919435313e-02,1.153755808919435313e-02,1.153755808919435313e-02,1.153755808919435313e-02,1.153755808919435313e-02,1.153755808919435313e-02,1.153755808919435313e-02,1.153755808919435313e-02,1.153755808919435313e-02,1.153755808919435313e-02,1.153755808919435313e-02,1.153755808919435313e-02,1.153755808919435313e-02,1.153755808919435313e-02,1.153755808919435313e-02,1.153755808919435313e-02,1.153755808919435313e-02,1.153755808919435313e-02,1.153755808919435313e-02,1.153755808919435313e-02,1.153755808919435313e-02,1.153755808919435313e-02,1.153755808919435313e-02,1.153755808919435313e-02,1.153755808919435313e-02
1.153755808919435313e-02,1.153755808919435313e-02,1.153755808919435313e-02,1.153755808919435313e-02,1.153755808919435313e-02,1.153755808919435313e-02,1.153755808919435313e-02,-4.820669525693474511e-03,-1.139511910043886772e-02,-9.258534269106579589e-03,-7.121949437774291458e-03,-5.127803595197492209e-03,-2.991218763865202343e-03,-9.970729212884013593e-04,1.139511910043886772e-03,3.133657752620689491e-03,5.270242583952975887e-03,7.264388426529777738e-03,9.400973257862065002e-03,1.153755808919435313e-02,1.153755808919435313e-02,1.153755808919435313e-02,1.153755808919435313e-02,1.153755808919435313e-02,1.153755808919435313e-02,1.153755808919435313e-02,1.153755808919435313e-02,1.153755808919435313e-02,1.153755808919435313e-02,1.153755808919435313e-02,1.153755808919435313e-02,1.153755808919435313e-02,1.153755808919435313e-02,1.153755808919435313e-02,1.153755808919435313e-02,1.153755808919435313e-02,1.153755808919435313e-02,1.153755808919435313e-02,1.153755808919435313e-02,1.153755808919435313e-02,1.153755808919435313e-02,1.153755808919435313e-02,1.153755808919435313e-02,1.153755808919435313e-02,1.153755808919435313e-02,1.153755808919435313e-02,1.153755808919435313e-02
1.153755808919435313e-02,1.153755808919435313e-02,1.153755808919435313e-02,1.153755808919435313e-02,1.153755808919435313e-02,1.153755808919435313e-02,1.153755808919435313e-02,7.611583461621274083e-03,-7.264388426529776871e-03,-5.270242583952977622e-03,-3.133657752620689491e-03,-9.970729212884013593e-04,9.970729212884013593e-04,3.133657752620687756e-03,5.127803595197489607e-03,7.264388426529777738e-03,9.258534269106579589e-03,1.139511910043886772e-02,1.153755808919435313e-02,1.153755808919435313e-02,1.153755808919435313e-02,1.153755808919435313e-02,1.153755808919435313e-02,1.153755808919435313e-02,1.153755808919435313e-02,1.153755808919435313e-02,1.153755808919435313e-02,1.153755808919435313e-02,1.153755808919435313e-02,1.153755808919435313e-02,1.153755808919435313e-02,1.153755808919435313e-02,1.153755808919435313e-02,1.153755808919435313e-02,1.153755808919435313e-02,1.153755808919435313e-02,1.153755808919435313e-02,1.153755808919435313e-02,1.153755808919435313e-02,1.153755808919435313e-02,1.153755808919435313e-02,1.153755808919435313e-02,1.153755808919435313e-02,1.153755808919435313e-02,1.153755808919435313e-02,1.153755808919435313e-02,1.153755808919435313e-02
1.153755808919435313e-02,1.153755808919435313e-02,1.153755808919435313e-02,1.153755808919435313e-02,1.153755808919435313e-02,1.153755808919435313e-02,1.153755808919435313e-02,1.153755808919435313e-02,2.279023820087773544e-03,-1.139511910043886772e-03,9.970729212883996245e-04,2.991218763865202343e-03,5.127803595197490474e-03,7.121949437774291458e-03,9.258534269106579589e-03,1.125268011168338231e-02,1.153755808919435313e-02,1.153755808919435313e-02,1.153755808919435313e-02,1.153755808919435313e-02,1.153755808919435313e-02,1.153755808919435313e-02,1.153755808919435313e-02,1.153755808919435313e-02,1.153755808919435313e-02,1.153755808919435313e-02,1.153755808919435313e-02,1.153755808919435313e-02,1.153755808919435313e-02,1.153755808919435313e-02,1.153755808919435313e-02,1.153755808919435313e-02,1.153755808919435313e-02,1.153755808919435313e-02,1.153755808919435313e-02,1.153755808919435313e-02,1.153755808919435313e-02,1.153755808919435313e-02,1.153755808919435313e-02,1.153755808919435313e-02,1.153755808919435313e-02,1.153755808919435313e-02,1.153755808919435313e-02,1.153755808919435313e-02,1.153755808919435313e-02,1.153755808919435313e-02,1.153755808919435313e-02
1.153755808919435313e-02,1.153755808919435313e-02,1.153755808919435313e-02,1.153755808919435313e-02,1.153755808919435313e-02,1.153755808919435313e-02,1.153755808919435313e-02,1.153755808919435313e-02,9.534509809820332360e-03,2.848779775109716930e-03,4.985364606442004194e-03,7.121949437774291458e-03,9.116095280351094177e-03,1.125268011168338231e-02,1.153755808919435313e-02,1.153755808919435313e-02,1.153755808919435313e-02,1.153755808919435313e-02,1.153755808919435313e-02,1.153755808919435313e-02,1.153755808919435313e-02,1.153755808919435313e-02,1.153755808919435313e-02,1.153755808919435313e-02,1.153755808919435313e-02,1.153755808919435313e-02,1.153755808919435313e-02,1.153755808919435313e-02,1.153755808919435313e-02,1.153755808919435313e-02,1.153755808919435313e-02,1.153755808919435313e-02,1.153755808919435313e-02,1.153755808919435313e-02,1.153755808919435313e-02,1.153755808919435313e-02,1.153755808919435313e-02,1.153755808919435313e-02,1.153755808919435313e-02,1.153755808919435313e-02,1.153755808919435313e-02,1.153755808919435313e-02,1.153755808919435313e-02,1.153755808919435313e-02,1.153755808919435313e-02,1.153755808919435313e-02,1.153755808919435313e-02
