3.712734235115400239e-02,3.712734235115400239e-02,3.712734235115400239e-02,3.712734235115400239e-02,3.712734235115400239e-02,3.712734235115400239e-02,3.712734235115400239e-02,3.712734235115400239e-02,3.712734235115400239e-02,3.712734235115400239e-02,3.712734235115400239e-02,3.712734235115400239e-02,3.421874871074101487e-02,2.925703014768357008e-02,2.429531158462611834e-02,1.933359302156867354e-02,1.437187445851122874e-02,9.239062151900078596e-03,4.277343588842623390e-03,-6.843749742148214077e-04,-5.646093537272266205e-03,-1.060781210032971100e-02,-1.574062440694086462e-02,-2.070234296999830248e-02,-2.566406153305576809e-02,-3.062578009611321983e-02,-3.558749865917065769e-02,-4.054921722222809555e-02,-4.309423665758946309e-02,-1.224389602306202168e-02,2.263784094394960533e-02,3.712734235115400239e-02,3.712734235115400239e-02,3.712734235115400239e-02,3.712734235115400239e-02,3.712734235115400239e-02,3.712734235115400239e-02,3.712734235115400239e-02,3.712734235115400239e-02,3.712734235115400239e-02,3.712734235115400239e-02,3.712734235115400239e-02,3.712734235115400239e-02,3.712734235115400239e-02,3.712734235115400239e-02,3.712734235115400239e-02,3.712734235115400239e-02
3.712734235115400239e-02,3.712734235115400239e-02,3.712734235115400239e-02,3.712734235115400239e-02,3.712734235115400239e-02,3.712734235115400239e-02,3.712734235115400239e-02,3.712734235115400239e-02,3.712734235115400239e-02,3.712734235115400239e-02,3.712734235115400239e-02,3.695624860760030050e-02,3.199453004454284877e-02,2.703281148148540397e-02,2.207109291842795223e-02,1.710937435537050744e-02,1.197656204875935382e-02,7.014843485701909021e-03,2.053124922644457284e-03,-2.908593640412987513e-03,-7.870312203470432311e-03,-1.283203076652788405e-02,-1.796484307313903073e-02,-2.292656163619646859e-02,-2.788828019925393420e-02,-3.284999876231137206e-02,-3.781171732536882379e-02,-4.294452963197997741e-02,-4.790624819503742915e-02,-5.286796675809485313e-02,-5.782968532115231874e-02,-2.844433486580347226e-02,1.090722615154869971e-02,3.712734235115400239e-02,3.712734235115400239e-02,3.712734235115400239e-02,3.712734235115400239e-02,3.712734235115400239e-02,3.712734235115400239e-02,3.712734235115400239e-02,3.712734235115400239e-02,3.712734235115400239e-02,3.712734235115400239e-02,3.712734235115400239e-02,3.712734235115400239e-02,3.712734235115400239e-02,3.712734235115400239e-02
3.712734235115400239e-02,3.712734235115400239e-02,3.712734235115400239e-02,3.712734235115400239e-02,3.712734235115400239e-02,3.712734235115400239e-02,3.712734235115400239e-02,3.712734235115400239e-02,3.712734235115400239e-02,3.712734235115400239e-02,3.712734235115400239e-02,3.473202994140213440e-02,2.977031137834468266e-02,2.480859281528723786e-02,1.984687425222978960e-02,1.471406194561863598e-02,9.752343382561191182e-03,4.790624819503735976e-03,-1.710937435537088214e-04,-5.132812306611153619e-03,-1.009453086966859148e-02,-1.522734317627975204e-02,-2.018906173933719683e-02,-2.515078030239463469e-02,-3.011249886545210031e-02,-3.507421742850955204e-02,-4.020702973512069178e-02,-4.516874829817815740e-02,-5.013046686123559526e-02,-5.509218542429303311e-02,-6.005390398735047097e-02,-6.501562255040792271e-02,-7.014843485701907633e-02,-4.705077947726889198e-02,-3.159887576257486286e-03,3.712734235115400239e-02,3.712734235115400239e-02,3.712734235115400239e-02,3.712734235115400239e-02,3.712734235115400239e-02,3.712734235115400239e-02,3.712734235115400239e-02,3.712734235115400239e-02,3.712734235115400239e-02,3.712734235115400239e-02,3.712734235115400239e-02,3.712734235115400239e-02
3.712734235115400239e-02,3.712734235115400239e-02,3.712734235115400239e-02,3.712734235115400239e-02,3.712734235115400239e-02,3.712734235115400239e-02,3.712734235115400239e-02,3.712734235115400239e-02,3.712734235115400239e-02,3.712734235115400239e-02,3.712734235115400239e-02,3.250781127520396829e-02,2.754609271214651656e-02,2.258437414908907176e-02,1.745156184247791814e-02,1.248984327942047334e-02,7.528124716363025076e-03,2.566406153305569871e-03,-2.395312409751874927e-03,-7.357030972809319724e-03,-1.248984327942046640e-02,-1.745156184247791120e-02,-2.241328040553535600e-02,-2.737499896859281467e-02,-3.233671753165026641e-02,-3.729843609470771815e-02,-4.243124840131885789e-02,-4.739296696437630962e-02,-5.235468552743374748e-02,-5.731640409049119922e-02,-6.227812265354863708e-02,-6.741093496015980457e-02,-7.237265352321724243e-02,-7.733437208627469417e-02,-8.229609064933214591e-02,-6.450234131974680318e-02,-1.556953066338716274e-02,3.712734235115400239e-02,3.712734235115400239e-02,3.712734235115400239e-02,3.712734235115400239e-02,3.712734235115400239e-02,3.712734235115400239e-02,3.712734235115400239e-02,3.712734235115400239e-02,3.712734235115400239e-02,3.712734235115400239e-02
3.712734235115400239e-02,3.712734235115400239e-02,3.712734235115400239e-02,3.712734235115400239e-02,3.712734235115400239e-02,3.712734235115400239e-02,3.712734235115400239e-02,3.712734235115400239e-02,3.712734235115400239e-02,3.712734235115400239e-02,3.524531117206324698e-02,3.028359260900579872e-02,2.532187404594835045e-02,2.018906173933719683e-02,1.522734317627975204e-02,1.026562461322230724e-02,5.303906050164855501e-03,3.421874871074107038e-04,-4.619531075950041032e-03,-9.752343382561187712e-03,-1.471406194561862557e-02,-1.967578050867607731e-02,-2.463749907173352904e-02,-2.959921763479098078e-02,-3.456093619784841864e-02,-3.969374850445958613e-02,-4.465546706751703787e-02,-4.961718563057446185e-02,-5.457890419363191359e-02,-5.954062275668936532e-02,-6.467343506330051894e-02,-6.963515362635797068e-02,-7.459687218941540854e-02,-7.955859075247286027e-02,-8.332265311065437108e-02,-8.332265311065437108e-02,-8.332265311065437108e-02,-7.579452839429134947e-02,-2.309765537975018435e-02,2.583515527660946651e-02,3.712734235115400239e-02,3.712734235115400239e-02,3.712734235115400239e-02,3.712734235115400239e-02,3.712734235115400239e-02,3.712734235115400239e-02,3.712734235115400239e-02
3.712734235115400239e-02,3.712734235115400239e-02,3.712734235115400239e-02,3.712734235115400239e-02,3.712734235115400239e-02,3.712734235115400239e-02,3.712734235115400239e-02,3.712734235115400239e-02,3.712734235115400239e-02,3.712734235115400239e-02,3.302109250586508088e-02,2.805937394280763261e-02,2.292656163619647899e-02,1.796484307313903073e-02,1.300312451008158940e-02,8.041405947024137663e-03,3.079687383966689396e-03,-1.882031179090755402e-03,-7.014843485701902082e-03,-1.197656204875935382e-02,-1.693828061181680555e-02,-2.189999917487424341e-02,-2.686171773793169515e-02,-3.182343630098916076e-02,-3.695624860760030050e-02,-4.191796717065775224e-02,-4.687968573371520398e-02,-5.184140429677262796e-02,-5.680312285983007969e-02,-6.176484142288753143e-02,-6.689765372949868505e-02,-7.185937229255612291e-02,-7.682109085561357464e-02,-8.178280941867102638e-02,-8.332265311065437108e-02,-8.332265311065437108e-02,-8.332265311065437108e-02,-8.332265311065437108e-02,-8.332265311065437108e-02,-8.332265311065437108e-02,-3.438984245429473063e-02,1.454296820206493063e-02,3.712734235115400239e-02,3.712734235115400239e-02,3.712734235115400239e-02,3.712734235115400239e-02,3.712734235115400239e-02
3.712734235115400239e-02,3.712734235115400239e-02,3.712734235115400239e-02,3.712734235115400239e-02,3.712734235115400239e-02,3.712734235115400239e-02,3.712734235115400239e-02,3.712734235115400239e-02,3.712734235115400239e-02,3.575859240272435957e-02,3.079687383966691477e-02,2.583515527660946998e-02,2.070234296999831289e-02,1.574062440694086462e-02,1.077890584388341982e-02,5.817187280825975026e-03,8.554687177685232902e-04,-4.277343588842630329e-03,-9.239062151900075126e-03,-1.420078071495751992e-02,-1.916249927801496472e-02,-2.412421784107240258e-02,-2.908593640412988901e-02,-3.421874871074102875e-02,-3.918046727379845273e-02,-4.414218583685591835e-02,-4.910390439991335620e-02,-5.406562296297079406e-02,-5.902734152602824580e-02,-6.416015383263939942e-02,-6.912187239569683728e-02,-7.408359095875430289e-02,-7.904530952181175463e-02,-8.332265311065437108e-02,-8.332265311065437108e-02,-8.332265311065437108e-02,-8.332265311065437108e-02,-8.332265311065438496e-02,-8.332265311065437108e-02,-8.332265311065437108e-02,-8.332265311065437108e-02,-8.332265311065437108e-02,-4.568202952883926304e-02,4.309423665758947697e-03,3.712734235115400239e-02,3.712734235115400239e-02,3.712734235115400239e-02
3.712734235115400239e-02,3.712734235115400239e-02,3.712734235115400239e-02,3.712734235115400239e-02,3.712734235115400239e-02,3.712734235115400239e-02,3.712734235115400239e-02,3.712734235115400239e-02,3.712734235115400239e-02,3.353437373652619347e-02,2.857265517346874867e-02,2.343984286685759505e-02,1.847812430380014678e-02,1.351640574074270199e-02,8.554687177685253718e-03,3.592968614627801982e-03,-1.368749948429642815e-03,-6.501562255040789495e-03,-1.146328081809823429e-02,-1.642499938115568603e-02,-2.138671794421313083e-02,-2.634843650727057562e-02,-3.148124881388174312e-02,-3.644296737693918098e-02,-4.140468593999663272e-02,-4.636640450305407057e-02,-5.132812306611153619e-02,-5.628984162916897405e-02,-6.142265393578011379e-02,-6.638437249883756552e-02,-7.134609106189501726e-02,-7.630780962495245512e-02,-8.126952818800990685e-02,-8.332265311065437108e-02,-8.332265311065435720e-02,-8.332265311065438496e-02,-8.332265311065437108e-02,-8.332265311065438496e-02,-8.332265311065437108e-02,-8.332265311065438496e-02,-8.332265311065437108e-02,-8.332265311065438496e-02,-8.332265311065437108e-02,-7.344198942042790001e-02,-3.859500587007563821e-02,6.073827896156527850e-03,3.712734235115400239e-02
3.712734235115400239e-02,3.712734235115400239e-02,3.712734235115400239e-02,3.712734235115400239e-02,3.712734235115400239e-02,3.712734235115400239e-02,3.712734235115400239e-02,3.712734235115400239e-02,3.627187363338547910e-02,3.131015507032802736e-02,2.617734276371687721e-02,2.121562420065942894e-02,1.625390563760198068e-02,1.129218707454453935e-02,6.330468511487087613e-03,1.368749948429642815e-03,-3.764062358181510803e-03,-8.725780921238955601e-03,-1.368749948429640734e-02,-1.864921804735384520e-02,-2.361093661041128999e-02,-2.857265517346875561e-02,-3.370546748007990923e-02,-3.866718604313734708e-02,-4.362890460619479882e-02,-4.859062316925225056e-02,-5.355234173230968842e-02,-5.868515403892084203e-02,-6.364687260197827989e-02,-6.860859116503573163e-02,-7.357030972809316949e-02,-7.853202829115060735e-02,-8.332265311065438496e-02,-8.332265311065437108e-02,-8.332265311065437108e-02,-8.332265311065437108e-02,-8.332265311065437108e-02,-8.332265311065437108e-02,-8.332265311065437108e-02,-8.332265311065437108e-02,-8.332265311065437108e-02,-8.332265311065438496e-02,-8.097011413679092162e-02,-6.732538808838295363e-02,-5.321015424520228465e-02,-3.956542819679430278e-02,-1.803969658594377357e-02
3.712734235115400239e-02,3.712734235115400239e-02,3.712734235115400239e-02,3.712734235115400239e-02,3.712734235115400239e-02,3.712734235115400239e-02,3.712734235115400239e-02,3.712734235115400239e-02,3.404765496718731299e-02,2.891484266057615937e-02,2.395312409751870764e-02,1.899140553446126284e-02,1.402968697140381804e-02,9.067968408346369774e-03,4.106249845288921507e-03,-1.026562461322232112e-03,-5.988281024379676909e-03,-1.094999958743712171e-02,-1.591171815049456650e-02,-2.087343671355201824e-02,-2.583515527660946998e-02,-3.096796758322062360e-02,-3.592968614627806145e-02,-4.089140470933551319e-02,-4.585312327239296493e-02,-5.081484183545040278e-02,-5.594765414206155640e-02,-6.090937270511900814e-02,-6.587109126817645988e-02,-7.083280983123389773e-02,-7.579452839429133559e-02,-8.075624695734880121e-02,-8.332265311065437108e-02,-8.332265311065438496e-02,-8.332265311065437108e-02,-8.332265311065437108e-02,-8.332265311065437108e-02,-8.332265311065437108e-02,-8.332265311065437108e-02,-8.332265311065437108e-02,-8.332265311065437108e-02,-8.332265311065437108e-02,-7.485351280474597524e-02,-6.073827896156530626e-02,-4.709355291315731051e-02,-3.344882686474934252e-02,-1.980410081634136760e-02
3.712734235115400239e-02,3.712734235115400239e-02,3.712734235115400239e-02,3.712734235115400239e-02,3.712734235115400239e-02,3.712734235115400239e-02,3.712734235115400239e-02,3.678515486404659168e-02,3.165234255743543806e-02,2.669062399437799327e-02,2.172890543132054500e-02,1.676718686826309673e-02,1.180546830520565194e-02,6.843749742148200199e-03,1.710937435537046580e-03,-3.250781127520398217e-03,-8.212499690577843015e-03,-1.317421825363528087e-02,-1.813593681669273955e-02,-2.309765537975017741e-02,-2.823046768636133796e-02,-3.319218624941878970e-02,-3.815390481247622756e-02,-4.311562337553367930e-02,-4.807734193859113103e-02,-5.321015424520228465e-02,-5.817187280825972251e-02,-6.313359137131717425e-02,-6.809530993437462598e-02,-7.305702849743206384e-02,-7.801874706048950170e-02,-8.315155936710066920e-02,-8.332265311065437108e-02,-8.332265311065437108e-02,-8.332265311065438496e-02,-8.332265311065437108e-02,-8.332265311065437108e-02,-8.332265311065437108e-02,-8.332265311065437108e-02,-8.332265311065438496e-02,-8.332265311065438496e-02,-8.238163752110899685e-02,-6.873691147270102886e-02,-5.462167762952034600e-02,-4.097695158111236413e-02,-2.733222553270438226e-02,-1.368749948429641428e-02
3.712734235115400239e-02,3.712734235115400239e-02,3.712734235115400239e-02,3.712734235115400239e-02,3.712734235115400239e-02,3.712734235115400239e-02,3.712734235115400239e-02,3.456093619784842558e-02,2.942812389123727196e-02,2.446640532817982716e-02,1.950468676512237889e-02,1.454296820206493410e-02,9.581249639007489299e-03,4.448437332396332211e-03,-5.132812306611125863e-04,-5.474999793718557384e-03,-1.043671835677600912e-02,-1.539843691983345392e-02,-2.036015548289089871e-02,-2.549296778950205233e-02,-3.045468635255951795e-02,-3.541640491561694193e-02,-4.037812347867439366e-02,-4.533984204173184540e-02,-5.030156060478929714e-02,-5.543437291140043688e-02,-6.039609147445788861e-02,-6.535781003751534035e-02,-7.031952860057277821e-02,-7.528124716363021607e-02,-8.041405947024138356e-02,-8.332265311065437108e-02,-8.332265311065437108e-02,-8.332265311065437108e-02,-8.332265311065435720e-02,-8.332265311065437108e-02,-8.332265311065437108e-02,-8.332265311065437108e-02,-8.332265311065437108e-02,-8.332265311065435720e-02,-8.332265311065437108e-02,-7.626503618906402271e-02,-6.214980234588338148e-02,-4.850507629747537186e-02,-3.486035024906738999e-02,-2.121562420065942894e-02,-7.570898152251454016e-03
3.712734235115400239e-02,3.712734235115400239e-02,3.712734235115400239e-02,3.712734235115400239e-02,3.712734235115400239e-02,3.712734235115400239e-02,3.712734235115400239e-02,3.216562378809655759e-02,2.720390522503910585e-02,2.224218666198166106e-02,1.728046809892421279e-02,1.231874953586676452e-02,7.185937229255610903e-03,2.224218666198166106e-03,-2.737499896859278692e-03,-7.699218459916723489e-03,-1.266093702297416829e-02,-1.762265558603162002e-02,-2.275546789264276670e-02,-2.771718645570023232e-02,-3.267890501875767018e-02,-3.764062358181510803e-02,-4.260234214487257365e-02,-4.756406070793002538e-02,-5.269687301454116513e-02,-5.765859157759860298e-02,-6.262031014065604084e-02,-6.758202870371352033e-02,-7.254374726677094432e-02,-7.750546582982838217e-02,-8.263827813643954967e-02,-8.332265311065437108e-02,-8.332265311065437108e-02,-8.332265311065437108e-02,-8.332265311065437108e-02,-8.332265311065437108e-02,-8.332265311065435720e-02,-8.332265311065438496e-02,-8.332265311065437108e-02,-8.332265311065437108e-02,-8.332265311065437108e-02,-6.967792706224640309e-02,-5.603320101383840734e-02,-4.238847496543042548e-02,-2.874374891702244361e-02,-1.509902286861447562e-02,-1.454296820206493757e-03
3.712734235115400239e-02,3.712734235115400239e-02,3.712734235115400239e-02,3.712734235115400239e-02,3.712734235115400239e-02,3.712734235115400239e-02,3.490312368495583628e-02,2.994140512189838801e-02,2.497968655884093975e-02,2.001796799578349495e-02,1.505624943272605015e-02,1.009453086966860189e-02,4.961718563057444797e-03,0.000000000000000000e+00,-4.961718563057444797e-03,-9.923437126114889595e-03,-1.488515568917233439e-02,-2.001796799578349495e-02,-2.497968655884093975e-02,-2.994140512189839842e-02,-3.490312368495583628e-02,-3.986484224801327414e-02,-4.482656081107073975e-02,-4.995937311768187949e-02,-5.492109168073933123e-02,-5.988281024379676909e-02,-6.484452880685422083e-02,-6.980624736991167256e-02,-7.476796593296912430e-02,-7.990077823958025016e-02,-8.332265311065437108e-02,-8.332265311065437108e-02,-8.332265311065437108e-02,-8.332265311065437108e-02,-1.024384656172370733e-01,-1.024384656172371011e-01,-1.024384656172370733e-01,-1.024384656172370733e-01,-1.024384656172370733e-01,-8.332265311065437108e-02,-7.720605177860942470e-02,-6.356132573020144283e-02,-4.991659968179346096e-02,-3.627187363338546522e-02,-2.262714758497749723e-02,-8.982421536569515363e-03,5.132812306611153619e-03
3.712734235115400239e-02,3.712734235115400239e-02,3.712734235115400239e-02,3.712734235115400239e-02,3.712734235115400239e-02,3.712734235115400239e-02,3.267890501875767018e-02,2.771718645570022191e-02,2.275546789264277364e-02,1.779374932958532884e-02,1.283203076652788058e-02,7.699218459916726959e-03,2.737499896859278692e-03,-2.224218666198166106e-03,-7.185937229255610903e-03,-1.214765579231305570e-02,-1.710937435537050050e-02,-2.224218666198165412e-02,-2.720390522503911279e-02,-3.216562378809655065e-02,-3.712734235115400239e-02,-4.208906091421145412e-02,-4.722187322082260774e-02,-5.218359178388004560e-02,-5.714531034693748346e-02,-6.210702890999493520e-02,-6.706874747305240081e-02,-7.203046603610983867e-02,-7.716327834272097841e-02,-8.212499690577843015e-02,-8.332265311065437108e-02,-8.332265311065437108e-02,-8.332265311065437108e-02,-8.332265311065437108e-02,-1.024384656172370733e-01,-1.024384656172370733e-01,-1.024384656172370733e-01,-1.024384656172371011e-01,-1.024384656172370733e-01,-8.332265311065437108e-02,-7.108945044656446444e-02,-5.744472439815648257e-02,-4.379999834974850070e-02,-3.015527230134051884e-02,-1.651054625293253697e-02,-2.395312409751874927e-03,1.124941363865610694e-02
3.712734235115400239e-02,3.712734235115400239e-02,3.712734235115400239e-02,3.712734235115400239e-02,3.712734235115400239e-02,3.541640491561694887e-02,3.045468635255950407e-02,2.549296778950205927e-02,2.053124922644461101e-02,1.556953066338716274e-02,1.043671835677600912e-02,5.474999793718557384e-03,5.132812306611195252e-04,-4.448437332396332211e-03,-9.410155895453777009e-03,-1.437187445851122181e-02,-1.950468676512237542e-02,-2.446640532817982716e-02,-2.942812389123727890e-02,-3.438984245429471676e-02,-3.935156101735216849e-02,-4.448437332396332211e-02,-4.944609188702077385e-02,-5.440781045007819783e-02,-5.936952901313566344e-02,-6.433124757619311518e-02,-6.929296613925056691e-02,-7.442577844586170666e-02,-7.938749700891914451e-02,-8.332265311065438496e-02,-8.332265311065437108e-02,-8.332265311065437108e-02,-8.332265311065437108e-02,-8.332265311065437108e-02,-1.024384656172370733e-01,-1.024384656172370733e-01,-1.024384656172370733e-01,-1.024384656172370733e-01,-1.024384656172370733e-01,-7.861757516292747217e-02,-6.497284911451950418e-02,-5.132812306611152231e-02,-3.768339701770352657e-02,-2.403867096929556552e-02,-9.923437126114889595e-03,3.721288922293085333e-03,1.736601497070106720e-02
3.712734235115400239e-02,3.712734235115400239e-02,3.712734235115400239e-02,3.712734235115400239e-02,3.712734235115400239e-02,3.319218624941878276e-02,2.823046768636133796e-02,2.326874912330388970e-02,1.830703056024644490e-02,1.317421825363528781e-02,8.212499690577843015e-03,3.250781127520391278e-03,-1.710937435537046580e-03,-6.672655998594498317e-03,-1.163437456165194311e-02,-1.676718686826309673e-02,-2.172890543132054153e-02,-2.669062399437799327e-02,-3.165234255743544500e-02,-3.661406112049288286e-02,-4.157577968355033460e-02,-4.670859199016148822e-02,-5.167031055321892608e-02,-5.663202911627637781e-02,-6.159374767933382955e-02,-6.655546624239126741e-02,-7.168827854900242103e-02,-7.664999711205985888e-02,-8.161171567511731062e-02,-8.332265311065437108e-02,-8.332265311065437108e-02,-8.332265311065437108e-02,-8.332265311065437108e-02,-8.332265311065437108e-02,-1.024384656172370733e-01,-1.024384656172370733e-01,-2.672471908678288877e-01,-2.672471908678288877e-01,-2.672471908678288877e-01,-2.373096990814743679e-01,-5.885624778247454392e-02,-4.521152173406656205e-02,-3.156679568565858018e-02,-1.745156184247791814e-02,-3.806835794069943213e-03,9.837890254338038654e-03,2.348261630274602399e-02
3.712734235115400239e-02,3.712734235115400239e-02,3.712734235115400239e-02,3.712734235115400239e-02,3.592968614627806839e-02,3.096796758322062013e-02,2.600624902016317186e-02,2.104453045710572359e-02,1.591171815049457344e-02,1.094999958743712518e-02,5.988281024379676909e-03,1.026562461322232112e-03,-3.935156101735212686e-03,-8.896874664792664422e-03,-1.402968697140381804e-02,-1.899140553446126978e-02,-2.395312409751870764e-02,-2.891484266057617325e-02,-3.387656122363361111e-02,-3.883827978669104897e-02,-4.397109209330221646e-02,-4.893281065635965432e-02,-5.389452921941709218e-02,-5.885624778247454392e-02,-6.381796634553198178e-02,-6.895077865214313539e-02,-7.391249721520060101e-02,-7.887421577825802499e-02,-8.332265311065435720e-02,-8.332265311065437108e-02,-8.332265311065437108e-02,-8.332265311065437108e-02,-8.332265311065437108e-02,-8.332265311065437108e-02,-1.024384656172370733e-01,-1.024384656172370733e-01,-2.672471908678288877e-01,-2.672471908678289432e-01,-2.639536363044200917e-01,-2.311930977494294215e-01,-5.273964645042961141e-02,-3.909492040202160179e-02,-2.545019435361361992e-02,-1.133496051043296482e-02,2.309765537975017047e-03,1.595449158638299891e-02,2.959921763479098078e-02
3.712734235115400239e-02,3.712734235115400239e-02,3.712734235115400239e-02,3.712734235115400239e-02,3.370546748007990229e-02,2.874374891702245402e-02,2.378203035396500575e-02,1.882031179090755749e-02,1.368749948429640734e-02,8.725780921238959070e-03,3.764062358181503865e-03,-1.197656204875933994e-03,-6.159374767933385730e-03,-1.129218707454453241e-02,-1.625390563760197721e-02,-2.121562420065942201e-02,-2.617734276371688762e-02,-3.113906132677432548e-02,-3.610077988983176334e-02,-4.123359219644293083e-02,-4.619531075950038257e-02,-5.115702932255782043e-02,-5.611874788561525829e-02,-6.108046644867271002e-02,-6.604218501173014788e-02,-7.117499731834131538e-02,-7.613671588139875324e-02,-8.109843444445620497e-02,-8.332265311065437108e-02,-8.332265311065437108e-02,-8.332265311065437108e-02,-8.332265311065437108e-02,-8.332265311065437108e-02,-8.332265311065437108e-02,-8.332265311065437108e-02,-8.332265311065437108e-02,-2.481313783612462132e-01,-2.481313783612462132e-01,-2.387212224657924153e-01,-2.250764964173844751e-01,-4.662304511838463728e-02,-3.297831906997664153e-02,-1.886308522679598643e-02,-5.218359178388004560e-03,8.426366870019973837e-03,2.207109291842795570e-02,3.571581896683593410e-02
3.712734235115400239e-02,3.712734235115400239e-02,3.712734235115400239e-02,3.644296737693918098e-02,3.148124881388173618e-02,2.651953025082428445e-02,2.155781168776683965e-02,1.642499938115568603e-02,1.146328081809824123e-02,6.501562255040789495e-03,1.539843691983344698e-03,-3.421874871074100100e-03,-8.554687177685253718e-03,-1.351640574074269852e-02,-1.847812430380014331e-02,-2.343984286685758117e-02,-2.840156142991505372e-02,-3.336327999297249158e-02,-3.849609229958364520e-02,-4.345781086264109694e-02,-4.841952942569854867e-02,-5.338124798875598653e-02,-5.834296655181342439e-02,-6.330468511487086225e-02,-6.843749742148202975e-02,-7.339921598453948148e-02,-7.836093454759690546e-02,-8.332265311065437108e-02,-8.332265311065437108e-02,-8.332265311065437108e-02,-8.332265311065437108e-02,-8.332265311065437108e-02,-8.332265311065437108e-02,-8.332265311065437108e-02,-8.332265311065437108e-02,-8.332265311065437108e-02,-2.481313783612462132e-01,-2.462493471821554647e-01,-2.326046211337474690e-01,-2.189598950853395287e-01,-4.050644378633966314e-02,-2.639120994315900803e-02,-1.274648389475103311e-02,8.982421536569556997e-04,1.454296820206493410e-02,2.818769425047291249e-02,3.712734235115400239e-02
3.712734235115400239e-02,3.712734235115400239e-02,3.712734235115400239e-02,3.421874871074101487e-02,2.925703014768357008e-02,2.429531158462612181e-02,1.916249927801496472e-02,1.420078071495751992e-02,9.239062151900075126e-03,4.277343588842623390e-03,-6.843749742148214077e-04,-5.646093537272273144e-03,-1.077890584388341982e-02,-1.574062440694086462e-02,-2.070234296999830248e-02,-2.566406153305576809e-02,-3.062578009611321983e-02,-3.575859240272435957e-02,-4.072031096578179743e-02,-4.568202952883924917e-02,-5.064374809189670090e-02,-5.560546665495415264e-02,-6.056718521801159050e-02,-6.569999752462274412e-02,-7.066171608768018197e-02,-7.562343465073764759e-02,-8.058515321379508545e-02,-8.332265311065437108e-02,-8.332265311065438496e-02,-8.332265311065438496e-02,-8.332265311065437108e-02,-8.332265311065438496e-02,-8.332265311065437108e-02,-8.332265311065437108e-02,-8.332265311065438496e-02,-8.332265311065437108e-02,-8.332265311065437108e-02,-7.532402059951864848e-02,-6.167929455111068049e-02,-4.803456850270269862e-02,-3.391933465952202964e-02,-2.027460861111405471e-02,-6.629882562706079785e-03,7.014843485701909021e-03,2.065956953410989089e-02,3.430429558251786581e-02,3.712734235115400239e-02
3.712734235115400239e-02,3.712734235115400239e-02,3.695624860760030050e-02,3.199453004454284877e-02,2.703281148148540397e-02,2.189999917487425035e-02,1.693828061181680208e-02,1.197656204875935382e-02,7.014843485701909021e-03,2.053124922644457284e-03,-2.908593640412987513e-03,-8.041405947024134193e-03,-1.300312451008158593e-02,-1.796484307313903073e-02,-2.292656163619647552e-02,-2.788828019925393420e-02,-3.284999876231137206e-02,-3.798281106892252568e-02,-4.294452963197997741e-02,-4.790624819503742915e-02,-5.286796675809486701e-02,-5.782968532115231874e-02,-6.296249762776345849e-02,-6.792421619082092410e-02,-7.288593475387834808e-02,-7.784765331693579982e-02,-8.280937187999323768e-02,-8.332265311065437108e-02,-8.332265311065437108e-02,-8.332265311065437108e-02,-8.332265311065437108e-02,-8.332265311065437108e-02,-8.332265311065438496e-02,-8.332265311065437108e-02,-8.332265311065435720e-02,-8.332265311065437108e-02,-8.285214531588169784e-02,-6.920741926747370210e-02,-5.556269321906573411e-02,-4.144745937588506512e-02,-2.780273332747706938e-02,-1.415800727906909445e-02,-5.132812306611125863e-04,1.313144481774686581e-02,2.677617086615484421e-02,3.712734235115400239e-02,3.712734235115400239e-02
3.712734235115400239e-02,3.712734235115400239e-02,3.473202994140213440e-02,2.977031137834468266e-02,2.463749907173352904e-02,1.967578050867608078e-02,1.471406194561863945e-02,9.752343382561194651e-03,4.790624819503735976e-03,-1.710937435537018825e-04,-5.303906050164855501e-03,-1.026562461322230724e-02,-1.522734317627975204e-02,-2.018906173933718989e-02,-2.515078030239464163e-02,-3.011249886545210031e-02,-3.524531117206325392e-02,-4.020702973512069178e-02,-4.516874829817815740e-02,-5.013046686123558138e-02,-5.509218542429303311e-02,-6.022499773090417285e-02,-6.518671629396162459e-02,-7.014843485701907633e-02,-7.511015342007651419e-02,-8.007187198313396592e-02,-8.332265311065435720e-02,-8.332265311065438496e-02,-8.332265311065437108e-02,-8.332265311065437108e-02,-8.332265311065437108e-02,-8.332265311065437108e-02,-8.332265311065437108e-02,-8.332265311065437108e-02,-8.332265311065437108e-02,-8.332265311065437108e-02,-7.673554398383673758e-02,-6.309081793542875571e-02,-4.897558409224808673e-02,-3.533085804384010487e-02,-2.168613199543211606e-02,-8.041405947024141132e-03,5.603320101383840734e-03,1.924804614979182260e-02,3.336327999297249158e-02,3.712734235115400239e-02,3.712734235115400239e-02
3.712734235115400239e-02,3.712734235115400239e-02,3.250781127520396829e-02,2.754609271214651656e-02,2.241328040553536294e-02,1.745156184247791814e-02,1.248984327942047334e-02,7.528124716363021607e-03,2.566406153305569871e-03,-2.566406153305569871e-03,-7.528124716363021607e-03,-1.248984327942047334e-02,-1.745156184247791120e-02,-2.241328040553535600e-02,-2.737499896859281467e-02,-3.250781127520396829e-02,-3.746952983826140615e-02,-4.243124840131885789e-02,-4.739296696437630962e-02,-5.235468552743374748e-02,-5.731640409049119922e-02,-6.244921639710235284e-02,-6.741093496015980457e-02,-7.237265352321724243e-02,-7.733437208627468029e-02,-8.229609064933213203e-02,-8.332265311065437108e-02,-8.332265311065437108e-02,-8.332265311065437108e-02,-8.332265311065437108e-02,-8.332265311065438496e-02,-8.332265311065437108e-02,-8.332265311065437108e-02,-8.332265311065437108e-02,-8.332265311065435720e-02,-8.332265311065437108e-02,-7.061894265179176344e-02,-5.697421660338379545e-02,-4.285898276020312647e-02,-2.921425671179514461e-02,-1.556953066338716274e-02,-1.924804614979180872e-03,1.171992143342880099e-02,2.583515527660946651e-02,3.712734235115400239e-02,3.712734235115400239e-02,3.712734235115400239e-02
3.712734235115400239e-02,3.524531117206324698e-02,3.028359260900579872e-02,2.515078030239464857e-02,2.018906173933720030e-02,1.522734317627975204e-02,1.026562461322230724e-02,5.303906050164855501e-03,1.710937435537018825e-04,-4.790624819503735976e-03,-9.752343382561187712e-03,-1.471406194561863251e-02,-1.967578050867608425e-02,-2.463749907173352904e-02,-2.977031137834469654e-02,-3.473202994140212052e-02,-3.969374850445957226e-02,-4.465546706751702399e-02,-4.961718563057446185e-02,-5.457890419363191359e-02,-5.971171650024306721e-02,-6.467343506330051894e-02,-6.963515362635797068e-02,-7.459687218941540854e-02,-7.955859075247284640e-02,-8.332265311065437108e-02,-8.332265311065435720e-02,-8.332265311065437108e-02,-8.332265311065437108e-02,-8.332265311065437108e-02,-8.332265311065437108e-02,-8.332265311065437108e-02,-8.332265311065437108e-02,-8.332265311065437108e-02,-8.332265311065437108e-02,-7.814706736815479893e-02,-6.450234131974681706e-02,-5.038710747656614808e-02,-3.674238142815815233e-02,-2.309765537975018435e-02,-9.452929331342202479e-03,4.191796717065772448e-03,1.783652276547375432e-02,3.195175660865442330e-02,3.712734235115400239e-02,3.712734235115400239e-02,3.712734235115400239e-02
3.712734235115400239e-02,3.302109250586508088e-02,2.788828019925392726e-02,2.292656163619647899e-02,1.796484307313903073e-02,1.300312451008158593e-02,8.041405947024141132e-03,3.079687383966689396e-03,-2.053124922644464223e-03,-7.014843485701902082e-03,-1.197656204875934688e-02,-1.693828061181679168e-02,-2.189999917487424341e-02,-2.703281148148539703e-02,-3.199453004454286265e-02,-3.695624860760030050e-02,-4.191796717065775224e-02,-4.687968573371520398e-02,-5.184140429677262796e-02,-5.697421660338378158e-02,-6.193593516644121943e-02,-6.689765372949868505e-02,-7.185937229255612291e-02,-7.682109085561357464e-02,-8.178280941867102638e-02,-8.332265311065437108e-02,-8.332265311065437108e-02,-8.332265311065437108e-02,-8.332265311065437108e-02,-8.332265311065437108e-02,-8.332265311065435720e-02,-8.332265311065437108e-02,-8.332265311065437108e-02,-8.332265311065437108e-02,-8.332265311065437108e-02,-7.203046603610983867e-02,-5.791523219292918356e-02,-4.427050614452118782e-02,-3.062578009611320595e-02,-1.698105404770522409e-02,-3.336327999297249158e-03,1.030839804911073618e-02,2.442363189229140169e-02,3.712734235115400239e-02,3.712734235115400239e-02,3.712734235115400239e-02,3.712734235115400239e-02
3.575859240272435957e-02,3.062578009611320942e-02,2.566406153305576116e-02,2.070234296999831289e-02,1.574062440694086462e-02,1.077890584388341982e-02,5.817187280825968088e-03,6.843749742148214077e-04,-4.277343588842623390e-03,-9.239062151900075126e-03,-1.420078071495751992e-02,-1.916249927801497166e-02,-2.429531158462611834e-02,-2.925703014768357701e-02,-3.421874871074101487e-02,-3.918046727379846661e-02,-4.414218583685591835e-02,-4.910390439991335620e-02,-5.423671670652450982e-02,-5.919843526958196156e-02,-6.416015383263939942e-02,-6.912187239569685115e-02,-7.408359095875428901e-02,-7.904530952181174075e-02,-8.332265311065435720e-02,-8.332265311065437108e-02,-8.332265311065437108e-02,-8.332265311065437108e-02,-8.332265311065437108e-02,-8.332265311065437108e-02,-8.332265311065438496e-02,-8.332265311065437108e-02,-8.332265311065437108e-02,-8.332265311065435720e-02,-7.955859075247286027e-02,-6.544335690929219129e-02,-5.179863086088422330e-02,-3.815390481247622756e-02,-2.450917876406825263e-02,-1.086445271566027770e-02,2.780273332747711101e-03,1.689550717592837661e-02,3.054023322433635501e-02,3.712734235115400239e-02,3.712734235115400239e-02,3.712734235115400239e-02,3.712734235115400239e-02
3.336327999297249158e-02,2.840156142991504332e-02,2.343984286685759505e-02,1.847812430380015025e-02,1.351640574074270199e-02,8.554687177685253718e-03,3.421874871074093161e-03,-1.539843691983344698e-03,-6.501562255040796434e-03,-1.146328081809823429e-02,-1.642499938115568603e-02,-2.138671794421313083e-02,-2.651953025082429138e-02,-3.148124881388174312e-02,-3.644296737693918098e-02,-4.140468593999663272e-02,-4.636640450305408445e-02,-5.149921680966522419e-02,-5.646093537272266205e-02,-6.142265393578011379e-02,-6.638437249883756552e-02,-7.134609106189501726e-02,-7.630780962495245512e-02,-8.144062193156360874e-02,-8.332265311065437108e-02,-8.332265311065437108e-02,-8.332265311065437108e-02,-8.332265311065437108e-02,-8.332265311065437108e-02,-1.732856704459783681e-01,-1.732856704459783681e-01,-1.732856704459783681e-01,-8.332265311065435720e-02,-8.332265311065437108e-02,-7.297148162565522678e-02,-5.932675557724723103e-02,-4.568202952883924917e-02,-3.203730348043126730e-02,-1.839257743202329237e-02,-4.747851383615310505e-03,9.367382459565355007e-03,2.301210850797333340e-02,3.665683455638131527e-02,3.712734235115400239e-02,3.712734235115400239e-02,3.712734235115400239e-02,3.712734235115400239e-02
3.113906132677432548e-02,2.617734276371687721e-02,2.121562420065942894e-02,1.625390563760198068e-02,1.129218707454453588e-02,6.159374767933378791e-03,1.197656204875933994e-03,-3.764062358181510803e-03,-8.725780921238955601e-03,-1.368749948429640040e-02,-1.864921804735385213e-02,-2.378203035396499881e-02,-2.874374891702245749e-02,-3.370546748007989535e-02,-3.866718604313734708e-02,-4.362890460619478494e-02,-4.876171691280595244e-02,-5.372343547586339030e-02,-5.868515403892084203e-02,-6.364687260197827989e-02,-6.860859116503574551e-02,-7.357030972809316949e-02,-7.870312203470433698e-02,-8.332265311065437108e-02,-8.332265311065437108e-02,-8.332265311065437108e-02,-8.332265311065437108e-02,-8.332265311065437108e-02,-8.332265311065437108e-02,-1.732856704459783681e-01,-1.732856704459783681e-01,-1.732856704459783681e-01,-8.332265311065435720e-02,-8.049960634201824838e-02,-6.685488029361026652e-02,-5.321015424520228465e-02,-3.956542819679428891e-02,-2.592070214838632092e-02,-1.227597609997833905e-02,1.839257743202329931e-03,1.548398379161030833e-02,2.912870984001829019e-02,3.712734235115400239e-02,3.712734235115400239e-02,3.712734235115400239e-02,3.712734235115400239e-02,3.712734235115400239e-02
2.891484266057615937e-02,2.395312409751871111e-02,1.899140553446126284e-02,1.402968697140381457e-02,8.896874664792664422e-03,3.935156101735212686e-03,-1.026562461322232112e-03,-5.988281024379676909e-03,-1.094999958743712171e-02,-1.591171815049456650e-02,-2.104453045710572012e-02,-2.600624902016317186e-02,-3.096796758322062360e-02,-3.592968614627806145e-02,-4.089140470933551319e-02,-4.585312327239297880e-02,-5.098593557900411855e-02,-5.594765414206155640e-02,-6.090937270511900814e-02,-6.587109126817644600e-02,-7.083280983123391161e-02,-7.596562213784505135e-02,-8.092734070090248921e-02,-8.332265311065437108e-02,-8.332265311065437108e-02,-8.332265311065437108e-02,-8.332265311065438496e-02,-8.332265311065438496e-02,-8.332265311065435720e-02,-1.732856704459783681e-01,-1.732856704459783681e-01,-1.732856704459783681e-01,-8.332265311065437108e-02,-7.438300500997327425e-02,-6.073827896156530626e-02,-4.709355291315732439e-02,-3.344882686474934252e-02,-1.980410081634136066e-02,-5.688866973160698615e-03,7.955859075247286721e-03,2.160058512365526512e-02,3.524531117206324698e-02,3.712734235115400239e-02,3.712734235115400239e-02,3.712734235115400239e-02,3.712734235115400239e-02,3.712734235115400239e-02
2.669062399437799327e-02,2.172890543132054153e-02,1.676718686826309673e-02,1.163437456165194658e-02,6.672655998594498317e-03,1.710937435537046580e-03,-3.250781127520398217e-03,-8.212499690577843015e-03,-1.317421825363528087e-02,-1.830703056024644837e-02,-2.326874912330388623e-02,-2.823046768636133796e-02,-3.319218624941878970e-02,-3.815390481247622756e-02,-4.311562337553367930e-02,-4.824843568214483291e-02,-5.321015424520228465e-02,-5.817187280825970863e-02,-6.313359137131717425e-02,-6.809530993437462598e-02,-7.322812224098576572e-02,-7.818984080404321746e-02,-8.315155936710066920e-02,-8.332265311065437108e-02,-8.332265311065437108e-02,-8.332265311065437108e-02,-8.332265311065437108e-02,-8.332265311065437108e-02,-8.332265311065437108e-02,-8.332265311065437108e-02,-8.332265311065437108e-02,-8.332265311065437108e-02,-8.191112972633630973e-02,-6.826640367792832786e-02,-5.462167762952034600e-02,-4.097695158111236413e-02,-2.733222553270438226e-02,-1.368749948429640734e-02,4.277343588842616451e-04,1.407246040729224351e-02,2.771718645570022538e-02,3.712734235115400239e-02,3.712734235115400239e-02,3.712734235115400239e-02,3.712734235115400239e-02,3.712734235115400239e-02,3.712734235115400239e-02
2.446640532817982716e-02,1.950468676512237542e-02,1.454296820206492716e-02,9.410155895453777009e-03,4.448437332396325272e-03,-5.132812306611125863e-04,-5.474999793718564323e-03,-1.043671835677600912e-02,-1.556953066338716274e-02,-2.053124922644460060e-02,-2.549296778950205233e-02,-3.045468635255950407e-02,-3.541640491561695581e-02,-4.037812347867439366e-02,-4.551093578528556116e-02,-5.047265434834299902e-02,-5.543437291140043688e-02,-6.039609147445788861e-02,-6.535781003751534035e-02,-7.031952860057277821e-02,-7.545234090718393183e-02,-8.041405947024138356e-02,-8.332265311065438496e-02,-8.332265311065437108e-02,-8.332265311065438496e-02,-8.332265311065437108e-02,-8.332265311065437108e-02,-8.332265311065437108e-02,-8.332265311065437108e-02,-8.332265311065437108e-02,-8.332265311065437108e-02,-8.332265311065437108e-02,-7.579452839429134947e-02,-6.214980234588338148e-02,-4.850507629747538574e-02,-3.486035024906740387e-02,-2.121562420065942894e-02,-7.100390357478759962e-03,6.544335690929218435e-03,2.018906173933720030e-02,3.383378778774517870e-02,3.712734235115400239e-02,3.712734235115400239e-02,3.712734235115400239e-02,3.712734235115400239e-02,3.712734235115400239e-02,3.712734235115400239e-02
2.224218666198166106e-02,1.728046809892420932e-02,1.214765579231306264e-02,7.185937229255610903e-03,2.224218666198166106e-03,-2.737499896859285631e-03,-7.699218459916730428e-03,-1.266093702297417523e-02,-1.779374932958532191e-02,-2.275546789264275976e-02,-2.771718645570023232e-02,-3.267890501875767018e-02,-3.764062358181512191e-02,-4.277343588842627553e-02,-4.773515445148371339e-02,-5.269687301454115125e-02,-5.765859157759860298e-02,-6.262031014065605472e-02,-6.758202870371350646e-02,-7.271484101032464620e-02,-7.767655957338209793e-02,-8.263827813643954967e-02,-8.332265311065437108e-02,-8.332265311065437108e-02,-8.332265311065437108e-02,-8.332265311065437108e-02,-8.332265311065437108e-02,-8.332265311065437108e-02,-8.332265311065437108e-02,-8.332265311065437108e-02,-8.332265311065437108e-02,-8.332265311065437108e-02,-6.967792706224638921e-02,-5.603320101383840734e-02,-4.238847496543043936e-02,-2.874374891702245749e-02,-1.462851507384178851e-02,-9.837890254338066409e-04,1.266093702297417176e-02,2.630566307138215709e-02,3.712734235115400239e-02,3.712734235115400239e-02,3.712734235115400239e-02,3.712734235115400239e-02,3.712734235115400239e-02,3.712734235115400239e-02,3.712734235115400239e-02
2.001796799578349495e-02,1.488515568917234480e-02,9.923437126114896534e-03,4.961718563057444797e-03,0.000000000000000000e+00,-4.961718563057451736e-03,-9.923437126114889595e-03,-1.505624943272604321e-02,-2.001796799578349495e-02,-2.497968655884094669e-02,-2.994140512189839842e-02,-3.490312368495583628e-02,-4.003593599156698990e-02,-4.499765455462444164e-02,-4.995937311768187949e-02,-5.492109168073933123e-02,-5.988281024379676909e-02,-6.484452880685422083e-02,-6.997734111346537444e-02,-7.493905967652281230e-02,-7.990077823958025016e-02,-8.332265311065437108e-02,-8.332265311065437108e-02,-8.332265311065437108e-02,-8.332265311065435720e-02,-8.332265311065437108e-02,-8.332265311065438496e-02,-8.332265311065437108e-02,-8.332265311065437108e-02,-8.332265311065437108e-02,-8.332265311065437108e-02,-7.720605177860941082e-02,-6.356132573020142895e-02,-4.991659968179346096e-02,-3.627187363338546522e-02,-2.215663979020481011e-02,-8.511913741796828248e-03,5.132812306611153619e-03,1.877753835501913202e-02,3.242226440342711041e-02,3.712734235115400239e-02,3.712734235115400239e-02,3.712734235115400239e-02,3.712734235115400239e-02,3.712734235115400239e-02,3.712734235115400239e-02,3.712734235115400239e-02
1.762265558603162349e-02,1.266093702297417523e-02,7.699218459916726959e-03,2.737499896859278692e-03,-2.224218666198166106e-03,-7.185937229255610903e-03,-1.231874953586676452e-02,-1.728046809892420932e-02,-2.224218666198165412e-02,-2.720390522503911279e-02,-3.216562378809656453e-02,-3.712734235115400239e-02,-4.226015465776515601e-02,-4.722187322082260774e-02,-5.218359178388004560e-02,-5.714531034693749734e-02,-6.210702890999492132e-02,-6.723984121660610269e-02,-7.220155977966352667e-02,-7.716327834272097841e-02,-8.212499690577843015e-02,-8.332265311065437108e-02,-8.332265311065437108e-02,-8.332265311065437108e-02,-8.332265311065437108e-02,-8.332265311065437108e-02,-8.332265311065438496e-02,-8.332265311065437108e-02,-8.332265311065438496e-02,-8.332265311065437108e-02,-8.332265311065437108e-02,-7.108945044656445056e-02,-5.744472439815648257e-02,-4.379999834974850070e-02,-2.968476450656783172e-02,-1.604003845815984985e-02,-2.395312409751867988e-03,1.124941363865611041e-02,2.489413968706408881e-02,3.712734235115400239e-02,3.712734235115400239e-02,3.712734235115400239e-02,3.712734235115400239e-02,3.712734235115400239e-02,3.712734235115400239e-02,3.712734235115400239e-02,3.712734235115400239e-02
1.539843691983345392e-02,1.043671835677600912e-02,5.474999793718557384e-03,5.132812306611195252e-04,-4.448437332396332211e-03,-9.581249639007485830e-03,-1.454296820206493063e-02,-1.950468676512237542e-02,-2.446640532817981328e-02,-2.942812389123727890e-02,-3.438984245429471676e-02,-3.952265476090587037e-02,-4.448437332396332211e-02,-4.944609188702077385e-02,-5.440781045007822558e-02,-5.936952901313566344e-02,-6.450234131974680318e-02,-6.946405988280425492e-02,-7.442577844586170666e-02,-7.938749700891914451e-02,-8.332265311065435720e-02,-8.332265311065437108e-02,-8.332265311065437108e-02,-8.332265311065437108e-02,-8.332265311065437108e-02,-8.332265311065437108e-02,-8.332265311065437108e-02,-8.332265311065437108e-02,-8.332265311065437108e-02,-8.332265311065437108e-02,-7.861757516292748604e-02,-6.497284911451949030e-02,-5.132812306611153619e-02,-3.721288922293085333e-02,-2.356816317452287146e-02,-9.923437126114896534e-03,3.721288922293085333e-03,1.736601497070106720e-02,3.101074101910904560e-02,3.712734235115400239e-02,3.712734235115400239e-02,3.712734235115400239e-02,3.712734235115400239e-02,3.712734235115400239e-02,3.712734235115400239e-02,3.712734235115400239e-02,3.712734235115400239e-02
1.317421825363529128e-02,8.212499690577846484e-03,3.250781127520391278e-03,-1.710937435537046580e-03,-6.843749742148200199e-03,-1.180546830520565194e-02,-1.676718686826309673e-02,-2.172890543132054153e-02,-2.669062399437799327e-02,-3.165234255743544500e-02,-3.678515486404658474e-02,-4.174687342710403648e-02,-4.670859199016148822e-02,-5.167031055321892608e-02,-5.663202911627637781e-02,-6.159374767933382955e-02,-6.672655998594498317e-02,-7.168827854900242103e-02,-7.664999711205985888e-02,-8.161171567511732450e-02,-8.332265311065437108e-02,-8.332265311065437108e-02,-8.332265311065437108e-02,-8.332265311065435720e-02,-8.332265311065438496e-02,-8.332265311065437108e-02,-8.332265311065437108e-02,-8.332265311065437108e-02,-8.332265311065437108e-02,-8.332265311065437108e-02,-7.250097383088252578e-02,-5.885624778247453004e-02,-4.521152173406656205e-02,-3.109628789088589307e-02,-1.745156184247791814e-02,-3.806835794069943213e-03,9.837890254338038654e-03,2.348261630274602052e-02,3.712734235115400239e-02,3.712734235115400239e-02,3.712734235115400239e-02,3.712734235115400239e-02,3.712734235115400239e-02,3.712734235115400239e-02,3.712734235115400239e-02,3.712734235115400239e-02,3.712734235115400239e-02
1.094999958743712865e-02,5.988281024379676909e-03,1.026562461322232112e-03,-4.106249845288921507e-03,-2.303286408585347722e-01,-2.352903594215921546e-01,-2.402520779846496479e-01,-2.452137965477070858e-01,-2.501755151107645236e-01,-3.404765496718731299e-02,-3.900937353024476473e-02,-4.397109209330221646e-02,-4.893281065635965432e-02,-5.389452921941710606e-02,-5.885624778247454392e-02,-6.398906008908569754e-02,-6.895077865214314927e-02,-7.391249721520060101e-02,-7.887421577825802499e-02,-8.332265311065439883e-02,-8.332265311065437108e-02,-8.332265311065437108e-02,-8.332265311065437108e-02,-8.332265311065437108e-02,-8.332265311065437108e-02,-8.332265311065437108e-02,-8.332265311065437108e-02,-8.332265311065437108e-02,-8.332265311065437108e-02,-8.002909854724554739e-02,-6.638437249883756552e-02,-5.273964645042961141e-02,-3.862441260724891468e-02,-2.497968655884093975e-02,-1.133496051043296482e-02,2.309765537975023986e-03,1.595449158638299891e-02,2.959921763479098078e-02,3.712734235115400239e-02,3.712734235115400239e-02,3.712734235115400239e-02,3.712734235115400239e-02,3.712734235115400239e-02,3.712734235115400239e-02,3.712734235115400239e-02,3.712734235115400239e-02,3.712734235115400239e-02
1.227597609997833905e-02,3.764062358181510803e-03,-1.197656204875933994e-03,-6.330468511487087613e-03,-2.325528595247329244e-01,-2.375145780877903623e-01,-2.424762966508478002e-01,-2.474380152139052935e-01,-2.525708275205164055e-01,-3.627187363338547910e-02,-4.123359219644293083e-02,-4.619531075950036869e-02,-5.115702932255780655e-02,-5.611874788561525829e-02,-6.125156019222641191e-02,-6.621327875528386364e-02,-7.117499731834128762e-02,-7.613671588139875324e-02,-8.109843444445620497e-02,-8.332265311065437108e-02,-8.332265311065437108e-02,-8.332265311065437108e-02,-8.332265311065437108e-02,-8.332265311065435720e-02,-8.332265311065438496e-02,-8.332265311065437108e-02,-8.332265311065437108e-02,-8.332265311065437108e-02,-8.332265311065437108e-02,-7.391249721520060101e-02,-6.026777116679261914e-02,-4.615253732361195016e-02,-3.250781127520396829e-02,-1.886308522679597949e-02,-5.218359178388004560e-03,8.426366870019977307e-03,2.207109291842795570e-02,3.618632676160862122e-02,3.712734235115400239e-02,3.712734235115400239e-02,3.712734235115400239e-02,3.712734235115400239e-02,3.712734235115400239e-02,3.712734235115400239e-02,3.712734235115400239e-02,3.712734235115400239e-02,3.712734235115400239e-02
3.712734235115400239e-02,2.378203035396500575e-02,5.314599409136963604e-03,-8.554687177685246779e-03,-2.347770781909310767e-01,-2.397387967539885145e-01,-2.447005153170459524e-01,-2.496622338801034457e-01,-2.547950461867145577e-01,-3.849609229958364520e-02,-4.345781086264109694e-02,-4.841952942569854867e-02,-5.338124798875598653e-02,-5.851406029536714015e-02,-6.347577885842459189e-02,-6.843749742148201587e-02,-7.339921598453946761e-02,-7.836093454759693322e-02,-8.332265311065437108e-02,-8.332265311065437108e-02,-8.332265311065438496e-02,-8.332265311065437108e-02,-8.332265311065437108e-02,-8.332265311065437108e-02,-8.332265311065437108e-02,-8.332265311065435720e-02,-8.332265311065437108e-02,-8.332265311065435720e-02,-8.144062193156362262e-02,-6.779589588315562687e-02,-5.368066203997497177e-02,-4.003593599156698990e-02,-2.639120994315900803e-02,-1.274648389475103311e-02,8.982421536569487608e-04,1.454296820206493410e-02,2.865820204524559961e-02,3.712734235115400239e-02,3.712734235115400239e-02,3.712734235115400239e-02,3.712734235115400239e-02,3.712734235115400239e-02,3.712734235115400239e-02,3.712734235115400239e-02,3.712734235115400239e-02,3.712734235115400239e-02,3.712734235115400239e-02
3.712734235115400239e-02,3.712734235115400239e-02,3.712734235115400239e-02,2.365371004629972934e-02,-2.204800572452245699e-01,-2.419630154201866667e-01,-2.469247339832441601e-01,-2.520575462898553276e-01,-2.570192648529127100e-01,-4.072031096578181131e-02,-4.568202952883926304e-02,-5.064374809189670090e-02,-5.577656039850784064e-02,-6.073827896156530626e-02,-6.569999752462274412e-02,-7.066171608768018197e-02,-7.562343465073764759e-02,-8.058515321379509933e-02,-8.332265311065437108e-02,-8.332265311065437108e-02,-8.332265311065435720e-02,-8.332265311065435720e-02,-8.332265311065437108e-02,-8.332265311065437108e-02,-8.332265311065437108e-02,-8.332265311065437108e-02,-8.332265311065437108e-02,-8.332265311065437108e-02,-7.532402059951866236e-02,-6.120878675633800725e-02,-4.756406070793001151e-02,-3.391933465952202964e-02,-2.027460861111404777e-02,-6.629882562706072846e-03,7.014843485701909021e-03,2.113007732888257800e-02,3.477480337729055987e-02,3.712734235115400239e-02,3.712734235115400239e-02,3.712734235115400239e-02,3.712734235115400239e-02,3.712734235115400239e-02,3.712734235115400239e-02,3.712734235115400239e-02,3.712734235115400239e-02,3.712734235115400239e-02,3.712734235115400239e-02
3.712734235115400239e-02,3.712734235115400239e-02,3.712734235115400239e-02,3.712734235115400239e-02,-1.841333300990343758e-01,-1.953934370966625977e-01,-2.228379428985741151e-01,-2.542817649560534798e-01,-2.592434835191109177e-01,-4.294452963197997741e-02,-4.790624819503742915e-02,-5.286796675809485313e-02,-5.800077906470602063e-02,-6.296249762776345849e-02,-6.792421619082092410e-02,-7.288593475387834808e-02,-7.784765331693579982e-02,-8.298046562354696731e-02,-8.332265311065437108e-02,-8.332265311065437108e-02,-8.332265311065438496e-02,-8.332265311065437108e-02,-8.332265311065437108e-02,-8.332265311065437108e-02,-8.332265311065437108e-02,-8.332265311065435720e-02,-8.332265311065437108e-02,-8.285214531588168396e-02,-6.920741926747370210e-02,-5.509218542429304699e-02,-4.144745937588505125e-02,-2.780273332747706938e-02,-1.415800727906910139e-02,-5.132812306611125863e-04,1.360195261251955640e-02,2.724667866092753479e-02,3.712734235115400239e-02,3.712734235115400239e-02,3.712734235115400239e-02,3.712734235115400239e-02,3.712734235115400239e-02,3.712734235115400239e-02,3.712734235115400239e-02,3.712734235115400239e-02,3.712734235115400239e-02,3.712734235115400239e-02,3.712734235115400239e-02
3.712734235115400239e-02,3.712734235115400239e-02,3.712734235115400239e-02,3.712734235115400239e-02,3.712734235115400239e-02,3.712734235115400239e-02,3.712734235115400239e-02,3.034240608335238287e-02,-3.956542819679428891e-03,-4.002524263259488180e-02,-5.013046686123559526e-02,-5.526327916784673500e-02,-6.022499773090417285e-02,-6.518671629396163847e-02,-7.014843485701907633e-02,-7.511015342007651419e-02,-8.024296572668766780e-02,-8.332265311065437108e-02,-8.332265311065437108e-02,-8.332265311065437108e-02,-8.332265311065437108e-02,-8.332265311065437108e-02,-8.332265311065437108e-02,-8.332265311065437108e-02,-8.332265311065437108e-02,-8.332265311065437108e-02,-8.332265311065437108e-02,-7.673554398383672370e-02,-6.262031014065605472e-02,-4.897558409224810061e-02,-3.533085804384009099e-02,-2.168613199543212300e-02,-8.041405947024141132e-03,6.073827896156531320e-03,1.971855394456450972e-02,3.336327999297249158e-02,3.712734235115400239e-02,3.712734235115400239e-02,3.712734235115400239e-02,3.712734235115400239e-02,3.712734235115400239e-02,3.712734235115400239e-02,3.712734235115400239e-02,3.712734235115400239e-02,3.712734235115400239e-02,3.712734235115400239e-02,3.712734235115400239e-02
3.712734235115400239e-02,3.712734235115400239e-02,3.712734235115400239e-02,3.712734235115400239e-02,3.712734235115400239e-02,3.712734235115400239e-02,3.712734235115400239e-02,3.712734235115400239e-02,3.712734235115400239e-02,3.712734235115400239e-02,-2.095898358532882755e-03,-4.270392905510757287e-02,-6.244921639710235284e-02,-6.741093496015979070e-02,-7.237265352321724243e-02,-7.733437208627469417e-02,-8.246718439288583391e-02,-8.332265311065437108e-02,-8.332265311065437108e-02,-8.332265311065437108e-02,-8.332265311065437108e-02,-8.332265311065437108e-02,-8.332265311065437108e-02,-8.332265311065437108e-02,-8.332265311065438496e-02,-8.332265311065435720e-02,-8.332265311065437108e-02,-7.014843485701907633e-02,-5.650370880861110834e-02,-4.285898276020311259e-02,-2.921425671179514461e-02,-1.556953066338716274e-02,-1.924804614979180872e-03,1.219042922820148811e-02,2.583515527660946998e-02,3.712734235115400239e-02,3.712734235115400239e-02,3.712734235115400239e-02,3.712734235115400239e-02,3.712734235115400239e-02,3.712734235115400239e-02,3.712734235115400239e-02,3.712734235115400239e-02,3.712734235115400239e-02,3.712734235115400239e-02,3.712734235115400239e-02,3.712734235115400239e-02
3.712734235115400239e-02,3.712734235115400239e-02,3.712734235115400239e-02,3.712734235115400239e-02,3.712734235115400239e-02,3.712734235115400239e-02,3.712734235115400239e-02,3.712734235115400239e-02,3.712734235115400239e-02,3.712734235115400239e-02,3.712734235115400239e-02,3.712734235115400239e-02,2.133325114935261113e-03,-4.294452963197997741e-02,-7.459687218941539466e-02,-7.972968449602656216e-02,-8.332265311065437108e-02,-8.332265311065437108e-02,-8.332265311065437108e-02,-8.332265311065437108e-02,-8.332265311065437108e-02,-8.332265311065437108e-02,-8.332265311065437108e-02,-8.332265311065437108e-02,-8.332265311065437108e-02,-8.332265311065437108e-02,-7.767655957338211181e-02,-6.403183352497414382e-02,-5.038710747656614808e-02,-3.674238142815816621e-02,-2.309765537975018435e-02,-9.452929331342202479e-03,4.662304511838466503e-03,1.830703056024644143e-02,3.195175660865442330e-02,3.712734235115400239e-02,3.712734235115400239e-02,3.712734235115400239e-02,3.712734235115400239e-02,3.712734235115400239e-02,3.712734235115400239e-02,3.712734235115400239e-02,3.712734235115400239e-02,3.712734235115400239e-02,3.712734235115400239e-02,3.712734235115400239e-02,3.712734235115400239e-02
3.712734235115400239e-02,3.712734235115400239e-02,3.712734235115400239e-02,3.712734235115400239e-02,3.712734235115400239e-02,3.712734235115400239e-02,3.712734235115400239e-02,3.712734235115400239e-02,3.712734235115400239e-02,3.712734235115400239e-02,3.712734235115400239e-02,3.712734235115400239e-02,3.712734235115400239e-02,3.712734235115400239e-02,8.597460613573682658e-03,-4.101972501700078266e-02,-8.332265311065435720e-02,-8.332265311065437108e-02,-8.332265311065437108e-02,-8.332265311065437108e-02,-8.332265311065437108e-02,-8.332265311065437108e-02,-8.332265311065437108e-02,-8.332265311065437108e-02,-8.332265311065437108e-02,-8.332265311065437108e-02,-7.155995824133715155e-02,-5.791523219292918356e-02,-4.427050614452118782e-02,-3.062578009611320595e-02,-1.698105404770523102e-02,-2.865820204524562043e-03,1.077890584388341635e-02,2.442363189229140169e-02,3.712734235115400239e-02,3.712734235115400239e-02,3.712734235115400239e-02,3.712734235115400239e-02,3.712734235115400239e-02,3.712734235115400239e-02,3.712734235115400239e-02,3.712734235115400239e-02,3.712734235115400239e-02,3.712734235115400239e-02,3.712734235115400239e-02,3.712734235115400239e-02,3.712734235115400239e-02
3.712734235115400239e-02,3.712734235115400239e-02,3.712734235115400239e-02,3.712734235115400239e-02,3.712734235115400239e-02,3.712734235115400239e-02,3.712734235115400239e-02,3.712734235115400239e-02,3.712734235115400239e-02,3.712734235115400239e-02,3.712734235115400239e-02,3.712734235115400239e-02,3.712734235115400239e-02,3.712734235115400239e-02,3.712734235115400239e-02,3.712734235115400239e-02,1.830703056024644490e-02,-3.062578009611320595e-02,-7.955859075247286027e-02,-8.332265311065437108e-02,-8.332265311065437108e-02,-8.332265311065437108e-02,-8.332265311065437108e-02,-8.332265311065437108e-02,-8.332265311065437108e-02,-7.908808295770015928e-02,-6.544335690929219129e-02,-5.179863086088422330e-02,-3.815390481247622756e-02,-2.450917876406825957e-02,-1.039394492088758365e-02,3.250781127520398217e-03,1.689550717592837661e-02,3.054023322433635501e-02,3.712734235115400239e-02,3.712734235115400239e-02,3.712734235115400239e-02,3.712734235115400239e-02,3.712734235115400239e-02,3.712734235115400239e-02,3.712734235115400239e-02,3.712734235115400239e-02,3.712734235115400239e-02,3.712734235115400239e-02,3.712734235115400239e-02,3.712734235115400239e-02,3.712734235115400239e-02
