2.344850411970063418e-03,2.344850411970063418e-03,2.344850411970063418e-03,2.344850411970063418e-03,2.344850411970063418e-03,2.344850411970063418e-03,2.344850411970063418e-03,2.344850411970063418e-03,2.344850411970063418e-03,2.344850411970063418e-03,2.344850411970063418e-03,2.344850411970063418e-03,2.344850411970063418e-03,2.344850411970063418e-03,2.344850411970063418e-03,2.344850411970063418e-03,2.344850411970063418e-03,2.344850411970063418e-03,2.344850411970063418e-03,2.344850411970063418e-03,2.344850411970063418e-03,2.344850411970063418e-03,2.344850411970063418e-03,2.344850411970063418e-03,2.344850411970063418e-03,2.344850411970063418e-03,2.344850411970063418e-03,2.344850411970063418e-03,2.344850411970063418e-03,2.344850411970063418e-03,2.344850411970063418e-03,2.344850411970063418e-03,2.344850411970063418e-03,2.344850411970063418e-03,2.344850411970063418e-03,2.344850411970063418e-03,2.344850411970063418e-03,2.344850411970063418e-03,2.344850411970063418e-03,2.344850411970063418e-03,2.344850411970063418e-03,2.344850411970063418e-03,2.344850411970063418e-03,2.344850411970063418e-03,2.344850411970063418e-03,2.344850411970063418e-03,2.344850411970063418e-03
2.344850411970063418e-03,2.344850411970063418e-03,2.344850411970063418e-03,2.344850411970063418e-03,2.344850411970063418e-03,2.344850411970063418e-03,2.344850411970063418e-03,2.344850411970063418e-03,2.344850411970063418e-03,2.344850411970063418e-03,2.344850411970063418e-03,2.344850411970063418e-03,2.344850411970063418e-03,2.344850411970063418e-03,2.344850411970063418e-03,2.344850411970063418e-03,2.344850411970063418e-03,2.344850411970063418e-03,2.344850411970063418e-03,2.344850411970063418e-03,2.344850411970063418e-03,2.344850411970063418e-03,2.344850411970063418e-03,2.344850411970063418e-03,2.344850411970063418e-03,2.344850411970063418e-03,2.344850411970063418e-03,2.344850411970063418e-03,2.344850411970063418e-03,2.344850411970063418e-03,2.344850411970063418e-03,2.344850411970063418e-03,2.344850411970063418e-03,2.344850411970063418e-03,2.344850411970063418e-03,2.344850411970063418e-03,2.344850411970063418e-03,2.344850411970063418e-03,2.344850411970063418e-03,2.344850411970063418e-03,2.344850411970063418e-03,2.344850411970063418e-03,2.344850411970063418e-03,2.344850411970063418e-03,2.344850411970063418e-03,2.344850411970063418e-03,2.344850411970063418e-03
2.344850411970063418e-03,2.344850411970063418e-03,2.344850411970063418e-03,2.344850411970063418e-03,2.344850411970063418e-03,2.344850411970063418e-03,2.344850411970063418e-03,2.344850411970063418e-03,2.344850411970063418e-03,2.344850411970063418e-03,2.344850411970063418e-03,2.344850411970063418e-03,2.344850411970063418e-03,2.344850411970063418e-03,2.344850411970063418e-03,2.344850411970063418e-03,2.344850411970063418e-03,2.344850411970063418e-03,2.344850411970063418e-03,2.344850411970063418e-03,2.344850411970063418e-03,2.344850411970063418e-03,2.344850411970063418e-03,2.344850411970063418e-03,2.344850411970063418e-03,2.344850411970063418e-03,2.344850411970063418e-03,2.344850411970063418e-03,2.344850411970063418e-03,2.344850411970063418e-03,2.344850411970063418e-03,2.344850411970063418e-03,2.344850411970063418e-03,2.344850411970063418e-03,2.344850411970063418e-03,2.344850411970063418e-03,2.344850411970063418e-03,2.344850411970063418e-03,2.344850411970063418e-03,2.344850411970063418e-03,2.344850411970063418e-03,2.344850411970063418e-03,2.344850411970063418e-03,2.344850411970063418e-03,2.344850411970063418e-03,2.344850411970063418e-03,2.344850411970063418e-03
2.344850411970063418e-03,2.344850411970063418e-03,2.344850411970063418e-03,2.344850411970063418e-03,2.344850411970063418e-03,2.344850411970063418e-03,2.344850411970063418e-03,2.344850411970063418e-03,2.344850411970063418e-03,2.344850411970063418e-03,2.344850411970063418e-03,2.344850411970063418e-03,2.344850411970063418e-03,2.344850411970063418e-03,2.344850411970063418e-03,2.344850411970063418e-03,2.344850411970063418e-03,2.344850411970063418e-03,2.344850411970063418e-03,2.344850411970063418e-03,2.344850411970063418e-03,2.344850411970063418e-03,2.344850411970063418e-03,2.344850411970063418e-03,2.344850411970063418e-03,2.344850411970063418e-03,2.344850411970063418e-03,2.344850411970063418e-03,2.344850411970063418e-03,2.344850411970063418e-03,2.344850411970063418e-03,2.344850411970063418e-03,2.344850411970063418e-03,2.344850411970063418e-03,2.344850411970063418e-03,2.344850411970063418e-03,2.344850411970063418e-03,2.344850411970063418e-03,2.344850411970063418e-03,2.344850411970063418e-03,2.344850411970063418e-03,2.344850411970063418e-03,2.344850411970063418e-03,2.344850411970063418e-03,2.344850411970063418e-03,2.344850411970063418e-03,2.344850411970063418e-03
2.344850411970063418e-03,2.344850411970063418e-03,2.344850411970063418e-03,2.344850411970063418e-03,2.344850411970063418e-03,2.344850411970063418e-03,2.344850411970063418e-03,2.344850411970063418e-03,2.344850411970063418e-03,2.344850411970063418e-03,2.344850411970063418e-03,2.344850411970063418e-03,2.344850411970063418e-03,2.344850411970063418e-03,2.344850411970063418e-03,2.344850411970063418e-03,2.344850411970063418e-03,2.344850411970063418e-03,2.344850411970063418e-03,2.344850411970063418e-03,2.344850411970063418e-03,2.344850411970063418e-03,2.344850411970063418e-03,2.344850411970063418e-03,2.344850411970063418e-03,2.344850411970063418e-03,2.344850411970063418e-03,2.344850411970063418e-03,2.344850411970063418e-03,2.344850411970063418e-03,2.344850411970063418e-03,2.344850411970063418e-03,2.344850411970063418e-03,2.344850411970063418e-03,2.344850411970063418e-03,2.344850411970063418e-03,2.344850411970063418e-03,2.344850411970063418e-03,2.344850411970063418e-03,2.344850411970063418e-03,2.344850411970063418e-03,2.344850411970063418e-03,2.344850411970063418e-03,2.344850411970063418e-03,2.344850411970063418e-03,2.344850411970063418e-03,2.344850411970063418e-03
2.344850411970063418e-03,2.344850411970063418e-03,2.344850411970063418e-03,2.344850411970063418e-03,2.344850411970063418e-03,2.344850411970063418e-03,2.344850411970063418e-03,2.344850411970063418e-03,2.344850411970063418e-03,2.344850411970063418e-03,2.344850411970063418e-03,2.344850411970063418e-03,2.344850411970063418e-03,2.344850411970063418e-03,2.344850411970063418e-03,2.344850411970063418e-03,2.344850411970063418e-03,2.344850411970063418e-03,2.344850411970063418e-03,2.344850411970063418e-03,2.344850411970063418e-03,2.344850411970063418e-03,2.344850411970063418e-03,2.344850411970063418e-03,2.344850411970063418e-03,2.344850411970063418e-03,2.344850411970063418e-03,2.344850411970063418e-03,2.344850411970063418e-03,2.344850411970063418e-03,2.344850411970063418e-03,2.344850411970063418e-03,2.344850411970063418e-03,2.344850411970063418e-03,2.344850411970063418e-03,2.344850411970063418e-03,2.344850411970063418e-03,2.344850411970063418e-03,2.344850411970063418e-03,2.344850411970063418e-03,2.344850411970063418e-03,2.344850411970063418e-03,2.344850411970063418e-03,2.344850411970063418e-03,2.344850411970063418e-03,2.344850411970063418e-03,2.344850411970063418e-03
2.344850411970063418e-03,2.344850411970063418e-03,2.344850411970063418e-03,2.344850411970063418e-03,2.344850411970063418e-03,2.344850411970063418e-03,2.344850411970063418e-03,2.344850411970063418e-03,2.344850411970063418e-03,2.344850411970063418e-03,2.344850411970063418e-03,2.344850411970063418e-03,2.344850411970063418e-03,2.344850411970063418e-03,2.344850411970063418e-03,2.344850411970063418e-03,2.344850411970063418e-03,2.344850411970063418e-03,2.344850411970063418e-03,2.344850411970063418e-03,2.344850411970063418e-03,2.344850411970063418e-03,2.344850411970063418e-03,2.344850411970063418e-03,2.344850411970063418e-03,2.344850411970063418e-03,2.344850411970063418e-03,2.344850411970063418e-03,2.344850411970063418e-03,2.344850411970063418e-03,2.344850411970063418e-03,2.344850411970063418e-03,2.344850411970063418e-03,2.344850411970063418e-03,2.344850411970063418e-03,2.344850411970063418e-03,2.344850411970063418e-03,2.344850411970063418e-03,2.344850411970063418e-03,2.344850411970063418e-03,2.344850411970063418e-03,2.344850411970063418e-03,2.344850411970063418e-03,2.344850411970063418e-03,2.344850411970063418e-03,2.344850411970063418e-03,2.344850411970063418e-03
2.344850411970063418e-03,2.344850411970063418e-03,2.158328220108808506e-03,2.344850411970063418e-03,2.344850411970063418e-03,2.344850411970063418e-03,2.344850411970063418e-03,2.344850411970063418e-03,2.344850411970063418e-03,2.344850411970063418e-03,2.344850411970063418e-03,2.344850411970063418e-03,2.344850411970063418e-03,2.344850411970063418e-03,2.344850411970063418e-03,2.344850411970063418e-03,2.344850411970063418e-03,2.344850411970063418e-03,2.344850411970063418e-03,2.344850411970063418e-03,2.344850411970063418e-03,2.344850411970063418e-03,2.344850411970063418e-03,2.344850411970063418e-03,2.344850411970063418e-03,2.344850411970063418e-03,2.344850411970063418e-03,2.344850411970063418e-03,2.344850411970063418e-03,2.344850411970063418e-03,2.344850411970063418e-03,2.344850411970063418e-03,2.344850411970063418e-03,2.344850411970063418e-03,2.344850411970063418e-03,2.344850411970063418e-03,2.344850411970063418e-03,2.344850411970063418e-03,2.344850411970063418e-03,2.344850411970063418e-03,2.344850411970063418e-03,2.344850411970063418e-03,2.344850411970063418e-03,2.344850411970063418e-03,2.344850411970063418e-03,2.344850411970063418e-03,2.344850411970063418e-03
2.344850411970063418e-03,2.344850411970063418e-03,-2.184974247517559084e-03,-3.623859727590098088e-03,-2.344850411970063418e-03,-1.065841096350028747e-03,2.131682192700059229e-04,1.279009315620034670e-03,2.344850411970063418e-03,2.344850411970063418e-03,2.344850411970063418e-03,2.344850411970063418e-03,2.344850411970063418e-03,2.344850411970063418e-03,2.344850411970063418e-03,2.344850411970063418e-03,2.344850411970063418e-03,2.344850411970063418e-03,2.344850411970063418e-03,2.344850411970063418e-03,2.344850411970063418e-03,2.344850411970063418e-03,2.344850411970063418e-03,2.344850411970063418e-03,2.344850411970063418e-03,2.344850411970063418e-03,2.344850411970063418e-03,2.344850411970063418e-03,2.344850411970063418e-03,2.344850411970063418e-03,2.344850411970063418e-03,2.344850411970063418e-03,2.344850411970063418e-03,2.344850411970063418e-03,2.344850411970063418e-03,2.344850411970063418e-03,2.344850411970063418e-03,2.344850411970063418e-03,2.344850411970063418e-03,2.344850411970063418e-03,2.344850411970063418e-03,2.344850411970063418e-03,2.344850411970063418e-03,2.344850411970063418e-03,2.344850411970063418e-03,2.344850411970063418e-03,2.344850411970063418e-03
2.344850411970063418e-03,2.344850411970063418e-03,-8.913096168227116825e-03,-1.023207452496027736e-02,-8.953065209340240957e-03,-7.887224112990214378e-03,-2.661388007868755734e-01,-2.648597914712555457e-01,-2.635807821556355179e-01,-2.771186850510074396e-03,-1.705345754160046082e-03,-4.263364385400114122e-04,8.526728770800232581e-04,2.131682192700057495e-03,2.344850411970063418e-03,2.344850411970063418e-03,2.344850411970063418e-03,2.344850411970063418e-03,2.344850411970063418e-03,2.344850411970063418e-03,2.344850411970063418e-03,2.344850411970063418e-03,2.344850411970063418e-03,2.344850411970063418e-03,2.344850411970063418e-03,2.344850411970063418e-03,2.344850411970063418e-03,2.344850411970063418e-03,2.344850411970063418e-03,2.344850411970063418e-03,2.344850411970063418e-03,2.344850411970063418e-03,2.344850411970063418e-03,2.344850411970063418e-03,2.344850411970063418e-03,2.344850411970063418e-03,2.344850411970063418e-03,2.344850411970063418e-03,2.344850411970063418e-03,2.344850411970063418e-03,2.344850411970063418e-03,2.344850411970063418e-03,2.344850411970063418e-03,2.344850411970063418e-03,2.344850411970063418e-03,2.344850411970063418e-03,2.344850411970063418e-03
2.344850411970063418e-03,2.344850411970063418e-03,-1.811929863795049001e-02,-1.705345754160045996e-02,-1.577444822598042529e-02,-1.449543891036039235e-02,-2.727470155842457444e-01,-2.716811744878956936e-01,-2.704021651722756658e-01,-9.592569867150260027e-03,-8.313560551530223622e-03,-7.034551235910190686e-03,-5.968710139560162373e-03,-4.689700823940127702e-03,-3.410691508320092599e-03,-2.131682192700057928e-03,-8.526728770800232581e-04,2.131682192700059229e-04,1.492177534890040376e-03,2.344850411970063418e-03,2.344850411970063418e-03,2.344850411970063418e-03,2.344850411970063418e-03,2.344850411970063418e-03,2.344850411970063418e-03,2.344850411970063418e-03,2.344850411970063418e-03,2.344850411970063418e-03,2.344850411970063418e-03,2.344850411970063418e-03,2.344850411970063418e-03,2.344850411970063418e-03,2.344850411970063418e-03,2.344850411970063418e-03,2.344850411970063418e-03,2.344850411970063418e-03,2.344850411970063418e-03,2.344850411970063418e-03,2.344850411970063418e-03,2.344850411970063418e-03,2.344850411970063418e-03,2.344850411970063418e-03,2.344850411970063418e-03,2.344850411970063418e-03,2.344850411970063418e-03,2.344850411970063418e-03,2.344850411970063418e-03
2.344850411970063418e-03,-3.011001097188831330e-03,-2.494068165459067260e-02,-2.366167233897063793e-02,-2.238266302335060326e-02,-2.131682192700057321e-02,-2.795683986008859478e-01,-2.782893892852659201e-01,-2.770103799696458369e-01,-1.620078466452043800e-02,-1.513494356817040969e-02,-1.385593425255037502e-02,-1.257692493693034035e-02,-1.129791562131030568e-02,-1.001890630569027101e-02,-8.953065209340242692e-03,-7.674055893720208021e-03,-6.395046578100171616e-03,-5.116037262480138681e-03,-4.050196166130110367e-03,-2.771186850510075263e-03,-1.492177534890040159e-03,-2.131682192700059229e-04,1.065841096350028747e-03,2.131682192700057495e-03,2.344850411970063418e-03,2.344850411970063418e-03,2.344850411970063418e-03,2.344850411970063418e-03,2.344850411970063418e-03,2.344850411970063418e-03,2.344850411970063418e-03,2.344850411970063418e-03,2.344850411970063418e-03,2.344850411970063418e-03,2.344850411970063418e-03,2.344850411970063418e-03,2.344850411970063418e-03,2.344850411970063418e-03,2.344850411970063418e-03,2.344850411970063418e-03,2.344850411970063418e-03,2.344850411970063418e-03,2.344850411970063418e-03,2.344850411970063418e-03,2.344850411970063418e-03,2.344850411970063418e-03
2.344850411970063418e-03,-1.084493315536154238e-02,-3.154889645196085057e-02,-3.048305535561082052e-02,-2.920404603999078585e-02,-2.792503672437075118e-02,-2.664602740875071651e-02,-2.536701809313068184e-02,-2.430117699678065873e-02,-2.302216768116062406e-02,-2.174315836554058939e-02,-2.046414904992055125e-02,-1.939830795357052121e-02,-1.811929863795049001e-02,-1.684028932233045533e-02,-1.556128000671042240e-02,-1.428227069109038773e-02,-1.321642959474035768e-02,-1.193742027912032301e-02,-1.065841096350028834e-02,-9.379401647880253670e-03,-8.100392332260219000e-03,-7.034551235910188952e-03,-5.755541920290156016e-03,-4.476532604670121346e-03,-3.197523289050086242e-03,-1.918513973430051572e-03,-8.526728770800228244e-04,4.263364385400116290e-04,1.705345754160046082e-03,2.344850411970063418e-03,2.344850411970063418e-03,2.344850411970063418e-03,2.344850411970063418e-03,2.344850411970063418e-03,2.344850411970063418e-03,2.344850411970063418e-03,2.344850411970063418e-03,2.344850411970063418e-03,2.344850411970063418e-03,2.344850411970063418e-03,2.344850411970063418e-03,2.344850411970063418e-03,2.344850411970063418e-03,2.344850411970063418e-03,2.344850411970063418e-03,2.344850411970063418e-03
2.344850411970063418e-03,-2.127685288588744908e-02,-3.837027946860104011e-02,-3.709127015298100544e-02,-3.581226083736097077e-02,-3.474641974101093378e-02,-3.346741042539090605e-02,-3.218840110977086444e-02,-3.090939179415083671e-02,-2.963038247853079510e-02,-2.856454138218077199e-02,-2.728553206656073385e-02,-2.600652275094070265e-02,-2.472751343532066798e-02,-2.344850411970063331e-02,-2.238266302335060326e-02,-2.110365370773056859e-02,-1.982464439211053739e-02,-1.854563507649050272e-02,-1.726662576087046458e-02,-1.620078466452043800e-02,-1.492177534890040506e-02,-1.364276603328037039e-02,-1.236375671766033572e-02,-1.129791562131030568e-02,-1.001890630569027101e-02,-8.739896990070236335e-03,-7.460887674450201665e-03,-6.181878358830168729e-03,-5.116037262480138681e-03,-3.837027946860103577e-03,-2.558018631240068907e-03,-1.279009315620034237e-03,0.000000000000000000e+00,1.065841096350028747e-03,2.344850411970063418e-03,2.344850411970063418e-03,2.344850411970063418e-03,2.344850411970063418e-03,2.344850411970063418e-03,2.344850411970063418e-03,2.344850411970063418e-03,2.344850411970063418e-03,2.344850411970063418e-03,2.344850411970063418e-03,2.344850411970063418e-03,2.344850411970063418e-03
2.344850411970063418e-03,-3.410691508320091991e-02,-4.497849426597121808e-02,-4.391265316962118803e-02,-4.263364385400115336e-02,-4.135463453838111869e-02,-4.007562522276108402e-02,-3.879661590714104935e-02,-3.773077481079102624e-02,-3.645176549517098463e-02,-3.517275617955094996e-02,-3.389374686393091529e-02,-3.261473754831088062e-02,-3.154889645196085057e-02,-3.026988713634081590e-02,-2.899087782072078123e-02,-2.771186850510074656e-02,-2.664602740875071998e-02,-2.536701809313068531e-02,-2.408800877751064717e-02,-2.280899946189061597e-02,-2.152999014627057783e-02,-2.046414904992055125e-02,-1.918513973430051658e-02,-1.790613041868048538e-02,-1.662712110306044724e-02,-1.534811178744041778e-02,-1.428227069109038426e-02,-1.300326137547034959e-02,-1.172425205985031665e-02,-1.044524274423028372e-02,-9.166233428610247314e-03,-8.100392332260219000e-03,-6.821383016640184330e-03,-5.542373701020151394e-03,-4.263364385400114989e-03,-2.984355069780080753e-03,-1.918513973430051572e-03,-6.395046578100173351e-04,6.395046578100173351e-04,1.918513973430052005e-03,2.344850411970063418e-03,2.344850411970063418e-03,2.344850411970063418e-03,2.344850411970063418e-03,2.344850411970063418e-03,2.344850411970063418e-03
2.344850411970063418e-03,-4.788291125352504146e-02,-5.179987728261140068e-02,-5.052086796699136600e-02,-4.924185865137133133e-02,-4.796284933575128973e-02,-4.689700823940126662e-02,-4.561799892378123195e-02,-4.433898960816119728e-02,-4.305998029254116954e-02,-4.199413919619113256e-02,-4.071512988057110483e-02,-3.943612056495107016e-02,-3.815711124933103549e-02,-3.687810193371099388e-02,-3.581226083736097077e-02,-3.453325152174092916e-02,-3.325424220612089449e-02,-3.197523289050085982e-02,-3.069622357488082515e-02,-2.963038247853079510e-02,-2.835137316291076737e-02,-2.707236384729072576e-02,-2.579335453167069456e-02,-2.451434521605066336e-02,-2.344850411970063331e-02,-2.216949480408059864e-02,-2.089048548846056397e-02,-1.961147617284052930e-02,-1.833246685722049810e-02,-1.726662576087046458e-02,-1.598761644525042991e-02,-1.470860712963039697e-02,-1.342959781401036577e-02,-1.236375671766033572e-02,-1.108474740204030105e-02,-9.805738086420264649e-03,-8.526728770800231713e-03,-7.247719455180195308e-03,-6.181878358830166995e-03,-4.902869043210132324e-03,-3.623859727590098088e-03,-2.344850411970063418e-03,-1.065841096350028747e-03,0.000000000000000000e+00,1.279009315620034670e-03,2.344850411970063418e-03
-5.569019728428900237e-03,-5.968710139560160638e-02,-5.840809207998157171e-02,-5.734225098363154860e-02,-5.606324166801150699e-02,-5.478423235239147926e-02,-5.350522303677144459e-02,-5.222621372115140992e-02,-5.116037262480137987e-02,-4.988136330918134520e-02,-4.860235399356131053e-02,-4.732334467794128280e-02,-4.604433536232124813e-02,-4.497849426597121808e-02,-4.369948495035118341e-02,-4.242047563473114180e-02,-4.114146631911111407e-02,-3.986245700349107940e-02,-3.879661590714104935e-02,-3.751760659152101468e-02,-3.623859727590098001e-02,-3.495958796028094534e-02,-3.368057864466091067e-02,-3.261473754831088062e-02,-3.133572823269084595e-02,-3.005671891707081128e-02,-2.877770960145077314e-02,-2.771186850510074656e-02,-2.643285918948071189e-02,-2.515384987386067722e-02,-2.387484055824064255e-02,-2.259583124262060788e-02,-2.152999014627057783e-02,-2.025098083065055010e-02,-1.897197151503051196e-02,-1.769296219941048076e-02,-1.641395288379044609e-02,-1.534811178744041778e-02,-1.406910247182038311e-02,-1.279009315620034670e-02,-1.151108384058031030e-02,-1.023207452496027563e-02,-9.166233428610247314e-03,-7.887224112990214378e-03,-6.608214797370179708e-03,-5.329205481750145038e-03,-4.263364385400114989e-03
-1.731991781568796573e-02,-6.650848441224180285e-02,-6.522947509662174737e-02,-6.395046578100171963e-02,-6.267145646538169190e-02,-6.139244714976165029e-02,-6.032660605341162718e-02,-5.904759673779159251e-02,-5.776858742217155784e-02,-5.648957810655152317e-02,-5.521056879093148850e-02,-5.414472769458145845e-02,-5.286571837896142378e-02,-5.158670906334138911e-02,-5.030769974772135444e-02,-4.902869043210132671e-02,-4.796284933575128973e-02,-4.668384002013126199e-02,-4.540483070451122732e-02,-4.412582138889119265e-02,-4.305998029254116261e-02,-4.178097097692112794e-02,-4.050196166130110020e-02,-3.922295234568106553e-02,-3.794394303006103086e-02,-3.687810193371099388e-02,-3.559909261809096614e-02,-3.432008330247092454e-02,-3.304107398685088987e-02,-3.176206467123085520e-02,-3.069622357488082515e-02,-2.941721425926079048e-02,-2.813820494364075928e-02,-2.685919562802072461e-02,-2.558018631240068994e-02,-2.451434521605065989e-02,-2.323533590043062869e-02,-2.195632658481059402e-02,-2.067731726919055588e-02,-1.961147617284052930e-02,-1.833246685722049810e-02,-1.705345754160045996e-02,-1.577444822598042529e-02,-1.449543891036039235e-02,-1.342959781401036230e-02,-1.215058849839032763e-02,-1.087157918277029470e-02
-3.362728658984340951e-02,-7.311669920961197389e-02,-7.183768989399193228e-02,-7.055868057837190455e-02,-6.949283948202188144e-02,-6.821383016640183983e-02,-6.693482085078181210e-02,-6.565581153516177049e-02,-6.458997043881174738e-02,-6.331096112319170577e-02,-6.203195180757166416e-02,-6.075294249195163643e-02,-5.947393317633160176e-02,-5.840809207998157865e-02,-5.712908276436154398e-02,-5.585007344874150931e-02,-5.457106413312147464e-02,-5.329205481750143997e-02,-5.222621372115140992e-02,-5.094720440553137525e-02,-4.966819508991134058e-02,-4.838918577429129897e-02,-4.711017645867127124e-02,-4.604433536232124813e-02,-4.476532604670121346e-02,-4.348631673108117879e-02,-4.220730741546113718e-02,-4.114146631911111407e-02,-3.986245700349107940e-02,-3.858344768787104473e-02,-3.730443837225101006e-02,-3.602542905663097539e-02,-3.495958796028093840e-02,-3.368057864466091067e-02,-3.240156932904087600e-02,-3.112256001342084133e-02,-2.984355069780080666e-02,-2.877770960145077661e-02,-2.749870028583074194e-02,-2.621969097021070727e-02,-2.494068165459067260e-02,-2.366167233897063793e-02,-2.259583124262060788e-02,-2.131682192700057668e-02,-2.003781261138054201e-02,-1.875880329576050734e-02,-1.747979398014047267e-02
-5.235278235134298297e-02,-7.993808222625216342e-02,-7.865907291063213569e-02,-7.738006359501209408e-02,-7.610105427939205247e-02,-7.482204496377202474e-02,-7.375620386742198775e-02,-7.247719455180196002e-02,-7.119818523618191841e-02,-6.991917592056189068e-02,-6.864016660494184907e-02,-6.757432550859182596e-02,-6.629531619297178435e-02,-6.501630687735175662e-02,-6.373729756173171501e-02,-6.245828824611168728e-02,-6.139244714976165029e-02,-6.011343783414162256e-02,-5.883442851852158095e-02,-5.755541920290155322e-02,-5.648957810655151623e-02,-5.521056879093148850e-02,-5.393155947531144689e-02,-5.265255015969141916e-02,-5.137354084407139143e-02,-5.030769974772135444e-02,-4.902869043210132671e-02,-4.774968111648128510e-02,-4.647067180086125737e-02,-4.519166248524121576e-02,-4.412582138889119265e-02,-4.284681207327115798e-02,-4.156780275765112331e-02,-4.028879344203108864e-02,-3.900978412641105397e-02,-3.794394303006102392e-02,-3.666493371444098925e-02,-3.538592439882094765e-02,-3.410691508320091991e-02,-3.282790576758088524e-02,-3.176206467123085520e-02,-3.048305535561082052e-02,-2.920404603999078585e-02,-2.792503672437075118e-02,-2.685919562802072114e-02,-2.558018631240068994e-02,-2.430117699678065180e-02
-7.373621934686544477e-02,-8.654629702362234833e-02,-8.526728770800230672e-02,-8.398827839238227899e-02,-8.292243729603225588e-02,-8.164342798041221427e-02,-8.036441866479217266e-02,-7.908540934917214493e-02,-7.780640003355210332e-02,-7.674055893720206634e-02,-7.546154962158203861e-02,-7.418254030596201087e-02,-7.290353099034196926e-02,-7.183768989399194616e-02,-7.055868057837190455e-02,-6.927967126275187681e-02,-6.800066194713183521e-02,-6.672165263151180747e-02,-6.565581153516177049e-02,-6.437680221954174276e-02,-6.309779290392170115e-02,-6.181878358830165954e-02,-6.053977427268163181e-02,-5.947393317633160176e-02,-5.819492386071156709e-02,-5.691591454509152548e-02,-5.563690522947149775e-02,-5.435789591385146308e-02,-5.329205481750143997e-02,-5.201304550188140530e-02,-5.073403618626136369e-02,-4.945502687064133596e-02,-4.817601755502130129e-02,-4.711017645867127818e-02,-4.583116714305124351e-02,-4.455215782743120190e-02,-4.327314851181116723e-02,-4.220730741546113718e-02,-4.092829809984110945e-02,-3.964928878422106784e-02,-3.837027946860104011e-02,-3.709127015298100544e-02,-3.602542905663097539e-02,-3.474641974101094072e-02,-3.346741042539089911e-02,-3.218840110977087138e-02,-3.090939179415082977e-02
-9.443352113661254710e-02,-9.315451182099251937e-02,-9.208867072464248238e-02,-9.080966140902245465e-02,-8.953065209340242692e-02,-8.825164277778238531e-02,-8.718580168143237608e-02,-8.590679236581233447e-02,-8.462778305019229286e-02,-8.334877373457226513e-02,-8.206976441895222352e-02,-8.100392332260220041e-02,-7.972491400698215880e-02,-7.844590469136213107e-02,-7.716689537574208946e-02,-7.588788606012204785e-02,-7.482204496377202474e-02,-7.354303564815198313e-02,-7.226402633253195540e-02,-7.098501701691191379e-02,-6.970600770129188606e-02,-6.864016660494184907e-02,-6.736115728932180746e-02,-6.608214797370177973e-02,-6.480313865808175200e-02,-6.352412934246171039e-02,-6.245828824611168728e-02,-6.117927893049164567e-02,-5.990026961487161794e-02,-5.862126029925157633e-02,-5.755541920290154628e-02,-5.627640988728151855e-02,-5.499740057166148388e-02,-5.371839125604145615e-02,-5.243938194042140760e-02,-5.137354084407138449e-02,-5.009453152845134982e-02,-4.881552221283132209e-02,-4.753651289721128742e-02,-4.625750358159124581e-02,-4.519166248524122270e-02,-4.391265316962118803e-02,-4.263364385400115336e-02,-2.581966683354327552e-01,-2.569176590198127275e-01,-2.558518179234626766e-01,-2.545728086078426489e-01
-1.012549041532527228e-01,-9.997589483763270890e-02,-9.869688552201268117e-02,-9.741787620639263956e-02,-9.635203511004260257e-02,-9.507302579442257484e-02,-9.379401647880254711e-02,-9.251500716318250550e-02,-9.123599784756247777e-02,-9.017015675121244078e-02,-8.889114743559241305e-02,-8.761213811997235756e-02,-8.633312880435234371e-02,-8.505411948873230210e-02,-8.398827839238227899e-02,-8.270926907676225126e-02,-8.143025976114219577e-02,-8.015125044552216804e-02,-7.908540934917214493e-02,-7.780640003355210332e-02,-7.652739071793207559e-02,-7.524838140231203398e-02,-7.396937208669200625e-02,-7.290353099034196926e-02,-7.162452167472192766e-02,-7.034551235910189992e-02,-6.906650304348187219e-02,-6.778749372786181671e-02,-6.672165263151180747e-02,-6.544264331589176587e-02,-6.416363400027173813e-02,-6.288462468465169652e-02,-6.160561536903166879e-02,-6.053977427268163181e-02,-5.926076495706160407e-02,-5.798175564144156247e-02,-5.670274632582153473e-02,-5.542373701020149313e-02,-5.435789591385146308e-02,-5.307888659823142841e-02,-5.179987728261140068e-02,-5.052086796699135907e-02,-4.945502687064133596e-02,-2.650180513520729586e-01,-2.637390420364529309e-01,-2.624600327208329031e-01,-2.611810234052128754e-01
-1.078631189506229215e-01,-3.509125820554662711e-01,-3.498467409591162758e-01,-3.485677316434961925e-01,-1.029602499074127736e-01,-1.016812405917927459e-01,-1.004022312761727181e-01,-9.933639017982269503e-02,-9.805738086420266730e-02,-9.677837154858261182e-02,-9.549936223296257021e-02,-9.443352113661254710e-02,-9.315451182099251937e-02,-9.187550250537250551e-02,-9.059649318975245003e-02,-8.931748387413240842e-02,-8.825164277778238531e-02,-8.697263346216237145e-02,-8.569362414654232984e-02,-8.441461483092227436e-02,-8.313560551530226050e-02,-8.206976441895222352e-02,-8.079075510333219579e-02,-7.951174578771215418e-02,-7.823273647209212645e-02,-7.695372715647208484e-02,-7.588788606012204785e-02,-7.460887674450202012e-02,-7.332986742888197851e-02,-7.205085811326195078e-02,-7.077184879764190917e-02,-6.970600770129188606e-02,-6.842699838567184445e-02,-6.714798907005180284e-02,-6.586897975443177511e-02,-6.480313865808175200e-02,-6.352412934246171039e-02,-6.224512002684168266e-02,-6.096611071122164105e-02,-5.968710139560161332e-02,-5.862126029925157633e-02,-5.734225098363154860e-02,-5.606324166801150699e-02,-2.716262661494431296e-01,-2.703472568338231019e-01,-2.692814157374730510e-01,-2.680024064218530233e-01
-1.146845019672630972e-01,-3.577339650721064745e-01,-3.564549557564864468e-01,-3.551759464408663636e-01,-1.097816329240529631e-01,-1.085026236084329354e-01,-1.072236142928129077e-01,-1.059446049771928661e-01,-1.046655956615728106e-01,-1.035997545652228014e-01,-1.023207452496027736e-01,-1.010417359339827320e-01,-9.976272661836270428e-02,-9.848371730274266267e-02,-9.741787620639263956e-02,-9.613886689077261183e-02,-9.485985757515257022e-02,-9.358084825953252861e-02,-9.230183894391248700e-02,-9.123599784756247777e-02,-8.995698853194243616e-02,-8.867797921632240843e-02,-8.739896990070238070e-02,-8.611996058508233909e-02,-8.505411948873231598e-02,-8.377511017311227437e-02,-8.249610085749223276e-02,-8.121709154187220503e-02,-8.015125044552216804e-02,-7.887224112990214031e-02,-7.759323181428209870e-02,-7.631422249866207097e-02,-7.503521318304202936e-02,-7.396937208669200625e-02,-7.269036277107196464e-02,-7.141135345545192303e-02,-7.013234413983189530e-02,-6.885333482421185369e-02,-6.778749372786183058e-02,-6.650848441224178897e-02,-6.522947509662176124e-02,-6.395046578100171963e-02,-6.267145646538167802e-02,-2.784476491660833330e-01,-2.771686398504632498e-01,-2.758896305348432221e-01,-2.746106212192231943e-01
-1.212927167646332821e-01,-3.643421798694766456e-01,-3.632763387731265947e-01,-3.619973294575065670e-01,-1.163898477214231481e-01,-1.151108384058031203e-01,-1.138318290901830787e-01,-1.127659879938330556e-01,-1.114869786782130140e-01,-1.102079693625929863e-01,-1.089289600469729308e-01,-1.076499507313529030e-01,-1.065841096350028799e-01,-1.053051003193828522e-01,-1.040260910037627967e-01,-1.027470816881427690e-01,-1.014680723725227551e-01,-1.004022312761727181e-01,-9.912322196055269041e-02,-9.784421264493264880e-02,-9.656520332931262107e-02,-9.549936223296257021e-02,-9.422035291734255635e-02,-9.294134360172251474e-02,-9.166233428610248701e-02,-9.038332497048245928e-02,-8.931748387413242229e-02,-8.803847455851239456e-02,-8.675946524289233908e-02,-8.548045592727232522e-02,-8.420144661165228361e-02,-8.313560551530226050e-02,-8.185659619968221890e-02,-8.057758688406219116e-02,-7.929857756844214955e-02,-7.801956825282212182e-02,-7.695372715647208484e-02,-7.567471784085204323e-02,-7.439570852523201550e-02,-7.311669920961197389e-02,-7.205085811326195078e-02,-7.077184879764190917e-02,-6.949283948202186756e-02,-6.821383016640183983e-02,-6.693482085078179822e-02,-6.586897975443177511e-02,-6.458997043881173350e-02
-1.272614269041934532e-01,-1.268350904656534439e-01,-1.255560811500334162e-01,-1.242770718344133468e-01,-1.229980625187933191e-01,-1.219322214224432960e-01,-1.206532121068232682e-01,-1.193742027912032266e-01,-1.180951934755831850e-01,-1.168161841599631573e-01,-1.157503430636131342e-01,-1.144713337479930926e-01,-1.131923244323730648e-01,-1.119133151167530232e-01,-1.108474740204030001e-01,-1.095684647047829585e-01,-1.082894553891629308e-01,-1.070104460735428892e-01,-1.057314367579228614e-01,-1.046655956615728245e-01,-1.033865863459527829e-01,-1.021075770303327551e-01,-1.008285677147127274e-01,-9.954955839909269966e-02,-9.848371730274267655e-02,-9.720470798712263494e-02,-9.592569867150259333e-02,-9.464668935588255172e-02,-9.336768004026252399e-02,-9.230183894391248700e-02,-9.102282962829247315e-02,-8.974382031267243154e-02,-8.846481099705240381e-02,-3.555310803179521639e-01,-3.542520710023321362e-01,-3.529730616867121085e-01,-3.516940523710920807e-01,-3.504150430554720530e-01,-8.121709154187220503e-02,-7.993808222625216342e-02,-7.865907291063213569e-02,-7.738006359501210796e-02,-7.610105427939205247e-02,-7.503521318304202936e-02,-7.375620386742198775e-02,-7.247719455180196002e-02,-5.970708591615817712e-02
-1.272614269041934532e-01,-1.272614269041934532e-01,-1.272614269041934532e-01,-1.272614269041934532e-01,-1.272614269041934532e-01,-1.272614269041934532e-01,-1.272614269041934532e-01,-1.261955858078434300e-01,-1.249165764922233884e-01,-1.236375671766033330e-01,-1.223585578609833052e-01,-1.210795485453632775e-01,-1.200137074490132405e-01,-1.187346981333931989e-01,-1.174556888177731712e-01,-1.161766795021531434e-01,-1.148976701865331018e-01,-1.138318290901830648e-01,-1.125528197745630371e-01,-1.112738104589430094e-01,-1.099948011433229678e-01,-1.087157918277029400e-01,-1.076499507313529030e-01,-1.063709414157328753e-01,-1.050919321001128476e-01,-1.038129227844928060e-01,-1.027470816881427829e-01,-1.014680723725227413e-01,-1.001890630569026996e-01,-9.891005374128268579e-02,-9.763104442566265806e-02,-9.656520332931262107e-02,-9.528619401369259334e-02,-3.621392951153223350e-01,-3.608602857997023072e-01,-3.595812764840822795e-01,-3.585154353877322286e-01,-3.572364260721122564e-01,-8.782530633924238994e-02,-8.654629702362234833e-02,-8.526728770800230672e-02,-8.420144661165228361e-02,-8.292243729603225588e-02,-8.164342798041221427e-02,-8.036441866479218654e-02,-7.908540934917214493e-02,-5.039429933679979989e-02
-1.272614269041934532e-01,-1.272614269041934532e-01,-1.272614269041934532e-01,-1.272614269041934532e-01,-1.272614269041934532e-01,-1.272614269041934532e-01,-1.272614269041934532e-01,-1.272614269041934532e-01,-1.272614269041934532e-01,-1.272614269041934532e-01,-1.272614269041934532e-01,-1.272614269041934532e-01,-1.266219222463834393e-01,-1.253429129307634116e-01,-1.240639036151433422e-01,-1.229980625187933191e-01,-1.217190532031732775e-01,-1.204400438875532497e-01,-1.191610345719332081e-01,-1.180951934755831850e-01,-1.168161841599631573e-01,-1.155371748443431157e-01,-1.142581655287230741e-01,-1.129791562131030463e-01,-1.119133151167530371e-01,-1.106343058011329955e-01,-1.093552964855129400e-01,-1.080762871698929262e-01,-1.067972778542728846e-01,-1.057314367579228614e-01,-1.044524274423028198e-01,-1.031734181266828060e-01,-1.018944088110627644e-01,-3.687475099126925615e-01,-3.676816688163425106e-01,-3.664026595007224829e-01,-3.651236501851023997e-01,-3.638446408694824274e-01,-9.443352113661256098e-02,-9.336768004026253787e-02,-9.208867072464249626e-02,-9.080966140902245465e-02,-8.953065209340242692e-02,-8.846481099705240381e-02,-8.718580168143236220e-02,-8.590679236581233447e-02,-3.842357152341854126e-02
-1.272614269041934532e-01,-1.272614269041934532e-01,-1.272614269041934532e-01,-1.272614269041934532e-01,-1.272614269041934532e-01,-1.272614269041934532e-01,-1.272614269041934809e-01,-1.272614269041934809e-01,-1.272614269041934809e-01,-1.272614269041934532e-01,-1.272614269041934532e-01,-1.272614269041934532e-01,-1.272614269041934532e-01,-1.272614269041934532e-01,-1.272614269041934532e-01,-1.272614269041934532e-01,-1.272614269041934532e-01,-1.272614269041934532e-01,-1.259824175885734254e-01,-1.247034082729533838e-01,-1.234243989573333283e-01,-1.221453896417133006e-01,-1.210795485453632497e-01,-1.198005392297432220e-01,-1.185215299141232081e-01,-1.172425205985031665e-01,-1.159635112828831388e-01,-1.148976701865331018e-01,-1.136186608709130741e-01,-1.123396515552930464e-01,-1.110606422396730047e-01,-1.099948011433229678e-01,-1.087157918277029262e-01,-3.755688929293327094e-01,-3.742898836137126817e-01,-3.730108742980926539e-01,-3.719450332017426031e-01,-3.706660238861225753e-01,-1.012549041532527366e-01,-9.997589483763270890e-02,-9.869688552201268117e-02,-9.763104442566264418e-02,-9.635203511004260257e-02,-9.507302579442257484e-02,-9.379401647880253323e-02,-9.251500716318249162e-02,-2.403471672269314949e-02
-1.272614269041934532e-01,-1.272614269041934532e-01,-1.272614269041934532e-01,-1.272614269041934532e-01,-1.272614269041934532e-01,-1.272614269041934532e-01,-1.272614269041934532e-01,-1.272614269041934532e-01,-1.272614269041934532e-01,-1.272614269041934532e-01,-1.272614269041934532e-01,-1.272614269041934532e-01,-1.272614269041934532e-01,-1.272614269041934532e-01,-1.272614269041934532e-01,-1.272614269041934532e-01,-1.272614269041934532e-01,-1.272614269041934809e-01,-1.272614269041934532e-01,-1.272614269041934532e-01,-1.272614269041934532e-01,-1.272614269041934532e-01,-1.272614269041934532e-01,-1.264087540271134347e-01,-1.253429129307633838e-01,-1.240639036151433422e-01,-1.227848942995233145e-01,-1.215058849839032867e-01,-1.202268756682832451e-01,-1.191610345719332220e-01,-1.178820252563131804e-01,-1.166030159406931527e-01,-1.153240066250731111e-01,-3.821771077267028804e-01,-3.811112666303528851e-01,-3.798322573147328018e-01,-3.785532479991127741e-01,-3.772742386834927464e-01,-1.078631189506229077e-01,-1.067972778542728846e-01,-1.055182685386528568e-01,-1.042392592230328152e-01,-1.029602499074127875e-01,-1.018944088110627505e-01,-1.006153994954427366e-01,-9.933639017982269503e-02,-1.020542849755152852e-02
-1.272614269041934254e-01,-1.272614269041934532e-01,-1.272614269041934254e-01,-1.272614269041934532e-01,-1.272614269041934532e-01,-1.272614269041934532e-01,-1.272614269041934532e-01,-1.272614269041934532e-01,-1.272614269041934532e-01,-1.272614269041934532e-01,-1.272614269041934532e-01,-1.272614269041934809e-01,-1.272614269041934532e-01,-1.272614269041934532e-01,-1.272614269041934532e-01,-1.272614269041934532e-01,-1.272614269041934532e-01,-1.272614269041934532e-01,-1.272614269041934532e-01,-1.272614269041934532e-01,-1.272614269041934532e-01,-1.272614269041934532e-01,-1.272614269041934532e-01,-1.272614269041934532e-01,-1.272614269041934532e-01,-1.272614269041934532e-01,-1.272614269041934532e-01,-1.272614269041934532e-01,-1.270482586849234485e-01,-1.257692493693033930e-01,-1.244902400536833514e-01,-1.232112307380633237e-01,-1.221453896417132867e-01,-1.208663803260932590e-01,-1.195873710104732313e-01,-1.183083616948531896e-01,-1.172425205985031665e-01,-1.159635112828831388e-01,-1.146845019672630972e-01,-1.134054926516430556e-01,-1.121264833360230279e-01,-1.110606422396730047e-01,-1.097816329240529631e-01,-1.085026236084329354e-01,-1.072236142928129077e-01,-9.579246853445883003e-02,2.344850411970063418e-03
-1.272614269041934532e-01,-1.272614269041934532e-01,-1.272614269041934532e-01,-1.272614269041934254e-01,-1.272614269041934532e-01,-1.272614269041934532e-01,-1.272614269041934532e-01,-1.272614269041934532e-01,-1.272614269041934532e-01,-1.272614269041934532e-01,-1.272614269041934532e-01,-1.272614269041934254e-01,-1.272614269041934532e-01,-1.272614269041934254e-01,-1.272614269041934532e-01,-1.272614269041934532e-01,-1.272614269041934532e-01,-1.272614269041934532e-01,-1.272614269041934532e-01,-1.272614269041934532e-01,-1.272614269041934532e-01,-1.272614269041934532e-01,-1.272614269041934809e-01,-1.272614269041934532e-01,-1.272614269041934532e-01,-1.272614269041934532e-01,-1.272614269041934532e-01,-1.272614269041934532e-01,-1.272614269041934532e-01,-1.272614269041934532e-01,-1.272614269041934532e-01,-1.272614269041934532e-01,-1.272614269041934532e-01,-1.272614269041934532e-01,-1.264087540271134347e-01,-1.251297447114934069e-01,-1.238507353958733653e-01,-1.225717260802532960e-01,-1.212927167646332821e-01,-1.202268756682832312e-01,-1.189478663526632035e-01,-1.176688570370431758e-01,-1.163898477214231481e-01,-1.151108384058031064e-01,-1.140449973094530833e-01,-8.039106469220093365e-02,2.344850411970063418e-03
-1.272614269041934532e-01,-1.272614269041934532e-01,-1.272614269041934532e-01,-1.272614269041934809e-01,-1.272614269041934532e-01,-1.272614269041934532e-01,-1.272614269041934532e-01,-1.272614269041934532e-01,-1.272614269041934532e-01,-1.272614269041934532e-01,-1.272614269041934532e-01,-1.272614269041934532e-01,-1.272614269041934532e-01,-1.272614269041934532e-01,-1.272614269041934254e-01,-1.272614269041934532e-01,-1.272614269041934532e-01,-1.272614269041934532e-01,-1.272614269041934532e-01,-1.272614269041934532e-01,-1.272614269041934532e-01,-1.272614269041934532e-01,-1.272614269041934254e-01,-1.272614269041934532e-01,-1.272614269041934254e-01,-1.272614269041934532e-01,-1.272614269041934532e-01,-1.272614269041934532e-01,-1.272614269041934532e-01,-1.272614269041934532e-01,-1.272614269041934532e-01,-1.272614269041934532e-01,-1.272614269041934532e-01,-1.272614269041934809e-01,-1.272614269041934532e-01,-1.272614269041934532e-01,-1.272614269041934532e-01,-1.272614269041934532e-01,-1.272614269041934532e-01,-1.268350904656534439e-01,-1.255560811500334162e-01,-1.244902400536833792e-01,-1.232112307380633237e-01,-1.219322214224432821e-01,-1.206532121068232544e-01,-6.612211701481490733e-02,2.344850411970063418e-03
-1.705345754160046082e-03,-2.195632658481059402e-02,-4.625750358159125275e-02,-7.055868057837190455e-02,-9.485985757515257022e-02,-1.191610345719332359e-01,-1.272614269041934532e-01,-1.272614269041934532e-01,-1.272614269041934532e-01,-1.272614269041934532e-01,-1.272614269041934254e-01,-1.272614269041934532e-01,-1.272614269041934532e-01,-1.272614269041934532e-01,-1.272614269041934532e-01,-1.272614269041934532e-01,-1.272614269041934532e-01,-1.272614269041934532e-01,-1.272614269041934532e-01,-1.272614269041934532e-01,-1.272614269041934532e-01,-1.272614269041934532e-01,-1.272614269041934532e-01,-1.272614269041934532e-01,-1.272614269041934532e-01,-1.272614269041934254e-01,-1.272614269041934532e-01,-1.272614269041934532e-01,-1.272614269041934532e-01,-1.272614269041934532e-01,-1.272614269041934532e-01,-1.272614269041934532e-01,-1.272614269041934532e-01,-1.272614269041934532e-01,-1.272614269041934532e-01,-1.272614269041934254e-01,-1.272614269041934532e-01,-1.272614269041934532e-01,-1.272614269041934532e-01,-1.272614269041934532e-01,-1.272614269041934532e-01,-1.272614269041934532e-01,-1.272614269041934532e-01,-1.272614269041934532e-01,-1.272614269041934809e-01,-4.585781317045999061e-02,2.344850411970063418e-03
2.344850411970063418e-03,2.344850411970063418e-03,2.344850411970063418e-03,2.344850411970063418e-03,2.344850411970063418e-03,2.344850411970063418e-03,-1.385593425255037502e-02,-3.815711124933102855e-02,-5.840809207998157171e-02,-8.270926907676223738e-02,-1.070104460735428892e-01,-1.272614269041934809e-01,-1.272614269041934532e-01,-1.272614269041934809e-01,-1.272614269041934532e-01,-1.272614269041934532e-01,-1.272614269041934532e-01,-1.272614269041934532e-01,-1.272614269041934532e-01,-1.272614269041934532e-01,-1.272614269041934532e-01,-1.272614269041934254e-01,-1.272614269041934532e-01,-1.272614269041934532e-01,-1.272614269041934532e-01,-1.272614269041934532e-01,-1.272614269041934809e-01,-1.272614269041934532e-01,-1.272614269041934532e-01,-1.272614269041934532e-01,-1.272614269041934532e-01,-1.272614269041934532e-01,-1.272614269041934532e-01,-1.272614269041934532e-01,-1.272614269041934532e-01,-1.272614269041934532e-01,-1.272614269041934532e-01,-1.272614269041934532e-01,-1.272614269041934532e-01,-1.272614269041934532e-01,-1.272614269041934532e-01,-1.272614269041934532e-01,-1.272614269041934532e-01,-1.272614269041934532e-01,-1.272614269041934532e-01,-2.195632658481059055e-02,2.344850411970063418e-03
2.344850411970063418e-03,2.344850411970063418e-03,2.344850411970063418e-03,2.344850411970063418e-03,2.344850411970063418e-03,2.344850411970063418e-03,2.344850411970063418e-03,2.344850411970063418e-03,2.344850411970063418e-03,2.344850411970063418e-03,2.344850411970063418e-03,-1.705345754160046082e-03,-2.600652275094070265e-02,-5.030769974772135444e-02,-7.460887674450202012e-02,-9.891005374128267191e-02,-1.191610345719332220e-01,-1.272614269041934532e-01,-1.272614269041934532e-01,-1.272614269041934532e-01,-1.272614269041934532e-01,-1.272614269041934532e-01,-1.272614269041934809e-01,-1.272614269041934532e-01,-1.272614269041934532e-01,-1.272614269041934532e-01,-1.272614269041934532e-01,-1.272614269041934532e-01,-1.272614269041934532e-01,-1.272614269041934532e-01,-1.272614269041934532e-01,-1.272614269041934532e-01,-1.272614269041934254e-01,-1.272614269041934532e-01,-1.272614269041934532e-01,-1.272614269041934532e-01,-1.272614269041934532e-01,-1.272614269041934809e-01,-1.272614269041934532e-01,-1.272614269041934532e-01,-1.272614269041934532e-01,-1.272614269041934532e-01,-1.272614269041934532e-01,-1.272614269041934532e-01,-1.272614269041934532e-01,2.344850411970063418e-03,2.344850411970063418e-03
2.344850411970063418e-03,2.344850411970063418e-03,2.344850411970063418e-03,2.344850411970063418e-03,2.344850411970063418e-03,2.344850411970063418e-03,2.344850411970063418e-03,2.344850411970063418e-03,2.344850411970063418e-03,2.344850411970063418e-03,2.344850411970063418e-03,2.344850411970063418e-03,2.344850411970063418e-03,2.344850411970063418e-03,2.344850411970063418e-03,2.344850411970063418e-03,2.344850411970063418e-03,-1.790613041868048191e-02,-3.815711124933102855e-02,-6.245828824611168728e-02,-8.675946524289233908e-02,-1.110606422396730047e-01,-1.272614269041934532e-01,-1.272614269041934532e-01,-1.272614269041934254e-01,-1.272614269041934532e-01,-1.272614269041934532e-01,-1.272614269041934532e-01,-1.272614269041934532e-01,-1.272614269041934532e-01,-1.272614269041934532e-01,-1.272614269041934532e-01,-1.272614269041934532e-01,-1.272614269041934809e-01,-1.272614269041934532e-01,-1.272614269041934532e-01,-1.272614269041934532e-01,-1.272614269041934532e-01,-1.272614269041934532e-01,-1.272614269041934532e-01,-1.272614269041934532e-01,-1.272614269041934532e-01,-1.272614269041934532e-01,-1.272614269041934254e-01,-1.029602499074127875e-01,2.344850411970063418e-03,2.344850411970063418e-03
2.344850411970063418e-03,2.344850411970063418e-03,2.344850411970063418e-03,2.344850411970063418e-03,2.344850411970063418e-03,2.344850411970063418e-03,2.344850411970063418e-03,2.344850411970063418e-03,2.344850411970063418e-03,2.344850411970063418e-03,2.344850411970063418e-03,2.344850411970063418e-03,2.344850411970063418e-03,2.344850411970063418e-03,2.344850411970063418e-03,2.344850411970063418e-03,2.344850411970063418e-03,2.344850411970063418e-03,2.344850411970063418e-03,2.344850411970063418e-03,2.344850411970063418e-03,2.344850411970063418e-03,-5.755541920290156016e-03,-3.005671891707081128e-02,-5.435789591385147002e-02,-7.865907291063212181e-02,-9.891005374128265804e-02,-1.232112307380633515e-01,-1.272614269041934532e-01,-1.272614269041934532e-01,-1.272614269041934532e-01,-1.272614269041934532e-01,-1.272614269041934532e-01,-1.272614269041934532e-01,-1.272614269041934532e-01,-1.272614269041934254e-01,-1.272614269041934532e-01,-1.272614269041934532e-01,-1.272614269041934532e-01,-1.272614269041934532e-01,-1.272614269041934532e-01,-1.272614269041934532e-01,-1.272614269041934532e-01,-1.272614269041934532e-01,-7.865907291063212181e-02,2.344850411970063418e-03,2.344850411970063418e-03
2.344850411970063418e-03,2.344850411970063418e-03,2.344850411970063418e-03,2.344850411970063418e-03,2.344850411970063418e-03,2.344850411970063418e-03,2.344850411970063418e-03,2.344850411970063418e-03,2.344850411970063418e-03,2.344850411970063418e-03,2.344850411970063418e-03,2.344850411970063418e-03,2.344850411970063418e-03,2.344850411970063418e-03,2.344850411970063418e-03,2.344850411970063418e-03,2.344850411970063418e-03,2.344850411970063418e-03,2.344850411970063418e-03,2.344850411970063418e-03,2.344850411970063418e-03,2.344850411970063418e-03,2.344850411970063418e-03,2.344850411970063418e-03,2.344850411970063418e-03,2.344850411970063418e-03,2.344850411970063418e-03,2.344850411970063418e-03,-1.790613041868048191e-02,-4.220730741546113718e-02,-6.650848441224178897e-02,-9.080966140902245465e-02,-1.151108384058031064e-01,-1.272614269041934532e-01,-1.272614269041934532e-01,-1.272614269041934532e-01,-1.272614269041934532e-01,-1.272614269041934532e-01,-1.272614269041934809e-01,-1.272614269041934532e-01,-1.272614269041934532e-01,-1.272614269041934532e-01,-1.272614269041934532e-01,-1.272614269041934532e-01,-5.435789591385147002e-02,2.344850411970063418e-03,2.344850411970063418e-03
2.344850411970063418e-03,2.344850411970063418e-03,2.344850411970063418e-03,2.344850411970063418e-03,2.344850411970063418e-03,2.344850411970063418e-03,2.344850411970063418e-03,2.344850411970063418e-03,2.344850411970063418e-03,2.344850411970063418e-03,2.344850411970063418e-03,2.344850411970063418e-03,2.344850411970063418e-03,2.344850411970063418e-03,2.344850411970063418e-03,2.344850411970063418e-03,2.344850411970063418e-03,2.344850411970063418e-03,2.344850411970063418e-03,2.344850411970063418e-03,2.344850411970063418e-03,2.344850411970063418e-03,2.344850411970063418e-03,2.344850411970063418e-03,2.344850411970063418e-03,2.344850411970063418e-03,2.344850411970063418e-03,2.344850411970063418e-03,2.344850411970063418e-03,2.344850411970063418e-03,2.344850411970063418e-03,2.344850411970063418e-03,2.344850411970063418e-03,-9.805738086420264649e-03,-3.410691508320091991e-02,-5.435789591385147002e-02,-7.865907291063212181e-02,-1.029602499074127736e-01,-1.272614269041934532e-01,-1.272614269041934532e-01,-1.272614269041934254e-01,-1.272614269041934532e-01,-1.272614269041934532e-01,-1.272614269041934532e-01,-3.410691508320091991e-02,2.344850411970063418e-03,2.344850411970063418e-03
2.344850411970063418e-03,2.344850411970063418e-03,2.344850411970063418e-03,2.344850411970063418e-03,2.344850411970063418e-03,2.344850411970063418e-03,2.344850411970063418e-03,2.344850411970063418e-03,2.344850411970063418e-03,2.344850411970063418e-03,2.344850411970063418e-03,2.344850411970063418e-03,2.344850411970063418e-03,2.344850411970063418e-03,2.344850411970063418e-03,2.344850411970063418e-03,2.344850411970063418e-03,2.344850411970063418e-03,2.344850411970063418e-03,2.344850411970063418e-03,2.344850411970063418e-03,2.344850411970063418e-03,2.344850411970063418e-03,2.344850411970063418e-03,2.344850411970063418e-03,2.344850411970063418e-03,2.344850411970063418e-03,2.344850411970063418e-03,2.344850411970063418e-03,2.344850411970063418e-03,2.344850411970063418e-03,2.344850411970063418e-03,2.344850411970063418e-03,2.344850411970063418e-03,2.344850411970063418e-03,2.344850411970063418e-03,2.344850411970063418e-03,2.344850411970063418e-03,2.344850411970063418e-03,-2.195632658481059402e-02,-4.625750358159125275e-02,-7.055868057837190455e-02,-9.485985757515255634e-02,-1.151108384058031064e-01,-9.805738086420264649e-03,2.344850411970063418e-03,2.344850411970063418e-03
2.344850411970063418e-03,2.344850411970063418e-03,2.344850411970063418e-03,2.344850411970063418e-03,2.344850411970063418e-03,2.344850411970063418e-03,2.344850411970063418e-03,2.344850411970063418e-03,2.344850411970063418e-03,2.344850411970063418e-03,2.344850411970063418e-03,2.344850411970063418e-03,2.344850411970063418e-03,2.344850411970063418e-03,2.344850411970063418e-03,2.344850411970063418e-03,2.344850411970063418e-03,2.344850411970063418e-03,2.344850411970063418e-03,2.344850411970063418e-03,2.344850411970063418e-03,2.344850411970063418e-03,2.344850411970063418e-03,2.344850411970063418e-03,2.344850411970063418e-03,2.344850411970063418e-03,2.344850411970063418e-03,2.344850411970063418e-03,2.344850411970063418e-03,2.344850411970063418e-03,2.344850411970063418e-03,2.344850411970063418e-03,2.344850411970063418e-03,2.344850411970063418e-03,2.344850411970063418e-03,2.344850411970063418e-03,2.344850411970063418e-03,2.344850411970063418e-03,2.344850411970063418e-03,2.344850411970063418e-03,2.344850411970063418e-03,2.344850411970063418e-03,2.344850411970063418e-03,2.344850411970063418e-03,2.344850411970063418e-03,2.344850411970063418e-03,2.344850411970063418e-03
2.344850411970063418e-03,2.344850411970063418e-03,2.344850411970063418e-03,2.344850411970063418e-03,2.344850411970063418e-03,2.344850411970063418e-03,2.344850411970063418e-03,2.344850411970063418e-03,2.344850411970063418e-03,2.344850411970063418e-03,2.344850411970063418e-03,2.344850411970063418e-03,2.344850411970063418e-03,2.344850411970063418e-03,2.344850411970063418e-03,2.344850411970063418e-03,2.344850411970063418e-03,2.344850411970063418e-03,2.344850411970063418e-03,2.344850411970063418e-03,2.344850411970063418e-03,2.344850411970063418e-03,2.344850411970063418e-03,2.344850411970063418e-03,2.344850411970063418e-03,2.344850411970063418e-03,2.344850411970063418e-03,2.344850411970063418e-03,2.344850411970063418e-03,2.344850411970063418e-03,2.344850411970063418e-03,2.344850411970063418e-03,2.344850411970063418e-03,2.344850411970063418e-03,2.344850411970063418e-03,2.344850411970063418e-03,2.344850411970063418e-03,2.344850411970063418e-03,2.344850411970063418e-03,2.344850411970063418e-03,2.344850411970063418e-03,2.344850411970063418e-03,2.344850411970063418e-03,2.344850411970063418e-03,2.344850411970063418e-03,2.344850411970063418e-03,2.344850411970063418e-03
2.344850411970063418e-03,2.344850411970063418e-03,2.344850411970063418e-03,2.344850411970063418e-03,2.344850411970063418e-03,2.344850411970063418e-03,2.344850411970063418e-03,2.344850411970063418e-03,2.344850411970063418e-03,2.344850411970063418e-03,2.344850411970063418e-03,2.344850411970063418e-03,2.344850411970063418e-03,2.344850411970063418e-03,2.344850411970063418e-03,2.344850411970063418e-03,2.344850411970063418e-03,2.344850411970063418e-03,2.344850411970063418e-03,2.344850411970063418e-03,2.344850411970063418e-03,2.344850411970063418e-03,2.344850411970063418e-03,2.344850411970063418e-03,2.344850411970063418e-03,2.344850411970063418e-03,2.344850411970063418e-03,2.344850411970063418e-03,2.344850411970063418e-03,2.344850411970063418e-03,2.344850411970063418e-03,2.344850411970063418e-03,2.344850411970063418e-03,2.344850411970063418e-03,2.344850411970063418e-03,2.344850411970063418e-03,2.344850411970063418e-03,2.344850411970063418e-03,2.344850411970063418e-03,2.344850411970063418e-03,2.344850411970063418e-03,2.344850411970063418e-03,2.344850411970063418e-03,2.344850411970063418e-03,2.344850411970063418e-03,2.344850411970063418e-03,2.344850411970063418e-03
2.344850411970063418e-03,2.344850411970063418e-03,2.344850411970063418e-03,2.344850411970063418e-03,2.344850411970063418e-03,2.344850411970063418e-03,2.344850411970063418e-03,2.344850411970063418e-03,2.344850411970063418e-03,2.344850411970063418e-03,2.344850411970063418e-03,2.344850411970063418e-03,2.344850411970063418e-03,2.344850411970063418e-03,2.344850411970063418e-03,2.344850411970063418e-03,2.344850411970063418e-03,2.344850411970063418e-03,2.344850411970063418e-03,2.344850411970063418e-03,2.344850411970063418e-03,2.344850411970063418e-03,2.344850411970063418e-03,2.344850411970063418e-03,2.344850411970063418e-03,2.344850411970063418e-03,2.344850411970063418e-03,2.344850411970063418e-03,2.344850411970063418e-03,2.344850411970063418e-03,2.344850411970063418e-03,2.344850411970063418e-03,2.344850411970063418e-03,2.344850411970063418e-03,2.344850411970063418e-03,2.344850411970063418e-03,2.344850411970063418e-03,2.344850411970063418e-03,2.344850411970063418e-03,2.344850411970063418e-03,2.344850411970063418e-03,2.344850411970063418e-03,2.344850411970063418e-03,2.344850411970063418e-03,2.344850411970063418e-03,2.344850411970063418e-03,2.344850411970063418e-03
2.344850411970063418e-03,2.344850411970063418e-03,2.344850411970063418e-03,2.344850411970063418e-03,2.344850411970063418e-03,2.344850411970063418e-03,2.344850411970063418e-03,2.344850411970063418e-03,2.344850411970063418e-03,2.344850411970063418e-03,2.344850411970063418e-03,2.344850411970063418e-03,2.344850411970063418e-03,2.344850411970063418e-03,2.344850411970063418e-03,2.344850411970063418e-03,2.344850411970063418e-03,2.344850411970063418e-03,2.344850411970063418e-03,2.344850411970063418e-03,2.344850411970063418e-03,2.344850411970063418e-03,2.344850411970063418e-03,2.344850411970063418e-03,2.344850411970063418e-03,2.344850411970063418e-03,2.344850411970063418e-03,2.344850411970063418e-03,2.344850411970063418e-03,2.344850411970063418e-03,2.344850411970063418e-03,2.344850411970063418e-03,2.344850411970063418e-03,2.344850411970063418e-03,2.344850411970063418e-03,2.344850411970063418e-03,2.344850411970063418e-03,2.344850411970063418e-03,2.344850411970063418e-03,2.344850411970063418e-03,2.344850411970063418e-03,2.344850411970063418e-03,2.344850411970063418e-03,2.344850411970063418e-03,2.344850411970063418e-03,2.344850411970063418e-03,2.344850411970063418e-03
