0.000000000000000000e+00,0.000000000000000000e+00,0.000000000000000000e+00,0.000000000000000000e+00,0.000000000000000000e+00,0.000000000000000000e+00,0.000000000000000000e+00,0.000000000000000000e+00,0.000000000000000000e+00,0.000000000000000000e+00,0.000000000000000000e+00,0.000000000000000000e+00,0.000000000000000000e+00,0.000000000000000000e+00,0.000000000000000000e+00,0.000000000000000000e+00,0.000000000000000000e+00,0.000000000000000000e+00,0.000000000000000000e+00,0.000000000000000000e+00,0.000000000000000000e+00,0.000000000000000000e+00,0.000000000000000000e+00,0.000000000000000000e+00,0.000000000000000000e+00,0.000000000000000000e+00,0.000000000000000000e+00,0.000000000000000000e+00,0.000000000000000000e+00,0.000000000000000000e+00,0.000000000000000000e+00,0.000000000000000000e+00,0.000000000000000000e+00,0.000000000000000000e+00,0.000000000000000000e+00,0.000000000000000000e+00,0.000000000000000000e+00,0.000000000000000000e+00,0.000000000000000000e+00,0.000000000000000000e+00,0.000000000000000000e+00,0.000000000000000000e+00,0.000000000000000000e+00,0.000000000000000000e+00,0.000000000000000000e+00,0.000000000000000000e+00,0.000000000000000000e+00
0.000000000000000000e+00,0.000000000000000000e+00,0.000000000000000000e+00,0.000000000000000000e+00,0.000000000000000000e+00,0.000000000000000000e+00,0.000000000000000000e+00,0.000000000000000000e+00,0.000000000000000000e+00,0.000000000000000000e+00,0.000000000000000000e+00,0.000000000000000000e+00,0.000000000000000000e+00,0.000000000000000000e+00,0.000000000000000000e+00,0.000000000000000000e+00,0.000000000000000000e+00,0.000000000000000000e+00,0.000000000000000000e+00,0.000000000000000000e+00,0.000000000000000000e+00,0.000000000000000000e+00,0.000000000000000000e+00,0.000000000000000000e+00,0.000000000000000000e+00,0.000000000000000000e+00,0.000000000000000000e+00,0.000000000000000000e+00,0.000000000000000000e+00,0.000000000000000000e+00,0.000000000000000000e+00,0.000000000000000000e+00,0.000000000000000000e+00,0.000000000000000000e+00,0.000000000000000000e+00,0.000000000000000000e+00,0.000000000000000000e+00,0.000000000000000000e+00,0.000000000000000000e+00,0.000000000000000000e+00,0.000000000000000000e+00,0.000000000000000000e+00,0.000000000000000000e+00,0.000000000000000000e+00,0.000000000000000000e+00,0.000000000000000000e+00,0.000000000000000000e+00
0.000000000000000000e+00,0.000000000000000000e+00,0.000000000000000000e+00,0.000000000000000000e+00,0.000000000000000000e+00,0.000000000000000000e+00,0.000000000000000000e+00,0.000000000000000000e+00,0.000000000000000000e+00,0.000000000000000000e+00,0.000000000000000000e+00,0.000000000000000000e+00,0.000000000000000000e+00,0.000000000000000000e+00,0.000000000000000000e+00,0.000000000000000000e+00,0.000000000000000000e+00,0.000000000000000000e+00,0.000000000000000000e+00,0.000000000000000000e+00,0.000000000000000000e+00,0.000000000000000000e+00,0.000000000000000000e+00,0.000000000000000000e+00,0.000000000000000000e+00,0.000000000000000000e+00,0.000000000000000000e+00,0.000000000000000000e+00,0.000000000000000000e+00,0.000000000000000000e+00,0.000000000000000000e+00,0.000000000000000000e+00,0.000000000000000000e+00,0.000000000000000000e+00,0.000000000000000000e+00,0.000000000000000000e+00,0.000000000000000000e+00,0.000000000000000000e+00,0.000000000000000000e+00,0.000000000000000000e+00,0.000000000000000000e+00,0.000000000000000000e+00,0.000000000000000000e+00,0.000000000000000000e+00,0.000000000000000000e+00,0.000000000000000000e+00,0.000000000000000000e+00
0.000000000000000000e+00,0.000000000000000000e+00,0.000000000000000000e+00,0.000000000000000000e+00,0.000000000000000000e+00,0.000000000000000000e+00,-2.398789442825124130e-01,-2.398789442825124130e-01,-2.398789442825124130e-01,0.000000000000000000e+00,0.000000000000000000e+00,0.000000000000000000e+00,0.000000000000000000e+00,-1.106193197663537936e-01,-1.106193197663537936e-01,-1.106193197663537936e-01,-1.106193197663537936e-01,-1.106193197663537936e-01,0.000000000000000000e+00,0.000000000000000000e+00,0.000000000000000000e+00,0.000000000000000000e+00,0.000000000000000000e+00,0.000000000000000000e+00,0.000000000000000000e+00,0.000000000000000000e+00,0.000000000000000000e+00,0.000000000000000000e+00,0.000000000000000000e+00,0.000000000000000000e+00,0.000000000000000000e+00,0.000000000000000000e+00,0.000000000000000000e+00,0.000000000000000000e+00,0.000000000000000000e+00,0.000000000000000000e+00,0.000000000000000000e+00,0.000000000000000000e+00,0.000000000000000000e+00,0.000000000000000000e+00,0.000000000000000000e+00,0.000000000000000000e+00,0.000000000000000000e+00,0.000000000000000000e+00,0.000000000000000000e+00,0.000000000000000000e+00,0.000000000000000000e+00
0.000000000000000000e+00,0.000000000000000000e+00,0.000000000000000000e+00,0.000000000000000000e+00,0.000000000000000000e+00,0.000000000000000000e+00,-2.398789442825124130e-01,-2.398789442825124130e-01,-2.398789442825124130e-01,0.000000000000000000e+00,0.000000000000000000e+00,0.000000000000000000e+00,0.000000000000000000e+00,-1.106193197663537936e-01,-1.106193197663537936e-01,-1.106193197663537936e-01,-1.106193197663537936e-01,-1.106193197663537936e-01,0.000000000000000000e+00,0.000000000000000000e+00,0.000000000000000000e+00,0.000000000000000000e+00,0.000000000000000000e+00,0.000000000000000000e+00,0.000000000000000000e+00,0.000000000000000000e+00,0.000000000000000000e+00,0.000000000000000000e+00,0.000000000000000000e+00,0.000000000000000000e+00,0.000000000000000000e+00,0.000000000000000000e+00,0.000000000000000000e+00,0.000000000000000000e+00,0.000000000000000000e+00,0.000000000000000000e+00,0.000000000000000000e+00,0.000000000000000000e+00,0.000000000000000000e+00,0.000000000000000000e+00,0.000000000000000000e+00,0.000000000000000000e+00,0.000000000000000000e+00,0.000000000000000000e+00,0.000000000000000000e+00,0.000000000000000000e+00,0.000000000000000000e+00
0.000000000000000000e+00,0.000000000000000000e+00,0.000000000000000000e+00,0.000000000000000000e+00,0.000000000000000000e+00,0.000000000000000000e+00,-2.398789442825124130e-01,-2.398789442825124130e-01,-2.398789442825124130e-01,0.000000000000000000e+00,0.000000000000000000e+00,0.000000000000000000e+00,0.000000000000000000e+00,-1.106193197663537936e-01,-1.106193197663537936e-01,-1.106193197663537936e-01,-1.106193197663537936e-01,-1.106193197663537936e-01,0.000000000000000000e+00,0.000000000000000000e+00,0.000000000000000000e+00,0.000000000000000000e+00,0.000000000000000000e+00,0.000000000000000000e+00,0.000000000000000000e+00,0.000000000000000000e+00,0.000000000000000000e+00,0.000000000000000000e+00,0.000000000000000000e+00,0.000000000000000000e+00,0.000000000000000000e+00,0.000000000000000000e+00,0.000000000000000000e+00,0.000000000000000000e+00,0.000000000000000000e+00,0.000000000000000000e+00,0.000000000000000000e+00,0.000000000000000000e+00,0.000000000000000000e+00,0.000000000000000000e+00,0.000000000000000000e+00,0.000000000000000000e+00,0.000000000000000000e+00,0.000000000000000000e+00,0.000000000000000000e+00,0.000000000000000000e+00,0.000000000000000000e+00
0.000000000000000000e+00,0.000000000000000000e+00,0.000000000000000000e+00,0.000000000000000000e+00,0.000000000000000000e+00,0.000000000000000000e+00,0.000000000000000000e+00,0.000000000000000000e+00,0.000000000000000000e+00,0.000000000000000000e+00,0.000000000000000000e+00,0.000000000000000000e+00,0.000000000000000000e+00,-1.106193197663537936e-01,-1.106193197663537936e-01,-1.106193197663537936e-01,-1.106193197663537936e-01,-1.106193197663537936e-01,0.000000000000000000e+00,0.000000000000000000e+00,0.000000000000000000e+00,0.000000000000000000e+00,0.000000000000000000e+00,0.000000000000000000e+00,0.000000000000000000e+00,0.000000000000000000e+00,0.000000000000000000e+00,0.000000000000000000e+00,0.000000000000000000e+00,0.000000000000000000e+00,0.000000000000000000e+00,0.000000000000000000e+00,0.000000000000000000e+00,0.000000000000000000e+00,0.000000000000000000e+00,0.000000000000000000e+00,0.000000000000000000e+00,0.000000000000000000e+00,0.000000000000000000e+00,0.000000000000000000e+00,0.000000000000000000e+00,0.000000000000000000e+00,0.000000000000000000e+00,0.000000000000000000e+00,0.000000000000000000e+00,0.000000000000000000e+00,0.000000000000000000e+00
0.000000000000000000e+00,0.000000000000000000e+00,0.000000000000000000e+00,0.000000000000000000e+00,0.000000000000000000e+00,0.000000000000000000e+00,0.000000000000000000e+00,0.000000000000000000e+00,0.000000000000000000e+00,0.000000000000000000e+00,0.000000000000000000e+00,0.000000000000000000e+00,0.000000000000000000e+00,-1.106193197663537936e-01,-1.106193197663537936e-01,-1.106193197663537936e-01,-1.106193197663537936e-01,-1.106193197663537936e-01,0.000000000000000000e+00,0.000000000000000000e+00,0.000000000000000000e+00,0.000000000000000000e+00,0.000000000000000000e+00,0.000000000000000000e+00,0.000000000000000000e+00,0.000000000000000000e+00,0.000000000000000000e+00,0.000000000000000000e+00,0.000000000000000000e+00,0.000000000000000000e+00,0.000000000000000000e+00,0.000000000000000000e+00,0.000000000000000000e+00,0.000000000000000000e+00,-2.312873821137260977e-01,-2.312873821137260977e-01,-2.312873821137260977e-01,-2.312873821137260977e-01,0.000000000000000000e+00,0.000000000000000000e+00,0.000000000000000000e+00,0.000000000000000000e+00,0.000000000000000000e+00,0.000000000000000000e+00,0.000000000000000000e+00,0.000000000000000000e+00,0.000000000000000000e+00
0.000000000000000000e+00,0.000000000000000000e+00,0.000000000000000000e+00,0.000000000000000000e+00,0.000000000000000000e+00,0.000000000000000000e+00,0.000000000000000000e+00,0.000000000000000000e+00,0.000000000000000000e+00,0.000000000000000000e+00,0.000000000000000000e+00,0.000000000000000000e+00,0.000000000000000000e+00,0.000000000000000000e+00,0.000000000000000000e+00,0.000000000000000000e+00,0.000000000000000000e+00,0.000000000000000000e+00,0.000000000000000000e+00,0.000000000000000000e+00,0.000000000000000000e+00,0.000000000000000000e+00,0.000000000000000000e+00,0.000000000000000000e+00,0.000000000000000000e+00,0.000000000000000000e+00,0.000000000000000000e+00,0.000000000000000000e+00,0.000000000000000000e+00,0.000000000000000000e+00,0.000000000000000000e+00,0.000000000000000000e+00,0.000000000000000000e+00,0.000000000000000000e+00,-2.312873821137260977e-01,-2.312873821137260977e-01,-2.312873821137260977e-01,-2.312873821137260977e-01,0.000000000000000000e+00,0.000000000000000000e+00,0.000000000000000000e+00,0.000000000000000000e+00,0.000000000000000000e+00,0.000000000000000000e+00,0.000000000000000000e+00,0.000000000000000000e+00,0.000000000000000000e+00
0.000000000000000000e+00,0.000000000000000000e+00,0.000000000000000000e+00,0.000000000000000000e+00,0.000000000000000000e+00,0.000000000000000000e+00,0.000000000000000000e+00,0.000000000000000000e+00,0.000000000000000000e+00,0.000000000000000000e+00,0.000000000000000000e+00,0.000000000000000000e+00,0.000000000000000000e+00,0.000000000000000000e+00,0.000000000000000000e+00,0.000000000000000000e+00,0.000000000000000000e+00,0.000000000000000000e+00,0.000000000000000000e+00,0.000000000000000000e+00,0.000000000000000000e+00,0.000000000000000000e+00,0.000000000000000000e+00,0.000000000000000000e+00,0.000000000000000000e+00,0.000000000000000000e+00,0.000000000000000000e+00,0.000000000000000000e+00,0.000000000000000000e+00,0.000000000000000000e+00,0.000000000000000000e+00,0.000000000000000000e+00,0.000000000000000000e+00,0.000000000000000000e+00,-2.312873821137260977e-01,-2.312873821137260977e-01,-2.312873821137260977e-01,-2.312873821137260977e-01,0.000000000000000000e+00,0.000000000000000000e+00,0.000000000000000000e+00,0.000000000000000000e+00,0.000000000000000000e+00,0.000000000000000000e+00,0.000000000000000000e+00,0.000000000000000000e+00,0.000000000000000000e+00
0.000000000000000000e+00,0.000000000000000000e+00,0.000000000000000000e+00,0.000000000000000000e+00,0.000000000000000000e+00,0.000000000000000000e+00,0.000000000000000000e+00,0.000000000000000000e+00,0.000000000000000000e+00,0.000000000000000000e+00,0.000000000000000000e+00,0.000000000000000000e+00,0.000000000000000000e+00,0.000000000000000000e+00,0.000000000000000000e+00,0.000000000000000000e+00,0.000000000000000000e+00,0.000000000000000000e+00,0.000000000000000000e+00,0.000000000000000000e+00,0.000000000000000000e+00,0.000000000000000000e+00,0.000000000000000000e+00,0.000000000000000000e+00,0.000000000000000000e+00,0.000000000000000000e+00,0.000000000000000000e+00,0.000000000000000000e+00,0.000000000000000000e+00,0.000000000000000000e+00,0.000000000000000000e+00,0.000000000000000000e+00,0.000000000000000000e+00,0.000000000000000000e+00,-2.312873821137260977e-01,-2.312873821137260977e-01,-2.312873821137260977e-01,-2.312873821137260977e-01,0.000000000000000000e+00,0.000000000000000000e+00,0.000000000000000000e+00,0.000000000000000000e+00,0.000000000000000000e+00,0.000000000000000000e+00,0.000000000000000000e+00,0.000000000000000000e+00,0.000000000000000000e+00
0.000000000000000000e+00,0.000000000000000000e+00,0.000000000000000000e+00,0.000000000000000000e+00,0.000000000000000000e+00,0.000000000000000000e+00,0.000000000000000000e+00,0.000000000000000000e+00,0.000000000000000000e+00,0.000000000000000000e+00,0.000000000000000000e+00,0.000000000000000000e+00,0.000000000000000000e+00,0.000000000000000000e+00,0.000000000000000000e+00,0.000000000000000000e+00,0.000000000000000000e+00,0.000000000000000000e+00,0.000000000000000000e+00,0.000000000000000000e+00,0.000000000000000000e+00,0.000000000000000000e+00,0.000000000000000000e+00,0.000000000000000000e+00,0.000000000000000000e+00,0.000000000000000000e+00,0.000000000000000000e+00,0.000000000000000000e+00,0.000000000000000000e+00,0.000000000000000000e+00,0.000000000000000000e+00,0.000000000000000000e+00,0.000000000000000000e+00,0.000000000000000000e+00,0.000000000000000000e+00,0.000000000000000000e+00,0.000000000000000000e+00,0.000000000000000000e+00,0.000000000000000000e+00,0.000000000000000000e+00,0.000000000000000000e+00,0.000000000000000000e+00,0.000000000000000000e+00,0.000000000000000000e+00,0.000000000000000000e+00,0.000000000000000000e+00,0.000000000000000000e+00
0.000000000000000000e+00,0.000000000000000000e+00,0.000000000000000000e+00,0.000000000000000000e+00,0.000000000000000000e+00,0.000000000000000000e+00,0.000000000000000000e+00,0.000000000000000000e+00,0.000000000000000000e+00,0.000000000000000000e+00,0.000000000000000000e+00,0.000000000000000000e+00,0.000000000000000000e+00,0.000000000000000000e+00,0.000000000000000000e+00,0.000000000000000000e+00,0.000000000000000000e+00,0.000000000000000000e+00,0.000000000000000000e+00,0.000000000000000000e+00,0.000000000000000000e+00,0.000000000000000000e+00,0.000000000000000000e+00,0.000000000000000000e+00,0.000000000000000000e+00,0.000000000000000000e+00,0.000000000000000000e+00,0.000000000000000000e+00,0.000000000000000000e+00,0.000000000000000000e+00,0.000000000000000000e+00,0.000000000000000000e+00,0.000000000000000000e+00,0.000000000000000000e+00,0.000000000000000000e+00,0.000000000000000000e+00,0.000000000000000000e+00,0.000000000000000000e+00,0.000000000000000000e+00,0.000000000000000000e+00,0.000000000000000000e+00,0.000000000000000000e+00,0.000000000000000000e+00,0.000000000000000000e+00,0.000000000000000000e+00,0.000000000000000000e+00,0.000000000000000000e+00
0.000000000000000000e+00,0.000000000000000000e+00,0.000000000000000000e+00,0.000000000000000000e+00,0.000000000000000000e+00,0.000000000000000000e+00,0.000000000000000000e+00,0.000000000000000000e+00,0.000000000000000000e+00,0.000000000000000000e+00,0.000000000000000000e+00,0.000000000000000000e+00,0.000000000000000000e+00,0.000000000000000000e+00,0.000000000000000000e+00,0.000000000000000000e+00,0.000000000000000000e+00,0.000000000000000000e+00,0.000000000000000000e+00,0.000000000000000000e+00,0.000000000000000000e+00,0.000000000000000000e+00,0.000000000000000000e+00,0.000000000000000000e+00,0.000000000000000000e+00,0.000000000000000000e+00,0.000000000000000000e+00,0.000000000000000000e+00,0.000000000000000000e+00,0.000000000000000000e+00,0.000000000000000000e+00,0.000000000000000000e+00,0.000000000000000000e+00,0.000000000000000000e+00,0.000000000000000000e+00,0.000000000000000000e+00,0.000000000000000000e+00,0.000000000000000000e+00,0.000000000000000000e+00,0.000000000000000000e+00,0.000000000000000000e+00,0.000000000000000000e+00,0.000000000000000000e+00,0.000000000000000000e+00,0.000000000000000000e+00,0.000000000000000000e+00,0.000000000000000000e+00
0.000000000000000000e+00,0.000000000000000000e+00,0.000000000000000000e+00,0.000000000000000000e+00,0.000000000000000000e+00,0.000000000000000000e+00,0.000000000000000000e+00,0.000000000000000000e+00,0.000000000000000000e+00,0.000000000000000000e+00,0.000000000000000000e+00,0.000000000000000000e+00,0.000000000000000000e+00,0.000000000000000000e+00,0.000000000000000000e+00,0.000000000000000000e+00,0.000000000000000000e+00,0.000000000000000000e+00,0.000000000000000000e+00,0.000000000000000000e+00,0.000000000000000000e+00,0.000000000000000000e+00,0.000000000000000000e+00,0.000000000000000000e+00,0.000000000000000000e+00,0.000000000000000000e+00,0.000000000000000000e+00,0.000000000000000000e+00,0.000000000000000000e+00,0.000000000000000000e+00,0.000000000000000000e+00,0.000000000000000000e+00,0.000000000000000000e+00,0.000000000000000000e+00,0.000000000000000000e+00,0.000000000000000000e+00,0.000000000000000000e+00,0.000000000000000000e+00,0.000000000000000000e+00,0.000000000000000000e+00,0.000000000000000000e+00,0.000000000000000000e+00,0.000000000000000000e+00,0.000000000000000000e+00,0.000000000000000000e+00,0.000000000000000000e+00,0.000000000000000000e+00
0.000000000000000000e+00,0.000000000000000000e+00,0.000000000000000000e+00,0.000000000000000000e+00,0.000000000000000000e+00,0.000000000000000000e+00,0.000000000000000000e+00,0.000000000000000000e+00,0.000000000000000000e+00,0.000000000000000000e+00,0.000000000000000000e+00,0.000000000000000000e+00,0.000000000000000000e+00,0.000000000000000000e+00,0.000000000000000000e+00,0.000000000000000000e+00,0.000000000000000000e+00,0.000000000000000000e+00,0.000000000000000000e+00,0.000000000000000000e+00,0.000000000000000000e+00,0.000000000000000000e+00,0.000000000000000000e+00,0.000000000000000000e+00,0.000000000000000000e+00,0.000000000000000000e+00,0.000000000000000000e+00,0.000000000000000000e+00,0.000000000000000000e+00,0.000000000000000000e+00,0.000000000000000000e+00,0.000000000000000000e+00,0.000000000000000000e+00,0.000000000000000000e+00,0.000000000000000000e+00,0.000000000000000000e+00,0.000000000000000000e+00,0.000000000000000000e+00,0.000000000000000000e+00,0.000000000000000000e+00,0.000000000000000000e+00,0.000000000000000000e+00,0.000000000000000000e+00,0.000000000000000000e+00,0.000000000000000000e+00,0.000000000000000000e+00,0.000000000000000000e+00
0.000000000000000000e+00,0.000000000000000000e+00,0.000000000000000000e+00,0.000000000000000000e+00,0.000000000000000000e+00,0.000000000000000000e+00,0.000000000000000000e+00,0.000000000000000000e+00,0.000000000000000000e+00,0.000000000000000000e+00,0.000000000000000000e+00,0.000000000000000000e+00,0.000000000000000000e+00,0.000000000000000000e+00,0.000000000000000000e+00,0.000000000000000000e+00,0.000000000000000000e+00,0.000000000000000000e+00,0.000000000000000000e+00,0.000000000000000000e+00,0.000000000000000000e+00,0.000000000000000000e+00,0.000000000000000000e+00,0.000000000000000000e+00,0.000000000000000000e+00,0.000000000000000000e+00,0.000000000000000000e+00,0.000000000000000000e+00,0.000000000000000000e+00,0.000000000000000000e+00,0.000000000000000000e+00,0.000000000000000000e+00,0.000000000000000000e+00,0.000000000000000000e+00,0.000000000000000000e+00,0.000000000000000000e+00,0.000000000000000000e+00,0.000000000000000000e+00,0.000000000000000000e+00,0.000000000000000000e+00,0.000000000000000000e+00,0.000000000000000000e+00,0.000000000000000000e+00,0.000000000000000000e+00,0.000000000000000000e+00,0.000000000000000000e+00,0.000000000000000000e+00
0.000000000000000000e+00,0.000000000000000000e+00,0.000000000000000000e+00,0.000000000000000000e+00,0.000000000000000000e+00,0.000000000000000000e+00,0.000000000000000000e+00,0.000000000000000000e+00,0.000000000000000000e+00,0.000000000000000000e+00,0.000000000000000000e+00,0.000000000000000000e+00,0.000000000000000000e+00,0.000000000000000000e+00,0.000000000000000000e+00,0.000000000000000000e+00,0.000000000000000000e+00,0.000000000000000000e+00,0.000000000000000000e+00,0.000000000000000000e+00,0.000000000000000000e+00,0.000000000000000000e+00,0.000000000000000000e+00,0.000000000000000000e+00,0.000000000000000000e+00,0.000000000000000000e+00,0.000000000000000000e+00,0.000000000000000000e+00,0.000000000000000000e+00,0.000000000000000000e+00,0.000000000000000000e+00,0.000000000000000000e+00,0.000000000000000000e+00,0.000000000000000000e+00,0.000000000000000000e+00,0.000000000000000000e+00,0.000000000000000000e+00,0.000000000000000000e+00,0.000000000000000000e+00,0.000000000000000000e+00,0.000000000000000000e+00,0.000000000000000000e+00,0.000000000000000000e+00,0.000000000000000000e+00,0.000000000000000000e+00,0.000000000000000000e+00,0.000000000000000000e+00
-3.594530446654913870e-03,-3.966378423895077464e-03,-3.635846888570487892e-03,-3.635846888570487892e-03,-3.305315353245897887e-03,-2.974783817921308315e-03,-2.974783817921308315e-03,-2.644252282596718309e-03,-2.644252282596718309e-03,-2.313720747272128737e-03,-2.313720747272128737e-03,-1.983189211947538732e-03,-1.983189211947538732e-03,-1.652657676622948943e-03,-1.652657676622948943e-03,-1.322126141298359155e-03,-1.322126141298359155e-03,-9.915946059737693660e-04,-9.915946059737693660e-04,-6.610630706491795773e-04,-6.610630706491795773e-04,-3.305315353245897887e-04,-3.305315353245897887e-04,0.000000000000000000e+00,0.000000000000000000e+00,0.000000000000000000e+00,0.000000000000000000e+00,0.000000000000000000e+00,0.000000000000000000e+00,0.000000000000000000e+00,0.000000000000000000e+00,0.000000000000000000e+00,0.000000000000000000e+00,0.000000000000000000e+00,0.000000000000000000e+00,0.000000000000000000e+00,0.000000000000000000e+00,0.000000000000000000e+00,0.000000000000000000e+00,0.000000000000000000e+00,0.000000000000000000e+00,0.000000000000000000e+00,0.000000000000000000e+00,0.000000000000000000e+00,0.000000000000000000e+00,0.000000000000000000e+00,0.000000000000000000e+00
-1.363442583213932829e-02,-1.454338755428194983e-02,-1.421285601895735939e-02,-1.421285601895735939e-02,-1.388232448363277069e-02,-1.355179294830818199e-02,-1.355179294830818199e-02,-1.322126141298359155e-02,-1.322126141298359155e-02,-1.289072987765900111e-02,-1.289072987765900111e-02,-1.256019834233441240e-02,-1.256019834233441240e-02,-1.222966680700982023e-02,-1.222966680700982023e-02,-1.189913527168523326e-02,-1.189913527168523326e-02,-1.156860373636064282e-02,-1.156860373636064282e-02,-1.123807220103605238e-02,-1.123807220103605238e-02,-1.090754066571146194e-02,-1.090754066571146194e-02,-1.057700913038687324e-02,-1.024647759506228280e-02,-1.024647759506228280e-02,-9.915946059737694093e-03,-9.915946059737694093e-03,-9.585414524413103654e-03,-9.585414524413103654e-03,-9.254882989088514950e-03,-9.254882989088514950e-03,-8.924351453763922776e-03,-8.924351453763922776e-03,-8.593819918439334071e-03,-8.593819918439334071e-03,-8.263288383114745367e-03,-8.263288383114745367e-03,-7.932756847790154928e-03,-7.932756847790154928e-03,-7.602225312465565356e-03,-7.602225312465565356e-03,-7.271693777140974917e-03,-6.941162241816385345e-03,-6.941162241816385345e-03,-6.610630706491795773e-03,-6.610630706491795773e-03
-2.433538428827292446e-02,-2.512039668466882480e-02,-2.478986514934423610e-02,-2.478986514934423610e-02,-2.445933361401964740e-02,-2.412880207869505522e-02,-2.412880207869505522e-02,-2.379827054337046305e-02,-2.379827054337046305e-02,-2.346773900804587434e-02,-2.346773900804587434e-02,-2.313720747272128564e-02,-2.313720747272128564e-02,-2.280667593739669347e-02,-2.280667593739669347e-02,-2.247614440207210823e-02,-2.247614440207210823e-02,-2.214561286674751606e-02,-2.214561286674751606e-02,-2.181508133142292735e-02,-2.181508133142292735e-02,-2.148454979609833518e-02,-2.148454979609833518e-02,-2.115401826077374647e-02,-2.082348672544915430e-02,-2.082348672544915430e-02,-2.049295519012456560e-02,-2.049295519012456560e-02,-2.016242365479997689e-02,-2.016242365479997689e-02,-1.983189211947538819e-02,-1.983189211947538819e-02,-1.950136058415079254e-02,-1.950136058415079254e-02,-1.917082904882620384e-02,-1.917082904882620384e-02,-1.884029751350162207e-02,-1.884029751350162207e-02,-1.850976597817702990e-02,-1.850976597817702990e-02,-1.817923444285244119e-02,-1.817923444285244119e-02,-1.784870290752784902e-02,-1.751817137220325685e-02,-1.751817137220325685e-02,-1.718763983687866814e-02,-1.718763983687866814e-02
-3.458186188333520206e-02,-3.569740581505569804e-02,-3.536687427973110587e-02,-3.536687427973110587e-02,-3.503634274440651369e-02,-3.470581120908192846e-02,-3.470581120908192846e-02,-3.437527967375733629e-02,-3.437527967375733629e-02,-3.404474813843275105e-02,-3.404474813843275105e-02,-3.371421660310815888e-02,-3.371421660310815888e-02,-3.338368506778357364e-02,-3.338368506778357364e-02,-3.305315353245898147e-02,-3.305315353245898147e-02,-3.272262199713438929e-02,-3.272262199713438929e-02,-3.239209046180979712e-02,-3.239209046180979712e-02,-3.206155892648520495e-02,-3.206155892648520495e-02,-3.173102739116061971e-02,-3.140049585583602754e-02,-3.140049585583602754e-02,-3.106996432051143883e-02,-3.106996432051143883e-02,-3.073943278518685360e-02,-3.073943278518685360e-02,-3.040890124986225795e-02,-3.040890124986225795e-02,-3.007836971453766925e-02,-3.007836971453766925e-02,-2.974783817921307708e-02,-2.974783817921307708e-02,-2.941730664388849184e-02,-2.941730664388849184e-02,-2.908677510856390314e-02,-2.908677510856390314e-02,-2.875624357323931443e-02,-2.875624357323931443e-02,-2.842571203791472226e-02,-2.809518050259013355e-02,-2.809518050259013355e-02,-2.776464896726553791e-02,-2.776464896726553791e-02
-4.627441494544257128e-02,-4.627441494544257128e-02,-4.594388341011798604e-02,-4.594388341011798604e-02,-4.561335187479339387e-02,-4.528282033946880170e-02,-4.528282033946880170e-02,-4.495228880414421646e-02,-4.495228880414421646e-02,-4.462175726881962429e-02,-4.462175726881962429e-02,-4.429122573349503211e-02,-4.429122573349503211e-02,-4.396069419817044688e-02,-4.396069419817044688e-02,-4.363016266284584777e-02,-4.363016266284584777e-02,-4.329963112752126253e-02,-4.329963112752126253e-02,-4.296909959219667036e-02,-4.296909959219667036e-02,-4.263856805687208512e-02,-4.263856805687208512e-02,-4.230803652154749295e-02,-4.197750498622290771e-02,-4.197750498622290771e-02,-4.164697345089830860e-02,-4.164697345089830860e-02,-4.131644191557372336e-02,-4.131644191557372336e-02,-4.098591038024913119e-02,-4.098591038024913119e-02,-4.065537884492453902e-02,-4.065537884492453902e-02,-4.032484730959995378e-02,-4.032484730959995378e-02,-3.999431577427536161e-02,-3.999431577427536161e-02,-3.966378423895076943e-02,-3.966378423895076943e-02,-3.933325270362619114e-02,-3.933325270362619114e-02,-3.900272116830159896e-02,-3.867218963297700679e-02,-3.867218963297700679e-02,-3.834165809765242156e-02,-3.834165809765242156e-02
-5.685142407582944452e-02,-5.685142407582944452e-02,-5.652089254050486622e-02,-5.652089254050486622e-02,-5.619036100518026711e-02,-5.585982946985568187e-02,-5.585982946985568187e-02,-5.552929793453109664e-02,-5.552929793453109664e-02,-5.519876639920649752e-02,-5.519876639920649752e-02,-5.486823486388191229e-02,-5.486823486388191229e-02,-5.453770332855732011e-02,-5.453770332855732011e-02,-5.420717179323273488e-02,-5.420717179323273488e-02,-5.387664025790814271e-02,-5.387664025790814271e-02,-5.354610872258355053e-02,-5.354610872258355053e-02,-5.321557718725896530e-02,-5.321557718725896530e-02,-5.288504565193437312e-02,-5.255451411660978789e-02,-5.255451411660978789e-02,-5.222398258128518878e-02,-5.222398258128518878e-02,-5.189345104596060354e-02,-5.189345104596060354e-02,-5.156291951063601831e-02,-5.156291951063601831e-02,-5.123238797531141919e-02,-5.123238797531141919e-02,-5.090185643998683396e-02,-5.090185643998683396e-02,-5.057132490466224872e-02,-5.057132490466224872e-02,-5.024079336933765655e-02,-5.024079336933765655e-02,-4.991026183401306437e-02,-4.991026183401306437e-02,-4.957973029868847220e-02,-4.924919876336388697e-02,-4.924919876336388697e-02,-4.891866722803929479e-02,-4.891866722803929479e-02
-6.742843320621631775e-02,-6.742843320621631775e-02,-6.709790167089173252e-02,-3.116618118781202540e-01,-3.113312803427956688e-01,-3.110007488074710835e-01,-6.643683860024254817e-02,-6.610630706491796293e-02,-6.610630706491796293e-02,-6.577577552959336382e-02,-6.577577552959336382e-02,-6.544524399426877859e-02,-6.544524399426877859e-02,-6.511471245894419335e-02,-6.511471245894419335e-02,-6.478418092361959424e-02,-6.478418092361959424e-02,-6.445364938829500900e-02,-6.445364938829500900e-02,-6.412311785297042377e-02,-6.412311785297042377e-02,-6.379258631764582466e-02,-6.379258631764582466e-02,-6.346205478232123942e-02,-6.313152324699665419e-02,-6.313152324699665419e-02,-6.280099171167205507e-02,-6.280099171167205507e-02,-6.247046017634746984e-02,-6.247046017634746984e-02,-6.213992864102287766e-02,-6.213992864102287766e-02,-6.180939710569828549e-02,-6.180939710569828549e-02,-6.147886557037370026e-02,-6.147886557037370026e-02,-6.114833403504910808e-02,-6.114833403504910808e-02,-6.081780249972451591e-02,-6.081780249972451591e-02,-6.048727096439993761e-02,-6.048727096439993761e-02,-6.015673942907534544e-02,-5.982620789375076020e-02,-5.982620789375076020e-02,-5.949567635842616803e-02,-5.949567635842616803e-02
-7.800544233660319793e-02,-7.800544233660319793e-02,-7.767491080127861269e-02,-3.219082894731825073e-01,-3.219082894731825073e-01,-3.215777579378579221e-01,-7.701384773062942835e-02,-7.668331619530484311e-02,-7.668331619530484311e-02,-7.635278465998024400e-02,-7.635278465998024400e-02,-7.602225312465565876e-02,-7.602225312465565876e-02,-7.569172158933107353e-02,-7.569172158933107353e-02,-7.536119005400648829e-02,-7.536119005400648829e-02,-7.503065851868188918e-02,-7.503065851868188918e-02,-7.470012698335729007e-02,-7.470012698335729007e-02,-7.436959544803270483e-02,-7.403906391270811960e-02,-7.403906391270811960e-02,-7.370853237738352048e-02,-7.370853237738352048e-02,-7.337800084205893525e-02,-7.337800084205893525e-02,-7.304746930673435001e-02,-7.304746930673435001e-02,-7.271693777140976478e-02,-7.271693777140976478e-02,-7.238640623608516567e-02,-7.238640623608516567e-02,-7.205587470076058043e-02,-7.205587470076058043e-02,-7.172534316543599520e-02,-7.172534316543599520e-02,-7.139481163011139608e-02,-7.139481163011139608e-02,-7.106428009478681085e-02,-7.106428009478681085e-02,-7.073374855946221174e-02,-7.040321702413762650e-02,-7.040321702413762650e-02,-7.007268548881304127e-02,-6.788291406728763633e-02
-8.858245146699006423e-02,-8.858245146699006423e-02,-8.825191993166547899e-02,-3.324852986035694014e-01,-3.324852986035694014e-01,-3.321547670682448161e-01,-8.759085686101629464e-02,-8.726032532569170941e-02,-8.726032532569170941e-02,-8.692979379036711030e-02,-8.692979379036711030e-02,-8.659926225504252506e-02,-8.659926225504252506e-02,-8.626873071971792595e-02,-8.626873071971792595e-02,-8.593819918439335459e-02,-8.593819918439335459e-02,-8.560766764906875548e-02,-8.560766764906875548e-02,-8.527713611374417024e-02,-8.527713611374417024e-02,-8.494660457841957113e-02,-8.461607304309498589e-02,-8.461607304309498589e-02,-8.428554150777038678e-02,-8.428554150777038678e-02,-8.395500997244580155e-02,-8.395500997244580155e-02,-8.362447843712120243e-02,-8.362447843712120243e-02,-8.329394690179664495e-02,-8.329394690179664495e-02,-8.296341536647203196e-02,-8.296341536647203196e-02,-8.263288383114744673e-02,-8.263288383114744673e-02,-8.230235229582286149e-02,-8.230235229582286149e-02,-8.197182076049826238e-02,-8.197182076049826238e-02,-8.164128922517367715e-02,-8.164128922517367715e-02,-8.131075768984909191e-02,-8.098022615452450668e-02,-8.098022615452450668e-02,-8.064969461919990756e-02,-7.812939166234991739e-02
-9.915946059737694440e-02,-9.915946059737694440e-02,-9.882892906205235917e-02,-9.849839752672776005e-02,-9.849839752672776005e-02,-9.816786599140317482e-02,-9.816786599140317482e-02,-9.783733445607858958e-02,-9.783733445607858958e-02,-9.750680292075400435e-02,-9.750680292075400435e-02,-9.717627138542940524e-02,-9.717627138542940524e-02,-9.684573985010480612e-02,-9.684573985010480612e-02,-9.651520831478022089e-02,-9.651520831478022089e-02,-9.618467677945563565e-02,-9.618467677945563565e-02,-9.585414524413103654e-02,-9.585414524413103654e-02,-9.552361370880645131e-02,-9.519308217348186607e-02,-9.519308217348186607e-02,-9.486255063815726696e-02,-9.486255063815726696e-02,-9.453201910283268172e-02,-9.453201910283268172e-02,-9.420148756750808261e-02,-9.420148756750808261e-02,-9.387095603218351125e-02,-9.387095603218351125e-02,-9.354042449685891214e-02,-9.354042449685891214e-02,-9.320989296153432691e-02,-9.320989296153432691e-02,-9.287936142620974167e-02,-9.287936142620974167e-02,-9.254882989088514256e-02,-9.254882989088514256e-02,-9.221829835556054344e-02,-9.221829835556054344e-02,-9.188776682023597209e-02,-9.155723528491137297e-02,-9.155723528491137297e-02,-9.122670374958677386e-02,-8.552503476523760917e-02
-1.097364697277638246e-01,-1.097364697277638246e-01,-1.094059381924392393e-01,-1.090754066571146541e-01,-1.090754066571146541e-01,-1.087448751217900411e-01,-1.087448751217900411e-01,-1.084143435864654559e-01,-1.084143435864654559e-01,-1.080838120511408706e-01,-1.080838120511408706e-01,-1.077532805158162854e-01,-1.077532805158162854e-01,-1.074227489804917002e-01,-1.074227489804917002e-01,-1.070922174451671011e-01,-1.070922174451671011e-01,-1.067616859098425158e-01,-1.067616859098425158e-01,-1.064311543745179167e-01,-1.064311543745179167e-01,-1.061006228391933315e-01,-1.057700913038687462e-01,-1.057700913038687462e-01,-1.054395597685441610e-01,-1.054395597685441610e-01,-1.051090282332195619e-01,-1.051090282332195619e-01,-1.047784966978949767e-01,-1.047784966978949767e-01,-1.044479651625703914e-01,-1.044479651625703914e-01,-1.041174336272457923e-01,-1.041174336272457923e-01,-1.037869020919212071e-01,-1.037869020919212071e-01,-1.034563705565966218e-01,-1.034563705565966218e-01,-1.031258390212720089e-01,-1.031258390212720089e-01,-1.027953074859474375e-01,-1.027953074859474375e-01,-1.024647759506228523e-01,-1.021342444152982532e-01,-1.021342444152982532e-01,-1.018037128799736679e-01,-9.225961479747613048e-02
-1.203134788581506909e-01,-1.203134788581506909e-01,-1.199829473228261056e-01,-1.196524157875014926e-01,-1.196524157875014926e-01,-1.193218842521769352e-01,-1.193218842521769352e-01,-1.189913527168523222e-01,-1.189913527168523222e-01,-1.186608211815277369e-01,-1.186608211815277369e-01,-1.183302896462031517e-01,-1.183302896462031517e-01,-1.179997581108785665e-01,-1.179997581108785665e-01,-1.176692265755539674e-01,-1.176692265755539674e-01,-1.173386950402293821e-01,-1.173386950402293821e-01,-1.170081635049047969e-01,-1.170081635049047969e-01,-1.166776319695801978e-01,-1.163471004342556125e-01,-1.163471004342556125e-01,-1.160165688989310134e-01,-1.160165688989310134e-01,-1.156860373636064421e-01,-1.156860373636064421e-01,-1.153555058282818430e-01,-1.153555058282818430e-01,-1.150249742929572577e-01,-1.150249742929572577e-01,-1.146944427576326725e-01,-1.146944427576326725e-01,-1.143639112223080734e-01,-1.143639112223080734e-01,-1.140333796869834743e-01,-1.140333796869834743e-01,-1.137028481516589029e-01,-1.137028481516589029e-01,-1.133723166163343177e-01,-1.133723166163343177e-01,-1.130417850810097186e-01,-1.127112535456851194e-01,-1.127112535456851194e-01,-1.123807220103605481e-01,-1.018450293218892411e-01
-1.308904879885375572e-01,-1.308904879885375572e-01,-1.305599564532129719e-01,-1.302294249178883867e-01,-1.302294249178883867e-01,-1.298988933825637737e-01,-1.298988933825637737e-01,-1.295683618472391885e-01,-1.295683618472391885e-01,-1.292378303119146032e-01,-1.292378303119146032e-01,-1.289072987765900180e-01,-1.289072987765900180e-01,-1.285767672412654328e-01,-1.285767672412654328e-01,-1.282462357059408198e-01,-1.282462357059408198e-01,-1.279157041706162623e-01,-1.279157041706162623e-01,-1.275851726352916493e-01,-1.275851726352916493e-01,-1.272546410999670641e-01,-1.269241095646424788e-01,-1.269241095646424788e-01,-1.265935780293178936e-01,-1.265935780293178936e-01,-1.262630464939933084e-01,-1.262630464939933084e-01,-1.259325149586686954e-01,-1.259325149586686954e-01,-1.256019834233441101e-01,-1.256019834233441101e-01,-1.252714518880195249e-01,-1.252714518880195249e-01,-1.249409203526949536e-01,-1.249409203526949536e-01,-1.246103888173703406e-01,-1.246103888173703406e-01,-1.242798572820457692e-01,-1.242798572820457692e-01,-1.239493257467211562e-01,-1.239493257467211562e-01,-1.236187942113965987e-01,-1.232882626760719857e-01,-1.232882626760719857e-01,-1.229577311407474005e-01,-1.075880147481539789e-01
-1.414674971189244235e-01,-1.414674971189244235e-01,-1.411369655835998382e-01,-1.408064340482752530e-01,-1.408064340482752530e-01,-1.404759025129506678e-01,-1.404759025129506678e-01,-1.401453709776260825e-01,-1.401453709776260825e-01,-1.398148394423014973e-01,-1.398148394423014973e-01,-1.394843079069768843e-01,-1.394843079069768843e-01,-1.391537763716522991e-01,-1.391537763716522991e-01,-1.388232448363277138e-01,-1.388232448363277138e-01,-1.384927133010031286e-01,-1.384927133010031286e-01,-1.381621817656785434e-01,-1.381621817656785434e-01,-1.378316502303539304e-01,-1.375011186950293451e-01,-1.375011186950293451e-01,-1.371705871597047599e-01,-1.371705871597047599e-01,-1.368400556243801469e-01,-1.368400556243801469e-01,-1.365095240890555617e-01,-1.365095240890555617e-01,-1.361789925537309764e-01,-1.361789925537309764e-01,-1.358484610184063912e-01,-1.358484610184063912e-01,-1.355179294830818060e-01,-1.355179294830818060e-01,-1.351873979477571930e-01,-1.351873979477571930e-01,-1.348568664124326355e-01,-1.348568664124326355e-01,-1.345263348771080225e-01,-1.345263348771080225e-01,-1.341958033417834650e-01,-1.338652718064588520e-01,-1.338652718064588520e-01,-1.335347402711342668e-01,-1.168428977372424904e-01
-1.520445062493113175e-01,-1.517139747139867323e-01,-1.517139747139867323e-01,-1.513834431786621471e-01,-1.513834431786621471e-01,-1.510529116433375618e-01,-1.510529116433375618e-01,-1.507223801080129766e-01,-1.507223801080129766e-01,-1.503918485726883636e-01,-1.503918485726883636e-01,-1.500613170373637506e-01,-1.500613170373637506e-01,-1.497307855020391654e-01,-1.497307855020391654e-01,-1.494002539667145801e-01,-1.494002539667145801e-01,-1.490697224313899949e-01,-1.490697224313899949e-01,-1.487391908960654097e-01,-1.487391908960654097e-01,-1.484086593607408244e-01,-1.480781278254162392e-01,-1.480781278254162392e-01,-1.477475962900916540e-01,-1.477475962900916540e-01,-1.474170647547670687e-01,-1.474170647547670687e-01,-1.470865332194424835e-01,-1.470865332194424835e-01,-1.467560016841178705e-01,-1.467560016841178705e-01,-1.464254701487932575e-01,-1.464254701487932575e-01,-1.460949386134687000e-01,-1.460949386134687000e-01,-1.457644070781441148e-01,-1.457644070781441148e-01,-1.454338755428195018e-01,-1.454338755428195018e-01,-1.451033440074949166e-01,-1.447728124721703313e-01,-1.447728124721703313e-01,-1.444422809368457461e-01,-1.444422809368457461e-01,-1.441117494015211609e-01,-1.215942885575334725e-01
-1.536971639259342437e-01,-1.541103283450899752e-01,-1.541103283450899752e-01,-1.545234927642457345e-01,-1.545234927642457345e-01,-1.549366571834014938e-01,-1.549366571834014938e-01,-1.553498216025572254e-01,-1.553498216025572254e-01,-1.557629860217129569e-01,-1.557629860217129569e-01,-1.561761504408686885e-01,-1.561761504408686885e-01,-1.565893148600244200e-01,-1.565893148600244200e-01,-1.570024792791801516e-01,-1.570024792791801516e-01,-1.574156436983358831e-01,-1.574156436983358831e-01,-1.578288081174916146e-01,-1.578288081174916146e-01,-1.582419725366473739e-01,-1.586551369558031055e-01,-1.586551369558031055e-01,-1.583246054204784925e-01,-1.583246054204784925e-01,-1.579940738851539350e-01,-1.579940738851539350e-01,-1.576635423498293498e-01,-1.576635423498293498e-01,-1.573330108145047368e-01,-1.573330108145047368e-01,-1.570024792791801516e-01,-1.570024792791801516e-01,-1.566719477438555663e-01,-1.566719477438555663e-01,-1.563414162085309811e-01,-1.563414162085309811e-01,-1.560108846732063959e-01,-1.560108846732063959e-01,-1.556803531378818106e-01,-1.553498216025572254e-01,-1.553498216025572254e-01,-1.550192900672326124e-01,-1.550192900672326124e-01,-1.546887585319080272e-01,-1.305186400112973988e-01
-1.404759025129506678e-01,-1.408890669321063993e-01,-1.408890669321063993e-01,-1.413022313512621586e-01,-1.413022313512621586e-01,-1.417153957704178902e-01,-1.417153957704178902e-01,-1.421285601895736217e-01,-1.421285601895736217e-01,-1.425417246087293810e-01,-1.425417246087293810e-01,-1.429548890278851125e-01,-1.429548890278851125e-01,-1.433680534470408441e-01,-1.433680534470408441e-01,-1.437812178661965756e-01,-1.437812178661965756e-01,-1.441943822853523072e-01,-1.441943822853523072e-01,-1.446075467045080387e-01,-1.446075467045080387e-01,-1.450207111236637703e-01,-1.454338755428195296e-01,-1.454338755428195296e-01,-1.458470399619752333e-01,-1.458470399619752333e-01,-1.462602043811309926e-01,-1.696543963982354297e-01,-1.700675608173911613e-01,-1.700675608173911613e-01,-1.470865332194424835e-01,-1.470865332194424835e-01,-1.474996976385982150e-01,-1.474996976385982150e-01,-1.479128620577539466e-01,-1.479128620577539466e-01,-1.483260264769096781e-01,-1.483260264769096781e-01,-1.487391908960654097e-01,-1.487391908960654097e-01,-1.491523553152211412e-01,-1.495655197343769005e-01,-1.495655197343769005e-01,-1.499786841535326321e-01,-1.499786841535326321e-01,-1.503918485726883636e-01,-1.221933769653092972e-01
-1.272546410999670918e-01,-1.276678055191228234e-01,-1.276678055191228234e-01,-1.280809699382785549e-01,-1.280809699382785549e-01,-1.284941343574342865e-01,-1.284941343574342865e-01,-1.289072987765900180e-01,-1.289072987765900180e-01,-1.293204631957457496e-01,-1.293204631957457496e-01,-1.297336276149015089e-01,-1.297336276149015089e-01,-1.301467920340572404e-01,-1.301467920340572404e-01,-1.305599564532129719e-01,-1.305599564532129719e-01,-1.309731208723687312e-01,-1.309731208723687312e-01,-1.313862852915244628e-01,-1.313862852915244628e-01,-1.317994497106801943e-01,-1.322126141298359259e-01,-1.322126141298359259e-01,-1.326257785489916852e-01,-1.326257785489916852e-01,-1.330389429681473890e-01,-1.564331349852518260e-01,-1.568462994044075853e-01,-1.568462994044075853e-01,-1.338652718064588798e-01,-1.338652718064588798e-01,-1.342784362256146113e-01,-1.342784362256146113e-01,-1.346916006447703429e-01,-1.346916006447703429e-01,-1.351047650639260744e-01,-1.351047650639260744e-01,-1.355179294830818060e-01,-1.355179294830818060e-01,-1.359310939022375653e-01,-1.363442583213932968e-01,-1.363442583213932968e-01,-1.367574227405490284e-01,-1.367574227405490284e-01,-1.371705871597047599e-01,-1.114511020672601382e-01
-1.140333796869834881e-01,-1.144465441061392197e-01,-1.144465441061392197e-01,-1.148597085252949512e-01,-1.148597085252949512e-01,-1.152728729444507105e-01,-1.152728729444507105e-01,-1.156860373636064421e-01,-1.156860373636064421e-01,-1.160992017827621736e-01,-1.160992017827621736e-01,-1.165123662019179052e-01,-1.165123662019179052e-01,-1.169255306210736506e-01,-1.169255306210736506e-01,-1.173386950402293821e-01,-1.173386950402293821e-01,-1.177518594593851275e-01,-1.177518594593851275e-01,-1.181650238785408591e-01,-1.181650238785408591e-01,-1.185781882976966045e-01,-1.189913527168523361e-01,-1.505325488511720100e-01,-1.509457132703277693e-01,-1.509457132703277693e-01,-1.198176815551638130e-01,-1.432118735722682501e-01,-1.436250379914239816e-01,-1.436250379914239816e-01,-1.206440103934752900e-01,-1.206440103934752900e-01,-1.210571748126310077e-01,-1.210571748126310077e-01,-1.214703392317867531e-01,-1.214703392317867531e-01,-1.218835036509424985e-01,-1.218835036509424985e-01,-1.222966680700982439e-01,-1.222966680700982439e-01,-1.227098324892539893e-01,-1.231229969084097070e-01,-1.231229969084097070e-01,-1.235361613275654386e-01,-1.235361613275654386e-01,-1.239493257467211840e-01,-9.683541073962592671e-02
-1.008121182739998845e-01,-1.012252826931556160e-01,-1.012252826931556160e-01,-1.016384471123113614e-01,-1.016384471123113614e-01,-1.020516115314671068e-01,-1.020516115314671068e-01,-1.024647759506228384e-01,-1.024647759506228384e-01,-1.028779403697785699e-01,-1.028779403697785699e-01,-1.032911047889343154e-01,-1.032911047889343154e-01,-1.037042692080900469e-01,-1.037042692080900469e-01,-1.041174336272457923e-01,-1.041174336272457923e-01,-1.045305980464015239e-01,-1.045305980464015239e-01,-1.049437624655572554e-01,-1.049437624655572554e-01,-1.053569268847129869e-01,-1.057700913038687324e-01,-1.373112874381884063e-01,-1.377244518573441379e-01,-1.377244518573441379e-01,-1.065964201421801955e-01,-1.065964201421801955e-01,-1.070095845613359409e-01,-1.070095845613359409e-01,-1.074227489804916863e-01,-1.074227489804916863e-01,-1.078359133996474178e-01,-1.078359133996474178e-01,-1.082490778188031633e-01,-1.082490778188031633e-01,-1.086622422379588948e-01,-1.086622422379588948e-01,-1.090754066571146402e-01,-1.090754066571146402e-01,-1.094885710762703857e-01,-1.099017354954261172e-01,-1.099017354954261172e-01,-1.103148999145818487e-01,-1.103148999145818487e-01,-1.107280643337375942e-01,-8.650630026073249934e-02
-8.759085686101629464e-02,-8.800402128017204006e-02,-8.800402128017204006e-02,-8.841718569932777161e-02,-8.841718569932777161e-02,-8.883035011848350315e-02,-8.883035011848350315e-02,-8.924351453763924857e-02,-8.924351453763924857e-02,-8.965667895679498012e-02,-8.965667895679498012e-02,-9.006984337595072554e-02,-9.006984337595072554e-02,-9.048300779510645708e-02,-9.048300779510645708e-02,-9.089617221426218863e-02,-9.089617221426218863e-02,-9.130933663341793405e-02,-9.130933663341793405e-02,-9.172250105257367947e-02,-9.172250105257367947e-02,-9.213566547172941101e-02,-9.254882989088514256e-02,-1.240900260252048304e-01,-1.245031904443605619e-01,-1.245031904443605619e-01,-9.337515872919661952e-02,-9.337515872919661952e-02,-9.378832314835235107e-02,-9.378832314835235107e-02,-9.420148756750808261e-02,-9.420148756750808261e-02,-9.461465198666382803e-02,-9.461465198666382803e-02,-9.502781640581957345e-02,-9.502781640581957345e-02,-9.544098082497530500e-02,-9.544098082497530500e-02,-9.585414524413105042e-02,-9.585414524413105042e-02,-9.626730966328676808e-02,-9.668047408244251351e-02,-9.668047408244251351e-02,-9.709363850159825893e-02,-9.709363850159825893e-02,-9.750680292075397659e-02,-7.313010219056548245e-02
-7.436959544803270483e-02,-7.478275986718845025e-02,-7.478275986718845025e-02,-7.519592428634416792e-02,-7.519592428634416792e-02,-7.560908870549992722e-02,-7.560908870549992722e-02,-7.602225312465565876e-02,-7.602225312465565876e-02,-7.643541754381139031e-02,-7.643541754381139031e-02,-7.684858196296712185e-02,-7.684858196296712185e-02,-7.726174638212286727e-02,-7.726174638212286727e-02,-7.767491080127861269e-02,-7.767491080127861269e-02,-7.808807522043434424e-02,-7.808807522043434424e-02,-7.850123963959007578e-02,-7.850123963959007578e-02,-7.891440405874582120e-02,-7.932756847790155275e-02,-7.932756847790155275e-02,-7.974073289705729817e-02,-7.974073289705729817e-02,-8.015389731621301583e-02,-8.015389731621301583e-02,-8.056706173536876125e-02,-8.056706173536876125e-02,-8.098022615452450668e-02,-8.098022615452450668e-02,-8.139339057368025210e-02,-8.139339057368025210e-02,-8.180655499283596976e-02,-8.180655499283596976e-02,-8.221971941199171519e-02,-8.221971941199171519e-02,-8.263288383114744673e-02,-8.263288383114744673e-02,-8.304604825030320603e-02,-8.345921266945890982e-02,-8.345921266945890982e-02,-8.387237708861466912e-02,-8.387237708861466912e-02,-8.428554150777040066e-02,-6.321415613082780049e-02
-6.114833403504911502e-02,-6.156149845420485350e-02,-6.156149845420485350e-02,-6.197466287336059199e-02,-6.197466287336059199e-02,-6.238782729251633047e-02,-6.238782729251633047e-02,-6.280099171167205507e-02,-6.280099171167205507e-02,-6.321415613082780049e-02,-6.321415613082780049e-02,-6.362732054998354592e-02,-6.362732054998354592e-02,-6.404048496913927746e-02,-6.404048496913927746e-02,-6.445364938829500900e-02,-6.445364938829500900e-02,-6.486681380745074055e-02,-6.486681380745074055e-02,-6.527997822660648597e-02,-6.569314264576223139e-02,-6.569314264576223139e-02,-6.610630706491796293e-02,-6.610630706491796293e-02,-6.651947148407369448e-02,-6.651947148407369448e-02,-6.693263590322943990e-02,-6.693263590322943990e-02,-6.734580032238517144e-02,-6.734580032238517144e-02,-6.775896474154091687e-02,-6.775896474154091687e-02,-6.817212916069664841e-02,-6.817212916069664841e-02,-6.858529357985237995e-02,-6.858529357985237995e-02,-6.899845799900812537e-02,-6.899845799900812537e-02,-6.941162241816385692e-02,-6.982478683731960234e-02,-6.982478683731960234e-02,-7.023795125647533388e-02,-7.023795125647533388e-02,-7.065111567563106543e-02,-7.065111567563106543e-02,-7.106428009478681085e-02,-5.107745131812801986e-02
-4.792707262206551827e-02,-4.834023704122125675e-02,-4.834023704122125675e-02,-4.875340146037698830e-02,-4.875340146037698830e-02,-4.916656587953273372e-02,-4.916656587953273372e-02,-4.957973029868846526e-02,-4.957973029868846526e-02,-4.999289471784421068e-02,-4.999289471784421068e-02,-5.040605913699994223e-02,-5.040605913699994223e-02,-5.081922355615568765e-02,-5.081922355615568765e-02,-5.123238797531141919e-02,-5.123238797531141919e-02,-5.164555239446715074e-02,-5.164555239446715074e-02,-5.205871681362289616e-02,-5.247188123277862770e-02,-5.247188123277862770e-02,-5.288504565193435925e-02,-5.288504565193435925e-02,-5.329821007109010467e-02,-5.329821007109010467e-02,-5.371137449024584315e-02,-5.371137449024584315e-02,-5.412453890940157469e-02,-5.412453890940157469e-02,-5.453770332855732011e-02,-5.453770332855732011e-02,-5.495086774771305166e-02,-5.495086774771305166e-02,-5.536403216686879708e-02,-5.536403216686879708e-02,-5.577719658602452862e-02,-5.577719658602452862e-02,-5.619036100518026711e-02,-5.660352542433599865e-02,-5.660352542433599865e-02,-5.701668984349174407e-02,-5.701668984349174407e-02,-5.742985426264747562e-02,-5.742985426264747562e-02,-5.784301868180322104e-02,-4.157466967754605558e-02
-3.470581120908192846e-02,-3.511897562823766694e-02,-3.511897562823766694e-02,-3.553214004739340542e-02,-3.553214004739340542e-02,-3.594530446654914391e-02,-3.594530446654914391e-02,-3.635846888570487545e-02,-3.635846888570487545e-02,-3.677163330486061393e-02,-3.677163330486061393e-02,-3.718479772401635242e-02,-3.718479772401635242e-02,-3.759796214317209090e-02,-3.759796214317209090e-02,-3.801112656232782938e-02,-3.801112656232782938e-02,-3.842429098148356093e-02,-3.842429098148356093e-02,-3.883745540063930635e-02,-3.925061981979503789e-02,-3.925061981979503789e-02,-3.966378423895077637e-02,-3.966378423895077637e-02,-4.007694865810650792e-02,-4.007694865810650792e-02,-4.049011307726224640e-02,-4.049011307726224640e-02,-4.090327749641798488e-02,-4.090327749641798488e-02,-4.131644191557372336e-02,-4.131644191557372336e-02,-4.172960633472946185e-02,-4.172960633472946185e-02,-4.214277075388520033e-02,-4.214277075388520033e-02,-4.255593517304093881e-02,-4.255593517304093881e-02,-4.296909959219667036e-02,-4.338226401135240884e-02,-4.338226401135240884e-02,-4.379542843050815426e-02,-4.379542843050815426e-02,-4.420859284966388580e-02,-4.420859284966388580e-02,-4.462175726881962429e-02,-3.067745812231349040e-02
-2.148454979609833518e-02,-2.189771421525407366e-02,-2.189771421525407366e-02,-2.231087863440980867e-02,-2.231087863440980867e-02,-2.272404305356554716e-02,-2.272404305356554716e-02,-2.313720747272128564e-02,-2.313720747272128564e-02,-2.355037189187702412e-02,-2.355037189187702412e-02,-2.396353631103275914e-02,-2.396353631103275914e-02,-2.437670073018849762e-02,-2.437670073018849762e-02,-2.478986514934423263e-02,-2.478986514934423263e-02,-2.520302956849997111e-02,-2.520302956849997111e-02,-2.561619398765570960e-02,-2.602935840681144808e-02,-2.602935840681144808e-02,-2.644252282596718309e-02,-2.644252282596718309e-02,-2.685568724512292157e-02,-2.685568724512292157e-02,-2.726885166427866006e-02,-2.726885166427866006e-02,-2.768201608343439507e-02,-2.768201608343439507e-02,-2.809518050259013355e-02,-2.809518050259013355e-02,-2.850834492174587204e-02,-2.850834492174587204e-02,-2.892150934090160358e-02,-2.892150934090160358e-02,-2.933467376005734553e-02,-2.933467376005734553e-02,-2.974783817921307708e-02,-3.016100259836881903e-02,-3.016100259836881903e-02,-3.057416701752455404e-02,-3.057416701752455404e-02,-3.098733143668029599e-02,-3.098733143668029599e-02,-3.140049585583602754e-02,-2.158784090088727153e-02
-8.263288383114745367e-03,-8.676452802270482115e-03,-8.676452802270482115e-03,-9.089617221426218863e-03,-9.089617221426218863e-03,-9.502781640581957345e-03,-9.502781640581957345e-03,-9.915946059737692359e-03,-9.915946059737692359e-03,-1.032911047889343084e-02,-1.032911047889343084e-02,-1.074227489804916759e-02,-1.074227489804916759e-02,-1.115543931720490434e-02,-1.115543931720490434e-02,-1.156860373636064282e-02,-1.156860373636064282e-02,-1.198176815551637783e-02,-1.198176815551637783e-02,-1.239493257467211805e-02,-1.280809699382785480e-02,-1.280809699382785480e-02,-1.322126141298359155e-02,-1.322126141298359155e-02,-1.363442583213932829e-02,-1.363442583213932829e-02,-1.404759025129506851e-02,-1.404759025129506851e-02,-1.446075467045080179e-02,-1.446075467045080179e-02,-1.487391908960654027e-02,-1.487391908960654027e-02,-1.528708350876227529e-02,-1.528708350876227529e-02,-1.570024792791801377e-02,-1.570024792791801377e-02,-1.611341234707375225e-02,-1.611341234707375225e-02,-1.652657676622948726e-02,-1.693974118538522922e-02,-1.693974118538522922e-02,-1.735290560454096076e-02,-1.735290560454096076e-02,-1.776607002369670271e-02,-1.776607002369670271e-02,-1.817923444285243773e-02,-1.193012260312191139e-02
0.000000000000000000e+00,0.000000000000000000e+00,0.000000000000000000e+00,0.000000000000000000e+00,0.000000000000000000e+00,0.000000000000000000e+00,0.000000000000000000e+00,0.000000000000000000e+00,0.000000000000000000e+00,0.000000000000000000e+00,0.000000000000000000e+00,0.000000000000000000e+00,0.000000000000000000e+00,0.000000000000000000e+00,0.000000000000000000e+00,0.000000000000000000e+00,0.000000000000000000e+00,0.000000000000000000e+00,0.000000000000000000e+00,0.000000000000000000e+00,0.000000000000000000e+00,0.000000000000000000e+00,0.000000000000000000e+00,0.000000000000000000e+00,-4.131644191557372900e-04,-4.131644191557372900e-04,-8.263288383114745801e-04,-8.263288383114745801e-04,-1.239493257467211545e-03,-1.239493257467211545e-03,-1.652657676622949160e-03,-1.652657676622949160e-03,-2.065822095778686342e-03,-2.065822095778686342e-03,-2.478986514934423090e-03,-2.478986514934423090e-03,-2.892150934090160705e-03,-2.892150934090160705e-03,-3.305315353245897887e-03,-3.718479772401635068e-03,-3.718479772401635068e-03,-4.131644191557372683e-03,-4.131644191557372683e-03,-4.544808610713109431e-03,-4.544808610713109431e-03,-4.957973029868846179e-03,-3.253669800851430576e-03
0.000000000000000000e+00,0.000000000000000000e+00,0.000000000000000000e+00,0.000000000000000000e+00,0.000000000000000000e+00,0.000000000000000000e+00,0.000000000000000000e+00,0.000000000000000000e+00,0.000000000000000000e+00,0.000000000000000000e+00,0.000000000000000000e+00,0.000000000000000000e+00,0.000000000000000000e+00,0.000000000000000000e+00,0.000000000000000000e+00,0.000000000000000000e+00,0.000000000000000000e+00,0.000000000000000000e+00,0.000000000000000000e+00,0.000000000000000000e+00,0.000000000000000000e+00,0.000000000000000000e+00,0.000000000000000000e+00,0.000000000000000000e+00,0.000000000000000000e+00,0.000000000000000000e+00,0.000000000000000000e+00,0.000000000000000000e+00,0.000000000000000000e+00,0.000000000000000000e+00,0.000000000000000000e+00,0.000000000000000000e+00,0.000000000000000000e+00,0.000000000000000000e+00,0.000000000000000000e+00,0.000000000000000000e+00,0.000000000000000000e+00,0.000000000000000000e+00,0.000000000000000000e+00,0.000000000000000000e+00,0.000000000000000000e+00,0.000000000000000000e+00,0.000000000000000000e+00,0.000000000000000000e+00,0.000000000000000000e+00,0.000000000000000000e+00,0.000000000000000000e+00
