1.150268208909772417e-02,1.150268208909772417e-02,1.150268208909772417e-02,1.150268208909772417e-02,1.150268208909772417e-02,1.150268208909772417e-02,1.150268208909772417e-02,1.150268208909772417e-02,1.150268208909772417e-02,1.150268208909772417e-02,1.150268208909772417e-02,1.150268208909772417e-02,1.150268208909772417e-02,1.150268208909772417e-02,1.150268208909772417e-02,1.150268208909772417e-02,1.150268208909772417e-02,1.150268208909772417e-02,1.150268208909772417e-02,1.150268208909772417e-02,1.150268208909772417e-02,1.150268208909772417e-02,1.150268208909772417e-02,1.150268208909772417e-02,1.150268208909772417e-02,1.150268208909772417e-02,1.150268208909772417e-02,1.150268208909772417e-02,1.150268208909772417e-02,1.150268208909772417e-02,1.150268208909772417e-02,1.150268208909772417e-02,9.353829391134414056e-03,-1.858125568238862962e-02,-4.866519345387498169e-02,-5.726060424572822910e-02,-5.726060424572822910e-02,-5.694459649602773982e-02,-3.072385346462983696e-02,1.150268208909772417e-02,1.150268208909772417e-02,1.150268208909772417e-02,1.150268208909772417e-02,1.150268208909772417e-02,1.150268208909772417e-02,1.150268208909772417e-02,1.150268208909772417e-02
1.150268208909772417e-02,1.150268208909772417e-02,1.150268208909772417e-02,1.150268208909772417e-02,1.150268208909772417e-02,1.150268208909772417e-02,1.150268208909772417e-02,1.150268208909772417e-02,1.150268208909772417e-02,1.150268208909772417e-02,1.150268208909772417e-02,1.150268208909772417e-02,1.150268208909772417e-02,1.150268208909772417e-02,1.150268208909772417e-02,1.150268208909772417e-02,1.150268208909772417e-02,1.150268208909772417e-02,1.150268208909772417e-02,1.150268208909772417e-02,1.150268208909772417e-02,1.150268208909772417e-02,1.150268208909772417e-02,1.150268208909772417e-02,1.150268208909772417e-02,1.150268208909772417e-02,1.150268208909772417e-02,1.150268208909772417e-02,1.150268208909772417e-02,1.150268208909772417e-02,5.056123995207791218e-03,-2.287896107831525333e-02,-5.296289884980160539e-02,-5.726060424572822910e-02,-5.726060424572822910e-02,-5.681819339614755521e-02,-5.599657324692628585e-02,-5.511175154776492419e-02,-5.422692984860354865e-02,1.360808372147722170e-03,1.150268208909772417e-02,1.150268208909772417e-02,1.150268208909772417e-02,1.150268208909772417e-02,1.150268208909772417e-02,1.150268208909772417e-02,1.150268208909772417e-02
1.150268208909772417e-02,1.150268208909772417e-02,1.150268208909772417e-02,1.150268208909772417e-02,1.150268208909772417e-02,1.150268208909772417e-02,1.150268208909772417e-02,1.150268208909772417e-02,1.150268208909772417e-02,1.150268208909772417e-02,1.150268208909772417e-02,1.150268208909772417e-02,1.150268208909772417e-02,1.150268208909772417e-02,1.150268208909772417e-02,1.150268208909772417e-02,1.150268208909772417e-02,1.150268208909772417e-02,1.150268208909772417e-02,1.150268208909772417e-02,1.150268208909772417e-02,1.150268208909772417e-02,1.150268208909772417e-02,1.150268208909772417e-02,1.150268208909772417e-02,1.150268208909772417e-02,1.150268208909772417e-02,1.150268208909772417e-02,2.907271297244480232e-03,-2.717666647424187704e-02,-5.511175154776492419e-02,-5.726060424572821522e-02,-5.726060424572822910e-02,-5.675499184620744902e-02,-5.587017014704608736e-02,-5.498534844788472570e-02,-5.416372829866345634e-02,-5.327890659950209468e-02,-5.239408490034073301e-02,-2.397708800852444561e-02,1.150268208909772417e-02,1.150268208909772417e-02,1.150268208909772417e-02,1.150268208909772417e-02,1.150268208909772417e-02,1.150268208909772417e-02,1.150268208909772417e-02
1.150268208909772417e-02,1.150268208909772417e-02,1.150268208909772417e-02,1.150268208909772417e-02,1.150268208909772417e-02,1.150268208909772417e-02,1.150268208909772417e-02,1.150268208909772417e-02,1.150268208909772417e-02,1.150268208909772417e-02,1.150268208909772417e-02,1.150268208909772417e-02,1.150268208909772417e-02,1.150268208909772417e-02,1.150268208909772417e-02,1.150268208909772417e-02,1.150268208909772417e-02,1.150268208909772417e-02,1.150268208909772417e-02,1.150268208909772417e-02,1.150268208909772417e-02,1.150268208909772417e-02,1.150268208909772417e-02,1.150268208909772417e-02,1.150268208909772417e-02,1.150268208909772417e-02,-1.390434098682141739e-03,-3.147437187016849380e-02,-5.726060424572824298e-02,-5.726060424572822910e-02,-5.726060424572822910e-02,-5.662858874632725054e-02,-5.574376704716588887e-02,-5.492214689794461951e-02,-5.403732519878325785e-02,-5.315250349962191007e-02,-5.233088335040064071e-02,-5.144606165123927904e-02,-5.062444150201800275e-02,-4.973961980285664108e-02,5.844168321023380901e-03,1.150268208909772417e-02,1.150268208909772417e-02,1.150268208909772417e-02,1.150268208909772417e-02,1.150268208909772417e-02,1.150268208909772417e-02
1.150268208909772417e-02,1.150268208909772417e-02,1.150268208909772417e-02,1.150268208909772417e-02,1.150268208909772417e-02,1.150268208909772417e-02,1.150268208909772417e-02,1.150268208909772417e-02,1.150268208909772417e-02,1.150268208909772417e-02,1.150268208909772417e-02,1.150268208909772417e-02,1.150268208909772417e-02,1.150268208909772417e-02,1.150268208909772417e-02,1.150268208909772417e-02,1.150268208909772417e-02,1.150268208909772417e-02,1.150268208909772417e-02,1.150268208909772417e-02,1.150268208909772417e-02,1.150268208909772417e-02,1.150268208909772417e-02,1.150268208909772417e-02,-5.688139494608763710e-03,-3.362322456813180566e-02,-5.726060424572822910e-02,-5.726060424572822910e-02,-5.726060424572822910e-02,-5.650218564644706593e-02,-5.568056549722579657e-02,-5.479574379806442103e-02,-5.391092209890307324e-02,-5.308930194968180388e-02,-5.220448025052044222e-02,-5.131965855135908056e-02,-5.049803840213781120e-02,-4.961321670297644260e-02,-4.879159655375518018e-02,-4.790677485459381157e-02,-1.958853038455893314e-02,1.150268208909772417e-02,1.150268208909772417e-02,1.150268208909772417e-02,1.150268208909772417e-02,1.150268208909772417e-02,1.150268208909772417e-02
1.150268208909772417e-02,1.150268208909772417e-02,1.150268208909772417e-02,1.150268208909772417e-02,1.150268208909772417e-02,1.150268208909772417e-02,1.150268208909772417e-02,1.150268208909772417e-02,1.150268208909772417e-02,1.150268208909772417e-02,1.150268208909772417e-02,1.150268208909772417e-02,1.150268208909772417e-02,1.150268208909772417e-02,1.150268208909772417e-02,1.150268208909772417e-02,1.150268208909772417e-02,1.150268208909772417e-02,1.150268208909772417e-02,1.150268208909772417e-02,1.150268208909772417e-02,1.150268208909772417e-02,-7.836992192572075563e-03,-3.792092996405842936e-02,-5.726060424572822910e-02,-5.726060424572822910e-02,-5.726060424572822910e-02,-5.643898409650695974e-02,-5.555416239734558420e-02,-5.466934069818423642e-02,-5.384772054896296706e-02,-5.296289884980160539e-02,-5.207807715064024373e-02,-5.125645700141897437e-02,-5.037163530225761965e-02,-4.955001515303634335e-02,-4.866519345387497475e-02,-4.778037175471362696e-02,-4.695875160549235067e-02,-4.607392990633098900e-02,-4.164587131365291711e-02,9.756739272002533728e-03,1.150268208909772417e-02,1.150268208909772417e-02,1.150268208909772417e-02,1.150268208909772417e-02,1.150268208909772417e-02
1.150268208909772417e-02,1.150268208909772417e-02,1.150268208909772417e-02,1.150268208909772417e-02,1.150268208909772417e-02,1.150268208909772417e-02,1.150268208909772417e-02,1.150268208909772417e-02,1.150268208909772417e-02,1.150268208909772417e-02,1.150268208909772417e-02,1.150268208909772417e-02,1.150268208909772417e-02,1.150268208909772417e-02,1.150268208909772417e-02,1.150268208909772417e-02,1.150268208909772417e-02,1.150268208909772417e-02,1.150268208909772417e-02,1.150268208909772417e-02,-1.213469758849869927e-02,-4.221863535998505307e-02,-5.726060424572822910e-02,-5.726060424572822910e-02,-5.719740269578813679e-02,-5.631258099662676125e-02,-5.542775929746539959e-02,-5.460613914824413023e-02,-5.372131744908278245e-02,-5.283649574992142078e-02,-5.201487560070015143e-02,-5.113005390153878976e-02,-5.024523220237742116e-02,-4.942361205315615180e-02,-4.853879035399479014e-02,-4.771717020477352772e-02,-4.683234850561215912e-02,-4.594752680645079052e-02,-4.512590665722952810e-02,-4.424108495806815949e-02,-4.335626325890679783e-02,-1.579588920188139400e-01,-1.326288958318842803e-01,-1.326288958318842803e-01,-1.326288958318842803e-01,-1.326288958318842803e-01,1.150268208909772417e-02
1.150268208909772417e-02,1.150268208909772417e-02,1.150268208909772417e-02,1.150268208909772417e-02,1.150268208909772417e-02,1.150268208909772417e-02,1.150268208909772417e-02,1.150268208909772417e-02,1.150268208909772417e-02,1.150268208909772417e-02,1.150268208909772417e-02,1.150268208909772417e-02,1.150268208909772417e-02,1.150268208909772417e-02,1.150268208909772417e-02,1.150268208909772417e-02,1.150268208909772417e-02,1.150268208909772417e-02,-1.643240298442531777e-02,-4.436748805794836492e-02,-5.726060424572822910e-02,-5.726060424572822910e-02,-5.707099959590793831e-02,-5.618617789674656277e-02,-5.536455774752529341e-02,-5.447973604836394562e-02,-5.359491434920258396e-02,-5.277329419998131460e-02,-5.188847250081995294e-02,-5.100365080165859127e-02,-5.018203065243732192e-02,-4.929720895327595331e-02,-4.847558880405469089e-02,-4.759076710489332923e-02,-4.670594540573196757e-02,-4.588432525651069821e-02,-4.499950355734932961e-02,-4.411468185818796794e-02,-4.329306170896670553e-02,-4.240824000980534386e-02,-4.152341831064398220e-02,-1.799392060589184439e-01,-1.326288958318842803e-01,-1.326288958318842803e-01,-1.326288958318842803e-01,-1.326288958318842803e-01,1.150268208909772417e-02
1.150268208909772417e-02,1.150268208909772417e-02,1.150268208909772417e-02,1.150268208909772417e-02,1.150268208909772417e-02,1.150268208909772417e-02,1.150268208909772417e-02,1.150268208909772417e-02,1.150268208909772417e-02,1.150268208909772417e-02,1.150268208909772417e-02,1.150268208909772417e-02,1.150268208909772417e-02,1.150268208909772417e-02,1.150268208909772417e-02,9.353829391134414056e-03,-1.858125568238862962e-02,-4.866519345387498169e-02,-5.726060424572822910e-02,-5.726060424572822910e-02,-5.694459649602773982e-02,-5.612297634680647046e-02,-5.523815464764510880e-02,-5.435333294848374713e-02,-5.353171279926249165e-02,-5.264689110010111611e-02,-5.176206940093975445e-02,-5.094044925171849203e-02,-5.005562755255712343e-02,-4.917080585339576176e-02,-4.834918570417449241e-02,-4.746436400501313074e-02,-4.664274385579186832e-02,-4.575792215663049972e-02,-4.487310045746913806e-02,-4.405148030824786870e-02,-4.316665860908650704e-02,-4.228183690992514537e-02,-4.146021676070388989e-02,-4.057539506154252129e-02,-3.975377491232125193e-02,-1.830005311341418861e-01,-1.527329138581421386e-01,-1.326288958318842803e-01,-1.326288958318842803e-01,-1.326288958318842803e-01,1.150268208909772417e-02
1.150268208909772417e-02,1.150268208909772417e-02,1.150268208909772417e-02,1.150268208909772417e-02,1.150268208909772417e-02,1.150268208909772417e-02,1.150268208909772417e-02,1.150268208909772417e-02,1.150268208909772417e-02,1.150268208909772417e-02,1.150268208909772417e-02,1.150268208909772417e-02,1.150268208909772417e-02,7.204976693171102203e-03,-2.287896107831525333e-02,-5.296289884980160539e-02,-5.726060424572822910e-02,-5.726060424572822910e-02,-5.681819339614754133e-02,-5.599657324692627197e-02,-5.511175154776492419e-02,-5.429013139854364095e-02,-5.340530969938229316e-02,-5.252048800022093150e-02,-5.169886785099966214e-02,-5.081404615183830048e-02,-4.992922445267692494e-02,-4.910760430345566946e-02,-4.822278260429430086e-02,-4.733796090513293919e-02,-4.651634075591167677e-02,-4.563151905675030817e-02,-4.480989890752903881e-02,-4.392507720836767715e-02,-4.304025550920631549e-02,-4.221863535998505307e-02,-4.133381366082369140e-02,-4.044899196166232280e-02,-3.962737181244105344e-02,-3.874255011327969178e-02,-3.792092996405842936e-02,-1.811676861858790843e-01,-1.728369318843999691e-01,-1.326288958318842803e-01,-1.326288958318842803e-01,-1.326288958318842803e-01,1.150268208909772417e-02
1.150268208909772417e-02,1.150268208909772417e-02,1.150268208909772417e-02,1.150268208909772417e-02,1.150268208909772417e-02,1.150268208909772417e-02,1.150268208909772417e-02,1.150268208909772417e-02,1.150268208909772417e-02,1.150268208909772417e-02,1.150268208909772417e-02,2.907271297244480232e-03,-2.717666647424187704e-02,-5.511175154776492419e-02,-5.726060424572822910e-02,-5.726060424572822910e-02,-5.675499184620743515e-02,-5.587017014704607348e-02,-5.504854999782481800e-02,-5.416372829866345634e-02,-5.327890659950209468e-02,-5.245728645028082532e-02,-5.157246475111946366e-02,-5.068764305195809505e-02,-4.986602290273683263e-02,-4.898120120357547097e-02,-4.809637950441410931e-02,-4.727475935519283995e-02,-4.638993765603147135e-02,-4.556831750681020893e-02,-4.468349580764884726e-02,-4.379867410848748560e-02,-4.297705395926622318e-02,-4.209223226010486152e-02,-4.120741056094349292e-02,-4.038579041172223050e-02,-3.950096871256086190e-02,-3.867934856333959948e-02,-3.779452686417823781e-02,-3.690970516501687615e-02,-3.608808501579559985e-02,-1.793348412376162271e-01,-1.784500195384548793e-01,-1.495037096658902720e-01,-1.326288958318842803e-01,-1.326288958318842803e-01,1.150268208909772417e-02
1.150268208909772417e-02,1.150268208909772417e-02,1.150268208909772417e-02,1.150268208909772417e-02,1.150268208909772417e-02,1.150268208909772417e-02,1.150268208909772417e-02,1.150268208909772417e-02,1.150268208909772417e-02,-1.390434098682141739e-03,-2.932551917220518889e-02,-5.726060424572824298e-02,-5.726060424572822910e-02,-5.726060424572822910e-02,-5.662858874632725054e-02,-5.574376704716588887e-02,-5.492214689794461951e-02,-5.403732519878325785e-02,-5.321570504956200237e-02,-5.233088335040064071e-02,-5.144606165123926517e-02,-5.062444150201800275e-02,-4.973961980285663415e-02,-4.885479810369527248e-02,-4.803317795447401700e-02,-4.714835625531264840e-02,-4.626353455615128674e-02,-4.544191440693001044e-02,-4.455709270776864184e-02,-4.373547255854739330e-02,-4.285065085938602469e-02,-4.196582916022466997e-02,-4.114420901100340061e-02,-4.025938731184203201e-02,-3.937456561268066341e-02,-3.855294546345940099e-02,-3.766812376429803932e-02,-3.684650361507676997e-02,-3.596168191591541524e-02,-3.507686021675404664e-02,-3.425524006753277034e-02,-3.337041836837141562e-02,-3.248559666921004702e-02,-2.222126994925111010e-02,1.150268208909772417e-02,1.150268208909772417e-02,1.150268208909772417e-02
1.150268208909772417e-02,1.150268208909772417e-02,1.150268208909772417e-02,1.150268208909772417e-02,1.150268208909772417e-02,1.150268208909772417e-02,1.150268208909772417e-02,-3.539286796645453592e-03,-3.362322456813181260e-02,-5.726060424572821522e-02,-5.726060424572822910e-02,-5.726060424572822910e-02,-5.650218564644706593e-02,-5.568056549722579657e-02,-5.479574379806443490e-02,-5.397412364884316555e-02,-5.308930194968180388e-02,-5.220448025052044222e-02,-5.138286010129917286e-02,-5.049803840213781120e-02,-4.961321670297644260e-02,-4.879159655375517324e-02,-4.790677485459381851e-02,-4.702195315543244991e-02,-4.620033300621118749e-02,-4.531551130704982583e-02,-4.449389115782855647e-02,-4.360906945866718787e-02,-4.272424775950582621e-02,-4.190262761028457072e-02,-4.101780591112320906e-02,-4.013298421196184046e-02,-3.931136406274057110e-02,-3.842654236357920250e-02,-3.754172066441784777e-02,-3.672010051519657842e-02,-3.583527881603521675e-02,-3.501365866681394740e-02,-3.412883696765258573e-02,-3.324401526849122407e-02,-3.242239511926995471e-02,-3.153757342010859305e-02,-3.065275172094722445e-02,-2.983113157172596203e-02,-1.137627898921753436e-03,1.150268208909772417e-02,1.150268208909772417e-02
1.150268208909772417e-02,1.150268208909772417e-02,1.150268208909772417e-02,1.150268208909772417e-02,1.150268208909772417e-02,-7.836992192572075563e-03,-3.792092996405842936e-02,-5.726060424572822910e-02,-5.726060424572822910e-02,-5.726060424572822910e-02,-5.643898409650695974e-02,-5.555416239734558420e-02,-5.466934069818423642e-02,-5.384772054896296706e-02,-5.296289884980160539e-02,-5.214127870058034991e-02,-5.125645700141897437e-02,-5.037163530225761271e-02,-4.955001515303634335e-02,-4.866519345387498169e-02,-4.778037175471361309e-02,-4.695875160549235761e-02,-4.607392990633098900e-02,-4.525230975710971965e-02,-4.436748805794836492e-02,-4.348266635878699632e-02,-4.266104620956574084e-02,-4.177622451040437224e-02,-4.089140281124301057e-02,-4.006978266202174122e-02,-3.918496096286037261e-02,-3.830013926369902483e-02,-3.747851911447774853e-02,-3.659369741531638687e-02,-3.577207726609511751e-02,-3.488725556693374891e-02,-3.400243386777238724e-02,-3.318081371855112482e-02,-3.229599201938976316e-02,-3.141117032022839456e-02,-3.058955017100713214e-02,-2.970472847184577048e-02,-2.881990677268441575e-02,-2.799828662346313946e-02,-1.745942817095190447e-02,1.150268208909772417e-02,1.150268208909772417e-02
1.150268208909772417e-02,1.150268208909772417e-02,1.150268208909772417e-02,-1.213469758849869580e-02,-4.006978266202174122e-02,-5.726060424572822910e-02,-5.726060424572822910e-02,-5.719740269578813679e-02,-5.631258099662677513e-02,-5.542775929746539959e-02,-5.460613914824413023e-02,-5.372131744908278245e-02,-5.283649574992142078e-02,-5.201487560070015143e-02,-5.113005390153877588e-02,-5.030843375231752040e-02,-4.942361205315615180e-02,-4.853879035399479708e-02,-4.771717020477352772e-02,-4.683234850561215912e-02,-4.594752680645080439e-02,-4.512590665722952810e-02,-4.424108495806815949e-02,-4.341946480884690401e-02,-4.253464310968554235e-02,-4.164982141052418069e-02,-4.082820126130290439e-02,-3.994337956214154273e-02,-3.905855786298018106e-02,-3.823693771375891864e-02,-3.735211601459755698e-02,-3.646729431543619532e-02,-3.564567416621492596e-02,-3.476085246705355736e-02,-3.393923231783229494e-02,-3.305441061867093328e-02,-3.216958891950956467e-02,-3.134796877028830225e-02,-3.046314707112694059e-02,-2.957832537196557893e-02,-2.875670522274431651e-02,-2.787188352358295484e-02,-2.705026337436167855e-02,-2.616544167520031688e-02,-2.528061997603895522e-02,2.512261610118872099e-03,1.150268208909772417e-02
1.150268208909772417e-02,-1.428355028646200765e-02,-4.436748805794835798e-02,-5.726060424572821522e-02,-5.726060424572822910e-02,-5.707099959590793831e-02,-5.618617789674657664e-02,-5.536455774752530729e-02,-5.447973604836394562e-02,-5.359491434920258396e-02,-5.277329419998132848e-02,-5.188847250081995294e-02,-5.106685235159868358e-02,-5.018203065243732192e-02,-4.929720895327595331e-02,-4.847558880405469089e-02,-4.759076710489332923e-02,-4.670594540573196757e-02,-4.588432525651069821e-02,-4.499950355734933655e-02,-4.411468185818796794e-02,-4.329306170896670553e-02,-4.240824000980535080e-02,-4.158661986058407450e-02,-4.070179816142271284e-02,-3.981697646226135118e-02,-3.899535631304008182e-02,-3.811053461387872016e-02,-3.722571291471735849e-02,-3.640409276549608913e-02,-3.551927106633472747e-02,-3.469765091711345811e-02,-3.381282921795209645e-02,-3.292800751879073479e-02,-3.210638736956947237e-02,-3.122156567040810377e-02,-3.033674397124674210e-02,-2.951512382202548662e-02,-2.863030212286412496e-02,-2.774548042370274942e-02,-2.692386027448148700e-02,-2.603903857532011840e-02,-2.521741842609886292e-02,-2.433259672693750125e-02,-2.344777502777613265e-02,-1.196089332616342808e-02,1.150268208909772417e-02
-4.866519345387498169e-02,-5.726060424572822910e-02,-5.726060424572822910e-02,-5.694459649602773982e-02,-5.612297634680647046e-02,-5.523815464764510880e-02,-5.435333294848374713e-02,-5.353171279926249165e-02,-5.264689110010111611e-02,-5.176206940093975445e-02,-5.094044925171849203e-02,-5.005562755255712343e-02,-4.923400740333586101e-02,-4.834918570417449241e-02,-4.746436400501313768e-02,-4.664274385579186832e-02,-4.575792215663049972e-02,-4.487310045746913806e-02,-4.405148030824786870e-02,-4.316665860908650704e-02,-4.234503845986525156e-02,-4.146021676070388295e-02,-4.057539506154252129e-02,-3.975377491232124499e-02,-3.886895321315989027e-02,-3.798413151399852861e-02,-3.716251136477726619e-02,-3.627768966561589759e-02,-3.539286796645452898e-02,-3.457124781723326656e-02,-3.368642611807190490e-02,-3.286480596885063554e-02,-3.197998426968927388e-02,-3.109516257052790528e-02,-3.027354242130664286e-02,-2.938872072214528813e-02,-2.850389902298392647e-02,-2.768227887376265711e-02,-2.679745717460129545e-02,-2.597583702538002609e-02,-2.509101532621866443e-02,-2.420619362705730276e-02,-2.338457347783603341e-02,-2.249975177867466480e-02,-2.161493007951331008e-02,-2.079330993029204072e-02,4.631488581547761781e-03
-5.726060424572822910e-02,-5.688139494608764751e-02,-5.599657324692627197e-02,-5.511175154776491031e-02,-5.429013139854365483e-02,-5.340530969938229316e-02,-5.252048800022093150e-02,-5.169886785099966214e-02,-5.081404615183830048e-02,-4.999242600261703112e-02,-4.910760430345566252e-02,-4.822278260429430780e-02,-4.740116245507303844e-02,-4.651634075591166984e-02,-4.563151905675030123e-02,-4.480989890752903188e-02,-4.392507720836767715e-02,-4.304025550920631549e-02,-4.221863535998505307e-02,-4.133381366082369140e-02,-4.051219351160242899e-02,-3.962737181244106038e-02,-3.874255011327969872e-02,-3.792092996405842936e-02,-3.703610826489706770e-02,-3.615128656573569910e-02,-3.532966641651443668e-02,-3.444484471735307501e-02,-3.362322456813180566e-02,-3.273840286897044399e-02,-3.185358116980907539e-02,-3.103196102058781297e-02,-3.014713932142645131e-02,-2.926231762226508964e-02,-2.844069747304383416e-02,-2.755587577388246556e-02,-2.667105407472109696e-02,-2.584943392549983454e-02,-2.496461222633847288e-02,-2.414299207711720352e-02,-2.325817037795583492e-02,-2.237334867879447325e-02,-2.155172852957320390e-02,-2.066690683041184917e-02,-1.978208513125048057e-02,-1.896046498202921121e-02,-6.983771268380760053e-03
-5.587017014704608736e-02,-5.504854999782481800e-02,-5.416372829866345634e-02,-5.327890659950209468e-02,-5.245728645028082532e-02,-5.157246475111947753e-02,-5.068764305195810199e-02,-4.986602290273683263e-02,-4.898120120357547097e-02,-4.815958105435420161e-02,-4.727475935519283995e-02,-4.638993765603147829e-02,-4.556831750681020893e-02,-4.468349580764884726e-02,-4.379867410848748560e-02,-4.297705395926622318e-02,-4.209223226010485458e-02,-4.127061211088359910e-02,-4.038579041172223050e-02,-3.950096871256086190e-02,-3.867934856333960641e-02,-3.779452686417823087e-02,-3.690970516501686921e-02,-3.608808501579560679e-02,-3.520326331663424513e-02,-3.431844161747287653e-02,-3.349682146825161411e-02,-3.261199976909024550e-02,-3.179037961986897615e-02,-3.090555792070762142e-02,-3.002073622154625976e-02,-2.919911607232499734e-02,-2.831429437316363568e-02,-2.742947267400226707e-02,-2.660785252478100466e-02,-2.572303082561963605e-02,-2.490141067639837363e-02,-2.401658897723700503e-02,-2.313176727807564337e-02,-2.231014712885438095e-02,-2.142532542969301929e-02,-2.054050373053165068e-02,-1.971888358131038133e-02,-1.883406188214901966e-02,-1.794924018298765800e-02,-1.712762003376638864e-02,-1.624279833460502698e-02
-5.403732519878325785e-02,-5.321570504956200237e-02,-5.233088335040064071e-02,-5.144606165123926517e-02,-5.062444150201800969e-02,-4.973961980285663415e-02,-4.891799965363537173e-02,-4.803317795447401006e-02,-4.714835625531264840e-02,-4.632673610609138598e-02,-4.544191440693001738e-02,-4.455709270776864878e-02,-4.373547255854738636e-02,-4.285065085938603163e-02,-4.196582916022466303e-02,-4.114420901100340061e-02,-4.025938731184203201e-02,-3.943776716262076959e-02,-3.855294546345940099e-02,-3.766812376429803932e-02,-3.684650361507677691e-02,-3.596168191591540830e-02,-3.507686021675404664e-02,-3.425524006753277728e-02,-3.337041836837141562e-02,-3.254879821915015320e-02,-3.166397651998878460e-02,-3.077915482082742293e-02,-2.995753467160616051e-02,-2.907271297244480579e-02,-2.818789127328343719e-02,-2.736627112406216783e-02,-2.648144942490080617e-02,-2.559662772573944450e-02,-2.477500757651818208e-02,-2.389018587735681348e-02,-2.306856572813554412e-02,-2.218374402897418246e-02,-2.129892232981282080e-02,-2.047730218059155838e-02,-1.959248048143018978e-02,-1.870765878226882117e-02,-1.788603863304755875e-02,-1.700121693388619709e-02,-1.617959678466492773e-02,-1.529477508550356434e-02,-1.440995338634220614e-02
-5.220448025052044222e-02,-5.138286010129917286e-02,-5.049803840213780426e-02,-4.961321670297644953e-02,-4.879159655375517324e-02,-4.790677485459381157e-02,-4.708515470537255609e-02,-4.620033300621118749e-02,-4.531551130704981889e-02,-4.449389115782855647e-02,-4.360906945866719481e-02,-4.272424775950583314e-02,-4.190262761028456379e-02,-4.101780591112320906e-02,-4.019618576190193276e-02,-3.931136406274057110e-02,-3.842654236357920944e-02,-3.760492221435794008e-02,-3.672010051519657842e-02,-3.583527881603521675e-02,-3.501365866681394740e-02,-3.412883696765259267e-02,-3.324401526849122407e-02,-3.242239511926995471e-02,-3.153757342010859305e-02,-3.071595327088732369e-02,-2.983113157172596897e-02,-2.894630987256460730e-02,-2.812468972334334488e-02,-2.723986802418197628e-02,-2.635504632502061462e-02,-2.553342617579935220e-02,-2.464860447663798360e-02,-2.382698432741672118e-02,-2.294216262825535257e-02,-2.205734092909399091e-02,-2.123572077987272849e-02,-2.035089908071135989e-02,-1.946607738154999129e-02,-1.864445723232872193e-02,-1.775963553316736027e-02,-1.687481383400599860e-02,-1.605319368478473618e-02,-1.516837198562337279e-02,-1.434675183640210690e-02,-1.346193013724074176e-02,-1.257710843807937663e-02
-5.037163530225761271e-02,-4.955001515303634335e-02,-4.866519345387498169e-02,-4.784357330465371927e-02,-4.695875160549235761e-02,-4.607392990633098900e-02,-4.525230975710971965e-02,-4.436748805794836492e-02,-4.348266635878699632e-02,-4.266104620956573390e-02,-4.177622451040437224e-02,-4.089140281124301057e-02,-4.006978266202174122e-02,-3.918496096286037261e-02,-3.836334081363911019e-02,-3.747851911447775547e-02,-3.659369741531639381e-02,-3.577207726609511057e-02,-3.488725556693374891e-02,-3.400243386777238724e-02,-3.318081371855112482e-02,-3.229599201938976316e-02,-3.147437187016849380e-02,-3.058955017100713214e-02,-2.970472847184577048e-02,-2.888310832262450806e-02,-2.799828662346314639e-02,-2.711346492430178473e-02,-2.629184477508051537e-02,-2.540702307591915371e-02,-2.452220137675779205e-02,-2.370058122753651575e-02,-2.281575952837516102e-02,-2.199413937915389167e-02,-2.110931767999253000e-02,-2.022449598083116834e-02,-1.940287583160989204e-02,-1.851805413244853038e-02,-1.763323243328716872e-02,-1.681161228406589936e-02,-1.592679058490453770e-02,-1.510517043568327354e-02,-1.422034873652190841e-02,-1.333552703736055021e-02,-1.251390688813928433e-02,-1.162908518897791919e-02,-1.074426348981655406e-02
-4.853879035399478320e-02,-4.771717020477352078e-02,-4.683234850561215912e-02,-4.601072835639089670e-02,-4.512590665722952810e-02,-4.424108495806817337e-02,-4.341946480884691095e-02,-4.253464310968553541e-02,-4.164982141052417375e-02,-4.082820126130291133e-02,-3.994337956214154967e-02,-3.912175941292028031e-02,-3.823693771375891864e-02,-3.735211601459755698e-02,-3.653049586537628762e-02,-3.564567416621492596e-02,-3.476085246705355736e-02,-3.393923231783229494e-02,-3.305441061867093328e-02,-3.216958891950956467e-02,-3.134796877028830225e-02,-3.046314707112693365e-02,-2.964152692190567123e-02,-2.875670522274430957e-02,-2.787188352358295484e-02,-2.705026337436168549e-02,-2.616544167520031688e-02,-2.528061997603895522e-02,-2.445899982681769280e-02,-2.357417812765632420e-02,-2.275255797843506178e-02,-2.186773627927369318e-02,-2.098291458011233152e-02,-2.016129443089106216e-02,-1.927647273172970049e-02,-1.839165103256833189e-02,-1.757003088334706947e-02,-1.668520918418570781e-02,-1.580038748502434615e-02,-1.497876733580308199e-02,-1.409394563664171686e-02,-1.327232548742045097e-02,-1.238750378825908584e-02,-1.150268208909772417e-02,-1.068106193987645829e-02,-9.796240240715093153e-03,-8.911418541553731490e-03
-4.676914695567206681e-02,-4.588432525651069127e-02,-4.499950355734933655e-02,-4.417788340812806719e-02,-4.329306170896670553e-02,-4.240824000980534386e-02,-4.158661986058407450e-02,-4.070179816142271284e-02,-3.981697646226135118e-02,-3.899535631304008182e-02,-3.811053461387872016e-02,-3.728891446465745774e-02,-3.640409276549608913e-02,-3.551927106633472747e-02,-3.469765091711345811e-02,-3.381282921795209645e-02,-3.292800751879073479e-02,-3.210638736956947237e-02,-3.122156567040810377e-02,-3.039994552118683441e-02,-2.951512382202547968e-02,-2.863030212286411802e-02,-2.780868197364284866e-02,-2.692386027448148700e-02,-2.603903857532012533e-02,-2.521741842609886292e-02,-2.433259672693750125e-02,-2.344777502777612571e-02,-2.262615487855486329e-02,-2.174133317939350163e-02,-2.091971303017223921e-02,-2.003489133101087061e-02,-1.915006963184950894e-02,-1.832844948262823959e-02,-1.744362778346687098e-02,-1.655880608430551626e-02,-1.573718593508424690e-02,-1.485236423592288350e-02,-1.396754253676152184e-02,-1.314592238754025248e-02,-1.226110068837889082e-02,-1.143948053915762493e-02,-1.055465883999625980e-02,-9.669837140834898134e-03,-8.848216991613635715e-03,-7.963395292452274052e-03,-7.078573593290908919e-03
-4.493630200740923730e-02,-4.405148030824786870e-02,-4.316665860908651398e-02,-4.234503845986525156e-02,-4.146021676070388989e-02,-4.057539506154252129e-02,-3.975377491232125193e-02,-3.886895321315988333e-02,-3.804733306393862785e-02,-3.716251136477725925e-02,-3.627768966561590452e-02,-3.545606951639462823e-02,-3.457124781723326656e-02,-3.368642611807190490e-02,-3.286480596885063554e-02,-3.197998426968927388e-02,-3.109516257052790528e-02,-3.027354242130664286e-02,-2.938872072214528119e-02,-2.856710057292401878e-02,-2.768227887376265711e-02,-2.679745717460129545e-02,-2.597583702538002609e-02,-2.509101532621866443e-02,-2.420619362705730276e-02,-2.338457347783603341e-02,-2.249975177867467174e-02,-2.167813162945340932e-02,-2.079330993029204072e-02,-1.990848823113067906e-02,-1.908686808190940970e-02,-1.820204638274804110e-02,-1.731722468358667943e-02,-1.649560453436541008e-02,-1.561078283520405015e-02,-1.472596113604269195e-02,-1.390434098682142260e-02,-1.301951928766006093e-02,-1.219789913843879504e-02,-1.131307743927742991e-02,-1.042825574011606478e-02,-9.606635590894802360e-03,-8.721813891733440696e-03,-7.836992192572075563e-03,-7.015372043350813144e-03,-6.130550344189444542e-03,-5.308930194968182123e-03
-4.310345705914641473e-02,-4.221863535998506001e-02,-4.133381366082369140e-02,-4.051219351160242205e-02,-3.962737181244106038e-02,-3.874255011327969872e-02,-3.792092996405842936e-02,-3.703610826489706770e-02,-3.621448811567579834e-02,-3.532966641651443668e-02,-3.444484471735307501e-02,-3.362322456813179872e-02,-3.273840286897043705e-02,-3.185358116980908233e-02,-3.103196102058781297e-02,-3.014713932142645131e-02,-2.926231762226508964e-02,-2.844069747304383416e-02,-2.755587577388245862e-02,-2.673425562466120314e-02,-2.584943392549983454e-02,-2.496461222633847288e-02,-2.414299207711720352e-02,-2.325817037795583492e-02,-2.237334867879447325e-02,-2.155172852957321084e-02,-2.066690683041184917e-02,-1.984528668119057981e-02,-1.896046498202921121e-02,-1.807564328286784955e-02,-1.725402313364658713e-02,-1.636920143448522547e-02,-1.548437973532385513e-02,-1.466275958610259271e-02,-1.377793788694122758e-02,-1.289311618777986591e-02,-1.207149603855860003e-02,-1.118667433939723489e-02,-1.036505419017596900e-02,-9.480232491014607341e-03,-8.595410791853249147e-03,-7.773790642631979789e-03,-6.888968943470614656e-03,-6.004147244309252993e-03,-5.182527095087987104e-03,-4.297705395926621971e-03,-3.476085246705356083e-03
-4.127061211088359910e-02,-4.038579041172223744e-02,-3.950096871256086190e-02,-3.867934856333959254e-02,-3.779452686417823087e-02,-3.697290671495696845e-02,-3.608808501579560679e-02,-3.520326331663423819e-02,-3.438164316741296883e-02,-3.349682146825160717e-02,-3.261199976909024550e-02,-3.179037961986897615e-02,-3.090555792070761448e-02,-3.002073622154625976e-02,-2.919911607232499734e-02,-2.831429437316363568e-02,-2.749267422394236632e-02,-2.660785252478100466e-02,-2.572303082561964299e-02,-2.490141067639837363e-02,-2.401658897723701197e-02,-2.313176727807564337e-02,-2.231014712885438095e-02,-2.142532542969301929e-02,-2.060370528047174993e-02,-1.971888358131038133e-02,-1.883406188214901966e-02,-1.801244173292775030e-02,-1.712762003376638864e-02,-1.624279833460502698e-02,-1.542117818538376282e-02,-1.453635648622239769e-02,-1.365153478706103256e-02,-1.282991463783977014e-02,-1.194509293867840848e-02,-1.112347278945713912e-02,-1.023865109029577398e-02,-9.353829391134412322e-03,-8.532209241913149902e-03,-7.647387542751784770e-03,-6.762565843590423106e-03,-5.940945694369153748e-03,-5.056123995207792085e-03,-4.171302296046426952e-03,-3.349682146825161064e-03,-2.464860447663797666e-03,-1.643240298442530042e-03
-3.943776716262076959e-02,-3.855294546345940099e-02,-3.766812376429803932e-02,-3.684650361507678384e-02,-3.596168191591540830e-02,-3.514006176669413894e-02,-3.425524006753277728e-02,-3.337041836837142256e-02,-3.254879821915014626e-02,-3.166397651998878460e-02,-3.077915482082742293e-02,-2.995753467160616051e-02,-2.907271297244479885e-02,-2.818789127328343719e-02,-2.736627112406216783e-02,-2.648144942490080617e-02,-2.565982927567954375e-02,-2.477500757651818208e-02,-2.389018587735681348e-02,-2.306856572813554412e-02,-2.218374402897418246e-02,-2.129892232981282080e-02,-2.047730218059155838e-02,-1.959248048143018978e-02,-1.877086033220892042e-02,-1.788603863304755875e-02,-1.700121693388619709e-02,-1.617959678466492773e-02,-1.529477508550356434e-02,-1.440995338634220614e-02,-1.358833323712094025e-02,-1.270351153795957165e-02,-1.181868983879820999e-02,-1.099706968957694063e-02,-1.011224799041558244e-02,-9.290627841194316547e-03,-8.405806142032951414e-03,-7.520984442871589751e-03,-6.699364293650323862e-03,-5.814542594488958729e-03,-4.929720895327597066e-03,-4.108100746106329443e-03,-3.223279046944966045e-03,-2.401658897723701891e-03,-1.516837198562335023e-03,-6.320154994009733601e-04,1.896046498202907937e-04
-3.760492221435794008e-02,-3.672010051519657842e-02,-3.589848036597531600e-02,-3.501365866681394740e-02,-3.412883696765258573e-02,-3.330721681843131637e-02,-3.242239511926995471e-02,-3.153757342010859305e-02,-3.071595327088732369e-02,-2.983113157172596203e-02,-2.894630987256460730e-02,-2.812468972334333794e-02,-2.723986802418197628e-02,-2.641824787496070692e-02,-2.553342617579935220e-02,-2.464860447663799053e-02,-2.382698432741672118e-02,-2.294216262825534564e-02,-2.205734092909399091e-02,-2.123572077987272155e-02,-2.035089908071135989e-02,-1.946607738154999129e-02,-1.864445723232872887e-02,-1.775963553316736721e-02,-1.693801538394609785e-02,-1.605319368478473618e-02,-1.516837198562337279e-02,-1.434675183640211037e-02,-1.346193013724074176e-02,-1.257710843807937663e-02,-1.175548828885811074e-02,-1.087066658969674908e-02,-1.004904644047548319e-02,-9.164224741314124997e-03,-8.279403042152756395e-03,-7.457782892931493976e-03,-6.572961193770132313e-03,-5.688139494608763710e-03,-4.866519345387497822e-03,-3.981697646226136159e-03,-3.096875947064771026e-03,-2.275255797843505137e-03,-1.390434098682143474e-03,-5.688139494608741159e-04,3.160077497004875474e-04,1.200829448861849211e-03,2.022449598083116834e-03
-1.804404250789780340e-02,-3.488725556693374891e-02,-3.406563541771248649e-02,-3.318081371855112482e-02,-3.229599201938976316e-02,-3.147437187016849380e-02,-3.058955017100712520e-02,-2.970472847184577048e-02,-2.888310832262451500e-02,-2.799828662346314639e-02,-2.717666647424187704e-02,-2.629184477508051537e-02,-2.540702307591915371e-02,-2.458540292669788435e-02,-2.370058122753652269e-02,-2.281575952837516102e-02,-2.199413937915389167e-02,-2.110931767999253000e-02,-2.022449598083116140e-02,-1.940287583160989898e-02,-1.851805413244853038e-02,-1.769643398322726796e-02,-1.681161228406589936e-02,-1.592679058490453770e-02,-1.510517043568327354e-02,-1.422034873652191188e-02,-1.333552703736055021e-02,-1.251390688813928086e-02,-1.162908518897791919e-02,-1.074426348981655406e-02,-9.922643340595288172e-03,-9.037821641433926509e-03,-8.216201492212664090e-03,-7.331379793051295488e-03,-6.446558093889933824e-03,-5.624937944668667936e-03,-4.740116245507302803e-03,-3.855294546345941140e-03,-3.033674397124673516e-03,-2.148852697963308384e-03,-1.327232548742044230e-03,-4.424108495806825664e-04,4.424108495806808317e-04,1.264030998801948455e-03,2.148852697963310118e-03,3.033674397124673516e-03,3.855294546345940272e-03
1.562263312581782873e-03,-3.305441061867093328e-02,-3.223279046944966392e-02,-3.134796877028829531e-02,-3.046314707112693365e-02,-2.964152692190567123e-02,-2.875670522274431651e-02,-2.787188352358294791e-02,-2.705026337436168549e-02,-2.616544167520031688e-02,-2.534382152597905447e-02,-2.445899982681769280e-02,-2.357417812765633114e-02,-2.275255797843506178e-02,-2.186773627927369318e-02,-2.098291458011233152e-02,-2.016129443089106910e-02,-1.927647273172970049e-02,-1.839165103256833883e-02,-1.757003088334706947e-02,-1.668520918418570781e-02,-1.586358903496443845e-02,-1.497876733580307505e-02,-1.409394563664171339e-02,-1.327232548742045097e-02,-1.238750378825908931e-02,-1.150268208909772417e-02,-1.068106193987645829e-02,-9.796240240715093153e-03,-8.974620091493830734e-03,-8.089798392332465601e-03,-7.204976693171103938e-03,-6.383356543949834580e-03,-5.498534844788472917e-03,-4.613713145627107784e-03,-3.792092996405841895e-03,-2.907271297244478497e-03,-2.022449598083115099e-03,-1.200829448861849211e-03,-3.160077497004875474e-04,5.056123995207783411e-04,1.390434098682141739e-03,2.275255797843505137e-03,3.096875947064771026e-03,3.981697646226135291e-03,4.866519345387498689e-03,5.688139494608764578e-03
1.150268208909772417e-02,-1.787023824556253221e-02,-3.039994552118684135e-02,-2.951512382202547968e-02,-2.863030212286412496e-02,-2.780868197364285560e-02,-2.692386027448148700e-02,-2.603903857532012533e-02,-2.521741842609886292e-02,-2.433259672693749431e-02,-2.351097657771622496e-02,-2.262615487855486329e-02,-2.174133317939350163e-02,-2.091971303017223921e-02,-2.003489133101087755e-02,-1.915006963184950894e-02,-1.832844948262823959e-02,-1.744362778346687792e-02,-1.662200763424560856e-02,-1.573718593508424690e-02,-1.485236423592288697e-02,-1.403074408670162108e-02,-1.314592238754025595e-02,-1.226110068837889082e-02,-1.143948053915762493e-02,-1.055465883999625980e-02,-9.669837140834898134e-03,-8.848216991613635715e-03,-7.963395292452274052e-03,-7.141775143231004694e-03,-6.256953444069643031e-03,-5.372131744908277898e-03,-4.550511595687012009e-03,-3.665689896525646876e-03,-2.780868197364283478e-03,-1.959248048143019325e-03,-1.074426348981654192e-03,-2.528061997603900379e-04,6.320154994009733601e-04,1.516837198562336758e-03,2.338457347783602647e-03,3.223279046944966045e-03,4.108100746106329443e-03,4.929720895327596199e-03,5.814542594488959597e-03,6.699364293650322995e-03,7.520984442871588883e-03
1.150268208909772417e-02,1.279831386286971531e-03,-2.856710057292401878e-02,-2.768227887376265711e-02,-2.679745717460129545e-02,-2.597583702538002609e-02,-2.509101532621866443e-02,-2.426939517699739507e-02,-2.338457347783603341e-02,-2.249975177867467174e-02,-2.167813162945340238e-02,-2.079330993029204766e-02,-1.990848823113067906e-02,-1.908686808190940970e-02,-1.820204638274804804e-02,-1.731722468358667943e-02,-1.649560453436541702e-02,-1.561078283520405362e-02,-1.478916268598279120e-02,-1.390434098682142260e-02,-1.301951928766006093e-02,-1.219789913843879504e-02,-1.131307743927742991e-02,-1.042825574011606478e-02,-9.606635590894805829e-03,-8.721813891733440696e-03,-7.900193742512174808e-03,-7.015372043350813144e-03,-6.130550344189448012e-03,-5.308930194968182123e-03,-4.424108495806816990e-03,-3.539286796645451857e-03,-2.717666647424185969e-03,-1.832844948262824306e-03,-9.480232491014591728e-04,-1.264030998801932842e-04,7.584185992811683791e-04,1.580038748502434268e-03,2.464860447663795931e-03,3.349682146825161064e-03,4.171302296046427820e-03,5.056123995207790350e-03,5.940945694369153748e-03,6.762565843590419637e-03,7.647387542751783902e-03,8.469007691973048924e-03,9.353829391134414056e-03
1.150268208909772417e-02,1.150268208909772417e-02,-1.717502119622146134e-02,-2.584943392549982760e-02,-2.496461222633846594e-02,-2.414299207711720352e-02,-2.325817037795584186e-02,-2.243655022873456556e-02,-2.155172852957320390e-02,-2.066690683041184917e-02,-1.984528668119057981e-02,-1.896046498202921121e-02,-1.807564328286784955e-02,-1.725402313364658713e-02,-1.636920143448521853e-02,-1.554758128526395437e-02,-1.466275958610258924e-02,-1.377793788694123105e-02,-1.295631773771996169e-02,-1.207149603855860003e-02,-1.118667433939723489e-02,-1.036505419017597594e-02,-9.480232491014607341e-03,-8.595410791853249147e-03,-7.773790642631979789e-03,-6.888968943470614656e-03,-6.067348794249348767e-03,-5.182527095087983635e-03,-4.297705395926621971e-03,-3.476085246705356083e-03,-2.591263547543989215e-03,-1.706441848382627552e-03,-8.848216991613633980e-04,0.000000000000000000e+00,8.216201492212641538e-04,1.706441848382627552e-03,2.591263547543992685e-03,3.412883696765258573e-03,4.297705395926621971e-03,5.182527095087985369e-03,6.004147244309252125e-03,6.888968943470615523e-03,7.773790642631978054e-03,8.595410791853243943e-03,9.480232491014607341e-03,1.030185264023587323e-02,1.118667433939723663e-02
1.150268208909772417e-02,1.150268208909772417e-02,1.264030998801932842e-04,-2.401658897723700503e-02,-2.319496882801574261e-02,-2.231014712885437401e-02,-2.142532542969301235e-02,-2.060370528047174993e-02,-1.971888358131038133e-02,-1.883406188214901966e-02,-1.801244173292775030e-02,-1.712762003376638864e-02,-1.624279833460502004e-02,-1.542117818538375935e-02,-1.453635648622239769e-02,-1.371473633700113180e-02,-1.282991463783977014e-02,-1.194509293867840154e-02,-1.112347278945713912e-02,-1.023865109029577745e-02,-9.353829391134415791e-03,-8.532209241913149902e-03,-7.647387542751784770e-03,-6.825767393530518881e-03,-5.940945694369157218e-03,-5.056123995207792085e-03,-4.234503845986526196e-03,-3.349682146825159329e-03,-2.464860447663797666e-03,-1.643240298442531777e-03,-7.584185992811683791e-04,1.264030998801950190e-04,9.480232491014591728e-04,1.832844948262824306e-03,2.654465097484090194e-03,3.539286796645453592e-03,4.424108495806816990e-03,5.245728645028082879e-03,6.130550344189446277e-03,7.015372043350809675e-03,7.836992192572075563e-03,8.721813891733438961e-03,9.606635590894802360e-03,1.042825574011606825e-02,1.131307743927743165e-02,1.150268208909772417e-02,1.150268208909772417e-02
1.150268208909772417e-02,1.150268208909772417e-02,1.150268208909772417e-02,-1.481483831564594893e-02,-2.136212387975292004e-02,-2.047730218059155838e-02,-1.959248048143018978e-02,-1.877086033220892042e-02,-1.788603863304755875e-02,-1.700121693388619709e-02,-1.617959678466492773e-02,-1.529477508550356434e-02,-1.447315493628229498e-02,-1.358833323712093678e-02,-1.270351153795957165e-02,-1.188189138873830923e-02,-1.099706968957694063e-02,-1.011224799041557897e-02,-9.290627841194316547e-03,-8.405806142032954884e-03,-7.520984442871589751e-03,-6.699364293650323862e-03,-5.814542594488958729e-03,-4.992922445267692841e-03,-4.108100746106329443e-03,-3.223279046944966045e-03,-2.401658897723701891e-03,-1.516837198562335023e-03,-6.320154994009733601e-04,1.896046498202907937e-04,1.074426348981655926e-03,1.896046498202920080e-03,2.780868197364285213e-03,3.665689896525648611e-03,4.487310045746914500e-03,5.372131744908277898e-03,6.256953444069641296e-03,7.078573593290907184e-03,7.963395292452270582e-03,8.848216991613633980e-03,9.669837140834899869e-03,1.055465883999626327e-02,1.137627898921752916e-02,1.150268208909772417e-02,1.150268208909772417e-02,1.150268208909772417e-02,1.150268208909772417e-02
1.150268208909772417e-02,1.150268208909772417e-02,1.150268208909772417e-02,-4.424108495806825664e-04,-1.952927893149009053e-02,-1.864445723232872193e-02,-1.775963553316736027e-02,-1.693801538394609785e-02,-1.605319368478473618e-02,-1.516837198562337279e-02,-1.434675183640210343e-02,-1.346193013724074176e-02,-1.264030998801947588e-02,-1.175548828885811074e-02,-1.087066658969674908e-02,-1.004904644047548319e-02,-9.164224741314121528e-03,-8.279403042152756395e-03,-7.457782892931493976e-03,-6.572961193770132313e-03,-5.751341044548862955e-03,-4.866519345387497822e-03,-3.981697646226134424e-03,-3.160077497004866801e-03,-2.275255797843505137e-03,-1.390434098682141739e-03,-5.688139494608741159e-04,3.160077497004875474e-04,1.200829448861849211e-03,2.022449598083116834e-03,2.907271297244480232e-03,3.728891446465746121e-03,4.613713145627109519e-03,5.498534844788472917e-03,6.320154994009737938e-03,7.204976693171102203e-03,8.089798392332463867e-03,8.911418541553731490e-03,9.796240240715094888e-03,1.061786038993636078e-02,1.150268208909772417e-02,1.150268208909772417e-02,1.150268208909772417e-02,1.150268208909772417e-02,1.150268208909772417e-02,1.150268208909772417e-02,1.150268208909772417e-02
1.150268208909772417e-02,1.150268208909772417e-02,1.150268208909772417e-02,1.150268208909772417e-02,-1.313407209692648604e-02,-1.681161228406589936e-02,-1.592679058490453770e-02,-1.510517043568327354e-02,-1.422034873652191188e-02,-1.339872858730064599e-02,-1.251390688813928433e-02,-1.162908518897791919e-02,-1.080746503975665330e-02,-9.922643340595288172e-03,-9.037821641433926509e-03,-8.216201492212664090e-03,-7.331379793051298957e-03,-6.446558093889933824e-03,-5.624937944668667936e-03,-4.740116245507302803e-03,-3.918496096286038649e-03,-3.033674397124671782e-03,-2.148852697963310118e-03,-1.327232548742044230e-03,-4.424108495806808317e-04,4.424108495806825664e-04,1.264030998801946720e-03,2.148852697963310118e-03,2.970472847184576007e-03,3.855294546345940272e-03,4.740116245507304538e-03,5.561736394728569559e-03,6.446558093889933824e-03,7.331379793051297222e-03,8.152999942272563111e-03,9.037821641433926509e-03,9.922643340595289907e-03,1.074426348981655580e-02,1.150268208909772417e-02,1.150268208909772417e-02,1.150268208909772417e-02,1.150268208909772417e-02,1.150268208909772417e-02,1.150268208909772417e-02,1.150268208909772417e-02,1.150268208909772417e-02,1.150268208909772417e-02
1.150268208909772417e-02,1.150268208909772417e-02,1.150268208909772417e-02,1.150268208909772417e-02,3.851344449474700116e-04,-1.497876733580307852e-02,-1.409394563664171686e-02,-1.327232548742045097e-02,-1.238750378825908584e-02,-1.156588363903781995e-02,-1.068106193987645829e-02,-9.796240240715096623e-03,-8.974620091493830734e-03,-8.089798392332469071e-03,-7.204976693171103938e-03,-6.383356543949838049e-03,-5.498534844788472917e-03,-4.676914695567207028e-03,-3.792092996405841895e-03,-2.907271297244478497e-03,-2.085651148023210874e-03,-1.200829448861849211e-03,-3.160077497004858127e-04,5.056123995207783411e-04,1.390434098682141739e-03,2.275255797843505137e-03,3.096875947064771026e-03,3.981697646226135291e-03,4.803317795447402047e-03,5.688139494608766313e-03,6.572961193770127976e-03,7.394581342991393864e-03,8.279403042152758130e-03,9.164224741314119793e-03,9.985844890535387416e-03,1.087066658969675081e-02,1.150268208909772417e-02,1.150268208909772417e-02,1.150268208909772417e-02,1.150268208909772417e-02,1.150268208909772417e-02,1.150268208909772417e-02,1.150268208909772417e-02,1.150268208909772417e-02,1.150268208909772417e-02,1.150268208909772417e-02,1.150268208909772417e-02
1.150268208909772417e-02,1.150268208909772417e-02,1.150268208909772417e-02,1.150268208909772417e-02,1.150268208909772417e-02,-1.083511571785544629e-02,-1.232430223831898659e-02,-1.143948053915762493e-02,-1.055465883999625980e-02,-9.733038690774997378e-03,-8.848216991613635715e-03,-7.963395292452274052e-03,-7.141775143231004694e-03,-6.256953444069639561e-03,-5.372131744908281367e-03,-4.550511595687012009e-03,-3.665689896525646876e-03,-2.844069747304380988e-03,-1.959248048143017590e-03,-1.074426348981654192e-03,-2.528061997603883032e-04,6.320154994009733601e-04,1.516837198562335023e-03,2.338457347783602647e-03,3.223279046944966045e-03,4.108100746106330310e-03,4.929720895327596199e-03,5.814542594488959597e-03,6.636162743710226353e-03,7.520984442871588883e-03,8.405806142032953149e-03,9.227426291254219037e-03,1.011224799041558070e-02,1.099706968957694583e-02,1.150268208909772417e-02,1.150268208909772417e-02,1.150268208909772417e-02,1.150268208909772417e-02,1.150268208909772417e-02,1.150268208909772417e-02,1.150268208909772417e-02,1.150268208909772417e-02,1.150268208909772417e-02,1.150268208909772417e-02,1.150268208909772417e-02,1.150268208909772417e-02,1.150268208909772417e-02
1.150268208909772417e-02,1.150268208909772417e-02,1.150268208909772417e-02,1.150268208909772417e-02,1.150268208909772417e-02,8.077948101718693957e-04,-1.049145729005616402e-02,-9.606635590894805829e-03,-8.721813891733440696e-03,-7.900193742512174808e-03,-7.015372043350809675e-03,-6.130550344189448012e-03,-5.308930194968182123e-03,-4.424108495806816990e-03,-3.602488346585547632e-03,-2.717666647424185969e-03,-1.832844948262822571e-03,-1.011224799041556682e-03,-1.264030998801950190e-04,7.584185992811683791e-04,1.580038748502434268e-03,2.464860447663795931e-03,3.349682146825161064e-03,4.171302296046426952e-03,5.056123995207791218e-03,5.877744144429057106e-03,6.762565843590420504e-03,7.647387542751783035e-03,8.469007691973048924e-03,9.353829391134414056e-03,1.023865109029577572e-02,1.106027123951704161e-02,1.150268208909772417e-02,1.150268208909772417e-02,1.150268208909772417e-02,1.150268208909772417e-02,1.150268208909772417e-02,1.150268208909772417e-02,1.150268208909772417e-02,1.150268208909772417e-02,1.150268208909772417e-02,1.150268208909772417e-02,1.150268208909772417e-02,1.150268208909772417e-02,1.150268208909772417e-02,1.150268208909772417e-02,1.150268208909772417e-02
1.150268208909772417e-02,1.150268208909772417e-02,1.150268208909772417e-02,1.150268208909772417e-02,1.150268208909772417e-02,1.019124992784070302e-02,-7.398531439862651368e-03,-7.773790642631979789e-03,-6.888968943470614656e-03,-6.067348794249348767e-03,-5.182527095087987104e-03,-4.297705395926621971e-03,-3.476085246705356083e-03,-2.591263547543989215e-03,-1.769643398322726796e-03,-8.848216991613633980e-04,1.734723475976807094e-18,8.216201492212658886e-04,1.706441848382627552e-03,2.591263547543992685e-03,3.412883696765258573e-03,4.297705395926621971e-03,5.182527095087986237e-03,6.004147244309252125e-03,6.888968943470615523e-03,7.710589092691880544e-03,8.595410791853243943e-03,9.480232491014607341e-03,1.030185264023587323e-02,1.118667433939723663e-02,1.150268208909772417e-02,1.150268208909772417e-02,1.150268208909772417e-02,1.150268208909772417e-02,1.150268208909772417e-02,1.150268208909772417e-02,1.150268208909772417e-02,1.150268208909772417e-02,1.150268208909772417e-02,1.150268208909772417e-02,1.150268208909772417e-02,1.150268208909772417e-02,1.150268208909772417e-02,1.150268208909772417e-02,1.150268208909772417e-02,1.150268208909772417e-02,1.150268208909772417e-02
1.150268208909772417e-02,1.150268208909772417e-02,1.150268208909772417e-02,1.150268208909772417e-02,1.150268208909772417e-02,1.150268208909772417e-02,1.765693301451470160e-03,-5.940945694369153748e-03,-5.056123995207792085e-03,-4.234503845986526196e-03,-3.349682146825159329e-03,-2.464860447663795931e-03,-1.643240298442530042e-03,-7.584185992811683791e-04,6.320154994009750948e-05,9.480232491014609075e-04,1.832844948262824306e-03,2.654465097484090194e-03,3.539286796645453592e-03,4.424108495806816990e-03,5.245728645028082879e-03,6.130550344189446277e-03,6.952170493410712165e-03,7.836992192572075563e-03,8.721813891733438961e-03,9.543434040954704850e-03,1.042825574011606825e-02,1.131307743927743165e-02,1.150268208909772417e-02,1.150268208909772417e-02,1.150268208909772417e-02,1.150268208909772417e-02,1.150268208909772417e-02,1.150268208909772417e-02,1.150268208909772417e-02,1.150268208909772417e-02,1.150268208909772417e-02,1.150268208909772417e-02,1.150268208909772417e-02,1.150268208909772417e-02,1.150268208909772417e-02,1.150268208909772417e-02,1.150268208909772417e-02,1.150268208909772417e-02,1.150268208909772417e-02,1.150268208909772417e-02,1.150268208909772417e-02
1.150268208909772417e-02,1.150268208909772417e-02,1.150268208909772417e-02,1.150268208909772417e-02,1.150268208909772417e-02,1.150268208909772417e-02,9.956219164000966113e-03,-4.108100746106329443e-03,-3.223279046944966045e-03,-2.401658897723700156e-03,-1.516837198562335023e-03,-6.952170493410708696e-04,1.896046498202907937e-04,1.074426348981654192e-03,1.896046498202920080e-03,2.780868197364285213e-03,3.665689896525648611e-03,4.487310045746914500e-03,5.372131744908277898e-03,6.193751894129543786e-03,7.078573593290907184e-03,7.963395292452270582e-03,8.785015441673536471e-03,9.669837140834899869e-03,1.055465883999626327e-02,1.137627898921752916e-02,1.150268208909772417e-02,1.150268208909772417e-02,1.150268208909772417e-02,1.150268208909772417e-02,1.150268208909772417e-02,1.150268208909772417e-02,1.150268208909772417e-02,1.150268208909772417e-02,1.150268208909772417e-02,1.150268208909772417e-02,1.150268208909772417e-02,1.150268208909772417e-02,1.150268208909772417e-02,1.150268208909772417e-02,1.150268208909772417e-02,1.150268208909772417e-02,1.150268208909772417e-02,1.150268208909772417e-02,1.150268208909772417e-02,1.150268208909772417e-02,1.150268208909772417e-02
1.150268208909772417e-02,1.150268208909772417e-02,1.150268208909772417e-02,1.150268208909772417e-02,1.150268208909772417e-02,1.150268208909772417e-02,1.150268208909772417e-02,3.322031468726369813e-03,-1.390434098682141739e-03,-5.688139494608741159e-04,3.160077497004875474e-04,1.137627898921751701e-03,2.022449598083116834e-03,2.907271297244480232e-03,3.728891446465746121e-03,4.613713145627109519e-03,5.498534844788473784e-03,6.320154994009738805e-03,7.204976693171102203e-03,8.026596842392368092e-03,8.911418541553731490e-03,9.796240240715094888e-03,1.061786038993636078e-02,1.150268208909772417e-02,1.150268208909772417e-02,1.150268208909772417e-02,1.150268208909772417e-02,1.150268208909772417e-02,1.150268208909772417e-02,1.150268208909772417e-02,1.150268208909772417e-02,1.150268208909772417e-02,1.150268208909772417e-02,1.150268208909772417e-02,1.150268208909772417e-02,1.150268208909772417e-02,1.150268208909772417e-02,1.150268208909772417e-02,1.150268208909772417e-02,1.150268208909772417e-02,1.150268208909772417e-02,1.150268208909772417e-02,1.150268208909772417e-02,1.150268208909772417e-02,1.150268208909772417e-02,1.150268208909772417e-02,1.150268208909772417e-02
1.150268208909772417e-02,1.150268208909772417e-02,1.150268208909772417e-02,1.150268208909772417e-02,1.150268208909772417e-02,1.150268208909772417e-02,1.150268208909772417e-02,9.636261317429223663e-03,3.792092996405833222e-04,1.264030998801948455e-03,2.148852697963310118e-03,2.970472847184576007e-03,3.855294546345941140e-03,4.740116245507304538e-03,5.561736394728569559e-03,6.446558093889933824e-03,7.331379793051297222e-03,8.152999942272563111e-03,9.037821641433926509e-03,9.859441790655192397e-03,1.074426348981655580e-02,1.150268208909772417e-02,1.150268208909772417e-02,1.150268208909772417e-02,1.150268208909772417e-02,1.150268208909772417e-02,1.150268208909772417e-02,1.150268208909772417e-02,1.150268208909772417e-02,1.150268208909772417e-02,1.150268208909772417e-02,1.150268208909772417e-02,1.150268208909772417e-02,1.150268208909772417e-02,1.150268208909772417e-02,1.150268208909772417e-02,1.150268208909772417e-02,1.150268208909772417e-02,1.150268208909772417e-02,1.150268208909772417e-02,1.150268208909772417e-02,1.150268208909772417e-02,1.150268208909772417e-02,1.150268208909772417e-02,1.150268208909772417e-02,1.150268208909772417e-02,1.150268208909772417e-02
1.150268208909772417e-02,1.150268208909772417e-02,1.150268208909772417e-02,1.150268208909772417e-02,1.150268208909772417e-02,1.150268208909772417e-02,1.150268208909772417e-02,1.150268208909772417e-02,5.696039688351276983e-03,3.096875947064771026e-03,3.981697646226135291e-03,4.803317795447401180e-03,5.688139494608764578e-03,6.572961193770127976e-03,7.394581342991393864e-03,8.279403042152758130e-03,9.101023191374024018e-03,9.985844890535387416e-03,1.087066658969675081e-02,1.150268208909772417e-02,1.150268208909772417e-02,1.150268208909772417e-02,1.150268208909772417e-02,1.150268208909772417e-02,1.150268208909772417e-02,1.150268208909772417e-02,1.150268208909772417e-02,1.150268208909772417e-02,1.150268208909772417e-02,1.150268208909772417e-02,1.150268208909772417e-02,1.150268208909772417e-02,1.150268208909772417e-02,1.150268208909772417e-02,1.150268208909772417e-02,1.150268208909772417e-02,1.150268208909772417e-02,1.150268208909772417e-02,1.150268208909772417e-02,1.150268208909772417e-02,1.150268208909772417e-02,1.150268208909772417e-02,1.150268208909772417e-02,1.150268208909772417e-02,1.150268208909772417e-02,1.150268208909772417e-02,1.150268208909772417e-02
