-2.775755375084658638e-01,-2.775755375084658638e-01,-2.775755375084658638e-01,-2.775755375084658638e-01,-2.775755375084658638e-01,-2.775755375084658638e-01,-2.775755375084658638e-01,-2.775755375084658638e-01,-2.775755375084658638e-01,-2.775755375084658638e-01,-2.775755375084658638e-01,-2.775755375084658638e-01,-2.211930064520587491e-01,-1.040908265656747267e-01,-1.110223024625156540e-16,-5.551115123125782702e-17,-5.551115123125782702e-17,-5.551115123125782702e-17,-5.551115123125782702e-17,-5.551115123125782702e-17,-5.551115123125782702e-17,-5.551115123125782702e-17,-5.551115123125782702e-17,-5.551115123125782702e-17,-5.551115123125782702e-17,-5.551115123125782702e-17,-5.551115123125782702e-17,-5.551115123125782702e-17,-5.551115123125782702e-17,-5.551115123125782702e-17,-5.204541328283740498e-02,-2.006851693934119940e-01,-2.775755375084658638e-01,-2.775755375084658638e-01,-2.775755375084658638e-01,-2.775755375084658638e-01,-2.775755375084658638e-01,-2.775755375084658638e-01,-2.775755375084658638e-01,-2.775755375084658638e-01,-2.775755375084658638e-01,-2.775755375084658638e-01,-2.775755375084658638e-01,-2.775755375084658638e-01,-2.775755375084658638e-01,-2.775755375084658638e-01,-2.775755375084658638e-01
-2.775755375084658638e-01,-2.775755375084658638e-01,-2.775755375084658638e-01,-2.775755375084658638e-01,-2.775755375084658638e-01,-2.775755375084658638e-01,-2.775755375084658638e-01,-2.775755375084658638e-01,-2.775755375084658638e-01,-2.775755375084658638e-01,-2.775755375084658638e-01,-2.645641841877565126e-01,-1.474620043013725179e-01,-3.035982441498849549e-02,-5.551115123125782702e-17,-5.551115123125782702e-17,-1.110223024625156540e-16,-5.551115123125782702e-17,-5.551115123125782702e-17,-1.110223024625156540e-16,-5.551115123125782702e-17,-5.551115123125782702e-17,-5.551115123125782702e-17,-5.551115123125782702e-17,-5.551115123125782702e-17,-5.551115123125782702e-17,-5.551115123125782702e-17,-5.551115123125782702e-17,-5.551115123125782702e-17,-1.110223024625156540e-16,-1.495557852955187172e-03,-9.571570258912698304e-03,-1.232433143200809544e-01,-2.618347911061134625e-01,-2.775755375084658638e-01,-2.775755375084658638e-01,-2.775755375084658638e-01,-2.775755375084658638e-01,-2.775755375084658638e-01,-2.775755375084658638e-01,-2.775755375084658638e-01,-2.775755375084658638e-01,-2.775755375084658638e-01,-2.775755375084658638e-01,-2.775755375084658638e-01,-2.775755375084658638e-01,-2.775755375084658638e-01
-2.775755375084658638e-01,-2.775755375084658638e-01,-2.775755375084658638e-01,-2.775755375084658638e-01,-2.775755375084658638e-01,-2.775755375084658638e-01,-2.775755375084658638e-01,-2.775755375084658638e-01,-2.775755375084658638e-01,-2.775755375084658638e-01,-2.775755375084658638e-01,-1.908331820370702814e-01,-7.373100215068628671e-02,-5.551115123125782702e-17,-5.551115123125782702e-17,-5.551115123125782702e-17,-5.551115123125782702e-17,-5.551115123125782702e-17,-5.551115123125782702e-17,-5.551115123125782702e-17,-5.551115123125782702e-17,-1.110223024625156540e-16,-5.551115123125782702e-17,-5.551115123125782702e-17,-5.551115123125782702e-17,-5.551115123125782702e-17,-5.551115123125782702e-17,-5.551115123125782702e-17,-5.551115123125782702e-17,-5.551115123125782702e-17,-6.580454553002490492e-03,-1.465646695896000162e-02,-2.273247936491751275e-02,-5.394290230877415993e-02,-1.880664000091033794e-01,-2.775755375084658638e-01,-2.775755375084658638e-01,-2.775755375084658638e-01,-2.775755375084658638e-01,-2.775755375084658638e-01,-2.775755375084658638e-01,-2.775755375084658638e-01,-2.775755375084658638e-01,-2.775755375084658638e-01,-2.775755375084658638e-01,-2.775755375084658638e-01,-2.775755375084658638e-01
-2.775755375084658638e-01,-2.775755375084658638e-01,-2.775755375084658638e-01,-2.775755375084658638e-01,-2.775755375084658638e-01,-2.775755375084658638e-01,-2.775755375084658638e-01,-2.775755375084658638e-01,-2.775755375084658638e-01,-2.775755375084658638e-01,-2.342043597727680726e-01,-1.171021798863840779e-01,-5.551115123125782702e-17,-5.551115123125782702e-17,-1.110223024625156540e-16,-5.551115123125782702e-17,-1.110223024625156540e-16,-5.551115123125782702e-17,-5.551115123125782702e-17,-5.551115123125782702e-17,-5.551115123125782702e-17,-5.551115123125782702e-17,-5.551115123125782702e-17,-5.551115123125782702e-17,-5.551115123125782702e-17,-5.551115123125782702e-17,-5.551115123125782702e-17,-5.551115123125782702e-17,-5.551115123125782702e-17,-3.589338847092282681e-03,-1.166535125304979381e-02,-1.974136365900730494e-02,-2.781737606496484383e-02,-3.589338847092238272e-02,-4.396940087687989385e-02,-1.225235771033462984e-01,-2.435983325366422592e-01,-2.775755375084658638e-01,-2.775755375084658638e-01,-2.775755375084658638e-01,-2.775755375084658638e-01,-2.775755375084658638e-01,-2.775755375084658638e-01,-2.775755375084658638e-01,-2.775755375084658638e-01,-2.775755375084658638e-01,-2.775755375084658638e-01
-2.775755375084658638e-01,-2.775755375084658638e-01,-2.775755375084658638e-01,-2.775755375084658638e-01,-2.775755375084658638e-01,-2.775755375084658638e-01,-2.775755375084658638e-01,-2.775755375084658638e-01,-2.775755375084658638e-01,-2.775755375084658638e-01,-1.604733576220818414e-01,-4.337117773569784673e-02,-5.551115123125782702e-17,-5.551115123125782702e-17,-5.551115123125782702e-17,-5.551115123125782702e-17,-5.551115123125782702e-17,-5.551115123125782702e-17,-1.110223024625156540e-16,-5.551115123125782702e-17,-5.551115123125782702e-17,-5.551115123125782702e-17,-5.551115123125782702e-17,-5.551115123125782702e-17,-1.110223024625156540e-16,-5.551115123125782702e-17,-5.551115123125782702e-17,0.000000000000000000e+00,-5.982231411820748690e-04,-8.674235547139641511e-03,-1.675024795309715264e-02,-2.482626035905466377e-02,-3.290227276501217490e-02,-4.097828517096968604e-02,-4.905429757692722492e-02,-5.713030998288470830e-02,-6.520632238884221943e-02,-1.818130987364348639e-01,-2.775755375084658638e-01,-2.775755375084658638e-01,-2.775755375084658638e-01,-2.775755375084658638e-01,-2.775755375084658638e-01,-2.775755375084658638e-01,-2.775755375084658638e-01,-2.775755375084658638e-01,-2.775755375084658638e-01
-2.775755375084658638e-01,-2.775755375084658638e-01,-2.775755375084658638e-01,-2.775755375084658638e-01,-2.775755375084658638e-01,-2.775755375084658638e-01,-2.775755375084658638e-01,-2.775755375084658638e-01,-2.775755375084658638e-01,-2.038445353577796326e-01,-8.674235547139561020e-02,-5.551115123125782702e-17,-5.551115123125782702e-17,-5.551115123125782702e-17,-5.551115123125782702e-17,-5.551115123125782702e-17,-5.551115123125782702e-17,-5.551115123125782702e-17,-5.551115123125782702e-17,-5.551115123125782702e-17,-5.551115123125782702e-17,-5.551115123125782702e-17,-5.551115123125782702e-17,-5.551115123125782702e-17,0.000000000000000000e+00,-5.551115123125782702e-17,-5.551115123125782702e-17,-5.551115123125782702e-17,-5.683119841229489211e-03,-1.375913224718694483e-02,-2.183514465314445596e-02,-2.991115705910199485e-02,-3.798716946505950598e-02,-4.606318187101701711e-02,-5.413919427697452824e-02,-6.221520668293201162e-02,-7.029121908888955050e-02,-7.836723149484706163e-02,-1.282534331274804984e-01,-2.375319759955931698e-01,-2.775755375084658638e-01,-2.775755375084658638e-01,-2.775755375084658638e-01,-2.775755375084658638e-01,-2.775755375084658638e-01,-2.775755375084658638e-01,-2.775755375084658638e-01
-2.775755375084658638e-01,-2.775755375084658638e-01,-2.775755375084658638e-01,-2.775755375084658638e-01,-2.775755375084658638e-01,-2.775755375084658638e-01,-2.775755375084658638e-01,-2.775755375084658638e-01,-2.472157130934774238e-01,-1.301135332070934014e-01,-8.674235547139641511e-03,-5.551115123125782702e-17,-5.551115123125782702e-17,-5.551115123125782702e-17,-1.110223024625156540e-16,0.000000000000000000e+00,-5.551115123125782702e-17,-5.551115123125782702e-17,-5.551115123125782702e-17,-5.551115123125782702e-17,-5.551115123125782702e-17,-5.551115123125782702e-17,-1.110223024625156540e-16,-5.551115123125782702e-17,-5.551115123125782702e-17,-5.551115123125782702e-17,-5.551115123125782702e-17,-2.692004135319225888e-03,-1.076801654127673702e-02,-1.884402894723424815e-02,-2.692004135319181479e-02,-3.499605375914932592e-02,-4.307206616510680930e-02,-5.114807857106432043e-02,-5.922409097702183156e-02,-6.730010338297937045e-02,-7.537611578893688158e-02,-8.345212819489439271e-02,-9.152814060085190384e-02,-9.990326457740045241e-02,-1.874775241045023022e-01,-2.775755375084658638e-01,-2.775755375084658638e-01,-2.775755375084658638e-01,-2.775755375084658638e-01,-2.775755375084658638e-01,-2.775755375084658638e-01
-2.775755375084658638e-01,-2.775755375084658638e-01,-2.775755375084658638e-01,-2.775755375084658638e-01,-2.775755375084658638e-01,-2.775755375084658638e-01,-2.775755375084658638e-01,-2.775755375084658638e-01,-1.691475931692213996e-01,-5.204541328283737722e-02,-5.551115123125782702e-17,-5.551115123125782702e-17,-5.551115123125782702e-17,-5.551115123125782702e-17,-5.551115123125782702e-17,-5.551115123125782702e-17,-5.551115123125782702e-17,-5.551115123125782702e-17,-5.551115123125782702e-17,-5.551115123125782702e-17,-5.551115123125782702e-17,-5.551115123125782702e-17,-5.551115123125782702e-17,-1.110223024625156540e-16,-5.551115123125782702e-17,-5.551115123125782702e-17,-5.551115123125782702e-17,-7.776900835366640230e-03,-1.585291324132409585e-02,-2.392892564728160698e-02,-3.200493805323909036e-02,-4.008095045919662924e-02,-4.815696286515414037e-02,-5.623297527111165151e-02,-6.430898767706916264e-02,-7.238500008302667377e-02,-8.076012405957522233e-02,-8.883613646553273346e-02,-9.691214887149024459e-02,-1.049881612774477557e-01,-1.130641736834053224e-01,-1.455832097485976750e-01,-2.312132440668578925e-01,-2.775755375084658638e-01,-2.775755375084658638e-01,-2.775755375084658638e-01,-2.775755375084658638e-01
-2.775755375084658638e-01,-2.775755375084658638e-01,-2.775755375084658638e-01,-2.775755375084658638e-01,-2.775755375084658638e-01,-2.775755375084658638e-01,-2.775755375084658638e-01,-2.125187709049191909e-01,-9.541659101853516844e-02,-5.551115123125782702e-17,-5.551115123125782702e-17,-5.551115123125782702e-17,-1.110223024625156540e-16,-5.551115123125782702e-17,-1.110223024625156540e-16,-5.551115123125782702e-17,-5.551115123125782702e-17,-5.551115123125782702e-17,-5.551115123125782702e-17,-5.551115123125782702e-17,0.000000000000000000e+00,-5.551115123125782702e-17,-5.551115123125782702e-17,-5.551115123125782702e-17,-5.551115123125782702e-17,-5.551115123125782702e-17,-4.785785129456376907e-03,-1.286179753541394355e-02,-2.093780994137139917e-02,-2.901382234732891030e-02,-3.708983475328644919e-02,-4.516584715924398807e-02,-5.324185956520147145e-02,-6.161698354174999226e-02,-6.969299594770750339e-02,-7.776900835366504228e-02,-8.584502075962255341e-02,-9.392103316558006454e-02,-1.019970455715375757e-01,-1.100730579774951146e-01,-1.181490703834526534e-01,-1.262250827894101368e-01,-1.343010951953676757e-01,-1.930765188165029511e-01,-2.656578108677299377e-01,-2.775755375084658638e-01,-2.775755375084658638e-01
-2.775755375084658638e-01,-2.775755375084658638e-01,-2.775755375084658638e-01,-2.775755375084658638e-01,-2.775755375084658638e-01,-2.775755375084658638e-01,-2.558899486406169821e-01,-1.387877687542329597e-01,-2.168558886784893724e-02,-5.551115123125782702e-17,-5.551115123125782702e-17,-1.110223024625156540e-16,-5.551115123125782702e-17,-5.551115123125782702e-17,-5.551115123125782702e-17,-5.551115123125782702e-17,-5.551115123125782702e-17,-5.551115123125782702e-17,-5.551115123125782702e-17,-5.551115123125782702e-17,-5.551115123125782702e-17,-5.551115123125782702e-17,-5.551115123125782702e-17,-5.551115123125782702e-17,-5.551115123125782702e-17,-1.794669423546169096e-03,-9.870681829503735738e-03,-1.794669423546119136e-02,-2.602270664141870249e-02,-3.439783061796730657e-02,-4.247384302392478994e-02,-5.054985542988230107e-02,-5.862586783583978445e-02,-6.670188024179732333e-02,-7.477789264775480671e-02,-8.285390505371234560e-02,-9.092991745966988448e-02,-9.900592986562739561e-02,-1.070819422715849345e-01,-1.151579546775424734e-01,-1.232339670834999568e-01,-1.313099794894574956e-01,-1.393859918954150068e-01,-1.474620043013725179e-01,-1.631653617574010395e-01,-2.312786747229246820e-01,-2.775755375084658638e-01
-2.775755375084658638e-01,-2.775755375084658638e-01,-2.775755375084658638e-01,-2.775755375084658638e-01,-2.775755375084658638e-01,-2.775755375084658638e-01,-1.821589464899307509e-01,-6.505676660354675622e-02,-5.551115123125782702e-17,-5.551115123125782702e-17,-5.551115123125782702e-17,-5.551115123125782702e-17,-5.551115123125782702e-17,-5.551115123125782702e-17,-5.551115123125782702e-17,-5.551115123125782702e-17,-1.110223024625156540e-16,-5.551115123125782702e-17,-1.110223024625156540e-16,-5.551115123125782702e-17,-5.551115123125782702e-17,-5.551115123125782702e-17,-5.551115123125782702e-17,0.000000000000000000e+00,-5.551115123125782702e-17,-6.879566123593527927e-03,-1.525469010014202098e-02,-2.333070250609958762e-02,-3.140671491205707100e-02,-3.948272731801458213e-02,-4.755873972397212102e-02,-5.563475212992960439e-02,-6.371076453588714328e-02,-7.178677694184465441e-02,-7.986278934780213778e-02,-8.793880175375964892e-02,-9.601481415971718780e-02,-1.040908265656746989e-01,-1.121668389716322656e-01,-1.202428513775898045e-01,-1.283188637835472878e-01,-1.363948761895048267e-01,-1.444708885954623379e-01,-1.525469010014198490e-01,-1.606229134073773601e-01,-1.686989258133348712e-01,-2.051251067693724284e-01
-2.775755375084658638e-01,-2.775755375084658638e-01,-2.775755375084658638e-01,-2.775755375084658638e-01,-2.775755375084658638e-01,-2.255301242256285144e-01,-1.084279443392445197e-01,-5.551115123125782702e-17,-5.551115123125782702e-17,-5.551115123125782702e-17,-5.551115123125782702e-17,-5.551115123125782702e-17,0.000000000000000000e+00,-5.551115123125782702e-17,-5.551115123125782702e-17,-5.551115123125782702e-17,-5.551115123125782702e-17,-5.551115123125782702e-17,-5.551115123125782702e-17,-5.551115123125782702e-17,-5.551115123125782702e-17,-5.551115123125782702e-17,-5.551115123125782702e-17,-5.551115123125782702e-17,-4.187561988274357549e-03,-1.226357439423186868e-02,-2.033958680018937981e-02,-2.841559920614689094e-02,-3.649161161210440207e-02,-4.456762401806191320e-02,-5.264363642401942434e-02,-6.071964882997693547e-02,-6.879566123593447435e-02,-7.687167364189198548e-02,-8.494768604784946886e-02,-9.302369845380700775e-02,-1.010997108597645189e-01,-1.091757232657220855e-01,-1.172517356716795967e-01,-1.253277480776371078e-01,-1.334037604835946189e-01,-1.414797728895521578e-01,-1.495557852955096412e-01,-1.576317977014671523e-01,-1.657078101074246912e-01,-1.737838225133822023e-01,-1.818598349193397135e-01
-2.775755375084658638e-01,-2.775755375084658638e-01,-2.775755375084658638e-01,-2.775755375084658638e-01,-2.689013019613263333e-01,-1.517991220749422832e-01,-3.469694218855828849e-02,-5.551115123125782702e-17,-5.551115123125782702e-17,-5.551115123125782702e-17,-5.551115123125782702e-17,-5.551115123125782702e-17,-5.551115123125782702e-17,-5.551115123125782702e-17,-5.551115123125782702e-17,-5.551115123125782702e-17,-5.551115123125782702e-17,-1.110223024625156540e-16,-1.110223024625156540e-16,-5.551115123125782702e-17,-5.551115123125782702e-17,-5.551115123125782702e-17,-5.551115123125782702e-17,-1.196446282364149738e-03,-9.272458688321660869e-03,-1.734847109427917200e-02,-2.542448350023668313e-02,-3.350049590619422202e-02,-4.157650831215170539e-02,-4.965252071810921652e-02,-5.772853312406672766e-02,-6.580454553002426654e-02,-7.388055793598177767e-02,-8.195657034193928880e-02,-9.003258274789679994e-02,-9.810859515385433882e-02,-1.061846075598118500e-01,-1.142606199657693888e-01,-1.223366323717269277e-01,-1.304126447776844389e-01,-1.384886571836419500e-01,-1.465646695895994611e-01,-1.546406819955569723e-01,-1.627166944015144834e-01,-1.707927068074719945e-01,-1.788687192134295056e-01,-1.869447316193870168e-01
-2.775755375084658638e-01,-2.775755375084658638e-01,-2.775755375084658638e-01,-2.775755375084658638e-01,-1.951702998106400744e-01,-7.806811992425605196e-02,0.000000000000000000e+00,-5.551115123125782702e-17,-5.551115123125782702e-17,-5.551115123125782702e-17,-5.551115123125782702e-17,-5.551115123125782702e-17,-5.551115123125782702e-17,-5.551115123125782702e-17,-5.551115123125782702e-17,-5.551115123125782702e-17,-1.110223024625156540e-16,-5.551115123125782702e-17,-5.551115123125782702e-17,-5.551115123125782702e-17,-5.551115123125782702e-17,-5.551115123125782702e-17,-5.551115123125782702e-17,-6.281342982411508569e-03,-1.435735538836901970e-02,-2.243336779432647532e-02,-3.050938020028404196e-02,-3.858539260624152534e-02,-4.666140501219906422e-02,-5.473741741815654760e-02,-6.281342982411405873e-02,-7.088944223007156986e-02,-7.896545463602910875e-02,-8.704146704198659212e-02,-9.511747944794413101e-02,-1.031934918539016421e-01,-1.112695042598592088e-01,-1.193455166658167199e-01,-1.274215290717742310e-01,-1.354975414777317699e-01,-1.435735538836892811e-01,-1.516495662896467922e-01,-1.597255786956043033e-01,-1.678015911015618145e-01,-1.761767150781103353e-01,-1.842527274840678742e-01,-1.923287398900254130e-01
-2.775755375084658638e-01,-2.775755375084658638e-01,-2.775755375084658638e-01,-2.385414775463378656e-01,-1.214392976599538432e-01,-4.337117773569820756e-03,-5.551115123125782702e-17,-5.551115123125782702e-17,-5.551115123125782702e-17,-5.551115123125782702e-17,-5.551115123125782702e-17,-1.110223024625156540e-16,-5.551115123125782702e-17,-5.551115123125782702e-17,-5.551115123125782702e-17,-5.551115123125782702e-17,-5.551115123125782702e-17,-1.110223024625156540e-16,-5.551115123125782702e-17,-5.551115123125782702e-17,-5.551115123125782702e-17,-5.551115123125782702e-17,-3.290227276501245246e-03,-1.136623968245881189e-02,-1.944225208841626751e-02,-2.751826449437383415e-02,-3.559427690033134528e-02,-4.367028930628885641e-02,-5.174630171224636754e-02,-5.982231411820387867e-02,-6.789832652416138981e-02,-7.597433893011890094e-02,-8.405035133607643982e-02,-9.212636374203395095e-02,-1.002023761479914343e-01,-1.082783885539490010e-01,-1.163544009599065399e-01,-1.244304133658640510e-01,-1.325064257718215899e-01,-1.405824381777791010e-01,-1.489575621543276218e-01,-1.570335745602851329e-01,-1.651095869662426441e-01,-1.731855993722001552e-01,-1.812616117781576663e-01,-1.893376241841152052e-01,-1.974136365900727164e-01
-2.775755375084658638e-01,-2.775755375084658638e-01,-2.775755375084658638e-01,-1.648104753956516344e-01,-4.770829550926761198e-02,-5.551115123125782702e-17,-5.551115123125782702e-17,0.000000000000000000e+00,-5.551115123125782702e-17,-5.551115123125782702e-17,-5.551115123125782702e-17,-5.551115123125782702e-17,-5.551115123125782702e-17,-5.551115123125782702e-17,-5.551115123125782702e-17,-5.551115123125782702e-17,-5.551115123125782702e-17,-5.551115123125782702e-17,0.000000000000000000e+00,-5.551115123125782702e-17,-5.551115123125782702e-17,-2.991115705910374345e-04,-8.375123976548604077e-03,-1.645113638250611521e-02,-2.452714878846362634e-02,-3.260316119442113747e-02,-4.067917360037864860e-02,-4.875518600633618749e-02,-5.683119841229367086e-02,-6.490721081825120975e-02,-7.298322322420872088e-02,-8.105923563016623201e-02,-8.913524803612377090e-02,-9.721126044208128203e-02,-1.052872728480387932e-01,-1.133632852539963320e-01,-1.214392976599538709e-01,-1.298144216365024195e-01,-1.378904340424599029e-01,-1.459664464484174140e-01,-1.540424588543749529e-01,-1.621184712603324640e-01,-1.701944836662899752e-01,-1.782704960722474863e-01,-1.863465084782049974e-01,-1.944225208841625085e-01,-2.024985332901200474e-01
-2.775755375084658638e-01,-2.775755375084658638e-01,-2.081816531313493979e-01,-9.107947324496540320e-02,0.000000000000000000e+00,-5.551115123125782702e-17,-5.551115123125782702e-17,-5.551115123125782702e-17,-5.551115123125782702e-17,-5.551115123125782702e-17,-5.551115123125782702e-17,-5.551115123125782702e-17,-5.551115123125782702e-17,-1.110223024625156540e-16,-5.551115123125782702e-17,-5.551115123125782702e-17,0.000000000000000000e+00,-5.551115123125782702e-17,0.000000000000000000e+00,-5.551115123125782702e-17,0.000000000000000000e+00,-5.384008270638451776e-03,-1.346002067659590740e-02,-2.153603308255347404e-02,-2.961204548851098517e-02,-3.768805789446846854e-02,-4.576407030042600743e-02,-5.384008270638349081e-02,-6.191609511234102969e-02,-6.999210751829851307e-02,-7.806811992425605196e-02,-8.614413233021356309e-02,-9.422014473617107422e-02,-1.025952687127196228e-01,-1.106712811186771339e-01,-1.187472935246346728e-01,-1.268233059305922117e-01,-1.348993183365496951e-01,-1.429753307425072339e-01,-1.510513431484647451e-01,-1.591273555544222562e-01,-1.672033679603797673e-01,-1.752793803663372785e-01,-1.833553927722947896e-01,-1.914314051782523285e-01,-1.995074175842098674e-01,-2.075834299901673785e-01
-2.775755375084658638e-01,-2.472157130934774238e-01,-1.301135332070934014e-01,-1.301135332070940676e-02,-5.551115123125782702e-17,-5.551115123125782702e-17,-5.551115123125782702e-17,-5.551115123125782702e-17,-5.551115123125782702e-17,-5.551115123125782702e-17,-5.551115123125782702e-17,-5.551115123125782702e-17,-5.551115123125782702e-17,-5.551115123125782702e-17,-5.551115123125782702e-17,-5.551115123125782702e-17,-5.551115123125782702e-17,-5.551115123125782702e-17,-5.551115123125782702e-17,-5.551115123125782702e-17,-2.392892564728243965e-03,-1.046890497068575510e-02,-1.854491737664321072e-02,-2.662092978260077736e-02,-3.469694218855826073e-02,-4.277295459451579962e-02,-5.084896700047331075e-02,-5.892497940643079413e-02,-6.700099181238833301e-02,-7.537611578893688158e-02,-8.345212819489439271e-02,-9.152814060085190384e-02,-9.960415300680941497e-02,-1.076801654127669539e-01,-1.157561778187244927e-01,-1.238321902246820039e-01,-1.319082026306395428e-01,-1.399842150365970539e-01,-1.480602274425545650e-01,-1.561362398485120762e-01,-1.642122522544696150e-01,-1.722882646604270984e-01,-1.803642770663846095e-01,-1.884402894723421484e-01,-1.965163018782996596e-01,-2.045923142842571707e-01,-2.126683266902147096e-01
-2.775755375084658638e-01,-1.734847109427911926e-01,-5.638253105640717022e-02,-1.110223024625156540e-16,-5.551115123125782702e-17,-5.551115123125782702e-17,-5.551115123125782702e-17,-5.551115123125782702e-17,-5.551115123125782702e-17,-5.551115123125782702e-17,0.000000000000000000e+00,-5.551115123125782702e-17,-5.551115123125782702e-17,-5.551115123125782702e-17,-5.551115123125782702e-17,-5.551115123125782702e-17,-5.551115123125782702e-17,-5.551115123125782702e-17,0.000000000000000000e+00,-5.551115123125782702e-17,-7.477789264775547284e-03,-1.555380167073305842e-02,-2.362981407669056955e-02,-3.170582648264808068e-02,-3.978183888860561956e-02,-4.785785129456313070e-02,-5.593386370052061407e-02,-6.430898767706916264e-02,-7.238500008302667377e-02,-8.046101248898421265e-02,-8.853702489494172378e-02,-9.661303730089926267e-02,-1.046890497068567460e-01,-1.127650621128142849e-01,-1.208410745187718238e-01,-1.289170869247293350e-01,-1.369930993306868461e-01,-1.450691117366443850e-01,-1.531451241426018961e-01,-1.612211365485594072e-01,-1.692971489545169184e-01,-1.773731613604744295e-01,-1.854491737664319406e-01,-1.935251861723894518e-01,-2.016011985783470184e-01,-2.096772109843045295e-01,-2.177532233902620407e-01
-2.168558886784889561e-01,-9.975370879210496144e-02,-5.551115123125782702e-17,-5.551115123125782702e-17,-5.551115123125782702e-17,-5.551115123125782702e-17,-5.551115123125782702e-17,-5.551115123125782702e-17,-1.110223024625156540e-16,0.000000000000000000e+00,-5.551115123125782702e-17,-5.551115123125782702e-17,-5.551115123125782702e-17,-5.551115123125782702e-17,-5.551115123125782702e-17,-5.551115123125782702e-17,-5.551115123125782702e-17,-5.551115123125782702e-17,-5.551115123125782702e-17,-4.486673558865394984e-03,-1.256268596482290612e-02,-2.063869837078036173e-02,-2.871471077673792838e-02,-3.708983475328642143e-02,-4.516584715924396032e-02,-5.324185956520147145e-02,-6.131787197115895482e-02,-6.939388437711649371e-02,-7.746989678307400484e-02,-8.554590918903154373e-02,-9.362192159498905486e-02,-1.016979340009465660e-01,-1.097739464069040771e-01,-1.178499588128616438e-01,-1.259259712188191549e-01,-1.340019836247766660e-01,-1.420779960307341772e-01,-1.501540084366916883e-01,-1.582300208426491994e-01,-1.663060332486067383e-01,-1.743820456545642217e-01,-1.824580580605217606e-01,-1.905340704664792717e-01,-1.986100828724368106e-01,-2.066860952783943217e-01,-2.147621076843518328e-01,-2.228381200903093440e-01
-1.431248865278027527e-01,-2.602270664141870249e-02,0.000000000000000000e+00,-5.551115123125782702e-17,-5.551115123125782702e-17,-5.551115123125782702e-17,0.000000000000000000e+00,-5.551115123125782702e-17,0.000000000000000000e+00,-5.551115123125782702e-17,-5.551115123125782702e-17,-5.551115123125782702e-17,-5.551115123125782702e-17,-5.551115123125782702e-17,-5.551115123125782702e-17,-5.551115123125782702e-17,-5.551115123125782702e-17,-5.551115123125782702e-17,-1.495557852955131661e-03,-9.870681829503735738e-03,-1.794669423546119136e-02,-2.602270664141875800e-02,-3.409871904737626913e-02,-4.217473145333375251e-02,-5.025074385929129139e-02,-5.832675626524880252e-02,-6.640276867120628590e-02,-7.447878107716382479e-02,-8.255479348312130816e-02,-9.063080588907884705e-02,-9.870681829503635818e-02,-1.067828307009939248e-01,-1.148588431069514360e-01,-1.229348555129089471e-01,-1.310108679188664582e-01,-1.390868803248239971e-01,-1.471628927307815082e-01,-1.552389051367389916e-01,-1.633149175426965583e-01,-1.713909299486540139e-01,-1.794669423546115528e-01,-1.875429547605690916e-01,-1.956189671665266028e-01,-2.036949795724841139e-01,-2.117709919784416528e-01,-2.198470043843991639e-01,-2.279230167903566751e-01
-6.939388437711652147e-02,-5.551115123125782702e-17,-5.551115123125782702e-17,-5.551115123125782702e-17,-5.551115123125782702e-17,-5.551115123125782702e-17,-5.551115123125782702e-17,-1.110223024625156540e-16,-5.551115123125782702e-17,0.000000000000000000e+00,-5.551115123125782702e-17,-5.551115123125782702e-17,-5.551115123125782702e-17,-5.551115123125782702e-17,-5.551115123125782702e-17,-5.551115123125782702e-17,-5.551115123125782702e-17,-5.551115123125782702e-17,-6.879566123593527927e-03,-1.495557852955103906e-02,-2.303159093550855019e-02,-3.110760334146603356e-02,-3.918361574742354470e-02,-4.725962815338108358e-02,-5.533564055933859471e-02,-6.341165296529610584e-02,-7.148766537125361697e-02,-7.956367777721115586e-02,-8.763969018316863924e-02,-9.571570258912617812e-02,-1.037917149950837170e-01,-1.118677274010412281e-01,-1.199437398069987670e-01,-1.280197522129562782e-01,-1.360957646189137893e-01,-1.441717770248713282e-01,-1.522477894308288393e-01,-1.603238018367863504e-01,-1.683998142427438616e-01,-1.764758266487013727e-01,-1.845518390546588838e-01,-1.926278514606163950e-01,-2.007038638665739338e-01,-2.087798762725314727e-01,-2.168558886784889839e-01,-2.252310126550375047e-01,-2.333070250609950158e-01
-5.551115123125782702e-17,-5.551115123125782702e-17,-5.551115123125782702e-17,-5.551115123125782702e-17,-5.551115123125782702e-17,-5.551115123125782702e-17,0.000000000000000000e+00,-5.551115123125782702e-17,-5.551115123125782702e-17,-5.551115123125782702e-17,-5.551115123125782702e-17,-5.551115123125782702e-17,-5.551115123125782702e-17,-5.551115123125782702e-17,-5.551115123125782702e-17,-5.551115123125782702e-17,-5.551115123125782702e-17,-3.888450417683320115e-03,-1.196446282364083125e-02,-2.004047522959834238e-02,-2.811648763555585351e-02,-3.619250004151339239e-02,-4.426851244747090353e-02,-5.234452485342841466e-02,-6.042053725938589803e-02,-6.849654966534340916e-02,-7.657256207130094805e-02,-8.464857447725845918e-02,-9.272458688321599807e-02,-1.008005992891735370e-01,-1.088766116951310481e-01,-1.169526241010885592e-01,-1.250286365070460981e-01,-1.331046489130036092e-01,-1.411806613189611204e-01,-1.492566737249186593e-01,-1.573326861308761426e-01,-1.654086985368336538e-01,-1.734847109427911649e-01,-1.815607233487487038e-01,-1.896367357547062149e-01,-1.980118597312547635e-01,-2.060878721372122746e-01,-2.141638845431698135e-01,-2.222398969491273246e-01,-2.303159093550848358e-01,-2.383919217610423469e-01
-5.551115123125782702e-17,-5.551115123125782702e-17,-5.551115123125782702e-17,-5.551115123125782702e-17,-5.551115123125782702e-17,-5.551115123125782702e-17,-1.110223024625156540e-16,-5.551115123125782702e-17,-5.551115123125782702e-17,-1.110223024625156540e-16,0.000000000000000000e+00,-5.551115123125782702e-17,-5.551115123125782702e-17,-5.551115123125782702e-17,-5.551115123125782702e-17,-5.551115123125782702e-17,-8.973347117731123035e-04,-8.973347117730678946e-03,-1.704935952368813457e-02,-2.512537192964570121e-02,-3.320138433560315683e-02,-4.127739674156072347e-02,-4.935340914751820685e-02,-5.742942155347571798e-02,-6.550543395943322911e-02,-7.358144636539074024e-02,-8.165745877134827913e-02,-8.973347117730581801e-02,-9.780948358326332914e-02,-1.058854959892208403e-01,-1.139615083951783792e-01,-1.220375208011358903e-01,-1.301135332070934014e-01,-1.381895456130509403e-01,-1.462655580190084514e-01,-1.543415704249659626e-01,-1.624175828309234737e-01,-1.704935952368809848e-01,-1.788687192134295056e-01,-1.869447316193870445e-01,-1.950207440253445557e-01,-2.030967564313020945e-01,-2.111727688372596057e-01,-2.192487812432171168e-01,-2.273247936491746279e-01,-2.354008060551321391e-01,-2.434768184610896780e-01
0.000000000000000000e+00,-5.551115123125782702e-17,-5.551115123125782702e-17,-5.551115123125782702e-17,-5.551115123125782702e-17,-5.551115123125782702e-17,-1.110223024625156540e-16,-1.110223024625156540e-16,-5.551115123125782702e-17,-5.551115123125782702e-17,-5.551115123125782702e-17,-5.551115123125782702e-17,-5.551115123125782702e-17,0.000000000000000000e+00,-5.551115123125782702e-17,-5.551115123125782702e-17,-5.982231411820471134e-03,-1.405824381777798227e-02,-2.213425622373549340e-02,-3.021026862969300453e-02,-3.828628103565051566e-02,-4.636229344160802679e-02,-5.443830584756553792e-02,-6.251431825352304905e-02,-7.059033065948058794e-02,-7.866634306543807131e-02,-8.674235547139561020e-02,-9.481836787735312133e-02,-1.028943802833106325e-01,-1.109703926892681713e-01,-1.190464050952257102e-01,-1.271224175011832214e-01,-1.351984299071407603e-01,-1.432744423130982714e-01,-1.516495662896467922e-01,-1.597255786956043033e-01,-1.678015911015618422e-01,-1.758776035075193256e-01,-1.839536159134768367e-01,-1.920296283194343756e-01,-2.001056407253918867e-01,-2.081816531313494256e-01,-2.162576655373069368e-01,-2.243336779432644479e-01,-2.324096903492219590e-01,-2.404857027551794979e-01,-2.485617151611370090e-01
-5.551115123125782702e-17,-5.551115123125782702e-17,-5.551115123125782702e-17,-5.551115123125782702e-17,-5.551115123125782702e-17,-5.551115123125782702e-17,-5.551115123125782702e-17,-5.551115123125782702e-17,-5.551115123125782702e-17,-1.110223024625156540e-16,-5.551115123125782702e-17,-5.551115123125782702e-17,-5.551115123125782702e-17,-5.551115123125782702e-17,-5.551115123125782702e-17,-2.991115705910263323e-03,-1.106712811186777445e-02,-1.914314051782528558e-02,-2.721915292378279672e-02,-3.529516532974030785e-02,-4.337117773569784673e-02,-5.144719014165535786e-02,-5.952320254761286900e-02,-6.759921495357038013e-02,-7.567522735952789126e-02,-8.375123976548543014e-02,-9.182725217144291352e-02,-9.990326457740045241e-02,-1.079792769833579635e-01,-1.160552893893155302e-01,-1.244304133658640510e-01,-1.325064257718215899e-01,-1.405824381777790733e-01,-1.486584505837365844e-01,-1.567344629896941233e-01,-1.648104753956516344e-01,-1.728864878016091455e-01,-1.809625002075666567e-01,-1.890385126135241678e-01,-1.971145250194817067e-01,-2.051905374254392178e-01,-2.132665498313967567e-01,-2.213425622373542678e-01,-2.294185746433117790e-01,-2.374945870492692901e-01,-2.455705994552268012e-01,-2.536466118611843124e-01
-5.551115123125782702e-17,-5.551115123125782702e-17,-5.551115123125782702e-17,-5.551115123125782702e-17,-5.551115123125782702e-17,-1.110223024625156540e-16,-1.110223024625156540e-16,-5.551115123125782702e-17,-5.551115123125782702e-17,-5.551115123125782702e-17,-5.551115123125782702e-17,0.000000000000000000e+00,-1.110223024625156540e-16,-5.551115123125782702e-17,-5.551115123125782702e-17,-8.076012405957622153e-03,-1.615202481191513328e-02,-2.422803721787258890e-02,-3.230404962383012779e-02,-4.038006202978766668e-02,-4.845607443574515005e-02,-5.653208684170266118e-02,-6.460809924766020007e-02,-7.268411165361771120e-02,-8.076012405957522233e-02,-8.883613646553276122e-02,-9.691214887149024459e-02,-1.052872728480387932e-01,-1.133632852539963320e-01,-1.214392976599538709e-01,-1.295153100659113821e-01,-1.375913224718688932e-01,-1.456673348778264043e-01,-1.537433472837839155e-01,-1.618193596897414266e-01,-1.698953720956989377e-01,-1.779713845016564489e-01,-1.860473969076139877e-01,-1.941234093135714989e-01,-2.021994217195290378e-01,-2.102754341254865489e-01,-2.183514465314440600e-01,-2.264274589374015711e-01,-2.345034713433590823e-01,-2.425794837493166212e-01,-2.506554961552741601e-01,-2.587315085612316712e-01
0.000000000000000000e+00,-1.110223024625156540e-16,-5.551115123125782702e-17,-5.551115123125782702e-17,0.000000000000000000e+00,-5.551115123125782702e-17,-5.551115123125782702e-17,-5.551115123125782702e-17,-5.551115123125782702e-17,-5.551115123125782702e-17,-5.551115123125782702e-17,-5.551115123125782702e-17,-5.551115123125782702e-17,-5.551115123125782702e-17,-5.084896700047414342e-03,-1.316090910600492547e-02,-2.123692151196243660e-02,-2.931293391791991998e-02,-3.738894632387745887e-02,-4.546495872983497000e-02,-5.354097113579248113e-02,-6.161698354174999226e-02,-6.969299594770750339e-02,-7.806811992425605196e-02,-8.614413233021356309e-02,-9.422014473617107422e-02,-1.022961571421286131e-01,-1.103721695480861242e-01,-1.184481819540436631e-01,-1.265241943600011743e-01,-1.346002067659587131e-01,-1.426762191719162243e-01,-1.507522315778737354e-01,-1.588282439838312465e-01,-1.669042563897887577e-01,-1.749802687957462688e-01,-1.830562812017038077e-01,-1.911322936076613188e-01,-1.992083060136188299e-01,-2.072843184195763411e-01,-2.153603308255338800e-01,-2.234363432314913911e-01,-2.315123556374489022e-01,-4.322305329712395894e-01,-4.403065453771971560e-01,-4.483825577831546116e-01,-4.564585701891121783e-01
-5.551115123125782702e-17,-5.551115123125782702e-17,-5.551115123125782702e-17,-5.551115123125782702e-17,-5.551115123125782702e-17,-5.551115123125782702e-17,-5.551115123125782702e-17,0.000000000000000000e+00,-5.551115123125782702e-17,-5.551115123125782702e-17,-1.110223024625156540e-16,-5.551115123125782702e-17,-5.551115123125782702e-17,-2.093780994137151019e-03,-1.016979340009477317e-02,-1.824580580605222879e-02,-2.632181821200973992e-02,-3.439783061796725105e-02,-4.247384302392478994e-02,-5.054985542988230107e-02,-5.892497940643082188e-02,-6.700099181238833301e-02,-7.507700421834584414e-02,-8.315301662430335528e-02,-9.122902903026086641e-02,-9.930504143621840529e-02,-1.073810538421759164e-01,-1.154570662481334553e-01,-1.235330786540909942e-01,-1.316090910600485053e-01,-1.396851034660060442e-01,-1.477611158719635276e-01,-1.558371282779210665e-01,-1.639131406838785776e-01,-1.719891530898360887e-01,-1.800651654957935999e-01,-1.881411779017511110e-01,-1.962171903077086221e-01,-2.042932027136661610e-01,-2.123692151196236999e-01,-2.204452275255812110e-01,-2.285212399315387222e-01,-2.365972523374962333e-01,-4.373154296712868927e-01,-4.453914420772444593e-01,-4.534674544832019705e-01,-4.615434668891594816e-01
-5.551115123125782702e-17,-1.110223024625156540e-16,-5.551115123125782702e-17,-5.551115123125782702e-17,-5.551115123125782702e-17,-5.551115123125782702e-17,-5.551115123125782702e-17,-5.551115123125782702e-17,-5.551115123125782702e-17,-1.110223024625156540e-16,-5.551115123125782702e-17,-1.110223024625156540e-16,-1.110223024625156540e-16,-7.178677694184509850e-03,-1.525469010014202098e-02,-2.333070250609953211e-02,-3.140671491205707100e-02,-3.978183888860561956e-02,-4.785785129456313070e-02,-5.593386370052061407e-02,-6.400987610647815296e-02,-7.208588851243566409e-02,-8.016190091839320297e-02,-8.823791332435068635e-02,-9.631392573030822524e-02,-1.043899381362657364e-01,-1.124659505422232475e-01,-1.205419629481808141e-01,-1.286179753541383253e-01,-1.366939877600958364e-01,-1.447700001660533475e-01,-1.528460125720108587e-01,-1.609220249779683698e-01,-1.689980373839258809e-01,-1.770740497898833921e-01,-1.851500621958409309e-01,-1.932260746017984421e-01,-2.013020870077559810e-01,-2.093780994137134921e-01,-2.174541118196710032e-01,-2.255301242256285144e-01,-2.336061366315860255e-01,-2.416821490375435644e-01,-4.424003263713342515e-01,-4.504763387772917627e-01,-4.585523511832493293e-01,-4.669274751597978224e-01
-1.110223024625156540e-16,-5.551115123125782702e-17,-5.551115123125782702e-17,-1.110223024625156540e-16,-5.551115123125782702e-17,-5.551115123125782702e-17,-5.551115123125782702e-17,0.000000000000000000e+00,-5.551115123125782702e-17,-5.551115123125782702e-17,-5.551115123125782702e-17,-5.551115123125782702e-17,-4.187561988274302038e-03,-1.256268596482290612e-02,-2.063869837078036173e-02,-2.871471077673787287e-02,-3.679072318269538400e-02,-4.486673558865295064e-02,-5.294274799461046177e-02,-6.101876040056797290e-02,-6.909477280652542852e-02,-7.717078521248299516e-02,-8.524679761844050629e-02,-9.332281002439801743e-02,-1.013988224303555286e-01,-1.094748348363130952e-01,-1.175508472422706063e-01,-1.256268596482281452e-01,-1.337028720541856286e-01,-1.417788844601431675e-01,-1.498548968661006786e-01,-1.579309092720582175e-01,-1.660069216780157009e-01,-1.740829340839732120e-01,-1.821589464899307231e-01,-1.902349588958882620e-01,-1.983109713018457732e-01,-2.063869837078032843e-01,-2.144629961137608232e-01,-2.225390085197183343e-01,-2.306150209256758454e-01,-2.386910333316333843e-01,-2.470661573081819051e-01,-4.477843346419725923e-01,-4.558603470479301034e-01,-4.639363594538876701e-01,-4.702177024362990121e-01
-5.551115123125782702e-17,-5.551115123125782702e-17,-5.551115123125782702e-17,-5.551115123125782702e-17,-5.551115123125782702e-17,-5.551115123125782702e-17,-5.551115123125782702e-17,-1.110223024625156540e-16,-5.551115123125782702e-17,-5.551115123125782702e-17,-5.551115123125782702e-17,-1.495557852955131661e-03,-9.571570258912698304e-03,-1.764758266487020943e-02,-2.572359507082772057e-02,-3.379960747678523170e-02,-4.187561988274277058e-02,-4.995163228870022620e-02,-5.802764469465773733e-02,-6.610365710061524847e-02,-7.417966950657278735e-02,-8.225568191253032624e-02,-9.033169431848786513e-02,-9.840770672444537626e-02,-1.064837191304028874e-01,-1.145597315363604263e-01,-1.226357439423179374e-01,-1.307117563482754485e-01,-1.387877687542329874e-01,-1.468637811601904986e-01,-1.549397935661480097e-01,-1.630158059721055208e-01,-1.710918183780630319e-01,-1.791678307840205431e-01,-1.872438431899780542e-01,-1.953198555959355931e-01,-2.033958680018931320e-01,-2.114718804078506154e-01,-2.195478928138081542e-01,-2.279230167903566751e-01,-2.359990291963142139e-01,-2.440750416022717251e-01,-2.521510540082292362e-01,-2.602270664141867473e-01,-2.683030788201442585e-01,-2.763790912261017696e-01,-2.775755375084658638e-01
-1.110223024625156540e-16,-5.551115123125782702e-17,-5.551115123125782702e-17,-5.551115123125782702e-17,-5.551115123125782702e-17,-5.551115123125782702e-17,-5.551115123125782702e-17,-1.110223024625156540e-16,-5.551115123125782702e-17,-5.551115123125782702e-17,-1.110223024625156540e-16,-6.580454553002490492e-03,-1.465646695896005713e-02,-2.273247936491751275e-02,-3.080849177087502389e-02,-3.888450417683256277e-02,-4.696051658279007390e-02,-5.503652898874755728e-02,-6.311254139470506841e-02,-7.118855380066257954e-02,-7.926456620662011843e-02,-8.734057861257762956e-02,-9.541659101853516844e-02,-1.034926034244926796e-01,-1.115686158304502185e-01,-1.196446282364077573e-01,-1.277206406423652685e-01,-1.357966530483227796e-01,-1.438726654542803185e-01,-1.519486778602378019e-01,-1.600246902661953130e-01,-1.681007026721528241e-01,-1.761767150781103353e-01,-1.842527274840678742e-01,-1.923287398900253853e-01,-2.007038638665739338e-01,-2.087798762725314727e-01,-2.168558886784889839e-01,-2.249319010844464950e-01,-2.330079134904040061e-01,-2.410839258963615173e-01,-2.491599383023190284e-01,-2.572359507082765395e-01,-2.653119631142341062e-01,-2.733879755201916173e-01,-2.775755375084658638e-01,-2.775755375084658638e-01
-5.551115123125782702e-17,-5.551115123125782702e-17,-5.551115123125782702e-17,-5.551115123125782702e-17,-5.551115123125782702e-17,-5.551115123125782702e-17,-5.551115123125782702e-17,-5.551115123125782702e-17,-5.551115123125782702e-17,-5.551115123125782702e-17,-3.589338847092338192e-03,-1.166535125304984932e-02,-1.974136365900730494e-02,-2.781737606496484383e-02,-3.589338847092235496e-02,-4.396940087687986609e-02,-5.204541328283740498e-02,-6.012142568879488835e-02,-6.819743809475239948e-02,-7.627345050070993837e-02,-8.434946290666744950e-02,-9.242547531262498839e-02,-1.005014877185824718e-01,-1.085775001245400107e-01,-1.166535125304975495e-01,-1.247295249364550607e-01,-1.328055373424125996e-01,-1.408815497483701107e-01,-1.489575621543276218e-01,-1.570335745602851329e-01,-1.651095869662426441e-01,-1.734847109427911649e-01,-1.815607233487487038e-01,-1.896367357547061872e-01,-1.977127481606637538e-01,-2.057887605666212649e-01,-2.138647729725787761e-01,-2.219407853785362872e-01,-2.300167977844937983e-01,-2.380928101904513372e-01,-2.461688225964088483e-01,-2.542448350023663872e-01,-2.623208474083238984e-01,-2.703968598142814095e-01,-2.775755375084658638e-01,-2.775755375084658638e-01,-2.775755375084658638e-01
-5.551115123125782702e-17,-5.551115123125782702e-17,-5.551115123125782702e-17,-5.551115123125782702e-17,-5.551115123125782702e-17,-5.551115123125782702e-17,-5.551115123125782702e-17,-1.110223024625156540e-16,-5.551115123125782702e-17,-5.982231411820748690e-04,-8.674235547139641511e-03,-1.675024795309715264e-02,-2.482626035905466377e-02,-3.290227276501217490e-02,-4.097828517096968604e-02,-4.905429757692719717e-02,-5.713030998288468054e-02,-6.520632238884221943e-02,-7.328233479479973056e-02,-8.135834720075724169e-02,-8.943435960671478058e-02,-9.751037201267229171e-02,-1.055863844186298306e-01,-1.136623968245873417e-01,-1.217384092305448529e-01,-1.298144216365024195e-01,-1.378904340424599306e-01,-1.459664464484174140e-01,-1.543415704249659626e-01,-1.624175828309234737e-01,-1.704935952368809848e-01,-1.785696076428385237e-01,-1.866456200487960071e-01,-1.947216324547535460e-01,-2.027976448607110571e-01,-2.108736572666685960e-01,-2.189496696726261071e-01,-2.270256820785836183e-01,-2.351016944845411294e-01,-2.431777068904986683e-01,-2.512537192964561794e-01,-2.593297317024136905e-01,-2.674057441083712017e-01,-2.754817565143287128e-01,-2.775755375084658638e-01,-2.775755375084658638e-01,-2.775755375084658638e-01
-5.551115123125782702e-17,-5.551115123125782702e-17,-5.551115123125782702e-17,-5.551115123125782702e-17,-5.551115123125782702e-17,-5.551115123125782702e-17,-5.551115123125782702e-17,-5.551115123125782702e-17,-5.551115123125782702e-17,-5.683119841229433700e-03,-1.375913224718694483e-02,-2.183514465314445596e-02,-2.991115705910199485e-02,-3.798716946505950598e-02,-4.606318187101704487e-02,-5.413919427697450049e-02,-6.221520668293203937e-02,-7.029121908888952275e-02,-7.836723149484706163e-02,-8.644324390080457277e-02,-9.451925630676208390e-02,-1.025952687127196228e-01,-1.106712811186771617e-01,-1.187472935246346728e-01,-1.271224175011832214e-01,-1.351984299071407325e-01,-1.432744423130982714e-01,-1.513504547190557548e-01,-1.594264671250132936e-01,-1.675024795309708048e-01,-1.755784919369283159e-01,-1.836545043428858270e-01,-1.917305167488433382e-01,-1.998065291548008771e-01,-2.078825415607584159e-01,-2.159585539667159271e-01,-2.240345663726734382e-01,-2.321105787786309493e-01,-2.401865911845884605e-01,-2.482626035905459716e-01,-2.563386159965034827e-01,-2.644146284024609939e-01,-2.724906408084185605e-01,-2.775755375084658638e-01,-2.775755375084658638e-01,-2.775755375084658638e-01,-2.775755375084658638e-01
-7.806811992425605196e-02,-5.551115123125782702e-17,-5.551115123125782702e-17,-5.551115123125782702e-17,-5.551115123125782702e-17,-5.551115123125782702e-17,-5.551115123125782702e-17,-1.110223024625156540e-16,-2.692004135319225888e-03,-1.076801654127673702e-02,-1.884402894723424815e-02,-2.692004135319181479e-02,-3.499605375914929817e-02,-4.307206616510683705e-02,-5.114807857106434819e-02,-5.922409097702183156e-02,-6.730010338297937045e-02,-7.537611578893688158e-02,-8.345212819489439271e-02,-9.152814060085190384e-02,-9.990326457740045241e-02,-1.079792769833579635e-01,-1.160552893893155302e-01,-1.241313017952730136e-01,-1.322073142012305524e-01,-1.402833266071880636e-01,-1.483593390131455747e-01,-1.564353514191030858e-01,-1.645113638250605970e-01,-1.725873762310181081e-01,-1.806633886369756470e-01,-1.887394010429331581e-01,-1.968154134488906970e-01,-2.048914258548482081e-01,-2.129674382608057193e-01,-2.210434506667632304e-01,-2.291194630727207415e-01,-2.371954754786782804e-01,-2.452714878846357915e-01,-2.533475002905933304e-01,-2.614235126965508416e-01,-2.694995251025083527e-01,-2.775755375084658638e-01,-2.775755375084658638e-01,-2.775755375084658638e-01,-2.775755375084658638e-01,-2.775755375084658638e-01
-2.775755375084658638e-01,-1.648104753956516344e-01,-1.734847109427917200e-02,-5.551115123125782702e-17,-5.551115123125782702e-17,-5.551115123125782702e-17,0.000000000000000000e+00,-5.551115123125782702e-17,-7.776900835366529208e-03,-1.585291324132409585e-02,-2.392892564728160698e-02,-3.200493805323911811e-02,-4.008095045919662924e-02,-4.815696286515414037e-02,-5.623297527111165151e-02,-6.430898767706916264e-02,-7.238500008302667377e-02,-8.076012405957522233e-02,-8.883613646553273346e-02,-9.691214887149024459e-02,-1.049881612774477557e-01,-1.130641736834052946e-01,-1.211401860893628335e-01,-1.292161984953203724e-01,-1.372922109012778835e-01,-1.453682233072353946e-01,-1.534442357131928780e-01,-1.615202481191504169e-01,-1.695962605251079280e-01,-1.776722729310654392e-01,-1.857482853370229781e-01,-1.938242977429804892e-01,-2.019003101489380003e-01,-2.099763225548955392e-01,-2.180523349608530503e-01,-2.261283473668105615e-01,-2.342043597727680726e-01,-2.422803721787256115e-01,-2.503563845846831226e-01,-2.584323969906406337e-01,-2.665084093965981449e-01,-2.745844218025556560e-01,-2.775755375084658638e-01,-2.775755375084658638e-01,-2.775755375084658638e-01,-2.775755375084658638e-01,-2.775755375084658638e-01
-2.775755375084658638e-01,-2.775755375084658638e-01,-2.515528308670472168e-01,-1.040908265656747544e-01,-5.551115123125782702e-17,-5.551115123125782702e-17,-5.551115123125782702e-17,-4.785785129456376907e-03,-1.286179753541388804e-02,-2.093780994137139917e-02,-2.901382234732891030e-02,-3.708983475328642143e-02,-4.516584715924396032e-02,-5.324185956520144369e-02,-6.161698354174996450e-02,-6.969299594770750339e-02,-7.776900835366501452e-02,-8.584502075962255341e-02,-9.392103316558003678e-02,-1.019970455715375479e-01,-1.100730579774951146e-01,-1.181490703834526534e-01,-1.262250827894101646e-01,-1.343010951953676757e-01,-1.423771076013252146e-01,-1.504531200072827257e-01,-1.585291324132402369e-01,-1.666051448191977480e-01,-1.746811572251552591e-01,-1.827571696311127702e-01,-1.908331820370702814e-01,-1.989091944430278203e-01,-2.069852068489853592e-01,-2.150612192549428703e-01,-2.231372316609003814e-01,-2.312132440668578925e-01,-2.392892564728154037e-01,-2.473652688787729148e-01,-2.554412812847304259e-01,-2.635172936906879371e-01,-2.715933060966455037e-01,-2.775755375084658638e-01,-2.775755375084658638e-01,-2.775755375084658638e-01,-2.775755375084658638e-01,-2.775755375084658638e-01,-2.775755375084658638e-01
-2.775755375084658638e-01,-2.775755375084658638e-01,-2.775755375084658638e-01,-2.775755375084658638e-01,-1.908331820370702814e-01,-4.337117773569784673e-02,-1.794669423546224607e-03,-9.870681829503735738e-03,-1.794669423546124687e-02,-2.602270664141870249e-02,-3.439783061796725105e-02,-4.247384302392478994e-02,-5.054985542988230107e-02,-5.862586783583981220e-02,-6.670188024179732333e-02,-7.477789264775480671e-02,-8.285390505371234560e-02,-9.092991745966988448e-02,-9.900592986562739561e-02,-1.070819422715849067e-01,-1.151579546775424179e-01,-1.232339670834999845e-01,-1.313099794894574956e-01,-1.393859918954150068e-01,-1.474620043013725179e-01,-1.555380167073300290e-01,-1.636140291132875402e-01,-1.716900415192450513e-01,-1.797660539252025624e-01,-1.878420663311601013e-01,-1.959180787371176125e-01,-2.039940911430751513e-01,-2.120701035490326625e-01,-2.201461159549901736e-01,-2.282221283609476847e-01,-2.362981407669052236e-01,-2.443741531728627348e-01,-2.524501655788202736e-01,-2.605261779847777848e-01,-2.689013019613263333e-01,-2.769773143672838445e-01,-2.775755375084658638e-01,-2.775755375084658638e-01,-2.775755375084658638e-01,-2.775755375084658638e-01,-2.775755375084658638e-01,-2.775755375084658638e-01
-2.775755375084658638e-01,-2.775755375084658638e-01,-2.775755375084658638e-01,-2.775755375084658638e-01,-2.775755375084658638e-01,-2.775755375084658638e-01,-1.339272057321289067e-01,-1.525469010014207649e-02,-2.333070250609953211e-02,-3.140671491205707100e-02,-3.948272731801458213e-02,-4.755873972397209326e-02,-5.563475212992960439e-02,-6.371076453588711552e-02,-7.178677694184465441e-02,-7.986278934780219330e-02,-8.793880175375967667e-02,-9.601481415971718780e-02,-1.040908265656746989e-01,-1.121668389716322656e-01,-1.202428513775897767e-01,-1.283188637835472878e-01,-1.363948761895048267e-01,-1.444708885954623379e-01,-1.525469010014198490e-01,-1.606229134073773601e-01,-1.686989258133348712e-01,-1.767749382192923824e-01,-1.848509506252499213e-01,-1.929269630312074324e-01,-2.010029754371649435e-01,-2.090789878431224824e-01,-2.171550002490799935e-01,-2.252310126550375047e-01,-2.333070250609950158e-01,-2.413830374669525547e-01,-2.497581614435010755e-01,-2.578341738494586144e-01,-2.659101862554161255e-01,-2.739861986613736367e-01,-2.775755375084658638e-01,-2.775755375084658638e-01,-2.775755375084658638e-01,-2.775755375084658638e-01,-2.775755375084658638e-01,-2.775755375084658638e-01,-2.775755375084658638e-01
-2.775755375084658638e-01,-2.775755375084658638e-01,-2.775755375084658638e-01,-2.775755375084658638e-01,-2.775755375084658638e-01,-2.775755375084658638e-01,-2.775755375084658638e-01,-2.213051732910303881e-01,-8.291933570977916279e-02,-3.649161161210440207e-02,-4.456762401806194096e-02,-5.264363642401942434e-02,-6.071964882997693547e-02,-6.879566123593444660e-02,-7.687167364189195773e-02,-8.494768604784949662e-02,-9.302369845380700775e-02,-1.010997108597645466e-01,-1.091757232657220578e-01,-1.172517356716795689e-01,-1.253277480776371078e-01,-1.334037604835946189e-01,-1.414797728895521578e-01,-1.495557852955096689e-01,-1.576317977014671801e-01,-1.657078101074246912e-01,-1.737838225133822023e-01,-1.818598349193397135e-01,-1.899358473252972246e-01,-1.980118597312547635e-01,-2.060878721372123024e-01,-2.141638845431698135e-01,-2.225390085197183343e-01,-2.306150209256758454e-01,-2.386910333316333843e-01,-2.467670457375908954e-01,-2.548430581435484066e-01,-2.629190705495059177e-01,-2.709950829554634288e-01,-2.775755375084658638e-01,-2.775755375084658638e-01,-2.775755375084658638e-01,-2.775755375084658638e-01,-2.775755375084658638e-01,-2.775755375084658638e-01,-2.775755375084658638e-01,-2.775755375084658638e-01
-2.775755375084658638e-01,-2.775755375084658638e-01,-2.775755375084658638e-01,-2.775755375084658638e-01,-2.775755375084658638e-01,-2.775755375084658638e-01,-2.775755375084658638e-01,-2.775755375084658638e-01,-2.775755375084658638e-01,-1.669509925726936073e-01,-4.965252071810921652e-02,-5.772853312406675541e-02,-6.580454553002423879e-02,-7.388055793598177767e-02,-8.195657034193931656e-02,-9.003258274789679994e-02,-9.810859515385436658e-02,-1.061846075598118500e-01,-1.142606199657693888e-01,-1.223366323717269277e-01,-1.304126447776844389e-01,-1.384886571836419500e-01,-1.465646695895994889e-01,-1.546406819955569723e-01,-1.627166944015144834e-01,-1.707927068074719945e-01,-1.788687192134295334e-01,-1.869447316193870445e-01,-1.953198555959355931e-01,-2.033958680018931320e-01,-2.114718804078506431e-01,-2.195478928138081542e-01,-2.276239052197656654e-01,-2.356999176257231765e-01,-2.437759300316806876e-01,-2.518519424376381988e-01,-2.599279548435957099e-01,-2.680039672495532765e-01,-2.760799796555107877e-01,-2.775755375084658638e-01,-2.775755375084658638e-01,-2.775755375084658638e-01,-2.775755375084658638e-01,-2.775755375084658638e-01,-2.775755375084658638e-01,-2.775755375084658638e-01,-2.775755375084658638e-01
-2.775755375084658638e-01,-2.775755375084658638e-01,-2.775755375084658638e-01,-2.775755375084658638e-01,-2.775755375084658638e-01,-2.775755375084658638e-01,-2.775755375084658638e-01,-2.775755375084658638e-01,-2.775755375084658638e-01,-2.775755375084658638e-01,-2.427570812443550219e-01,-1.299265884754740030e-01,-7.088944223007156986e-02,-7.896545463602910875e-02,-8.704146704198661988e-02,-9.511747944794413101e-02,-1.031934918539016421e-01,-1.112695042598592088e-01,-1.193455166658167199e-01,-1.274215290717742310e-01,-1.354975414777317699e-01,-1.435735538836892811e-01,-1.516495662896467922e-01,-1.597255786956043311e-01,-1.678015911015618145e-01,-1.761767150781103353e-01,-1.842527274840678742e-01,-1.923287398900254130e-01,-2.004047522959829242e-01,-2.084807647019404353e-01,-2.165567771078979464e-01,-2.246327895138554576e-01,-2.327088019198129687e-01,-2.407848143257705076e-01,-2.488608267317280187e-01,-2.569368391376855576e-01,-2.650128515436430687e-01,-2.730888639496005799e-01,-2.775755375084658638e-01,-2.775755375084658638e-01,-2.775755375084658638e-01,-2.775755375084658638e-01,-2.775755375084658638e-01,-2.775755375084658638e-01,-2.775755375084658638e-01,-2.775755375084658638e-01,-2.775755375084658638e-01
-2.775755375084658638e-01,-2.775755375084658638e-01,-2.775755375084658638e-01,-2.775755375084658638e-01,-2.775755375084658638e-01,-2.775755375084658638e-01,-2.775755375084658638e-01,-2.775755375084658638e-01,-2.775755375084658638e-01,-2.775755375084658638e-01,-2.775755375084658638e-01,-2.775755375084658638e-01,-2.019750880415857597e-01,-1.021933375397379162e-01,-9.212636374203395095e-02,-1.002023761479914621e-01,-1.082783885539490010e-01,-1.163544009599065121e-01,-1.244304133658640510e-01,-1.325064257718215621e-01,-1.405824381777791010e-01,-1.489575621543276218e-01,-1.570335745602851329e-01,-1.651095869662426718e-01,-1.731855993722001552e-01,-1.812616117781576663e-01,-1.893376241841152052e-01,-1.974136365900727164e-01,-2.054896489960302275e-01,-2.135656614019877664e-01,-2.216416738079452775e-01,-2.297176862139027886e-01,-2.377936986198603275e-01,-2.458697110258178387e-01,-2.539457234317753498e-01,-2.620217358377328609e-01,-2.700977482436903720e-01,-2.775755375084658638e-01,-2.775755375084658638e-01,-2.775755375084658638e-01,-2.775755375084658638e-01,-2.775755375084658638e-01,-2.775755375084658638e-01,-2.775755375084658638e-01,-2.775755375084658638e-01,-2.775755375084658638e-01,-2.775755375084658638e-01
-2.775755375084658638e-01,-2.775755375084658638e-01,-2.775755375084658638e-01,-2.775755375084658638e-01,-2.775755375084658638e-01,-2.775755375084658638e-01,-2.775755375084658638e-01,-2.775755375084658638e-01,-2.775755375084658638e-01,-2.775755375084658638e-01,-2.775755375084658638e-01,-2.775755375084658638e-01,-2.775755375084658638e-01,-2.657980194164444865e-01,-1.704842480003000149e-01,-1.052872728480387932e-01,-1.133632852539963320e-01,-1.217384092305448806e-01,-1.298144216365023917e-01,-1.378904340424599306e-01,-1.459664464484174418e-01,-1.540424588543749529e-01,-1.621184712603324640e-01,-1.701944836662899752e-01,-1.782704960722474863e-01,-1.863465084782049974e-01,-1.944225208841625085e-01,-2.024985332901200474e-01,-2.105745456960775863e-01,-2.186505581020350975e-01,-2.267265705079926086e-01,-2.348025829139501197e-01,-2.428785953199076308e-01,-2.509546077258651420e-01,-2.590306201318226531e-01,-2.671066325377802197e-01,-2.751826449437377309e-01,-2.775755375084658638e-01,-2.775755375084658638e-01,-2.775755375084658638e-01,-2.775755375084658638e-01,-2.775755375084658638e-01,-2.775755375084658638e-01,-2.775755375084658638e-01,-2.775755375084658638e-01,-2.775755375084658638e-01,-2.775755375084658638e-01
-2.775755375084658638e-01,-2.775755375084658638e-01,-2.775755375084658638e-01,-2.775755375084658638e-01,-2.775755375084658638e-01,-2.775755375084658638e-01,-2.775755375084658638e-01,-2.775755375084658638e-01,-2.775755375084658638e-01,-2.775755375084658638e-01,-2.775755375084658638e-01,-2.775755375084658638e-01,-2.775755375084658638e-01,-2.775755375084658638e-01,-2.775755375084658638e-01,-2.306337153988377853e-01,-1.485275892716030333e-01,-1.268233059305922117e-01,-1.348993183365497228e-01,-1.429753307425072339e-01,-1.510513431484647451e-01,-1.591273555544222562e-01,-1.672033679603797673e-01,-1.752793803663372785e-01,-1.833553927722948174e-01,-1.914314051782523285e-01,-1.995074175842098674e-01,-2.075834299901673785e-01,-2.156594423961248896e-01,-2.237354548020824008e-01,-2.318114672080399119e-01,-2.398874796139974508e-01,-2.479634920199549619e-01,-2.560395044259125008e-01,-2.641155168318700119e-01,-2.721915292378275231e-01,-2.775755375084658638e-01,-2.775755375084658638e-01,-2.775755375084658638e-01,-2.775755375084658638e-01,-2.775755375084658638e-01,-2.775755375084658638e-01,-2.775755375084658638e-01,-2.775755375084658638e-01,-2.775755375084658638e-01,-2.775755375084658638e-01,-2.775755375084658638e-01
