1.345640326805930265e-01,1.345640326805930265e-01,1.345640326805930265e-01,1.345640326805930265e-01,1.345640326805930265e-01,1.345640326805930265e-01,1.345640326805930265e-01,1.345640326805930265e-01,1.345640326805930265e-01,1.345640326805930265e-01,1.345640326805930265e-01,1.345640326805930265e-01,1.345640326805930265e-01,1.345640326805930265e-01,1.345640326805930265e-01,1.345640326805930265e-01,1.345640326805930265e-01,7.313262645684404095e-02,-5.850610116547472206e-03,-7.605793151511774930e-02,-1.462652529136880264e-01,-1.462652529136880264e-01,-1.462652529136879709e-01,-1.462652529136880264e-01,-1.462652529136880264e-01,-1.265194437703401342e-01,-1.038483295687185060e-01,-8.117721536709682217e-02,-5.850610116547519390e-02,-3.583498696385353788e-02,-1.316387276223190961e-02,9.507241439389746418e-03,3.217835564101138857e-02,5.484946984263303071e-02,7.752058404425468674e-02,1.001916982458763428e-01,1.221314861829295439e-01,1.345640326805930265e-01,1.345640326805930265e-01,1.345640326805930265e-01,1.345640326805930265e-01,1.345640326805930265e-01,1.345640326805930265e-01,1.345640326805930265e-01,1.345640326805930265e-01,1.345640326805930265e-01,1.345640326805930265e-01
1.345640326805930265e-01,1.345640326805930265e-01,1.345640326805930265e-01,1.345640326805930265e-01,1.345640326805930265e-01,1.345640326805930265e-01,1.345640326805930265e-01,1.345640326805930265e-01,1.345640326805930265e-01,1.345640326805930265e-01,1.345640326805930265e-01,1.345640326805930265e-01,1.345640326805930265e-01,9.068445680648661023e-02,1.170122023309506931e-02,-5.850610116547519390e-02,-1.287134225640454432e-01,-1.462652529136880264e-01,-1.462652529136880264e-01,-1.462652529136880264e-01,-1.462652529136879709e-01,-1.462652529136880264e-01,-1.462652529136880264e-01,-1.462652529136880819e-01,-1.462652529136880264e-01,-1.323700538868876619e-01,-1.096989396852660059e-01,-8.702782548364434989e-02,-6.435671128202272162e-02,-4.168559708040106560e-02,-1.901448287877940957e-02,3.656631322842218701e-03,2.632774552446387473e-02,4.826753346151708979e-02,7.093864766313873194e-02,9.360976186476037408e-02,1.162808760663820162e-01,1.345640326805930265e-01,1.345640326805930265e-01,1.345640326805930265e-01,1.345640326805930265e-01,1.345640326805930265e-01,1.345640326805930265e-01,1.345640326805930265e-01,1.345640326805930265e-01,1.345640326805930265e-01,1.345640326805930265e-01
1.345640326805930265e-01,1.345640326805930265e-01,1.345640326805930265e-01,1.345640326805930265e-01,1.345640326805930265e-01,1.345640326805930265e-01,1.345640326805930265e-01,1.345640326805930265e-01,1.345640326805930265e-01,1.128984920927529889e-01,3.940020250362474830e-02,-3.821179732370097448e-02,-1.111615922144028878e-01,-1.462652529136880264e-01,-1.462652529136880264e-01,-1.462652529136880264e-01,-1.462652529136880264e-01,-1.462652529136880264e-01,-1.462652529136880264e-01,-1.462652529136880264e-01,-1.462652529136880264e-01,-1.462652529136880264e-01,-1.462652529136880264e-01,-1.462652529136880264e-01,-1.462652529136880264e-01,-1.382206640034351897e-01,-1.155495498018135336e-01,-9.287843560019187761e-02,-7.020732139857022158e-02,-4.753620719694859331e-02,-2.559641925989536437e-02,-2.925305058273736103e-03,1.974580914334790605e-02,4.241692334496954819e-02,6.508803754659120422e-02,8.775915174821286024e-02,1.104302659498345024e-01,1.331013801514561445e-01,1.345640326805930265e-01,1.345640326805930265e-01,1.345640326805930265e-01,1.345640326805930265e-01,1.345640326805930265e-01,1.345640326805930265e-01,1.345640326805930265e-01,1.345640326805930265e-01,1.345640326805930265e-01
1.345640326805930265e-01,1.345640326805930265e-01,1.345640326805930265e-01,1.345640326805930265e-01,1.345640326805930265e-01,1.303589066593245083e-01,8.542804927990095554e-02,3.336676082093510687e-02,-3.003008473884155594e-02,-9.068445680648656859e-02,-1.133555710081081691e-01,-1.360266852097298251e-01,-1.462652529136880264e-01,-1.462652529136879709e-01,-1.462652529136880264e-01,-1.462652529136880264e-01,-1.462652529136880264e-01,-1.462652529136880264e-01,-1.462652529136880264e-01,-1.462652529136879709e-01,-1.462652529136880264e-01,-1.462652529136880264e-01,-1.462652529136880264e-01,-1.462652529136880264e-01,-1.462652529136880264e-01,-1.440712741199827174e-01,-1.214001599183610614e-01,-9.946037198130786017e-02,-7.678925777968620414e-02,-5.411814357806454812e-02,-3.144702937644294760e-02,-8.775915174821263820e-03,1.389519902680039221e-02,3.656631322842204823e-02,5.923742743004369038e-02,8.190854163166533253e-02,1.045796558332869747e-01,1.272507700349086168e-01,1.345640326805930265e-01,1.345640326805930265e-01,1.345640326805930265e-01,1.345640326805930265e-01,1.345640326805930265e-01,1.345640326805930265e-01,1.345640326805930265e-01,1.345640326805930265e-01,1.345640326805930265e-01
1.345640326805930265e-01,1.345640326805930265e-01,1.212858901895222802e-01,9.287843560019193312e-02,5.503230140877515830e-02,5.850610116547527717e-03,-1.682050408507410055e-02,-3.949161828669572882e-02,-6.216273248831738485e-02,-8.483384668993904087e-02,-1.075049608915606691e-01,-1.294447488286138426e-01,-1.462652529136880264e-01,-1.462652529136880264e-01,-1.462652529136880264e-01,-1.462652529136880264e-01,-1.462652529136880264e-01,-1.462652529136880264e-01,-1.462652529136880264e-01,-1.462652529136880264e-01,-1.462652529136880264e-01,-1.462652529136880264e-01,-1.462652529136880819e-01,-1.462652529136880264e-01,-1.462652529136880264e-01,-1.462652529136880264e-01,-1.279820962994769884e-01,-1.053109820978553879e-01,-8.263986789623373186e-02,-5.996875369461204808e-02,-3.729763949299044756e-02,-1.462652529136876378e-02,8.044588910252864489e-03,3.071570311187450664e-02,5.338681731349616266e-02,7.605793151511780481e-02,9.872904571673946084e-02,1.206688336537926620e-01,1.345640326805930265e-01,1.345640326805930265e-01,1.345640326805930265e-01,1.345640326805930265e-01,1.345640326805930265e-01,1.345640326805930265e-01,1.345640326805930265e-01,1.345640326805930265e-01,1.345640326805930265e-01
1.280278041910125897e-01,1.043968242671448610e-01,7.971456283796000963e-02,5.704344863633835361e-02,3.437233443471671146e-02,1.170122023309505543e-02,-1.096989396852660059e-02,-3.364100817014822886e-02,-5.558079610720143005e-02,-7.825191030882305832e-02,-1.009230245104447143e-01,-1.235941387120663704e-01,-1.462652529136880264e-01,-1.462652529136880264e-01,-1.462652529136879709e-01,-1.462652529136880264e-01,-1.462652529136880264e-01,-1.462652529136880264e-01,-1.462652529136880819e-01,-1.462652529136880264e-01,-1.462652529136880264e-01,-1.462652529136880819e-01,-1.462652529136880264e-01,-1.462652529136880264e-01,-1.462652529136880264e-01,-1.462652529136880264e-01,-1.338327064160245161e-01,-1.111615922144028878e-01,-8.849047801278125958e-02,-6.581936381115960355e-02,-4.314824960953794752e-02,-2.047713540791631925e-02,2.193978793705364527e-03,2.486509299532697892e-02,4.680488093238019398e-02,6.947599513400185001e-02,9.214710933562349215e-02,1.148182235372451343e-01,1.345640326805930265e-01,1.345640326805930265e-01,1.345640326805930265e-01,1.345640326805930265e-01,1.345640326805930265e-01,1.345640326805930265e-01,1.345640326805930265e-01,1.345640326805930265e-01,1.345640326805930265e-01
1.309074013577508355e-01,1.082362871561291795e-01,8.556517295450753735e-02,6.289405875288589520e-02,4.022294455126423918e-02,1.828315661421102412e-02,-4.387957587410618032e-03,-2.705907178903227406e-02,-4.973018599065390233e-02,-7.240130019227555835e-02,-9.507241439389724214e-02,-1.177435285955188426e-01,-1.404146427971404432e-01,-1.462652529136880264e-01,-1.462652529136880264e-01,-1.462652529136880264e-01,-1.462652529136880264e-01,-1.462652529136880264e-01,-1.462652529136879709e-01,-1.462652529136880264e-01,-1.462652529136880264e-01,-1.462652529136880264e-01,-1.462652529136880264e-01,-1.462652529136880264e-01,-1.462652529136880264e-01,-1.462652529136880819e-01,-1.396833165325720438e-01,-1.170122023309503878e-01,-9.434108812932878729e-02,-7.166997392770710351e-02,-4.973018599065390233e-02,-2.705907178903227406e-02,-4.387957587410618032e-03,1.828315661421102412e-02,4.095427081583268014e-02,6.362538501745432229e-02,8.629649921907597832e-02,1.089676134206976205e-01,1.316387276223192626e-01,1.345640326805930265e-01,1.345640326805930265e-01,1.345640326805930265e-01,1.345640326805930265e-01,1.345640326805930265e-01,1.345640326805930265e-01,1.345640326805930265e-01,1.345640326805930265e-01
1.345640326805930265e-01,1.140868972726767072e-01,9.214710933562350603e-02,6.947599513400185001e-02,4.680488093238020786e-02,2.413376673075855183e-02,1.462652529136881929e-03,-2.120846167248471859e-02,-4.387957587410640237e-02,-6.655069007572805839e-02,-8.922180427734965891e-02,-1.118929184789713149e-01,-1.345640326805929710e-01,-1.462652529136880819e-01,-1.462652529136880264e-01,-1.462652529136880264e-01,-1.462652529136880264e-01,-1.462652529136880264e-01,-1.462652529136880264e-01,-1.462652529136880264e-01,-1.462652529136880264e-01,-1.462652529136880264e-01,-1.462652529136880819e-01,-1.462652529136880264e-01,-1.462652529136880264e-01,-1.462652529136880264e-01,-1.455339266491195716e-01,-1.228628124474979155e-01,-1.009230245104447699e-01,-7.825191030882305832e-02,-5.558079610720143005e-02,-3.290968190557977402e-02,-1.023856770395814575e-02,1.243254649766351028e-02,3.510366069928516630e-02,5.777477490090680845e-02,8.044588910252845060e-02,1.031170033041501066e-01,1.257881175057717349e-01,1.345640326805930265e-01,1.345640326805930265e-01,1.345640326805930265e-01,1.345640326805930265e-01,1.345640326805930265e-01,1.345640326805930265e-01,1.345640326805930265e-01,1.345640326805930265e-01
1.345640326805930265e-01,1.206688336537926620e-01,9.799771945217100599e-02,7.532660525054936385e-02,5.265549104892772170e-02,2.998437684730607955e-02,7.313262645684409646e-03,-1.535785155593721862e-02,-3.802896575755887465e-02,-6.070007995918050292e-02,-8.337119416080215895e-02,-1.060423083624238427e-01,-1.279820962994769884e-01,-1.462652529136880264e-01,-1.462652529136880264e-01,-1.462652529136880264e-01,-1.462652529136880264e-01,-1.462652529136880819e-01,-1.462652529136880264e-01,-1.462652529136880264e-01,-1.462652529136880264e-01,-1.462652529136880264e-01,-1.462652529136880264e-01,-1.462652529136880264e-01,-1.462652529136880264e-01,-1.462652529136880264e-01,-1.462652529136880264e-01,-1.294447488286138981e-01,-1.067736346269922421e-01,-8.410252042537064154e-02,-6.143140622374895776e-02,-3.876029202212730174e-02,-1.608917782050567347e-02,6.581936381115982559e-03,2.925305058273762471e-02,5.192416478435928073e-02,7.459527898598092288e-02,9.653506692303413794e-02,1.192061811246557801e-01,1.345640326805930265e-01,1.345640326805930265e-01,1.345640326805930265e-01,1.345640326805930265e-01,1.345640326805930265e-01,1.345640326805930265e-01,1.345640326805930265e-01,1.345640326805930265e-01
1.345640326805930265e-01,1.265194437703401897e-01,1.038483295687185337e-01,8.117721536709687769e-02,5.850610116547524941e-02,3.583498696385359339e-02,1.316387276223193736e-02,-9.507241439389690907e-03,-3.217835564101134693e-02,-5.411814357806454812e-02,-7.678925777968620414e-02,-9.946037198130786017e-02,-1.221314861829294607e-01,-1.448026003845511722e-01,-1.462652529136879709e-01,-1.462652529136880264e-01,-1.462652529136880264e-01,-1.462652529136880264e-01,-1.462652529136880264e-01,-1.462652529136880264e-01,-1.462652529136880264e-01,-1.462652529136880264e-01,-1.462652529136880264e-01,-1.462652529136880264e-01,-1.462652529136880264e-01,-1.462652529136880264e-01,-1.462652529136880264e-01,-1.352953589451614258e-01,-1.126242447435397698e-01,-8.995313054191811375e-02,-6.728201634029645772e-02,-4.461090213867482945e-02,-2.193978793705320118e-02,7.313262645684825980e-04,2.267111420162165603e-02,4.534222840324331205e-02,6.801334260486496808e-02,9.068445680648661023e-02,1.133555710081082524e-01,1.345640326805930265e-01,1.345640326805930265e-01,1.345640326805930265e-01,1.345640326805930265e-01,1.345640326805930265e-01,1.345640326805930265e-01,1.345640326805930265e-01,1.345640326805930265e-01
1.345640326805930265e-01,1.323700538868877175e-01,1.096989396852660614e-01,8.702782548364440540e-02,6.435671128202276325e-02,4.168559708040110723e-02,1.974580914334790605e-02,-2.925305058273736103e-03,-2.559641925989536437e-02,-4.826753346151702040e-02,-7.093864766313867642e-02,-9.360976186476033245e-02,-1.162808760663819330e-01,-1.389519902680035890e-01,-1.462652529136880264e-01,-1.462652529136880264e-01,-1.462652529136880264e-01,-1.462652529136880264e-01,-1.462652529136880264e-01,-1.462652529136880264e-01,-1.462652529136880264e-01,-1.462652529136880264e-01,-1.462652529136880264e-01,-1.462652529136880264e-01,-1.462652529136880264e-01,-1.462652529136880264e-01,-1.462652529136880264e-01,-1.411459690617089535e-01,-1.184748548600872975e-01,-9.580374065846564147e-02,-7.313262645684398544e-02,-5.119283851979078426e-02,-2.852172431816915599e-02,-5.850610116547499961e-03,1.682050408507414219e-02,3.949161828669579821e-02,6.216273248831744036e-02,8.483384668993909639e-02,1.075049608915607385e-01,1.301760750931823807e-01,1.345640326805930265e-01,1.345640326805930265e-01,1.345640326805930265e-01,1.345640326805930265e-01,1.345640326805930265e-01,1.345640326805930265e-01,1.345640326805930265e-01
1.345640326805930265e-01,1.345640326805930265e-01,1.155495498018135891e-01,9.360976186476037408e-02,7.093864766313873194e-02,4.826753346151707591e-02,2.559641925989543376e-02,2.925305058273791614e-03,-1.974580914334786441e-02,-4.241692334496949268e-02,-6.508803754659114871e-02,-8.775915174821280473e-02,-1.104302659498344608e-01,-1.331013801514561168e-01,-1.462652529136879709e-01,-1.462652529136880264e-01,-1.462652529136880264e-01,-1.462652529136880264e-01,-1.462652529136879709e-01,-1.462652529136880264e-01,-1.462652529136879709e-01,-1.462652529136880264e-01,-1.462652529136880264e-01,-1.462652529136880264e-01,-1.462652529136880264e-01,-1.462652529136880264e-01,-1.462652529136880264e-01,-1.462652529136879709e-01,-1.250567912412032801e-01,-1.023856770395816240e-01,-7.971456283795996800e-02,-5.704344863633831197e-02,-3.437233443471665595e-02,-1.170122023309499992e-02,1.096989396852662835e-02,3.364100817014827050e-02,5.631212237176991264e-02,7.898323657339156867e-02,1.016543507750132247e-01,1.243254649766348668e-01,1.345640326805930265e-01,1.345640326805930265e-01,1.345640326805930265e-01,1.345640326805930265e-01,1.345640326805930265e-01,1.345640326805930265e-01,1.345640326805930265e-01
1.345640326805930265e-01,1.345640326805930265e-01,1.221314861829295439e-01,9.946037198130788792e-02,7.678925777968625965e-02,5.411814357806460363e-02,3.144702937644294760e-02,8.775915174821319331e-03,-1.389519902680033669e-02,-3.656631322842196496e-02,-5.923742743004362099e-02,-8.190854163166527702e-02,-1.038483295687184782e-01,-1.265194437703400787e-01,-1.462652529136879709e-01,-1.462652529136880264e-01,-1.462652529136879709e-01,-1.462652529136880264e-01,-1.462652529136879709e-01,-1.462652529136880264e-01,-1.462652529136880264e-01,-1.462652529136879709e-01,-1.462652529136879709e-01,-1.462652529136880264e-01,-1.462652529136880264e-01,-1.462652529136880264e-01,-1.462652529136880264e-01,-1.462652529136880264e-01,-1.309074013577507523e-01,-1.082362871561291517e-01,-8.556517295450749572e-02,-6.289405875288583969e-02,-4.022294455126418367e-02,-1.755183034964252764e-02,5.119283851979100630e-03,2.779039805360075666e-02,5.046151225522239880e-02,7.313262645684404095e-02,9.507241439389725601e-02,1.177435285955188982e-01,1.345640326805930265e-01,1.345640326805930265e-01,1.345640326805930265e-01,1.345640326805930265e-01,1.345640326805930265e-01,1.345640326805930265e-01,1.345640326805930265e-01
1.345640326805930265e-01,1.345640326805930265e-01,1.279820962994770717e-01,1.053109820978554156e-01,8.263986789623375961e-02,5.996875369461213134e-02,3.729763949299047532e-02,1.462652529136881929e-02,-8.044588910252836733e-03,-2.998437684730601016e-02,-5.265549104892766619e-02,-7.532660525054932221e-02,-9.799771945217095048e-02,-1.206688336537926065e-01,-1.433399478554142625e-01,-1.462652529136880264e-01,-1.462652529136880264e-01,-1.462652529136880264e-01,-1.462652529136879709e-01,-1.462652529136880264e-01,-1.462652529136880264e-01,-1.462652529136880819e-01,-1.462652529136880264e-01,-1.462652529136880264e-01,-1.462652529136880264e-01,-1.462652529136880264e-01,-1.462652529136880264e-01,-1.462652529136880264e-01,-1.367580114742982800e-01,-1.140868972726766239e-01,-9.141578307105502343e-02,-6.874466886943336741e-02,-4.607355466781171138e-02,-2.340244046619005536e-02,-7.313262645684270868e-04,2.120846167248480185e-02,4.387957587410643012e-02,6.655069007572808615e-02,8.922180427734974217e-02,1.118929184789713843e-01,1.345640326805930265e-01,1.345640326805930265e-01,1.345640326805930265e-01,1.345640326805930265e-01,1.345640326805930265e-01,1.345640326805930265e-01,1.345640326805930265e-01
1.345640326805930265e-01,1.345640326805930265e-01,1.338327064160245994e-01,1.111615922144029434e-01,8.849047801278128733e-02,6.581936381115964518e-02,4.387957587410644400e-02,2.120846167248478797e-02,-1.462652529136854174e-03,-2.413376673075851020e-02,-4.680488093238016623e-02,-6.947599513400179450e-02,-9.214710933562345052e-02,-1.148182235372450788e-01,-1.374893377388667348e-01,-1.462652529136880264e-01,-1.462652529136880264e-01,-1.462652529136880264e-01,-1.462652529136879709e-01,-1.462652529136880264e-01,-1.462652529136880264e-01,-1.462652529136880264e-01,-1.462652529136880264e-01,-1.462652529136880264e-01,-1.462652529136880264e-01,-1.462652529136880264e-01,-1.462652529136880264e-01,-1.462652529136880264e-01,-1.426086215908458632e-01,-1.199375073892241517e-01,-9.726639318760255115e-02,-7.459527898598086737e-02,-5.265549104892766619e-02,-2.998437684730601016e-02,-7.313262645684381891e-03,1.535785155593726026e-02,3.802896575755891628e-02,6.070007995918057231e-02,8.337119416080221446e-02,1.060423083624238566e-01,1.287134225640454988e-01,1.345640326805930265e-01,1.345640326805930265e-01,1.345640326805930265e-01,1.345640326805930265e-01,1.345640326805930265e-01,1.345640326805930265e-01
1.345640326805930265e-01,1.345640326805930265e-01,1.345640326805930265e-01,1.177435285955188982e-01,9.507241439389725601e-02,7.240130019227559999e-02,4.973018599065395784e-02,2.705907178903231569e-02,4.387957587410673543e-03,-1.828315661421098248e-02,-4.095427081583263851e-02,-6.362538501745423902e-02,-8.629649921907592280e-02,-1.089676134206975788e-01,-1.316387276223192071e-01,-1.462652529136880264e-01,-1.462652529136880264e-01,-1.462652529136880264e-01,-1.462652529136880264e-01,-1.462652529136880264e-01,-1.462652529136880819e-01,-1.462652529136880264e-01,-1.462652529136879709e-01,-1.462652529136879709e-01,-1.462652529136880819e-01,-1.462652529136880264e-01,-1.462652529136880264e-01,-1.462652529136880819e-01,-1.462652529136880264e-01,-1.265194437703401342e-01,-1.038483295687185060e-01,-8.117721536709682217e-02,-5.850610116547519390e-02,-3.583498696385356563e-02,-1.316387276223190961e-02,9.507241439389746418e-03,3.217835564101140244e-02,5.484946984263304459e-02,7.752058404425468674e-02,1.001916982458763428e-01,1.228628124474979849e-01,1.345640326805930265e-01,1.345640326805930265e-01,1.345640326805930265e-01,1.345640326805930265e-01,1.345640326805930265e-01,1.345640326805930265e-01
1.345640326805930265e-01,1.345640326805930265e-01,1.345640326805930265e-01,1.235941387120664259e-01,1.009230245104447699e-01,7.825191030882312770e-02,5.558079610720148556e-02,3.290968190557984341e-02,1.023856770395817350e-02,-1.243254649766345477e-02,-3.510366069928511079e-02,-5.777477490090673906e-02,-8.044588910252839509e-02,-1.023856770395816240e-01,-1.250567912412032245e-01,-1.462652529136880264e-01,-1.462652529136880264e-01,-1.462652529136880264e-01,-1.462652529136880819e-01,-1.462652529136880264e-01,-1.462652529136879709e-01,-1.462652529136880264e-01,-1.462652529136880264e-01,-1.462652529136880264e-01,-1.462652529136880264e-01,-1.462652529136879709e-01,-1.462652529136880264e-01,-1.462652529136880264e-01,-1.462652529136880264e-01,-1.323700538868876619e-01,-1.096989396852660059e-01,-8.702782548364437765e-02,-6.435671128202269387e-02,-4.168559708040106560e-02,-1.901448287877940957e-02,3.656631322842218701e-03,2.632774552446387473e-02,4.899885972608553075e-02,7.093864766313873194e-02,9.360976186476037408e-02,1.162808760663820162e-01,1.345640326805930265e-01,1.345640326805930265e-01,1.345640326805930265e-01,1.345640326805930265e-01,1.345640326805930265e-01,1.345640326805930265e-01
1.345640326805930265e-01,1.345640326805930265e-01,1.345640326805930265e-01,1.294447488286139536e-01,1.067736346269922976e-01,8.410252042537065542e-02,6.143140622374901327e-02,3.876029202212735725e-02,1.608917782050570122e-02,-6.581936381115927048e-03,-2.852172431816915599e-02,-5.119283851979078426e-02,-7.386395272141241253e-02,-9.653506692303409631e-02,-1.192061811246556968e-01,-1.418772953262773528e-01,-1.462652529136880264e-01,-1.462652529136880264e-01,-1.462652529136880264e-01,-1.462652529136880264e-01,-1.462652529136880264e-01,-1.462652529136880264e-01,-1.462652529136879709e-01,-1.462652529136880264e-01,-1.462652529136880264e-01,-1.462652529136880264e-01,-1.462652529136879709e-01,-1.462652529136880264e-01,-1.462652529136880264e-01,-1.382206640034351897e-01,-1.155495498018135336e-01,-9.287843560019187761e-02,-7.020732139857022158e-02,-4.753620719694859331e-02,-2.486509299532693729e-02,-2.925305058273736103e-03,1.974580914334790605e-02,4.241692334496956207e-02,6.508803754659119034e-02,8.775915174821286024e-02,1.104302659498344885e-01,1.331013801514561445e-01,1.345640326805930265e-01,1.345640326805930265e-01,1.345640326805930265e-01,1.345640326805930265e-01,1.345640326805930265e-01
1.345640326805930265e-01,1.345640326805930265e-01,1.345640326805930265e-01,1.345640326805930265e-01,1.126242447435398253e-01,8.995313054191816926e-02,6.728201634029652711e-02,4.534222840324332593e-02,2.267111420162165603e-02,2.775557561562891351e-17,-2.267111420162160051e-02,-4.534222840324325654e-02,-6.801334260486491257e-02,-9.068445680648656859e-02,-1.133555710081082246e-01,-1.360266852097298251e-01,-1.462652529136880264e-01,-1.462652529136880264e-01,-1.462652529136880264e-01,-1.462652529136880264e-01,-1.462652529136880264e-01,-1.462652529136880264e-01,-1.462652529136880264e-01,-1.462652529136880264e-01,-1.462652529136880264e-01,-1.462652529136880264e-01,-1.462652529136880264e-01,-1.462652529136880264e-01,-1.462652529136880264e-01,-1.440712741199827174e-01,-1.214001599183610614e-01,-9.872904571673940533e-02,-7.678925777968617639e-02,-5.411814357806454812e-02,-3.144702937644289209e-02,-8.775915174821236064e-03,1.389519902680039221e-02,3.656631322842203435e-02,5.923742743004367650e-02,8.190854163166533253e-02,1.045796558332869747e-01,1.272507700349086168e-01,1.345640326805930265e-01,1.345640326805930265e-01,1.345640326805930265e-01,1.345640326805930265e-01,1.345640326805930265e-01
1.345640326805930265e-01,1.345640326805930265e-01,1.345640326805930265e-01,1.345640326805930265e-01,1.192061811246557801e-01,9.653506692303413794e-02,7.386395272141249579e-02,5.119283851979083977e-02,2.852172431816918374e-02,5.850610116547527717e-03,-1.682050408507410055e-02,-3.949161828669575658e-02,-6.216273248831738485e-02,-8.483384668993904087e-02,-1.075049608915606969e-01,-1.301760750931822974e-01,-1.462652529136880264e-01,-1.462652529136880264e-01,-1.462652529136880264e-01,-1.462652529136880264e-01,-1.462652529136880264e-01,-1.462652529136880264e-01,-1.462652529136880264e-01,-1.462652529136880264e-01,-1.462652529136880264e-01,-1.462652529136880264e-01,-1.462652529136879709e-01,-1.462652529136879709e-01,-1.462652529136880264e-01,-1.462652529136880264e-01,-1.279820962994769884e-01,-1.053109820978553601e-01,-8.263986789623370410e-02,-5.996875369461207583e-02,-3.729763949299041981e-02,-1.462652529136879154e-02,8.044588910252864489e-03,3.071570311187450664e-02,5.338681731349616266e-02,7.605793151511780481e-02,9.872904571673946084e-02,1.214001599183611030e-01,1.345640326805930265e-01,1.345640326805930265e-01,1.345640326805930265e-01,1.345640326805930265e-01,1.345640326805930265e-01
1.345640326805930265e-01,1.345640326805930265e-01,1.345640326805930265e-01,1.345640326805930265e-01,1.250567912412033078e-01,1.023856770395816518e-01,7.971456283795999576e-02,5.704344863633836749e-02,3.437233443471671146e-02,1.170122023309506931e-02,-1.096989396852660059e-02,-3.364100817014822886e-02,-5.631212237176985713e-02,-7.825191030882308607e-02,-1.009230245104447143e-01,-1.235941387120663704e-01,-1.462652529136880264e-01,-1.462652529136879709e-01,-1.462652529136879709e-01,-1.462652529136879709e-01,-1.462652529136880264e-01,-1.462652529136880819e-01,-1.462652529136880264e-01,-1.462652529136880264e-01,-1.462652529136880264e-01,-1.462652529136880264e-01,-1.462652529136879709e-01,-1.462652529136880264e-01,-1.462652529136880264e-01,-1.462652529136880264e-01,-1.338327064160245161e-01,-1.111615922144028601e-01,-8.849047801278125958e-02,-6.581936381115960355e-02,-4.314824960953794752e-02,-2.047713540791629150e-02,2.193978793705336772e-03,2.486509299532699280e-02,4.753620719694863495e-02,6.947599513400183613e-02,9.214710933562349215e-02,1.148182235372451343e-01,1.345640326805930265e-01,1.345640326805930265e-01,1.345640326805930265e-01,1.345640326805930265e-01,1.345640326805930265e-01
1.345640326805930265e-01,1.345640326805930265e-01,1.345640326805930265e-01,1.345640326805930265e-01,1.309074013577508355e-01,1.082362871561291795e-01,8.556517295450752347e-02,6.289405875288588132e-02,4.022294455126423918e-02,1.755183034964258315e-02,-4.387957587410590277e-03,-2.705907178903224630e-02,-4.973018599065390233e-02,-7.240130019227553060e-02,-9.507241439389724214e-02,-1.177435285955188426e-01,-1.404146427971404987e-01,-1.462652529136879709e-01,-4.369074554903860097e-01,-4.369074554903860097e-01,-4.369074554903860097e-01,-1.462652529136880264e-01,-1.462652529136880264e-01,-1.462652529136880264e-01,-1.462652529136880819e-01,-1.462652529136880264e-01,-1.462652529136880264e-01,-1.462652529136880819e-01,-1.462652529136880264e-01,-1.462652529136880264e-01,-1.396833165325720438e-01,-1.170122023309503878e-01,-9.434108812932878729e-02,-7.166997392770713127e-02,-4.899885972608547524e-02,-2.632774552446381922e-02,-4.387957587410618032e-03,1.828315661421101024e-02,4.095427081583268014e-02,6.362538501745432229e-02,8.629649921907597832e-02,1.089676134206976205e-01,1.316387276223192626e-01,1.345640326805930265e-01,1.345640326805930265e-01,1.345640326805930265e-01,1.345640326805930265e-01
1.345640326805930265e-01,1.345640326805930265e-01,1.345640326805930265e-01,1.345640326805930265e-01,1.345640326805930265e-01,1.140868972726767072e-01,9.141578307105505119e-02,6.947599513400185001e-02,4.680488093238019398e-02,2.413376673075853796e-02,1.462652529136881929e-03,-2.120846167248474634e-02,-4.387957587410637461e-02,-6.655069007572803064e-02,-8.922180427734971442e-02,-1.118929184789713149e-01,-1.345640326805929710e-01,-1.462652529136880264e-01,-4.369074554903860097e-01,-4.369074554903860097e-01,-4.369074554903860097e-01,-1.462652529136880264e-01,-1.462652529136880264e-01,-1.462652529136880264e-01,-1.462652529136880264e-01,-1.462652529136880264e-01,-1.462652529136880264e-01,-1.462652529136879709e-01,-1.462652529136880264e-01,-1.462652529136880264e-01,-1.455339266491195716e-01,-1.228628124474979155e-01,-1.001916982458763150e-01,-7.825191030882305832e-02,-5.558079610720143005e-02,-3.290968190557977402e-02,-1.023856770395814575e-02,1.243254649766351028e-02,3.510366069928516630e-02,5.777477490090679457e-02,8.044588910252845060e-02,1.031170033041501066e-01,1.257881175057717349e-01,1.345640326805930265e-01,1.345640326805930265e-01,1.345640326805930265e-01,1.345640326805930265e-01
1.345640326805930265e-01,1.345640326805930265e-01,1.345640326805930265e-01,1.345640326805930265e-01,1.345640326805930265e-01,1.206688336537926620e-01,9.799771945217101987e-02,7.532660525054936385e-02,5.265549104892772170e-02,2.998437684730607955e-02,7.313262645684437402e-03,-1.535785155593721862e-02,-3.802896575755887465e-02,-6.070007995918050292e-02,-8.337119416080215895e-02,-1.060423083624238427e-01,-1.287134225640454432e-01,-1.462652529136880264e-01,-4.369074554903860097e-01,-4.369074554903860097e-01,-4.369074554903860097e-01,-1.462652529136879709e-01,-1.462652529136880264e-01,-1.462652529136880264e-01,-1.462652529136880264e-01,-1.462652529136880264e-01,-1.462652529136880264e-01,-1.462652529136880264e-01,-1.462652529136880264e-01,-1.462652529136880264e-01,-1.462652529136879709e-01,-1.294447488286138426e-01,-1.067736346269922421e-01,-8.410252042537061379e-02,-6.143140622374893001e-02,-3.876029202212730174e-02,-1.608917782050564571e-02,6.581936381115982559e-03,2.925305058273763859e-02,5.192416478435928073e-02,7.459527898598092288e-02,9.726639318760257891e-02,1.192061811246557801e-01,1.345640326805930265e-01,1.345640326805930265e-01,1.345640326805930265e-01,1.345640326805930265e-01
1.345640326805930265e-01,1.345640326805930265e-01,1.345640326805930265e-01,1.345640326805930265e-01,1.345640326805930265e-01,1.265194437703401897e-01,1.038483295687185337e-01,8.117721536709689156e-02,5.850610116547523554e-02,3.583498696385359339e-02,1.316387276223193736e-02,-9.507241439389690907e-03,-3.217835564101134693e-02,-5.484946984263300296e-02,-7.678925777968620414e-02,-9.946037198130786017e-02,-1.221314861829294607e-01,-1.448026003845511167e-01,-1.462652529136880819e-01,-1.462652529136880264e-01,-1.462652529136880264e-01,-1.462652529136880264e-01,-1.462652529136880264e-01,-1.462652529136879709e-01,-1.462652529136880264e-01,-1.462652529136880264e-01,-1.462652529136880264e-01,-1.462652529136880264e-01,-1.462652529136880264e-01,-1.462652529136880264e-01,-1.462652529136880264e-01,-1.352953589451613703e-01,-1.126242447435397698e-01,-8.995313054191811375e-02,-6.728201634029645772e-02,-4.461090213867480170e-02,-2.193978793705320118e-02,7.313262645684548424e-04,2.340244046619011087e-02,4.534222840324331205e-02,6.801334260486496808e-02,9.068445680648661023e-02,1.133555710081082663e-01,1.345640326805930265e-01,1.345640326805930265e-01,1.345640326805930265e-01,1.345640326805930265e-01
1.345640326805930265e-01,1.345640326805930265e-01,1.345640326805930265e-01,1.345640326805930265e-01,1.345640326805930265e-01,1.323700538868877175e-01,1.096989396852660614e-01,8.702782548364440540e-02,6.435671128202276325e-02,4.168559708040112111e-02,1.901448287877946508e-02,-2.925305058273736103e-03,-2.559641925989536437e-02,-4.826753346151702040e-02,-7.093864766313867642e-02,-9.360976186476033245e-02,-1.162808760663819330e-01,-1.389519902680035890e-01,-1.462652529136880264e-01,-1.462652529136880264e-01,-1.462652529136880264e-01,-1.462652529136880264e-01,-1.462652529136880264e-01,-1.462652529136880264e-01,-1.462652529136880264e-01,-1.462652529136880264e-01,-1.462652529136880264e-01,-1.462652529136880264e-01,-1.462652529136880264e-01,-1.462652529136880264e-01,-1.462652529136880264e-01,-1.411459690617089535e-01,-1.184748548600872975e-01,-9.580374065846564147e-02,-7.313262645684398544e-02,-5.046151225522235717e-02,-2.852172431816912823e-02,-5.850610116547499961e-03,1.682050408507415606e-02,3.949161828669579821e-02,6.216273248831744036e-02,8.483384668993909639e-02,1.075049608915607385e-01,1.301760750931823807e-01,1.345640326805930265e-01,1.345640326805930265e-01,1.345640326805930265e-01
1.345640326805930265e-01,1.345640326805930265e-01,1.345640326805930265e-01,1.345640326805930265e-01,1.345640326805930265e-01,1.345640326805930265e-01,1.155495498018135891e-01,9.287843560019193312e-02,7.093864766313873194e-02,4.826753346151707591e-02,2.559641925989541988e-02,2.925305058273791614e-03,-1.974580914334786441e-02,-4.241692334496952044e-02,-6.508803754659114871e-02,-8.775915174821280473e-02,-1.104302659498344330e-01,-1.331013801514560613e-01,-1.462652529136880264e-01,-1.462652529136880264e-01,-1.462652529136879709e-01,-1.462652529136880264e-01,-1.462652529136880819e-01,-1.462652529136880264e-01,-1.462652529136880264e-01,-1.462652529136880264e-01,-1.462652529136880264e-01,-1.462652529136880264e-01,-1.462652529136880264e-01,-1.462652529136880264e-01,-1.462652529136880264e-01,-1.462652529136880264e-01,-1.243254649766347697e-01,-1.023856770395816240e-01,-7.971456283795996800e-02,-5.704344863633831197e-02,-3.437233443471668370e-02,-1.170122023309499992e-02,1.096989396852662835e-02,3.364100817014827050e-02,5.631212237176991264e-02,7.898323657339156867e-02,1.016543507750132247e-01,1.243254649766348668e-01,1.345640326805930265e-01,1.345640326805930265e-01,1.345640326805930265e-01
1.345640326805930265e-01,1.345640326805930265e-01,1.345640326805930265e-01,1.345640326805930265e-01,1.345640326805930265e-01,1.345640326805930265e-01,1.221314861829295439e-01,9.946037198130788792e-02,7.678925777968624578e-02,5.411814357806460363e-02,3.144702937644294760e-02,8.775915174821291576e-03,-1.389519902680036445e-02,-3.656631322842199272e-02,-5.923742743004362099e-02,-8.190854163166527702e-02,-1.045796558332869330e-01,-1.265194437703401342e-01,-1.462652529136880264e-01,-1.462652529136880264e-01,-1.462652529136880264e-01,-1.462652529136880264e-01,-1.462652529136880264e-01,-1.462652529136880264e-01,-1.462652529136879709e-01,-1.462652529136880819e-01,-1.462652529136880264e-01,-1.462652529136880264e-01,-1.462652529136880264e-01,-1.462652529136880264e-01,-1.462652529136879709e-01,-1.462652529136880264e-01,-1.309074013577507523e-01,-1.082362871561291240e-01,-8.556517295450749572e-02,-6.289405875288583969e-02,-4.022294455126418367e-02,-1.755183034964252764e-02,5.119283851979100630e-03,2.779039805360074278e-02,5.046151225522239880e-02,7.313262645684404095e-02,9.580374065846569698e-02,1.177435285955188982e-01,1.345640326805930265e-01,1.345640326805930265e-01,1.345640326805930265e-01
1.345640326805930265e-01,1.345640326805930265e-01,1.345640326805930265e-01,1.345640326805930265e-01,1.345640326805930265e-01,1.345640326805930265e-01,1.279820962994770717e-01,1.053109820978554156e-01,8.263986789623377349e-02,5.996875369461211747e-02,3.729763949299047532e-02,1.462652529136881929e-02,-8.044588910252808978e-03,-3.071570311187446500e-02,-5.338681731349609327e-02,-7.532660525054932221e-02,-9.799771945217095048e-02,-1.206688336537926065e-01,-1.433399478554142625e-01,-1.462652529136880264e-01,-1.462652529136880264e-01,-1.462652529136880264e-01,-1.462652529136880264e-01,-1.462652529136880264e-01,-1.462652529136880819e-01,-1.462652529136880264e-01,-1.462652529136880264e-01,-1.462652529136880264e-01,-1.462652529136880819e-01,-1.462652529136880264e-01,-1.462652529136880819e-01,-1.462652529136880264e-01,-1.367580114742982800e-01,-1.140868972726766517e-01,-9.141578307105502343e-02,-6.874466886943336741e-02,-4.607355466781171138e-02,-2.340244046619005536e-02,-7.313262645683993313e-04,2.193978793705321506e-02,4.387957587410644400e-02,6.655069007572808615e-02,8.922180427734974217e-02,1.118929184789713843e-01,1.345640326805930265e-01,1.345640326805930265e-01,1.345640326805930265e-01
1.345640326805930265e-01,1.345640326805930265e-01,1.345640326805930265e-01,1.345640326805930265e-01,1.345640326805930265e-01,1.345640326805930265e-01,1.338327064160245994e-01,1.111615922144029434e-01,8.849047801278128733e-02,6.581936381115964518e-02,4.314824960953800304e-02,2.120846167248478797e-02,-1.462652529136854174e-03,-2.413376673075851020e-02,-4.680488093238013847e-02,-6.947599513400182225e-02,-9.214710933562342277e-02,-1.148182235372450788e-01,-1.374893377388667348e-01,-1.462652529136880264e-01,-1.462652529136879709e-01,-1.462652529136879709e-01,-1.462652529136880264e-01,-1.462652529136880264e-01,-1.462652529136880264e-01,-1.462652529136880264e-01,-1.462652529136880264e-01,-1.462652529136879709e-01,-1.462652529136880264e-01,-1.462652529136880264e-01,-1.462652529136880264e-01,-1.462652529136880264e-01,-1.426086215908458077e-01,-1.199375073892241517e-01,-9.726639318760252340e-02,-7.459527898598086737e-02,-5.192416478435921134e-02,-2.998437684730603792e-02,-7.313262645684354135e-03,1.535785155593726026e-02,3.802896575755891628e-02,6.070007995918055843e-02,8.337119416080221446e-02,1.060423083624238705e-01,1.287134225640454988e-01,1.345640326805930265e-01,1.345640326805930265e-01
1.345640326805930265e-01,1.345640326805930265e-01,1.345640326805930265e-01,1.345640326805930265e-01,1.345640326805930265e-01,1.345640326805930265e-01,1.345640326805930265e-01,1.170122023309504572e-01,9.507241439389725601e-02,7.240130019227561387e-02,4.973018599065395784e-02,2.705907178903231569e-02,4.387957587410673543e-03,-1.828315661421095473e-02,-4.095427081583261075e-02,-6.362538501745426678e-02,-8.629649921907592280e-02,-1.089676134206975511e-01,-1.316387276223192071e-01,-1.462652529136880264e-01,-1.462652529136880264e-01,-1.462652529136880264e-01,-1.462652529136880264e-01,-1.462652529136880264e-01,-1.462652529136880264e-01,-1.462652529136880264e-01,-1.462652529136880264e-01,-1.462652529136880264e-01,-1.462652529136880819e-01,-1.462652529136880264e-01,-1.462652529136879709e-01,-1.462652529136879709e-01,-1.462652529136879709e-01,-1.257881175057716794e-01,-1.038483295687185060e-01,-8.117721536709682217e-02,-5.850610116547519390e-02,-3.583498696385353788e-02,-1.316387276223190961e-02,9.507241439389746418e-03,3.217835564101138857e-02,5.484946984263304459e-02,7.752058404425468674e-02,1.001916982458763428e-01,1.228628124474979849e-01,1.345640326805930265e-01,1.345640326805930265e-01
1.345640326805930265e-01,1.345640326805930265e-01,1.345640326805930265e-01,1.345640326805930265e-01,1.345640326805930265e-01,1.345640326805930265e-01,1.345640326805930265e-01,1.235941387120664259e-01,1.009230245104447699e-01,7.825191030882312770e-02,5.558079610720148556e-02,3.290968190557982953e-02,1.023856770395817350e-02,-1.243254649766345477e-02,-3.510366069928511079e-02,-5.777477490090676682e-02,-8.044588910252836733e-02,-1.031170033041500511e-01,-1.250567912412032245e-01,-1.462652529136880264e-01,-1.462652529136880264e-01,-1.462652529136880264e-01,-1.462652529136879709e-01,-1.462652529136879709e-01,-1.462652529136879709e-01,-1.462652529136880264e-01,-1.462652529136880264e-01,-1.462652529136880264e-01,-1.462652529136880264e-01,-1.462652529136880264e-01,-1.462652529136879709e-01,-1.462652529136880264e-01,-1.462652529136880264e-01,-1.323700538868876064e-01,-1.096989396852660337e-01,-8.702782548364440540e-02,-6.435671128202269387e-02,-4.168559708040109335e-02,-1.901448287877943732e-02,3.656631322842218701e-03,2.632774552446387473e-02,4.899885972608551687e-02,7.166997392770715902e-02,9.360976186476037408e-02,1.162808760663820162e-01,1.345640326805930265e-01,1.345640326805930265e-01
1.345640326805930265e-01,1.345640326805930265e-01,1.345640326805930265e-01,1.345640326805930265e-01,1.345640326805930265e-01,1.345640326805930265e-01,1.345640326805930265e-01,1.294447488286139536e-01,1.067736346269922976e-01,8.410252042537064154e-02,6.143140622374901327e-02,3.876029202212735725e-02,1.608917782050570122e-02,-6.581936381115954804e-03,-2.925305058273758307e-02,-5.119283851979081201e-02,-7.386395272141241253e-02,-9.653506692303406855e-02,-1.192061811246557523e-01,-1.418772953262773528e-01,-1.462652529136880819e-01,-1.462652529136880264e-01,-1.462652529136880264e-01,-1.462652529136880264e-01,-1.462652529136880264e-01,-1.462652529136880264e-01,-1.462652529136880264e-01,-1.462652529136880264e-01,-1.462652529136880264e-01,-1.462652529136880264e-01,-1.462652529136879709e-01,-1.462652529136880264e-01,-1.462652529136880264e-01,-1.382206640034351341e-01,-1.155495498018135336e-01,-9.287843560019190536e-02,-7.020732139857022158e-02,-4.753620719694859331e-02,-2.486509299532696504e-02,-2.193978793705309016e-03,1.974580914334790605e-02,4.241692334496956207e-02,6.508803754659120422e-02,8.775915174821286024e-02,1.104302659498345024e-01,1.331013801514561445e-01,1.345640326805930265e-01
1.345640326805930265e-01,1.345640326805930265e-01,1.345640326805930265e-01,1.345640326805930265e-01,1.345640326805930265e-01,1.345640326805930265e-01,1.345640326805930265e-01,1.345640326805930265e-01,1.126242447435398253e-01,8.995313054191816926e-02,6.728201634029652711e-02,4.461090213867488496e-02,2.267111420162165603e-02,0.000000000000000000e+00,-2.267111420162165603e-02,-4.534222840324325654e-02,-6.801334260486491257e-02,-9.068445680648656859e-02,-1.133555710081081969e-01,-1.360266852097298251e-01,-1.462652529136880264e-01,-1.462652529136880264e-01,-1.462652529136880264e-01,-1.462652529136880264e-01,-1.462652529136880264e-01,-1.462652529136880264e-01,-1.462652529136880264e-01,-1.462652529136880264e-01,-1.462652529136880264e-01,-1.462652529136880264e-01,-1.462652529136880264e-01,-1.462652529136880264e-01,-1.462652529136880264e-01,-1.440712741199827174e-01,-1.214001599183610614e-01,-9.872904571673940533e-02,-7.605793151511774930e-02,-5.411814357806457587e-02,-3.144702937644294760e-02,-8.775915174821263820e-03,1.389519902680039221e-02,3.656631322842203435e-02,5.923742743004369038e-02,8.190854163166533253e-02,1.045796558332869747e-01,1.272507700349086168e-01,1.345640326805930265e-01
1.345640326805930265e-01,1.345640326805930265e-01,1.345640326805930265e-01,1.345640326805930265e-01,1.345640326805930265e-01,1.345640326805930265e-01,1.345640326805930265e-01,1.345640326805930265e-01,1.184748548600873391e-01,9.653506692303413794e-02,7.386395272141249579e-02,5.119283851979083977e-02,2.852172431816918374e-02,5.850610116547555473e-03,-1.682050408507407280e-02,-3.949161828669575658e-02,-6.216273248831738485e-02,-8.483384668993904087e-02,-1.075049608915606691e-01,-1.301760750931822974e-01,-1.462652529136880264e-01,-1.462652529136879709e-01,-1.462652529136880264e-01,-1.462652529136880264e-01,-1.462652529136880264e-01,-1.462652529136880264e-01,-1.462652529136880264e-01,-1.462652529136880264e-01,-1.462652529136879709e-01,-1.462652529136880264e-01,-1.462652529136880264e-01,-1.462652529136880819e-01,-1.462652529136880264e-01,-1.462652529136880264e-01,-1.279820962994769884e-01,-1.053109820978553601e-01,-8.263986789623367635e-02,-5.996875369461207583e-02,-3.729763949299041981e-02,-1.462652529136879154e-02,8.044588910252864489e-03,3.071570311187450664e-02,5.338681731349616266e-02,7.605793151511780481e-02,9.872904571673946084e-02,1.214001599183611030e-01,1.345640326805930265e-01
1.345640326805930265e-01,1.345640326805930265e-01,1.345640326805930265e-01,1.345640326805930265e-01,1.345640326805930265e-01,1.345640326805930265e-01,1.345640326805930265e-01,1.345640326805930265e-01,1.250567912412033078e-01,1.023856770395816518e-01,7.971456283796000963e-02,5.704344863633836749e-02,3.437233443471671146e-02,1.170122023309506931e-02,-1.096989396852657284e-02,-3.364100817014820111e-02,-5.631212237176985713e-02,-7.898323657339151316e-02,-1.016543507750131692e-01,-1.235941387120663704e-01,-1.462652529136880264e-01,-1.462652529136880264e-01,-1.462652529136880264e-01,-1.462652529136879709e-01,-1.462652529136880819e-01,-1.462652529136880819e-01,-1.462652529136880264e-01,-1.462652529136880264e-01,-1.462652529136880264e-01,-1.462652529136880264e-01,-1.462652529136880264e-01,-1.462652529136880264e-01,-1.462652529136880264e-01,-1.462652529136880819e-01,-1.338327064160245161e-01,-1.111615922144028878e-01,-8.849047801278123182e-02,-6.581936381115960355e-02,-4.314824960953794752e-02,-2.047713540791629150e-02,2.193978793705336772e-03,2.486509299532699280e-02,4.753620719694864882e-02,7.020732139857029097e-02,9.214710933562350603e-02,1.148182235372451343e-01,1.345640326805930265e-01
1.345640326805930265e-01,1.345640326805930265e-01,1.345640326805930265e-01,1.345640326805930265e-01,1.345640326805930265e-01,1.345640326805930265e-01,1.345640326805930265e-01,1.345640326805930265e-01,1.309074013577508355e-01,1.082362871561291795e-01,8.556517295450752347e-02,6.289405875288588132e-02,4.022294455126423918e-02,1.755183034964258315e-02,-5.119283851979072875e-03,-2.779039805360070114e-02,-4.973018599065390233e-02,-7.240130019227555835e-02,-9.507241439389718662e-02,-1.177435285955188426e-01,-1.404146427971404987e-01,-1.462652529136879709e-01,-1.462652529136880819e-01,-1.462652529136880264e-01,-1.462652529136880264e-01,-1.462652529136880264e-01,-1.462652529136880264e-01,-1.462652529136880264e-01,-1.462652529136880264e-01,-1.462652529136880264e-01,-1.462652529136880264e-01,-1.462652529136879709e-01,-1.462652529136880264e-01,-1.462652529136879709e-01,-1.396833165325720438e-01,-1.170122023309503878e-01,-9.434108812932875954e-02,-7.166997392770710351e-02,-4.899885972608547524e-02,-2.632774552446381922e-02,-3.656631322842190945e-03,1.828315661421102412e-02,4.095427081583268014e-02,6.362538501745433617e-02,8.629649921907597832e-02,1.089676134206976205e-01,1.316387276223192626e-01
1.345640326805930265e-01,1.345640326805930265e-01,1.345640326805930265e-01,1.345640326805930265e-01,1.345640326805930265e-01,1.345640326805930265e-01,1.345640326805930265e-01,1.345640326805930265e-01,1.345640326805930265e-01,1.140868972726767072e-01,9.141578307105505119e-02,6.874466886943340904e-02,4.607355466781176689e-02,2.413376673075855183e-02,1.462652529136909685e-03,-2.120846167248474634e-02,-4.387957587410640237e-02,-6.655069007572805839e-02,-8.922180427734968666e-02,-1.118929184789713149e-01,-1.345640326805929710e-01,-1.462652529136880264e-01,-1.462652529136880264e-01,-1.462652529136880264e-01,-1.462652529136880264e-01,-1.462652529136880264e-01,-1.462652529136880264e-01,-1.462652529136880264e-01,-1.462652529136880264e-01,-1.462652529136880264e-01,-1.462652529136880264e-01,-1.462652529136880264e-01,-1.462652529136880264e-01,-1.462652529136880264e-01,-1.455339266491195716e-01,-1.228628124474979155e-01,-1.001916982458763150e-01,-7.752058404425465898e-02,-5.558079610720143005e-02,-3.290968190557977402e-02,-1.023856770395814575e-02,1.243254649766349640e-02,3.510366069928515242e-02,5.777477490090679457e-02,8.044588910252845060e-02,1.031170033041501066e-01,1.257881175057717349e-01
1.345640326805930265e-01,1.345640326805930265e-01,1.345640326805930265e-01,1.345640326805930265e-01,1.345640326805930265e-01,1.345640326805930265e-01,1.345640326805930265e-01,1.345640326805930265e-01,1.345640326805930265e-01,1.206688336537926620e-01,9.799771945217101987e-02,7.532660525054936385e-02,5.265549104892772170e-02,2.998437684730606567e-02,7.313262645684437402e-03,-1.535785155593721862e-02,-3.802896575755887465e-02,-6.070007995918053068e-02,-8.337119416080215895e-02,-1.060423083624238427e-01,-1.287134225640454432e-01,-1.462652529136880264e-01,-1.462652529136880264e-01,-1.462652529136880264e-01,-1.462652529136880264e-01,-1.462652529136880264e-01,-1.462652529136880264e-01,-1.462652529136880264e-01,-1.462652529136880264e-01,-1.462652529136880819e-01,-1.462652529136880819e-01,-1.462652529136880264e-01,-1.462652529136880264e-01,-1.462652529136880264e-01,-1.462652529136880264e-01,-1.294447488286138981e-01,-1.067736346269922421e-01,-8.410252042537058603e-02,-6.143140622374893001e-02,-3.876029202212730174e-02,-1.608917782050567347e-02,6.581936381115982559e-03,2.925305058273763859e-02,5.192416478435929461e-02,7.459527898598092288e-02,9.726639318760257891e-02,1.199375073892242211e-01
1.345640326805930265e-01,1.345640326805930265e-01,1.345640326805930265e-01,1.345640326805930265e-01,1.345640326805930265e-01,1.345640326805930265e-01,1.345640326805930265e-01,1.345640326805930265e-01,1.345640326805930265e-01,1.265194437703401897e-01,1.038483295687185337e-01,8.117721536709689156e-02,5.850610116547524941e-02,3.583498696385359339e-02,1.316387276223195124e-02,-9.507241439389690907e-03,-3.217835564101134693e-02,-5.484946984263300296e-02,-7.752058404425463123e-02,-9.946037198130786017e-02,-1.221314861829295162e-01,-1.448026003845511167e-01,-1.462652529136880264e-01,-1.462652529136880264e-01,-1.462652529136880264e-01,-1.462652529136880264e-01,-1.462652529136880264e-01,-1.462652529136880264e-01,-1.462652529136880264e-01,-1.462652529136880264e-01,-1.462652529136880264e-01,-1.462652529136880264e-01,-1.462652529136880264e-01,-1.462652529136880264e-01,-1.462652529136880264e-01,-1.352953589451614258e-01,-1.126242447435397698e-01,-8.995313054191811375e-02,-6.728201634029645772e-02,-4.461090213867482945e-02,-2.193978793705317343e-02,7.313262645684548424e-04,2.340244046619009699e-02,4.607355466781176689e-02,6.874466886943340904e-02,9.068445680648661023e-02,1.133555710081082524e-01
1.345640326805930265e-01,1.345640326805930265e-01,1.345640326805930265e-01,1.345640326805930265e-01,1.345640326805930265e-01,1.345640326805930265e-01,1.345640326805930265e-01,1.345640326805930265e-01,1.345640326805930265e-01,1.323700538868877175e-01,1.096989396852660614e-01,8.702782548364441928e-02,6.435671128202276325e-02,4.168559708040112111e-02,1.901448287877946508e-02,-3.656631322842190945e-03,-2.559641925989539213e-02,-4.826753346151702040e-02,-7.093864766313864867e-02,-9.360976186476033245e-02,-1.162808760663819330e-01,-1.389519902680036445e-01,-1.462652529136880264e-01,-1.462652529136880264e-01,-1.462652529136880264e-01,-1.462652529136879709e-01,-1.462652529136880264e-01,-1.462652529136880264e-01,-1.462652529136880264e-01,-1.462652529136880264e-01,-1.462652529136880264e-01,-1.462652529136880264e-01,-1.462652529136880264e-01,-1.462652529136880264e-01,-1.462652529136880264e-01,-1.411459690617089535e-01,-1.184748548600872975e-01,-9.580374065846564147e-02,-7.313262645684398544e-02,-5.046151225522232942e-02,-2.779039805360070114e-02,-5.850610116547499961e-03,1.682050408507412831e-02,3.949161828669578433e-02,6.216273248831744036e-02,8.483384668993909639e-02,1.075049608915607385e-01
1.345640326805930265e-01,1.345640326805930265e-01,1.345640326805930265e-01,1.345640326805930265e-01,1.345640326805930265e-01,1.345640326805930265e-01,1.345640326805930265e-01,1.345640326805930265e-01,1.345640326805930265e-01,1.345640326805930265e-01,1.155495498018135753e-01,9.287843560019193312e-02,7.020732139857029097e-02,4.826753346151707591e-02,2.559641925989541988e-02,2.925305058273791614e-03,-1.974580914334786441e-02,-4.241692334496949268e-02,-6.508803754659114871e-02,-8.775915174821280473e-02,-1.104302659498344608e-01,-1.331013801514561168e-01,-1.462652529136880264e-01,-1.462652529136880264e-01,-1.462652529136880264e-01,-1.462652529136880264e-01,-1.462652529136880264e-01,-1.462652529136880264e-01,-1.462652529136880264e-01,-1.462652529136880264e-01,-1.462652529136880264e-01,-1.462652529136880264e-01,-1.462652529136880264e-01,-1.462652529136880264e-01,-1.462652529136880264e-01,-1.462652529136879709e-01,-1.243254649766348252e-01,-1.016543507750131692e-01,-7.971456283795994024e-02,-5.704344863633831197e-02,-3.437233443471665595e-02,-1.170122023309502768e-02,1.096989396852662835e-02,3.364100817014827050e-02,5.631212237176991264e-02,8.245703633009165978e-02,1.119386263705069162e-01
1.345640326805930265e-01,1.345640326805930265e-01,1.345640326805930265e-01,1.345640326805930265e-01,1.345640326805930265e-01,1.345640326805930265e-01,1.345640326805930265e-01,1.345640326805930265e-01,1.345640326805930265e-01,1.345640326805930265e-01,1.221314861829295439e-01,9.946037198130790180e-02,7.678925777968624578e-02,5.411814357806460363e-02,3.144702937644294760e-02,8.775915174821291576e-03,-1.389519902680033669e-02,-3.656631322842199272e-02,-5.923742743004362099e-02,-8.190854163166527702e-02,-1.045796558332869330e-01,-1.272507700349085336e-01,-1.462652529136880264e-01,-1.462652529136880264e-01,-1.462652529136880264e-01,-1.462652529136880264e-01,-1.462652529136880264e-01,-1.462652529136880264e-01,-1.462652529136880264e-01,-1.462652529136879709e-01,-1.462652529136880819e-01,-1.462652529136880264e-01,-1.462652529136880264e-01,-1.462652529136880819e-01,-1.462652529136880264e-01,-1.462652529136880264e-01,-1.309074013577507523e-01,-1.082362871561291517e-01,-8.556517295450749572e-02,-6.289405875288581194e-02,-4.022294455126418367e-02,-1.755183034964252764e-02,3.748047105913257515e-02,8.117721536709687769e-02,1.161666063375431934e-01,1.345640326805930265e-01,1.345640326805930265e-01
1.345640326805930265e-01,1.345640326805930265e-01,1.345640326805930265e-01,1.345640326805930265e-01,1.345640326805930265e-01,1.345640326805930265e-01,1.345640326805930265e-01,1.345640326805930265e-01,1.345640326805930265e-01,1.345640326805930265e-01,1.279820962994770717e-01,1.053109820978554156e-01,8.263986789623377349e-02,5.996875369461213134e-02,3.729763949299047532e-02,1.462652529136881929e-02,-8.044588910252836733e-03,-3.071570311187446500e-02,-5.338681731349609327e-02,-7.605793151511774930e-02,-9.799771945217095048e-02,-1.206688336537926065e-01,-1.433399478554142625e-01,-1.462652529136879709e-01,-1.462652529136880264e-01,-1.462652529136880264e-01,-1.462652529136880264e-01,-1.462652529136880264e-01,-1.462652529136880264e-01,-1.462652529136879709e-01,-1.462652529136880264e-01,-1.462652529136880264e-01,-1.462652529136880264e-01,-1.462652529136879709e-01,-1.462652529136880264e-01,-1.462652529136880264e-01,-1.367580114742982800e-01,-1.140868972726766517e-01,-4.904456761762099326e-02,2.020288805870318338e-02,7.811478663421654589e-02,1.296275803947560534e-01,1.345640326805930265e-01,1.345640326805930265e-01,1.345640326805930265e-01,1.345640326805930265e-01,1.345640326805930265e-01
1.345640326805930265e-01,1.345640326805930265e-01,1.345640326805930265e-01,1.345640326805930265e-01,1.345640326805930265e-01,1.345640326805930265e-01,1.345640326805930265e-01,1.345640326805930265e-01,1.345640326805930265e-01,1.345640326805930265e-01,1.338327064160245994e-01,1.111615922144029434e-01,8.849047801278128733e-02,6.581936381115965906e-02,4.314824960953800304e-02,2.047713540791634701e-02,-2.193978793705281261e-03,-2.413376673075848244e-02,-4.680488093238016623e-02,-6.947599513400176674e-02,-9.214710933562345052e-02,-1.148182235372450788e-01,-1.374893377388667348e-01,-1.462652529136880264e-01,-1.462652529136880264e-01,-1.462652529136880264e-01,-1.462652529136880264e-01,-1.462652529136880819e-01,-1.462652529136880264e-01,-1.462652529136879709e-01,-1.462652529136880264e-01,-1.462652529136880264e-01,-1.462652529136880264e-01,-1.462652529136880264e-01,-1.111615922144028878e-01,-4.095427081583261075e-02,3.062428732880345672e-02,1.107045132990476660e-01,1.345640326805930265e-01,1.345640326805930265e-01,1.345640326805930265e-01,1.345640326805930265e-01,1.345640326805930265e-01,1.345640326805930265e-01,1.345640326805930265e-01,1.345640326805930265e-01,1.345640326805930265e-01
1.345640326805930265e-01,1.345640326805930265e-01,1.345640326805930265e-01,1.345640326805930265e-01,1.345640326805930265e-01,1.345640326805930265e-01,1.345640326805930265e-01,1.345640326805930265e-01,1.345640326805930265e-01,1.345640326805930265e-01,1.345640326805930265e-01,1.170122023309504572e-01,9.434108812932881505e-02,7.166997392770715902e-02,4.973018599065395784e-02,2.705907178903231569e-02,4.387957587410673543e-03,-1.828315661421098248e-02,-4.095427081583263851e-02,-6.362538501745426678e-02,-8.629649921907592280e-02,-1.089676134206975511e-01,-1.316387276223192071e-01,-1.462652529136880264e-01,-1.462652529136880264e-01,-1.462652529136880264e-01,-1.462652529136880264e-01,-1.462652529136880264e-01,-1.462652529136880264e-01,-1.462652529136880264e-01,-1.287134225640454432e-01,-5.850610116547519390e-02,1.170122023309506931e-02,9.068445680648661023e-02,1.345640326805930265e-01,1.345640326805930265e-01,1.345640326805930265e-01,1.345640326805930265e-01,1.345640326805930265e-01,1.345640326805930265e-01,1.345640326805930265e-01,1.345640326805930265e-01,1.345640326805930265e-01,1.345640326805930265e-01,1.345640326805930265e-01,1.345640326805930265e-01,1.345640326805930265e-01
1.345640326805930265e-01,1.345640326805930265e-01,1.345640326805930265e-01,1.345640326805930265e-01,1.345640326805930265e-01,1.345640326805930265e-01,1.345640326805930265e-01,1.345640326805930265e-01,1.345640326805930265e-01,1.345640326805930265e-01,1.345640326805930265e-01,1.235941387120664259e-01,1.009230245104447699e-01,7.825191030882312770e-02,5.558079610720148556e-02,3.290968190557982953e-02,1.023856770395818738e-02,-1.243254649766345477e-02,-3.510366069928511079e-02,-5.777477490090673906e-02,-8.044588910252839509e-02,-1.031170033041500511e-01,-1.257881175057716794e-01,-1.462652529136880264e-01,-1.462652529136880819e-01,-1.462652529136880264e-01,-1.462652529136880264e-01,-7.605793151511774930e-02,-5.850610116547472206e-03,7.313262645684404095e-02,1.345640326805930265e-01,1.345640326805930265e-01,1.345640326805930265e-01,1.345640326805930265e-01,1.345640326805930265e-01,1.345640326805930265e-01,1.345640326805930265e-01,1.345640326805930265e-01,1.345640326805930265e-01,1.345640326805930265e-01,1.345640326805930265e-01,1.345640326805930265e-01,1.345640326805930265e-01,1.345640326805930265e-01,1.345640326805930265e-01,1.345640326805930265e-01,1.345640326805930265e-01
