8.089987112763831131e-03,8.089987112763831131e-03,8.089987112763831131e-03,8.089987112763831131e-03,8.089987112763831131e-03,8.089987112763831131e-03,8.089987112763831131e-03,8.089987112763831131e-03,8.089987112763831131e-03,8.089987112763831131e-03,8.089987112763831131e-03,8.089987112763831131e-03,8.089987112763831131e-03,8.089987112763831131e-03,8.089987112763831131e-03,7.544234013886905871e-03,6.634645515758697681e-03,5.906974717256130956e-03,4.997386219127921900e-03,4.269715420625355175e-03,3.360126922497146985e-03,2.632456123994580260e-03,1.722867625866371204e-03,8.132791277381638817e-04,8.560832923559628937e-05,-8.239801688926119000e-04,-1.551650967395181227e-03,-2.461239465523385947e-03,-3.188910264025955274e-03,-4.098498762154163463e-03,-4.826169560656729321e-03,-5.735758058784937510e-03,-6.645346556913147434e-03,-7.373017355415715027e-03,-8.282605853543923216e-03,-9.010276652046492543e-03,-9.919865150174697263e-03,-1.064753594867726659e-02,-1.155712444680547131e-02,-1.246671294493368297e-02,-1.319438374343624883e-02,-1.410397224156445702e-02,-1.483164304006702287e-02,-1.425178037251029033e-02,8.089987112763831131e-03,8.089987112763831131e-03,8.089987112763831131e-03
8.089987112763831131e-03,8.089987112763831131e-03,8.089987112763831131e-03,8.089987112763831131e-03,8.089987112763831131e-03,8.089987112763831131e-03,8.089987112763831131e-03,8.089987112763831131e-03,7.544234013886905871e-03,6.816563215384339146e-03,5.906974717256130089e-03,5.179303918753564231e-03,4.269715420625355175e-03,3.360126922497146985e-03,2.632456123994580260e-03,1.722867625866372071e-03,9.951968273638044787e-04,8.560832923559628937e-05,-6.420624692669713030e-04,-1.551650967395179492e-03,-2.279321765897745350e-03,-3.188910264025955274e-03,-4.098498762154163463e-03,-4.826169560656731056e-03,-5.735758058784939245e-03,-6.463428857287506837e-03,-7.373017355415713292e-03,-8.100688153918280884e-03,-9.010276652046489074e-03,-9.919865150174697263e-03,-1.064753594867726659e-02,-1.155712444680547478e-02,-1.228479524530804064e-02,-1.319438374343624883e-02,-1.392205454193881815e-02,-1.483164304006702287e-02,-1.574123153819523280e-02,-1.646890233669780212e-02,-1.737849083482600338e-02,-1.810616163332857270e-02,-1.901575013145678089e-02,-1.974342092995935022e-02,-2.065300942808755841e-02,-2.138068022659012773e-02,6.191221122921196016e-03,8.089987112763831131e-03,8.089987112763831131e-03
8.089987112763831131e-03,7.726151713512547335e-03,6.816563215384339146e-03,5.906974717256130089e-03,5.179303918753564231e-03,4.269715420625355175e-03,3.542044622122788450e-03,2.632456123994580260e-03,1.904785325492012668e-03,9.951968273638044787e-04,8.560832923559628937e-05,-6.420624692669713030e-04,-1.551650967395179492e-03,-2.279321765897747085e-03,-3.188910264025953539e-03,-3.916581062528521132e-03,-4.826169560656731056e-03,-5.553840359159298648e-03,-6.463428857287506837e-03,-7.373017355415715027e-03,-8.100688153918280884e-03,-9.010276652046489074e-03,-9.737947450549058401e-03,-1.064753594867726312e-02,-1.137520674717982898e-02,-1.228479524530804064e-02,-1.319438374343624883e-02,-1.392205454193881815e-02,-1.483164304006702287e-02,-1.555931383856958873e-02,-1.646890233669780212e-02,-1.719657313520036451e-02,-1.810616163332857270e-02,-1.883383243183114203e-02,-1.974342092995935022e-02,-2.065300942808755841e-02,-2.138068022659012080e-02,-2.229026872471832899e-02,-2.301793952322090525e-02,-2.392752802134910650e-02,-2.465519881985167583e-02,-2.556478731797988402e-02,-2.647437581610809221e-02,-2.720204661461066153e-02,1.708822509351153734e-04,8.089987112763831131e-03,8.089987112763831131e-03
2.632456123994580260e-03,1.904785325492013535e-03,9.951968273638044787e-04,2.675260288612386211e-04,-6.420624692669713030e-04,-1.369733267769537161e-03,-2.279321765897747085e-03,-3.188910264025953539e-03,-3.916581062528521132e-03,-4.826169560656729321e-03,-5.553840359159296913e-03,-6.463428857287506837e-03,-7.191099655790072695e-03,-8.100688153918280884e-03,-8.828358952420850211e-03,-9.737947450549058401e-03,-1.064753594867726659e-02,-1.137520674717983245e-02,-1.228479524530804064e-02,-1.301246604381060649e-02,-1.392205454193881468e-02,-1.464972534044138054e-02,-1.555931383856958873e-02,-1.646890233669780212e-02,-1.719657313520036451e-02,-1.810616163332857270e-02,-1.883383243183114203e-02,-1.974342092995935022e-02,-2.047109172846191955e-02,-2.138068022659012080e-02,-2.210835102509269706e-02,-2.301793952322089831e-02,-2.392752802134910650e-02,-2.465519881985167583e-02,-2.556478731797989096e-02,-2.629245811648246028e-02,-2.720204661461065460e-02,-2.792971741311322392e-02,-2.883930591124143211e-02,-2.974889440936964030e-02,-3.047656520787220269e-02,-3.138615370600041782e-02,-3.211382450450297327e-02,-3.302341300263118840e-02,-7.600414479947763605e-03,8.089987112763831131e-03,8.089987112763831131e-03
-3.006992564400312942e-03,-3.916581062528521132e-03,-4.644251861031088724e-03,-5.553840359159296913e-03,-6.281511157661864506e-03,-7.191099655790072695e-03,-8.100688153918280884e-03,-8.828358952420850211e-03,-9.737947450549058401e-03,-1.046561824905162426e-02,-1.137520674717983245e-02,-1.210287754568239484e-02,-1.301246604381060996e-02,-1.392205454193881468e-02,-1.464972534044138401e-02,-1.555931383856958873e-02,-1.628698463707215632e-02,-1.719657313520036451e-02,-1.792424393370293384e-02,-1.883383243183114203e-02,-1.956150323033371136e-02,-2.047109172846191955e-02,-2.138068022659012773e-02,-2.210835102509269012e-02,-2.301793952322089831e-02,-2.374561032172346764e-02,-2.465519881985167583e-02,-2.538286961835424516e-02,-2.629245811648244641e-02,-2.720204661461066153e-02,-2.792971741311322392e-02,-2.883930591124143905e-02,-2.956697670974400144e-02,-3.047656520787220963e-02,-3.120423600637477202e-02,-3.211382450450297327e-02,-3.302341300263118840e-02,-3.375108380113375772e-02,-3.466067229926196591e-02,-3.538834309776453524e-02,-3.629793159589274343e-02,-3.702560239439531276e-02,-3.793519089252351401e-02,-3.866286169102609027e-02,-1.574123153819523280e-02,8.089987112763831131e-03,8.089987112763831131e-03
-8.828358952420846742e-03,-9.556029750923416069e-03,-1.046561824905162426e-02,-1.137520674717983245e-02,-1.210287754568239484e-02,-1.301246604381060649e-02,-1.374013684231317582e-02,-1.464972534044138054e-02,-1.537739613894394987e-02,-1.628698463707215632e-02,-1.719657313520036451e-02,-1.792424393370293384e-02,-1.883383243183114203e-02,-1.956150323033370442e-02,-2.047109172846191261e-02,-2.119876252696448193e-02,-2.210835102509269012e-02,-2.283602182359525945e-02,-2.374561032172346764e-02,-2.465519881985167583e-02,-2.538286961835424516e-02,-2.629245811648245335e-02,-2.702012891498502267e-02,-2.792971741311322392e-02,-2.865738821161579325e-02,-2.956697670974399450e-02,-3.047656520787220963e-02,-3.120423600637477202e-02,-3.211382450450298021e-02,-3.284149530300554953e-02,-3.375108380113375772e-02,-3.447875459963632011e-02,-3.538834309776453524e-02,-3.629793159589274343e-02,-3.702560239439531276e-02,-3.793519089252351401e-02,-3.866286169102608333e-02,-3.957245018915429846e-02,-4.030012098765686085e-02,-4.120970948578507598e-02,-4.193738028428763837e-02,-4.284696878241585349e-02,-4.375655728054406168e-02,-4.448422807904663101e-02,-2.700875905875841504e-02,8.089987112763831131e-03,8.089987112763831131e-03
-1.464972534044138054e-02,-1.537739613894394987e-02,-1.628698463707215632e-02,-1.701465543557472565e-02,-1.792424393370293384e-02,-1.865191473220549623e-02,-1.956150323033371136e-02,-2.047109172846191261e-02,-2.119876252696448193e-02,-2.210835102509269012e-02,-2.283602182359525251e-02,-2.374561032172346764e-02,-2.447328112022603003e-02,-2.538286961835423822e-02,-2.611054041685680754e-02,-2.702012891498502267e-02,-2.792971741311322392e-02,-2.865738821161579325e-02,-2.956697670974399450e-02,-3.029464750824656383e-02,-3.120423600637477202e-02,-3.193190680487734134e-02,-3.284149530300554953e-02,-3.375108380113375772e-02,-3.447875459963632705e-02,-3.538834309776452830e-02,-3.611601389626709763e-02,-3.702560239439529888e-02,-3.775327319289787514e-02,-3.866286169102608333e-02,-3.939053248952865266e-02,-4.030012098765686779e-02,-4.120970948578507598e-02,-4.193738028428763837e-02,-4.284696878241585349e-02,-4.357463958091841588e-02,-4.448422807904663101e-02,-4.521189887754919340e-02,-4.612148737567740159e-02,-4.703107587380560284e-02,-4.775874667230817217e-02,-4.866833517043637342e-02,-4.939600596893894968e-02,-5.030559446706715787e-02,-3.810005380780925877e-02,8.089987112763831131e-03,8.089987112763831131e-03
-2.028917402883627374e-02,-2.119876252696448193e-02,-2.192643332546705126e-02,-2.283602182359525945e-02,-2.374561032172346764e-02,-2.447328112022603697e-02,-2.538286961835423822e-02,-2.611054041685681448e-02,-2.702012891498502267e-02,-2.774779971348758506e-02,-2.865738821161579325e-02,-2.938505901011835564e-02,-3.029464750824656383e-02,-3.120423600637476508e-02,-3.193190680487734134e-02,-3.284149530300554953e-02,-3.356916610150811192e-02,-3.447875459963632705e-02,-3.520642539813888944e-02,-3.611601389626710457e-02,-3.702560239439530582e-02,-3.775327319289788208e-02,-3.866286169102608333e-02,-3.939053248952865266e-02,-4.030012098765686085e-02,-4.102779178615943712e-02,-4.193738028428763837e-02,-4.266505108279020769e-02,-4.357463958091841588e-02,-4.448422807904662407e-02,-4.521189887754919340e-02,-4.612148737567740159e-02,-4.684915817417996398e-02,-4.775874667230817217e-02,-4.848641747081074149e-02,-4.939600596893894968e-02,-5.030559446706715093e-02,-5.103326526556972720e-02,-5.194285376369792845e-02,-5.267052456220049084e-02,-5.358011306032869903e-02,-5.430778385883127529e-02,-5.521737235695947654e-02,-5.594504315546204587e-02,-5.279559298069312623e-02,8.089987112763831131e-03,8.089987112763831131e-03
-2.611054041685680754e-02,-2.683821121535937687e-02,-2.774779971348758506e-02,-2.865738821161579325e-02,-2.938505901011836258e-02,-3.029464750824656383e-02,-3.102231830674912622e-02,-3.193190680487734134e-02,-3.265957760337990373e-02,-3.356916610150811192e-02,-3.447875459963632011e-02,-3.520642539813889638e-02,-3.611601389626710457e-02,-3.684368469476966002e-02,-3.775327319289787514e-02,-3.848094399140044447e-02,-3.939053248952865266e-02,-4.011820328803122199e-02,-4.102779178615943018e-02,-4.193738028428763837e-02,-4.266505108279021463e-02,-4.357463958091841588e-02,-4.430231037942097827e-02,-4.521189887754918646e-02,-4.593956967605175579e-02,-4.684915817417996398e-02,-4.775874667230817217e-02,-4.848641747081074149e-02,-4.939600596893894968e-02,-5.012367676744151207e-02,-5.103326526556972026e-02,-5.176093606407228959e-02,-5.267052456220049778e-02,-5.358011306032871290e-02,-5.430778385883126835e-02,-5.521737235695947654e-02,-5.594504315546204587e-02,-5.685463165359025406e-02,-5.758230245209282339e-02,-5.849189095022104545e-02,-5.921956174872361478e-02,-6.012915024685182297e-02,-6.103873874498001728e-02,-6.176640954348258661e-02,-6.267599804161080868e-02,1.387456867181594347e-03,8.089987112763831131e-03
-3.193190680487733440e-02,-3.265957760337990373e-02,-3.356916610150811192e-02,-3.429683690001068125e-02,-3.520642539813888944e-02,-3.593409619664145876e-02,-3.684368469476966002e-02,-3.775327319289787514e-02,-3.848094399140044447e-02,-3.939053248952865960e-02,-4.011820328803122199e-02,-4.102779178615943018e-02,-4.175546258466199256e-02,-4.266505108279021463e-02,-4.339272188129277702e-02,-4.430231037942098521e-02,-4.521189887754918646e-02,-4.593956967605175579e-02,-4.684915817417996398e-02,-4.757682897268253330e-02,-4.848641747081073455e-02,-4.921408826931329694e-02,-5.012367676744151207e-02,-5.103326526556972720e-02,-5.176093606407228265e-02,-5.267052456220049778e-02,-5.339819536070306016e-02,-5.430778385883126835e-02,-5.503545465733383768e-02,-5.594504315546204587e-02,-5.685463165359025406e-02,-5.758230245209282339e-02,-5.849189095022103158e-02,-5.921956174872360090e-02,-6.012915024685180909e-02,-6.085682104535437842e-02,-6.176640954348258661e-02,-6.249408034198515594e-02,-6.340366884011336412e-02,-6.431325733824157231e-02,-6.504092813674415552e-02,-6.595051663487236371e-02,-6.667818743337491916e-02,-6.758777593150312735e-02,-6.831544673000569667e-02,-8.822674024307549864e-03,8.089987112763831131e-03
-3.757135549327222934e-02,-3.848094399140044447e-02,-3.920861478990300686e-02,-4.011820328803122199e-02,-4.102779178615943018e-02,-4.175546258466199950e-02,-4.266505108279021463e-02,-4.339272188129277702e-02,-4.430231037942098521e-02,-4.502998117792354760e-02,-4.593956967605176273e-02,-4.666724047455432511e-02,-4.757682897268252636e-02,-4.848641747081073455e-02,-4.921408826931329694e-02,-5.012367676744151207e-02,-5.085134756594407446e-02,-5.176093606407228959e-02,-5.248860686257485891e-02,-5.339819536070306016e-02,-5.430778385883127529e-02,-5.503545465733383768e-02,-5.594504315546204587e-02,-5.667271395396461520e-02,-5.758230245209282339e-02,-5.830997325059539271e-02,-5.921956174872360090e-02,-6.012915024685180909e-02,-6.085682104535437842e-02,-6.176640954348258661e-02,-6.249408034198515594e-02,-6.340366884011336412e-02,-6.413133963861593345e-02,-6.504092813674414164e-02,-6.576859893524671097e-02,-6.667818743337490528e-02,-6.758777593150312735e-02,-6.831544673000569667e-02,-6.922503522813389099e-02,-6.995270602663646031e-02,-7.086229452476468238e-02,-7.158996532326725171e-02,-7.249955382139544602e-02,-7.340914231952365421e-02,-7.340914231952365421e-02,-2.247218642434397479e-02,8.089987112763831131e-03
-4.339272188129277008e-02,-4.430231037942098521e-02,-4.502998117792354760e-02,-4.593956967605176273e-02,-4.666724047455432511e-02,-4.757682897268253330e-02,-4.830449977118510263e-02,-4.921408826931331082e-02,-4.994175906781587321e-02,-5.085134756594408140e-02,-5.176093606407228265e-02,-5.248860686257485891e-02,-5.339819536070306016e-02,-5.412586615920562949e-02,-5.503545465733383768e-02,-5.576312545583640701e-02,-5.667271395396461520e-02,-5.758230245209282339e-02,-5.830997325059539271e-02,-5.921956174872360090e-02,-5.994723254722617023e-02,-6.085682104535437842e-02,-6.158449184385694775e-02,-6.249408034198515594e-02,-6.322175114048771138e-02,-6.413133963861593345e-02,-6.504092813674414164e-02,-6.576859893524671097e-02,-6.667818743337493304e-02,-6.740585823187747461e-02,-6.831544673000569667e-02,-6.904311752850826600e-02,-6.995270602663646031e-02,-7.086229452476466850e-02,-7.158996532326723783e-02,-7.249955382139544602e-02,-7.322722461989801535e-02,-7.340914231952365421e-02,-7.340914231952365421e-02,-7.340914231952365421e-02,-7.340914231952365421e-02,-7.340914231952365421e-02,-7.340914231952365421e-02,-7.340914231952364033e-02,-7.340914231952365421e-02,-3.265957760337991067e-02,8.089987112763831131e-03
-4.921408826931329694e-02,-4.994175906781587321e-02,-5.085134756594408140e-02,-5.157901836444664379e-02,-5.248860686257485197e-02,-5.321627766107741436e-02,-5.412586615920562949e-02,-5.503545465733383768e-02,-5.576312545583640701e-02,-5.667271395396461520e-02,-5.740038475246718452e-02,-5.830997325059539271e-02,-5.903764404909796204e-02,-5.994723254722615635e-02,-6.085682104535439230e-02,-6.158449184385693387e-02,-6.249408034198515594e-02,-6.322175114048772526e-02,-6.413133963861593345e-02,-6.485901043711848890e-02,-6.576859893524671097e-02,-6.649626973374926642e-02,-3.536753469095535451e-01,-3.545849354076817672e-01,-3.553126062061843227e-01,-3.562221947043125447e-01,-7.068037682513902964e-02,-7.158996532326723783e-02,-7.231763612176980716e-02,-7.322722461989800147e-02,-7.340914231952365421e-02,-7.340914231952365421e-02,-7.340914231952365421e-02,-7.340914231952365421e-02,-7.340914231952365421e-02,-7.340914231952365421e-02,-7.340914231952364033e-02,-7.340914231952365421e-02,-7.340914231952365421e-02,-7.340914231952364033e-02,-7.340914231952365421e-02,-7.340914231952365421e-02,-7.340914231952365421e-02,-7.340914231952365421e-02,-7.340914231952365421e-02,-4.539381657717483226e-02,8.089987112763831131e-03
-5.485353695770819882e-02,-5.576312545583640701e-02,-5.649079625433897633e-02,-5.740038475246718452e-02,-5.830997325059539271e-02,-5.903764404909794816e-02,-5.994723254722615635e-02,-6.067490334572872568e-02,-6.158449184385693387e-02,-6.231216264235951707e-02,-6.322175114048772526e-02,-6.394942193899029459e-02,-6.485901043711850278e-02,-6.576859893524671097e-02,-6.649626973374926642e-02,-6.740585823187747461e-02,-6.813352903038004393e-02,-6.904311752850825212e-02,-6.977078832701082145e-02,-7.068037682513904352e-02,-7.158996532326723783e-02,-7.231763612176980716e-02,-3.594967132975740998e-01,-3.596786309971997109e-01,-3.596786309971997109e-01,-3.596786309971997109e-01,-7.340914231952365421e-02,-7.340914231952365421e-02,-7.340914231952365421e-02,-7.340914231952365421e-02,-7.340914231952365421e-02,-7.340914231952365421e-02,-7.340914231952365421e-02,-7.340914231952365421e-02,-7.340914231952365421e-02,-7.340914231952365421e-02,-7.340914231952365421e-02,-7.340914231952365421e-02,-7.340914231952365421e-02,-7.340914231952365421e-02,-7.340914231952365421e-02,-7.340914231952365421e-02,-7.340914231952366809e-02,-7.340914231952365421e-02,-7.340914231952365421e-02,-5.812805555096975385e-02,8.089987112763831131e-03
-6.067490334572872568e-02,-6.158449184385694775e-02,-6.231216264235951707e-02,-6.322175114048771138e-02,-6.394942193899029459e-02,-6.485901043711848890e-02,-6.558668123562107211e-02,-6.649626973374928030e-02,-6.722394053225183574e-02,-6.813352903038004393e-02,-6.904311752850826600e-02,-6.977078832701082145e-02,-7.068037682513904352e-02,-7.140804762364158509e-02,-7.231763612176980716e-02,-7.304530692027237648e-02,-7.340914231952365421e-02,-7.340914231952365421e-02,-7.340914231952365421e-02,-7.340914231952365421e-02,-7.340914231952365421e-02,-7.340914231952365421e-02,-3.596786309971997109e-01,-3.596786309971997109e-01,-3.596786309971997109e-01,-3.596786309971997109e-01,-7.340914231952365421e-02,-7.340914231952365421e-02,-7.340914231952366809e-02,-7.340914231952365421e-02,-7.340914231952365421e-02,-7.340914231952365421e-02,-7.340914231952365421e-02,-7.340914231952365421e-02,-7.340914231952365421e-02,-7.340914231952365421e-02,-7.340914231952366809e-02,-7.340914231952365421e-02,-7.340914231952365421e-02,-7.340914231952365421e-02,-7.340914231952365421e-02,-7.340914231952365421e-02,-7.340914231952365421e-02,-7.340914231952365421e-02,-7.340914231952365421e-02,-6.831544673000568280e-02,8.089987112763831131e-03
-6.649626973374928030e-02,-6.722394053225184962e-02,-6.813352903038004393e-02,-6.886119982888262714e-02,-6.977078832701082145e-02,-7.049845912551339078e-02,-7.140804762364159897e-02,-7.231763612176980716e-02,-7.304530692027236261e-02,-7.340914231952365421e-02,-7.340914231952365421e-02,-7.340914231952365421e-02,-7.340914231952365421e-02,-7.340914231952365421e-02,-7.340914231952366809e-02,-7.340914231952365421e-02,-3.711356084983921111e-01,-3.711356084983921111e-01,-3.711356084983921111e-01,-3.711356084983921111e-01,-3.711356084983921111e-01,-7.340914231952365421e-02,-3.596786309971997109e-01,-3.596786309971997109e-01,-3.596786309971997109e-01,-3.596786309971997109e-01,-7.340914231952365421e-02,-7.340914231952365421e-02,-7.340914231952365421e-02,-7.340914231952365421e-02,-7.340914231952365421e-02,-7.340914231952365421e-02,-7.340914231952365421e-02,-7.340914231952365421e-02,-7.340914231952365421e-02,-7.340914231952365421e-02,-7.340914231952365421e-02,-7.340914231952365421e-02,-7.340914231952365421e-02,-7.340914231952364033e-02,-7.340914231952364033e-02,-7.340914231952366809e-02,-7.340914231952365421e-02,-7.340914231952365421e-02,-7.340914231952365421e-02,-7.340914231952365421e-02,4.494437284868792182e-04
-7.213571842214416829e-02,-7.304530692027237648e-02,-7.340914231952365421e-02,-7.340914231952365421e-02,-7.340914231952365421e-02,-7.340914231952365421e-02,-7.340914231952365421e-02,-7.340914231952365421e-02,-7.340914231952366809e-02,-7.340914231952365421e-02,-7.340914231952365421e-02,-7.340914231952365421e-02,-7.340914231952365421e-02,-7.340914231952365421e-02,-7.340914231952365421e-02,-7.340914231952365421e-02,-3.711356084983921111e-01,-3.711356084983921111e-01,-3.711356084983921111e-01,-3.711356084983921111e-01,-3.711356084983921111e-01,-7.340914231952365421e-02,-7.340914231952365421e-02,-7.340914231952365421e-02,-7.340914231952365421e-02,-7.340914231952365421e-02,-7.340914231952364033e-02,-7.340914231952366809e-02,-7.340914231952365421e-02,-7.340914231952365421e-02,-7.340914231952365421e-02,-7.340914231952365421e-02,-7.340914231952365421e-02,-7.340914231952365421e-02,-7.340914231952365421e-02,-7.340914231952365421e-02,-7.340914231952365421e-02,-7.340914231952366809e-02,-7.340914231952366809e-02,-7.340914231952364033e-02,-7.340914231952366809e-02,-7.340914231952365421e-02,-7.340914231952366809e-02,-7.340914231952365421e-02,-7.310951316719906112e-02,-7.236044028638760617e-02,-1.187280516086173555e-02
-7.340914231952365421e-02,-7.340914231952365421e-02,-7.340914231952365421e-02,-7.340914231952365421e-02,-7.340914231952365421e-02,-7.340914231952365421e-02,-7.340914231952365421e-02,-7.340914231952365421e-02,-7.340914231952365421e-02,-7.340914231952365421e-02,-7.340914231952365421e-02,-7.340914231952365421e-02,-7.340914231952364033e-02,-7.340914231952365421e-02,-7.340914231952365421e-02,-7.340914231952365421e-02,-3.711356084983921111e-01,-3.711356084983921111e-01,-3.711356084983921111e-01,-3.711356084983921111e-01,-3.711356084983921111e-01,-7.340914231952365421e-02,-7.340914231952365421e-02,-7.340914231952366809e-02,-7.340914231952366809e-02,-7.340914231952364033e-02,-7.340914231952366809e-02,-7.340914231952365421e-02,-7.340914231952366809e-02,-7.340914231952364033e-02,-7.340914231952365421e-02,-7.340914231952365421e-02,-7.340914231952365421e-02,-7.340914231952365421e-02,-7.340914231952366809e-02,-7.340914231952365421e-02,-7.340914231952365421e-02,-7.310951316719906112e-02,-7.251025486254990271e-02,-7.176118198173843388e-02,-7.101210910092696504e-02,-7.041285079627777888e-02,-6.966377791546632392e-02,-6.906451961081716551e-02,-6.831544673000568280e-02,-6.771618842535651051e-02,-2.005642638372699682e-02
-7.340914231952365421e-02,-7.340914231952365421e-02,-7.340914231952365421e-02,-7.340914231952365421e-02,-7.340914231952365421e-02,-7.340914231952364033e-02,-7.340914231952365421e-02,-7.340914231952365421e-02,-7.340914231952365421e-02,-7.340914231952366809e-02,-7.340914231952365421e-02,-7.340914231952364033e-02,-7.340914231952365421e-02,-7.340914231952365421e-02,-7.340914231952366809e-02,-7.340914231952364033e-02,-3.711356084983921111e-01,-3.711356084983921111e-01,-3.711356084983921111e-01,-3.711356084983921111e-01,-3.711356084983921111e-01,-7.340914231952365421e-02,-7.340914231952365421e-02,-7.340914231952365421e-02,-7.340914231952365421e-02,-7.340914231952365421e-02,-7.340914231952365421e-02,-7.340914231952364033e-02,-7.340914231952365421e-02,-7.340914231952365421e-02,-7.310951316719906112e-02,-7.251025486254988883e-02,-7.176118198173842000e-02,-7.116192367708926159e-02,-7.041285079627777888e-02,-6.981359249162862046e-02,-6.906451961081716551e-02,-6.831544673000568280e-02,-6.771618842535652438e-02,-6.696711554454505555e-02,-6.636785723989586938e-02,-6.561878435908440055e-02,-6.501952605443524214e-02,-6.427045317362375942e-02,-6.367119486897458713e-02,-6.292212198816311830e-02,-2.923725087917251886e-02
-7.340914231952365421e-02,-7.340914231952364033e-02,-7.340914231952365421e-02,-7.340914231952365421e-02,-7.340914231952365421e-02,-7.340914231952364033e-02,-7.340914231952366809e-02,-7.340914231952365421e-02,-7.340914231952365421e-02,-7.340914231952365421e-02,-7.340914231952365421e-02,-7.340914231952365421e-02,-7.340914231952365421e-02,-7.340914231952365421e-02,-7.340914231952365421e-02,-7.340914231952365421e-02,-3.711356084983921111e-01,-3.711356084983921111e-01,-3.711356084983921111e-01,-3.711356084983921111e-01,-3.711356084983921111e-01,-7.340914231952365421e-02,-7.340914231952365421e-02,-7.325932774336135767e-02,-7.251025486254988883e-02,-7.191099655790071654e-02,-7.116192367708926159e-02,-7.041285079627779275e-02,-6.981359249162862046e-02,-6.906451961081715163e-02,-6.846526130616799322e-02,-6.771618842535651051e-02,-6.711693012070733821e-02,-6.636785723989586938e-02,-6.576859893524669709e-02,-6.501952605443522826e-02,-6.427045317362375942e-02,-6.367119486897458713e-02,-6.292212198816311830e-02,-6.232286368351395989e-02,-6.157379080270249105e-02,-6.097453249805330489e-02,-6.022545961724184993e-02,-5.947638673643039497e-02,-5.887712843178120881e-02,-5.812805555096973997e-02,-3.497234012288531063e-02
-7.340914231952365421e-02,-7.340914231952365421e-02,-7.340914231952365421e-02,-7.340914231952365421e-02,-7.340914231952365421e-02,-7.340914231952365421e-02,-7.340914231952365421e-02,-7.340914231952365421e-02,-7.340914231952365421e-02,-7.340914231952365421e-02,-7.340914231952365421e-02,-7.340914231952365421e-02,-7.340914231952365421e-02,-7.340914231952365421e-02,-7.340914231952365421e-02,-7.340914231952365421e-02,-7.325932774336135767e-02,-7.251025486254990271e-02,-7.191099655790073042e-02,-7.116192367708926159e-02,-7.056266537244008930e-02,-6.981359249162862046e-02,-6.921433418697946205e-02,-6.846526130616799322e-02,-6.771618842535651051e-02,-6.711693012070733821e-02,-6.636785723989586938e-02,-6.576859893524669709e-02,-6.501952605443522826e-02,-6.442026774978605597e-02,-6.367119486897458713e-02,-6.307193656432541484e-02,-6.232286368351395989e-02,-6.157379080270249105e-02,-6.097453249805331876e-02,-6.022545961724184993e-02,-5.962620131259267764e-02,-5.887712843178120881e-02,-5.827787012713203652e-02,-5.752879724632058156e-02,-5.677972436550911273e-02,-5.618046606085994044e-02,-5.543139318004848548e-02,-5.483213487539931319e-02,-5.408306199458784436e-02,-5.348380368993866513e-02,-4.133009619877263396e-02
-7.340914231952365421e-02,-7.340914231952365421e-02,-7.340914231952365421e-02,-7.340914231952365421e-02,-7.340914231952365421e-02,-7.340914231952365421e-02,-7.340914231952365421e-02,-7.340914231952365421e-02,-7.340914231952365421e-02,-7.325932774336135767e-02,-7.266006943871218537e-02,-7.191099655790071654e-02,-7.131173825325155813e-02,-7.056266537244008930e-02,-6.981359249162862046e-02,-6.921433418697943429e-02,-6.846526130616797934e-02,-6.786600300151880705e-02,-6.711693012070733821e-02,-6.651767181605816592e-02,-6.576859893524669709e-02,-6.516934063059752480e-02,-6.442026774978606984e-02,-6.367119486897458713e-02,-6.307193656432542872e-02,-6.232286368351395989e-02,-6.172360537886477372e-02,-6.097453249805331876e-02,-6.037527419340414647e-02,-5.962620131259267764e-02,-5.887712843178120881e-02,-5.827787012713203652e-02,-5.752879724632058156e-02,-5.692953894167139539e-02,-5.618046606085994044e-02,-5.558120775621076814e-02,-5.483213487539929931e-02,-5.408306199458784436e-02,-5.348380368993866513e-02,-5.273473080912720323e-02,-5.213547250447803094e-02,-5.138639962366655517e-02,-5.078714131901738982e-02,-5.003806843820592792e-02,-4.943881013355674869e-02,-4.868973725274527986e-02,-4.443874865414021436e-02
-7.340914231952365421e-02,-7.340914231952365421e-02,-7.340914231952365421e-02,-7.266006943871218537e-02,-7.191099655790071654e-02,-7.131173825325155813e-02,-7.056266537244008930e-02,-6.996340706779091700e-02,-6.921433418697946205e-02,-6.861507588233027588e-02,-6.786600300151880705e-02,-6.711693012070733821e-02,-6.651767181605816592e-02,-6.576859893524669709e-02,-6.516934063059752480e-02,-6.442026774978606984e-02,-6.382100944513688368e-02,-6.307193656432541484e-02,-6.247267825967624255e-02,-6.172360537886477372e-02,-6.097453249805331876e-02,-6.037527419340414647e-02,-5.962620131259269152e-02,-5.902694300794350535e-02,-5.827787012713205039e-02,-5.767861182248286422e-02,-5.692953894167140927e-02,-5.618046606085994044e-02,-5.558120775621076814e-02,-5.483213487539929931e-02,-5.423287657075013396e-02,-5.348380368993866513e-02,-5.288454538528948590e-02,-5.213547250447803094e-02,-5.138639962366655517e-02,-5.078714131901738982e-02,-5.003806843820592098e-02,-4.943881013355674869e-02,-4.868973725274527986e-02,-4.809047894809611451e-02,-4.734140606728463874e-02,-4.674214776263546645e-02,-4.599307488182400455e-02,-4.524400200101253572e-02,-4.464474369636336343e-02,-4.389567081555190153e-02,-4.329641251090272230e-02
-6.996340706779091700e-02,-6.921433418697943429e-02,-6.861507588233027588e-02,-6.786600300151880705e-02,-6.726674469686963476e-02,-6.651767181605817980e-02,-6.591841351140899363e-02,-6.516934063059752480e-02,-6.442026774978605597e-02,-6.382100944513688368e-02,-6.307193656432541484e-02,-6.247267825967624255e-02,-6.172360537886477372e-02,-6.112434707421561531e-02,-6.037527419340414647e-02,-5.977601588875497418e-02,-5.902694300794350535e-02,-5.827787012713205039e-02,-5.767861182248286422e-02,-5.692953894167140927e-02,-5.633028063702223698e-02,-5.558120775621076814e-02,-5.498194945156159585e-02,-5.423287657075013396e-02,-5.348380368993866513e-02,-5.288454538528949284e-02,-5.213547250447803094e-02,-5.153621419982885171e-02,-5.078714131901738288e-02,-5.018788301436821059e-02,-4.943881013355674869e-02,-4.883955182890758334e-02,-4.809047894809611451e-02,-4.734140606728463874e-02,-4.674214776263547338e-02,-4.599307488182399761e-02,-4.539381657717483226e-02,-4.464474369636336343e-02,-4.404548539171419114e-02,-4.329641251090272230e-02,-4.254733963009126041e-02,-4.194808132544208118e-02,-4.119900844463061929e-02,-4.059975013998144699e-02,-3.985067725916998510e-02,-3.925141895452081975e-02,-3.850234607370934398e-02
-6.516934063059752480e-02,-6.457008232594833863e-02,-6.382100944513688368e-02,-6.322175114048771138e-02,-6.247267825967624255e-02,-6.172360537886478760e-02,-6.112434707421560143e-02,-6.037527419340414647e-02,-5.977601588875497418e-02,-5.902694300794350535e-02,-5.842768470329433306e-02,-5.767861182248287810e-02,-5.707935351783370581e-02,-5.633028063702223698e-02,-5.558120775621076814e-02,-5.498194945156159585e-02,-5.423287657075013396e-02,-5.363361826610096167e-02,-5.288454538528949977e-02,-5.228528708064032055e-02,-5.153621419982885865e-02,-5.078714131901738982e-02,-5.018788301436821753e-02,-4.943881013355674869e-02,-4.883955182890757640e-02,-4.809047894809610757e-02,-4.749122064344693528e-02,-4.674214776263547338e-02,-4.614288945798629415e-02,-4.539381657717482532e-02,-4.464474369636335649e-02,-4.404548539171419808e-02,-4.329641251090272924e-02,-4.269715420625355695e-02,-4.194808132544208812e-02,-4.134882302079291583e-02,-4.059975013998144699e-02,-3.985067725916999204e-02,-3.925141895452081281e-02,-3.850234607370935092e-02,-3.790308776906017862e-02,-3.715401488824870979e-02,-3.655475658359953750e-02,-3.580568370278807561e-02,-3.520642539813889638e-02,-3.445735251732743448e-02,-3.370827963651596565e-02
-5.623664652692079990e-02,-5.977601588875497418e-02,-5.902694300794350535e-02,-5.842768470329433306e-02,-5.767861182248286422e-02,-5.707935351783370581e-02,-5.633028063702223698e-02,-5.573102233237306469e-02,-5.498194945156159585e-02,-5.438269114691243050e-02,-5.363361826610096167e-02,-5.288454538528949284e-02,-5.228528708064032748e-02,-5.153621419982885171e-02,-5.093695589517967248e-02,-5.018788301436821059e-02,-4.958862470971904524e-02,-4.883955182890757640e-02,-4.809047894809610757e-02,-4.749122064344693528e-02,-4.674214776263547338e-02,-4.614288945798629415e-02,-4.539381657717483226e-02,-4.479455827252565997e-02,-4.404548539171419808e-02,-4.344622708706501885e-02,-4.269715420625355695e-02,-4.194808132544208812e-02,-4.134882302079291583e-02,-4.059975013998145393e-02,-4.000049183533228164e-02,-3.925141895452081281e-02,-3.865216064987164746e-02,-3.790308776906017169e-02,-3.715401488824870979e-02,-3.655475658359953750e-02,-3.580568370278807561e-02,-3.520642539813890332e-02,-3.445735251732743448e-02,-3.385809421267826219e-02,-3.310902133186679336e-02,-3.250976302721762107e-02,-3.176069014640615917e-02,-3.101161726559468340e-02,-3.041235896094551805e-02,-2.966328608013404922e-02,-2.906402777548487693e-02
-4.376458306140989379e-02,-5.498194945156159585e-02,-5.438269114691242356e-02,-5.363361826610096167e-02,-5.303435996145178244e-02,-5.228528708064032055e-02,-5.168602877599114825e-02,-5.093695589517967942e-02,-5.018788301436821059e-02,-4.958862470971904524e-02,-4.883955182890757640e-02,-4.824029352425840411e-02,-4.749122064344693528e-02,-4.689196233879776299e-02,-4.614288945798629415e-02,-4.554363115333712186e-02,-4.479455827252565303e-02,-4.404548539171419114e-02,-4.344622708706501885e-02,-4.269715420625355695e-02,-4.209789590160438466e-02,-4.134882302079291583e-02,-4.074956471614374354e-02,-4.000049183533228164e-02,-3.925141895452080587e-02,-3.865216064987164052e-02,-3.790308776906017169e-02,-3.730382946441100633e-02,-3.655475658359953750e-02,-3.595549827895036521e-02,-3.520642539813890332e-02,-3.445735251732742754e-02,-3.385809421267826219e-02,-3.310902133186679336e-02,-3.250976302721762107e-02,-3.176069014640615223e-02,-3.116143184175698688e-02,-3.041235896094551805e-02,-2.981310065629634576e-02,-2.906402777548487693e-02,-2.831495489467340809e-02,-2.771569659002423580e-02,-2.696662370921276697e-02,-2.636736540456359468e-02,-2.561829252375212584e-02,-2.501903421910295355e-02,-2.426996133829149166e-02
-3.064644423619909686e-02,-5.033769759053050713e-02,-4.958862470971904524e-02,-4.898936640506987295e-02,-4.824029352425840411e-02,-4.749122064344693528e-02,-4.689196233879775605e-02,-4.614288945798629415e-02,-4.554363115333712186e-02,-4.479455827252565303e-02,-4.419529996787648074e-02,-4.344622708706501885e-02,-4.284696878241584656e-02,-4.209789590160438466e-02,-4.134882302079290889e-02,-4.074956471614374354e-02,-4.000049183533227470e-02,-3.940123353068310935e-02,-3.865216064987164052e-02,-3.805290234522246823e-02,-3.730382946441100633e-02,-3.655475658359953750e-02,-3.595549827895036521e-02,-3.520642539813890332e-02,-3.460716709348972409e-02,-3.385809421267825525e-02,-3.325883590802908296e-02,-3.250976302721762107e-02,-3.176069014640615223e-02,-3.116143184175697994e-02,-3.041235896094551805e-02,-2.981310065629634576e-02,-2.906402777548487693e-02,-2.846476947083570463e-02,-2.771569659002423580e-02,-2.711643828537506351e-02,-2.636736540456359468e-02,-2.561829252375212584e-02,-2.501903421910295355e-02,-2.426996133829149166e-02,-2.367070303364231937e-02,-2.292163015283085054e-02,-2.232237184818168518e-02,-2.157329896737021635e-02,-2.082422608655875446e-02,-2.022496778190958217e-02,-1.947589490109811333e-02
-2.080081755903338825e-02,-4.554363115333712186e-02,-4.479455827252565303e-02,-4.419529996787648074e-02,-4.344622708706502578e-02,-4.284696878241585349e-02,-4.209789590160438466e-02,-4.149863759695520543e-02,-4.074956471614374354e-02,-4.015030641149457125e-02,-3.940123353068310241e-02,-3.865216064987164052e-02,-3.805290234522246823e-02,-3.730382946441099939e-02,-3.670457115976182710e-02,-3.595549827895036521e-02,-3.535623997430119292e-02,-3.460716709348972409e-02,-3.385809421267826219e-02,-3.325883590802908990e-02,-3.250976302721762107e-02,-3.191050472256844184e-02,-3.116143184175697994e-02,-3.056217353710780765e-02,-2.981310065629633882e-02,-2.921384235164717347e-02,-2.846476947083570463e-02,-2.771569659002423580e-02,-2.711643828537506351e-02,-2.636736540456359468e-02,-2.576810709991442239e-02,-2.501903421910295355e-02,-2.441977591445378126e-02,-2.367070303364231937e-02,-2.292163015283085054e-02,-2.232237184818168518e-02,-2.157329896737021635e-02,-2.097404066272104406e-02,-2.022496778190958217e-02,-1.962570947726040987e-02,-1.887663659644894104e-02,-1.827737829179976875e-02,-1.752830541098829992e-02,-1.677923253017683802e-02,-1.617997422552765879e-02,-1.543090134471619863e-02,-1.483164304006702634e-02
-1.050574715338080910e-02,-4.074956471614374354e-02,-4.015030641149457818e-02,-3.940123353068310241e-02,-3.880197522603393012e-02,-3.805290234522246823e-02,-3.745364404057328900e-02,-3.670457115976183404e-02,-3.595549827895036521e-02,-3.535623997430119292e-02,-3.460716709348972409e-02,-3.400790878884055179e-02,-3.325883590802908990e-02,-3.265957760337991067e-02,-3.191050472256844878e-02,-3.116143184175698688e-02,-3.056217353710781459e-02,-2.981310065629633882e-02,-2.921384235164717347e-02,-2.846476947083570463e-02,-2.786551116618653234e-02,-2.711643828537506351e-02,-2.651717998072589122e-02,-2.576810709991442239e-02,-2.501903421910296049e-02,-2.441977591445378126e-02,-2.367070303364231937e-02,-2.307144472899314708e-02,-2.232237184818168518e-02,-2.172311354353251289e-02,-2.097404066272105100e-02,-2.022496778190957523e-02,-1.962570947726040294e-02,-1.887663659644894104e-02,-1.827737829179976875e-02,-1.752830541098829992e-02,-1.692904710633912763e-02,-1.617997422552766573e-02,-1.558071592087849171e-02,-1.483164304006702634e-02,-1.408257015925555751e-02,-1.348331185460638869e-02,-1.273423897379491986e-02,-1.213498066914574756e-02,-1.138590778833428220e-02,-1.078664948368510991e-02,-1.003757660287364108e-02
-3.108652455367585596e-03,-3.610531285511266175e-02,-3.535623997430119292e-02,-3.475698166965202063e-02,-3.400790878884055179e-02,-3.325883590802908990e-02,-3.265957760337991067e-02,-3.191050472256844878e-02,-3.131124641791927649e-02,-3.056217353710781459e-02,-2.996291523245863536e-02,-2.921384235164716653e-02,-2.861458404699799424e-02,-2.786551116618653234e-02,-2.711643828537506351e-02,-2.651717998072589122e-02,-2.576810709991442933e-02,-2.516884879526525010e-02,-2.441977591445378126e-02,-2.382051760980460897e-02,-2.307144472899314708e-02,-2.232237184818168518e-02,-2.172311354353251289e-02,-2.097404066272104406e-02,-2.037478235807187177e-02,-1.962570947726040987e-02,-1.902645117261123758e-02,-1.827737829179976875e-02,-1.752830541098829992e-02,-1.692904710633912763e-02,-1.617997422552765879e-02,-1.558071592087849171e-02,-1.483164304006702634e-02,-1.423238473541785405e-02,-1.348331185460638522e-02,-1.288405354995721640e-02,-1.213498066914574756e-02,-1.138590778833428220e-02,-1.078664948368510991e-02,-1.003757660287364455e-02,-9.438318298224472255e-03,-8.689245417413003422e-03,-8.089987112763831131e-03,-7.340914231952365768e-03,-6.591841351140900404e-03,-5.992583046491726378e-03,-5.243510165680262750e-03
4.325895886686214643e-03,-3.131124641791926955e-02,-3.056217353710780765e-02,-2.996291523245863536e-02,-2.921384235164716653e-02,-2.861458404699799424e-02,-2.786551116618653234e-02,-2.726625286153736005e-02,-2.651717998072589122e-02,-2.591792167607671199e-02,-2.516884879526525010e-02,-2.441977591445378126e-02,-2.382051760980460897e-02,-2.307144472899314708e-02,-2.247218642434397479e-02,-2.172311354353250595e-02,-2.112385523888333366e-02,-2.037478235807187177e-02,-1.962570947726040987e-02,-1.902645117261123064e-02,-1.827737829179976875e-02,-1.767811998715059646e-02,-1.692904710633912763e-02,-1.632978880168996227e-02,-1.558071592087848824e-02,-1.483164304006702634e-02,-1.423238473541785405e-02,-1.348331185460638522e-02,-1.288405354995721293e-02,-1.213498066914574756e-02,-1.153572236449657180e-02,-1.078664948368510991e-02,-1.018739117903593762e-02,-9.438318298224472255e-03,-8.689245417413006892e-03,-8.089987112763831131e-03,-7.340914231952365768e-03,-6.741655927303193477e-03,-5.992583046491728113e-03,-5.393324741842555822e-03,-4.644251861031088724e-03,-3.895178980219623360e-03,-3.295920675570449335e-03,-2.546847794758983971e-03,-1.947589490109811680e-03,-1.198516609298346317e-03,-5.992583046491740256e-04
8.089987112763831131e-03,-2.435423203738278086e-02,-2.591792167607671893e-02,-2.516884879526525010e-02,-2.456959049061607780e-02,-2.382051760980460897e-02,-2.322125930515543668e-02,-2.247218642434397479e-02,-2.172311354353251289e-02,-2.112385523888334060e-02,-2.037478235807187177e-02,-1.977552405342269948e-02,-1.902645117261123758e-02,-1.842719286796205835e-02,-1.767811998715059646e-02,-1.692904710633913457e-02,-1.632978880168995534e-02,-1.558071592087849171e-02,-1.498145761622931942e-02,-1.423238473541785405e-02,-1.363312643076867829e-02,-1.288405354995721293e-02,-1.228479524530804064e-02,-1.153572236449657874e-02,-1.078664948368510991e-02,-1.018739117903593762e-02,-9.438318298224468786e-03,-8.839059993575296495e-03,-8.089987112763834601e-03,-7.490728808114658840e-03,-6.741655927303195212e-03,-5.992583046491728113e-03,-5.393324741842555822e-03,-4.644251861031088724e-03,-4.044993556381916433e-03,-3.295920675570451069e-03,-2.696662370921278779e-03,-1.947589490109813415e-03,-1.348331185460639389e-03,-5.992583046491740256e-04,1.498145761622930727e-04,7.490728808114653636e-04,1.498145761622930727e-03,2.097404066272103886e-03,2.846476947083570117e-03,3.445735251732742407e-03,4.194808132544208638e-03
8.089987112763831131e-03,-1.625488151360881400e-02,-2.112385523888334060e-02,-2.052459693423416831e-02,-1.977552405342269948e-02,-1.902645117261123064e-02,-1.842719286796206529e-02,-1.767811998715058952e-02,-1.707886168250142417e-02,-1.632978880168995534e-02,-1.573053049704078304e-02,-1.498145761622931942e-02,-1.423238473541785405e-02,-1.363312643076867829e-02,-1.288405354995721293e-02,-1.228479524530804064e-02,-1.153572236449657874e-02,-1.093646405984740298e-02,-1.018739117903593762e-02,-9.588132874386765328e-03,-8.839059993575299964e-03,-8.089987112763834601e-03,-7.490728808114658840e-03,-6.741655927303195212e-03,-6.142397622654021186e-03,-5.393324741842555822e-03,-4.794066437193383531e-03,-4.044993556381918168e-03,-3.295920675570449335e-03,-2.696662370921278779e-03,-1.947589490109811680e-03,-1.348331185460639389e-03,-5.992583046491740256e-04,0.000000000000000000e+00,7.490728808114653636e-04,1.348331185460637655e-03,2.097404066272103886e-03,2.846476947083569249e-03,3.445735251732742407e-03,4.194808132544208638e-03,4.794066437193380929e-03,5.543139318004847160e-03,6.142397622654019451e-03,6.891470503465485682e-03,7.640543384276951913e-03,8.089987112763831131e-03,8.089987112763831131e-03
8.089987112763831131e-03,-8.427069909128991412e-03,-1.632978880168995534e-02,-1.573053049704078304e-02,-1.498145761622931942e-02,-1.438219931158014712e-02,-1.363312643076868176e-02,-1.303386812611950600e-02,-1.228479524530804064e-02,-1.168553694065886835e-02,-1.093646405984740298e-02,-1.018739117903593762e-02,-9.588132874386765328e-03,-8.839059993575296495e-03,-8.239801688926127674e-03,-7.490728808114658840e-03,-6.891470503465486550e-03,-6.142397622654021186e-03,-5.393324741842554088e-03,-4.794066437193383531e-03,-4.044993556381918168e-03,-3.445735251732742407e-03,-2.696662370921278779e-03,-2.097404066272106488e-03,-1.348331185460639389e-03,-5.992583046491740256e-04,-1.734723475976807094e-18,7.490728808114653636e-04,1.348331185460637655e-03,2.097404066272103886e-03,2.696662370921276176e-03,3.445735251732742407e-03,4.044993556381914698e-03,4.794066437193380929e-03,5.543139318004847160e-03,6.142397622654019451e-03,6.891470503465485682e-03,7.490728808114658840e-03,8.089987112763831131e-03,8.089987112763831131e-03,8.089987112763831131e-03,8.089987112763831131e-03,8.089987112763831131e-03,8.089987112763831131e-03,8.089987112763831131e-03,8.089987112763831131e-03,8.089987112763831131e-03
8.089987112763831131e-03,-2.097404066272104753e-03,-1.168553694065886835e-02,-1.093646405984740298e-02,-1.033720575519823069e-02,-9.588132874386765328e-03,-8.988874569737593037e-03,-8.239801688926127674e-03,-7.490728808114658840e-03,-6.891470503465486550e-03,-6.142397622654021186e-03,-5.543139318004848895e-03,-4.794066437193383531e-03,-4.194808132544207771e-03,-3.445735251732744142e-03,-2.696662370921278779e-03,-2.097404066272104753e-03,-1.348331185460639389e-03,-7.490728808114670983e-04,0.000000000000000000e+00,5.992583046491722909e-04,1.348331185460637655e-03,1.947589490109810813e-03,2.696662370921276176e-03,3.445735251732742407e-03,4.044993556381914698e-03,4.794066437193380929e-03,5.393324741842554088e-03,6.142397622654019451e-03,6.741655927303192609e-03,7.490728808114658840e-03,8.089987112763831131e-03,8.089987112763831131e-03,8.089987112763831131e-03,8.089987112763831131e-03,8.089987112763831131e-03,8.089987112763831131e-03,8.089987112763831131e-03,8.089987112763831131e-03,8.089987112763831131e-03,8.089987112763831131e-03,8.089987112763831131e-03,8.089987112763831131e-03,8.089987112763831131e-03,8.089987112763831131e-03,8.089987112763831131e-03,8.089987112763831131e-03
8.089987112763831131e-03,2.191038176373537490e-03,-6.891470503465486550e-03,-6.292212198816314259e-03,-5.543139318004848895e-03,-4.794066437193381797e-03,-4.194808132544209506e-03,-3.445735251732744142e-03,-2.846476947083570117e-03,-2.097404066272104753e-03,-1.498145761622932462e-03,-7.490728808114670983e-04,-1.734723475976807094e-18,5.992583046491722909e-04,1.348331185460637655e-03,1.947589490109809945e-03,2.696662370921277044e-03,3.295920675570449335e-03,4.044993556381915566e-03,4.644251861031087857e-03,5.393324741842554088e-03,6.142397622654019451e-03,6.741655927303192609e-03,7.490728808114658840e-03,8.089987112763831131e-03,8.089987112763831131e-03,8.089987112763831131e-03,8.089987112763831131e-03,8.089987112763831131e-03,8.089987112763831131e-03,8.089987112763831131e-03,8.089987112763831131e-03,8.089987112763831131e-03,8.089987112763831131e-03,8.089987112763831131e-03,8.089987112763831131e-03,8.089987112763831131e-03,8.089987112763831131e-03,8.089987112763831131e-03,8.089987112763831131e-03,8.089987112763831131e-03,8.089987112763831131e-03,8.089987112763831131e-03,8.089987112763831131e-03,8.089987112763831131e-03,8.089987112763831131e-03,8.089987112763831131e-03
8.089987112763831131e-03,5.697635599672212434e-03,-2.097404066272104753e-03,-1.498145761622932462e-03,-7.490728808114670983e-04,-1.498145761622948074e-04,5.992583046491714235e-04,1.198516609298344582e-03,1.947589490109810813e-03,2.696662370921276176e-03,3.295920675570449335e-03,4.044993556381915566e-03,4.644251861031087857e-03,5.393324741842554088e-03,5.992583046491726378e-03,6.741655927303192609e-03,7.340914231952364900e-03,8.089987112763831131e-03,8.089987112763831131e-03,8.089987112763831131e-03,8.089987112763831131e-03,8.089987112763831131e-03,8.089987112763831131e-03,8.089987112763831131e-03,8.089987112763831131e-03,8.089987112763831131e-03,8.089987112763831131e-03,8.089987112763831131e-03,8.089987112763831131e-03,8.089987112763831131e-03,8.089987112763831131e-03,8.089987112763831131e-03,8.089987112763831131e-03,8.089987112763831131e-03,8.089987112763831131e-03,8.089987112763831131e-03,8.089987112763831131e-03,8.089987112763831131e-03,8.089987112763831131e-03,8.089987112763831131e-03,8.089987112763831131e-03,8.089987112763831131e-03,8.089987112763831131e-03,8.089987112763831131e-03,8.089987112763831131e-03,8.089987112763831131e-03,8.089987112763831131e-03
8.089987112763831131e-03,7.514137335640016374e-03,2.546847794758983104e-03,3.295920675570449335e-03,3.895178980219622493e-03,4.644251861031088724e-03,5.393324741842554088e-03,5.992583046491726378e-03,6.741655927303192609e-03,7.340914231952364900e-03,8.089987112763831131e-03,8.089987112763831131e-03,8.089987112763831131e-03,8.089987112763831131e-03,8.089987112763831131e-03,8.089987112763831131e-03,8.089987112763831131e-03,8.089987112763831131e-03,8.089987112763831131e-03,8.089987112763831131e-03,8.089987112763831131e-03,8.089987112763831131e-03,8.089987112763831131e-03,8.089987112763831131e-03,8.089987112763831131e-03,8.089987112763831131e-03,8.089987112763831131e-03,8.089987112763831131e-03,8.089987112763831131e-03,8.089987112763831131e-03,8.089987112763831131e-03,8.089987112763831131e-03,8.089987112763831131e-03,8.089987112763831131e-03,8.089987112763831131e-03,8.089987112763831131e-03,8.089987112763831131e-03,8.089987112763831131e-03,8.089987112763831131e-03,8.089987112763831131e-03,8.089987112763831131e-03,8.089987112763831131e-03,8.089987112763831131e-03,8.089987112763831131e-03,8.089987112763831131e-03,8.089987112763831131e-03,8.089987112763831131e-03
8.089987112763831131e-03,8.089987112763831131e-03,7.387731287003081702e-03,7.940172536601538059e-03,8.089987112763831131e-03,8.089987112763831131e-03,8.089987112763831131e-03,8.089987112763831131e-03,8.089987112763831131e-03,8.089987112763831131e-03,8.089987112763831131e-03,8.089987112763831131e-03,8.089987112763831131e-03,8.089987112763831131e-03,8.089987112763831131e-03,8.089987112763831131e-03,8.089987112763831131e-03,8.089987112763831131e-03,8.089987112763831131e-03,8.089987112763831131e-03,8.089987112763831131e-03,8.089987112763831131e-03,8.089987112763831131e-03,8.089987112763831131e-03,8.089987112763831131e-03,8.089987112763831131e-03,8.089987112763831131e-03,8.089987112763831131e-03,8.089987112763831131e-03,8.089987112763831131e-03,8.089987112763831131e-03,8.089987112763831131e-03,8.089987112763831131e-03,8.089987112763831131e-03,8.089987112763831131e-03,8.089987112763831131e-03,8.089987112763831131e-03,8.089987112763831131e-03,8.089987112763831131e-03,8.089987112763831131e-03,8.089987112763831131e-03,8.089987112763831131e-03,8.089987112763831131e-03,8.089987112763831131e-03,8.089987112763831131e-03,8.089987112763831131e-03,8.089987112763831131e-03
8.089987112763831131e-03,8.089987112763831131e-03,8.089987112763831131e-03,8.089987112763831131e-03,8.089987112763831131e-03,8.089987112763831131e-03,8.089987112763831131e-03,8.089987112763831131e-03,8.089987112763831131e-03,8.089987112763831131e-03,8.089987112763831131e-03,8.089987112763831131e-03,8.089987112763831131e-03,8.089987112763831131e-03,8.089987112763831131e-03,8.089987112763831131e-03,8.089987112763831131e-03,8.089987112763831131e-03,8.089987112763831131e-03,8.089987112763831131e-03,8.089987112763831131e-03,8.089987112763831131e-03,8.089987112763831131e-03,8.089987112763831131e-03,8.089987112763831131e-03,8.089987112763831131e-03,8.089987112763831131e-03,8.089987112763831131e-03,8.089987112763831131e-03,8.089987112763831131e-03,8.089987112763831131e-03,8.089987112763831131e-03,8.089987112763831131e-03,8.089987112763831131e-03,8.089987112763831131e-03,8.089987112763831131e-03,8.089987112763831131e-03,8.089987112763831131e-03,8.089987112763831131e-03,8.089987112763831131e-03,8.089987112763831131e-03,8.089987112763831131e-03,8.089987112763831131e-03,8.089987112763831131e-03,8.089987112763831131e-03,8.089987112763831131e-03,8.089987112763831131e-03
8.089987112763831131e-03,8.089987112763831131e-03,8.089987112763831131e-03,8.089987112763831131e-03,8.089987112763831131e-03,8.089987112763831131e-03,8.089987112763831131e-03,8.089987112763831131e-03,8.089987112763831131e-03,8.089987112763831131e-03,8.089987112763831131e-03,8.089987112763831131e-03,8.089987112763831131e-03,8.089987112763831131e-03,8.089987112763831131e-03,8.089987112763831131e-03,8.089987112763831131e-03,8.089987112763831131e-03,8.089987112763831131e-03,8.089987112763831131e-03,8.089987112763831131e-03,8.089987112763831131e-03,8.089987112763831131e-03,8.089987112763831131e-03,8.089987112763831131e-03,8.089987112763831131e-03,8.089987112763831131e-03,8.089987112763831131e-03,8.089987112763831131e-03,8.089987112763831131e-03,8.089987112763831131e-03,8.089987112763831131e-03,8.089987112763831131e-03,8.089987112763831131e-03,8.089987112763831131e-03,8.089987112763831131e-03,8.089987112763831131e-03,8.089987112763831131e-03,8.089987112763831131e-03,8.089987112763831131e-03,8.089987112763831131e-03,8.089987112763831131e-03,8.089987112763831131e-03,8.089987112763831131e-03,8.089987112763831131e-03,8.089987112763831131e-03,8.089987112763831131e-03
8.089987112763831131e-03,8.089987112763831131e-03,8.089987112763831131e-03,8.089987112763831131e-03,8.089987112763831131e-03,8.089987112763831131e-03,8.089987112763831131e-03,8.089987112763831131e-03,8.089987112763831131e-03,8.089987112763831131e-03,8.089987112763831131e-03,8.089987112763831131e-03,8.089987112763831131e-03,8.089987112763831131e-03,8.089987112763831131e-03,8.089987112763831131e-03,8.089987112763831131e-03,8.089987112763831131e-03,8.089987112763831131e-03,8.089987112763831131e-03,8.089987112763831131e-03,8.089987112763831131e-03,8.089987112763831131e-03,8.089987112763831131e-03,8.089987112763831131e-03,8.089987112763831131e-03,8.089987112763831131e-03,8.089987112763831131e-03,8.089987112763831131e-03,8.089987112763831131e-03,8.089987112763831131e-03,8.089987112763831131e-03,8.089987112763831131e-03,8.089987112763831131e-03,8.089987112763831131e-03,8.089987112763831131e-03,8.089987112763831131e-03,8.089987112763831131e-03,8.089987112763831131e-03,8.089987112763831131e-03,8.089987112763831131e-03,8.089987112763831131e-03,8.089987112763831131e-03,8.089987112763831131e-03,8.089987112763831131e-03,8.089987112763831131e-03,8.089987112763831131e-03
8.089987112763831131e-03,8.089987112763831131e-03,8.089987112763831131e-03,8.089987112763831131e-03,8.089987112763831131e-03,8.089987112763831131e-03,8.089987112763831131e-03,8.089987112763831131e-03,8.089987112763831131e-03,8.089987112763831131e-03,8.089987112763831131e-03,8.089987112763831131e-03,8.089987112763831131e-03,8.089987112763831131e-03,8.089987112763831131e-03,8.089987112763831131e-03,8.089987112763831131e-03,8.089987112763831131e-03,8.089987112763831131e-03,8.089987112763831131e-03,8.089987112763831131e-03,8.089987112763831131e-03,8.089987112763831131e-03,8.089987112763831131e-03,8.089987112763831131e-03,8.089987112763831131e-03,8.089987112763831131e-03,8.089987112763831131e-03,8.089987112763831131e-03,8.089987112763831131e-03,8.089987112763831131e-03,8.089987112763831131e-03,8.089987112763831131e-03,8.089987112763831131e-03,8.089987112763831131e-03,8.089987112763831131e-03,8.089987112763831131e-03,8.089987112763831131e-03,8.089987112763831131e-03,8.089987112763831131e-03,8.089987112763831131e-03,8.089987112763831131e-03,8.089987112763831131e-03,8.089987112763831131e-03,8.089987112763831131e-03,8.089987112763831131e-03,8.089987112763831131e-03
8.089987112763831131e-03,8.089987112763831131e-03,8.089987112763831131e-03,8.089987112763831131e-03,8.089987112763831131e-03,8.089987112763831131e-03,8.089987112763831131e-03,8.089987112763831131e-03,8.089987112763831131e-03,8.089987112763831131e-03,8.089987112763831131e-03,8.089987112763831131e-03,8.089987112763831131e-03,8.089987112763831131e-03,8.089987112763831131e-03,8.089987112763831131e-03,8.089987112763831131e-03,8.089987112763831131e-03,8.089987112763831131e-03,8.089987112763831131e-03,8.089987112763831131e-03,8.089987112763831131e-03,8.089987112763831131e-03,8.089987112763831131e-03,8.089987112763831131e-03,8.089987112763831131e-03,8.089987112763831131e-03,8.089987112763831131e-03,8.089987112763831131e-03,8.089987112763831131e-03,8.089987112763831131e-03,8.089987112763831131e-03,8.089987112763831131e-03,8.089987112763831131e-03,8.089987112763831131e-03,8.089987112763831131e-03,8.089987112763831131e-03,8.089987112763831131e-03,8.089987112763831131e-03,8.089987112763831131e-03,8.089987112763831131e-03,8.089987112763831131e-03,8.089987112763831131e-03,8.089987112763831131e-03,8.089987112763831131e-03,8.089987112763831131e-03,8.089987112763831131e-03
8.089987112763831131e-03,8.089987112763831131e-03,8.089987112763831131e-03,8.089987112763831131e-03,8.089987112763831131e-03,8.089987112763831131e-03,8.089987112763831131e-03,8.089987112763831131e-03,8.089987112763831131e-03,8.089987112763831131e-03,8.089987112763831131e-03,8.089987112763831131e-03,8.089987112763831131e-03,8.089987112763831131e-03,8.089987112763831131e-03,8.089987112763831131e-03,8.089987112763831131e-03,8.089987112763831131e-03,8.089987112763831131e-03,8.089987112763831131e-03,8.089987112763831131e-03,8.089987112763831131e-03,8.089987112763831131e-03,8.089987112763831131e-03,8.089987112763831131e-03,8.089987112763831131e-03,8.089987112763831131e-03,8.089987112763831131e-03,8.089987112763831131e-03,8.089987112763831131e-03,8.089987112763831131e-03,8.089987112763831131e-03,8.089987112763831131e-03,8.089987112763831131e-03,8.089987112763831131e-03,8.089987112763831131e-03,8.089987112763831131e-03,8.089987112763831131e-03,8.089987112763831131e-03,8.089987112763831131e-03,8.089987112763831131e-03,8.089987112763831131e-03,8.089987112763831131e-03,8.089987112763831131e-03,8.089987112763831131e-03,8.089987112763831131e-03,8.089987112763831131e-03
8.089987112763831131e-03,8.089987112763831131e-03,8.089987112763831131e-03,8.089987112763831131e-03,8.089987112763831131e-03,8.089987112763831131e-03,8.089987112763831131e-03,8.089987112763831131e-03,8.089987112763831131e-03,8.089987112763831131e-03,8.089987112763831131e-03,8.089987112763831131e-03,8.089987112763831131e-03,8.089987112763831131e-03,8.089987112763831131e-03,8.089987112763831131e-03,8.089987112763831131e-03,8.089987112763831131e-03,8.089987112763831131e-03,8.089987112763831131e-03,8.089987112763831131e-03,8.089987112763831131e-03,8.089987112763831131e-03,8.089987112763831131e-03,8.089987112763831131e-03,8.089987112763831131e-03,8.089987112763831131e-03,8.089987112763831131e-03,8.089987112763831131e-03,8.089987112763831131e-03,8.089987112763831131e-03,8.089987112763831131e-03,8.089987112763831131e-03,8.089987112763831131e-03,8.089987112763831131e-03,8.089987112763831131e-03,8.089987112763831131e-03,8.089987112763831131e-03,8.089987112763831131e-03,8.089987112763831131e-03,8.089987112763831131e-03,8.089987112763831131e-03,8.089987112763831131e-03,8.089987112763831131e-03,8.089987112763831131e-03,8.089987112763831131e-03,8.089987112763831131e-03
