-2.796526348454342684e-02,-2.796526348454342684e-02,-2.796526348454342684e-02,-2.796526348454342684e-02,-2.765015008890929840e-02,-2.769636672026896951e-02,-2.793165138900911837e-02,-2.796526348454342684e-02,-2.796526348454342684e-02,-2.796526348454342684e-02,-2.796526348454342684e-02,-2.796526348454342684e-02,-2.796526348454342684e-02,-2.796526348454342684e-02,-2.796526348454342684e-02,-2.796526348454342684e-02,-2.796526348454342684e-02,-2.796526348454342684e-02,-2.796526348454342684e-02,-2.796526348454342684e-02,-2.796526348454342684e-02,-2.796526348454342684e-02,-2.796526348454342684e-02,-2.796526348454342684e-02,-2.796526348454342684e-02,-2.796526348454342684e-02,-2.796526348454342684e-02,-2.796526348454342684e-02,-2.796526348454342684e-02,-2.796526348454342684e-02,-2.796526348454342684e-02,-2.796526348454342684e-02,-2.796526348454342684e-02,-2.796526348454342684e-02,-2.796526348454342684e-02,-2.796526348454342684e-02,-2.796526348454342684e-02,-2.796526348454342684e-02,-2.796526348454342684e-02,-2.796526348454342684e-02,-2.796526348454342684e-02,-2.796526348454342684e-02,-2.796526348454342684e-02,-2.796526348454342684e-02,-2.796526348454342684e-02,-2.796526348454342684e-02,-2.796526348454342684e-02
-2.796526348454342684e-02,-2.796526348454342684e-02,-2.796526348454342684e-02,-2.796526348454342684e-02,-2.666069402661813692e-02,-2.665439175870545560e-02,-2.685606433191129599e-02,-2.709134900065144486e-02,-2.732663366939159372e-02,-2.752830624259743758e-02,-2.776359091133758644e-02,-2.796526348454342684e-02,-2.796526348454342684e-02,-2.796526348454342684e-02,-2.796526348454342684e-02,-2.796526348454342684e-02,-2.796526348454342684e-02,-2.796526348454342684e-02,-2.796526348454342684e-02,-2.796526348454342684e-02,-2.796526348454342684e-02,-2.796526348454342684e-02,-2.796526348454342684e-02,-2.796526348454342684e-02,-2.796526348454342684e-02,-2.796526348454342684e-02,-2.796526348454342684e-02,-2.796526348454342684e-02,-2.796526348454342684e-02,-2.796526348454342684e-02,-2.796526348454342684e-02,-2.796526348454342684e-02,-2.796526348454342684e-02,-2.796526348454342684e-02,-2.796526348454342684e-02,-2.796526348454342684e-02,-2.796526348454342684e-02,-2.796526348454342684e-02,-2.796526348454342684e-02,-2.796526348454342684e-02,-2.796526348454342684e-02,-2.796526348454342684e-02,-2.796526348454342684e-02,-2.796526348454342684e-02,-2.796526348454342684e-02,-2.796526348454342684e-02,-2.796526348454342684e-02
-2.796526348454342684e-02,-2.796526348454342684e-02,-2.796526348454342684e-02,-2.778879998298831519e-02,-2.537713212840178936e-02,-2.561241679714193822e-02,-2.581408937034777862e-02,-2.604937403908792748e-02,-2.625104661229377134e-02,-2.648633128103392020e-02,-2.672161594977406907e-02,-2.692328852297990946e-02,-2.715857319172005832e-02,-2.739385786046020718e-02,-2.759553043366605105e-02,-2.783081510240619991e-02,-2.796526348454342684e-02,-2.796526348454342684e-02,-2.796526348454342684e-02,-2.796526348454342684e-02,-2.796526348454342684e-02,-2.796526348454342684e-02,-2.796526348454342684e-02,-2.796526348454342684e-02,-2.796526348454342684e-02,-2.796526348454342684e-02,-2.796526348454342684e-02,-2.796526348454342684e-02,-2.796526348454342684e-02,-2.796526348454342684e-02,-2.796526348454342684e-02,-2.796526348454342684e-02,-2.796526348454342684e-02,-2.796526348454342684e-02,-2.796526348454342684e-02,-2.796526348454342684e-02,-2.796526348454342684e-02,-2.796526348454342684e-02,-2.796526348454342684e-02,-2.796526348454342684e-02,-2.796526348454342684e-02,-2.796526348454342684e-02,-2.796526348454342684e-02,-2.796526348454342684e-02,-2.796526348454342684e-02,-2.796526348454342684e-02,-2.796526348454342684e-02
-2.796526348454342684e-02,-2.796526348454342684e-02,-2.796526348454342684e-02,-2.687812226960568582e-02,-2.433515716683827199e-02,-2.453682974004411238e-02,-2.477211440878426124e-02,-2.500739907752441010e-02,-2.520907165073025397e-02,-2.544435631947040283e-02,-2.564602889267624322e-02,-2.588131356141639208e-02,-2.611659823015654094e-02,-2.631827080336238481e-02,-2.655355547210253367e-02,-2.678884014084268253e-02,-2.699051271404852292e-02,-2.722579738278867179e-02,-2.746108205152882065e-02,-2.766275462473466451e-02,-2.789803929347481337e-02,-2.796526348454342684e-02,-2.796526348454342684e-02,-2.796526348454342684e-02,-2.796526348454342684e-02,-2.796526348454342684e-02,-2.796526348454342684e-02,-2.796526348454342684e-02,-2.796526348454342684e-02,-2.796526348454342684e-02,-2.796526348454342684e-02,-2.796526348454342684e-02,-2.796526348454342684e-02,-2.796526348454342684e-02,-2.796526348454342684e-02,-2.796526348454342684e-02,-2.796526348454342684e-02,-2.796526348454342684e-02,-2.796526348454342684e-02,-2.796526348454342684e-02,-2.796526348454342684e-02,-2.796526348454342684e-02,-2.796526348454342684e-02,-2.796526348454342684e-02,-2.796526348454342684e-02,-2.796526348454342684e-02,-2.796526348454342684e-02
-2.796526348454342684e-02,-2.796526348454342684e-02,-2.796526348454342684e-02,-2.551158051053901629e-02,-2.325957010974044614e-02,-2.349485477848059500e-02,-2.373013944722074386e-02,-2.393181202042658773e-02,-2.416709668916673659e-02,-2.440238135790688545e-02,-2.460405393111272584e-02,-2.483933859985287471e-02,-2.507462326859302357e-02,-2.527629584179886743e-02,-2.551158051053901629e-02,-2.571325308374485669e-02,-2.594853775248500555e-02,-2.618382242122515441e-02,-2.638549499443099827e-02,-2.662077966317114713e-02,-2.685606433191129599e-02,-2.705773690511713639e-02,-2.729302157385728525e-02,-2.752830624259743758e-02,-2.772997881580327798e-02,-2.796526348454342684e-02,-2.796526348454342684e-02,-2.796526348454342684e-02,-2.796526348454342684e-02,-2.796526348454342684e-02,-2.796526348454342684e-02,-2.796526348454342684e-02,-2.796526348454342684e-02,-2.796526348454342684e-02,-2.796526348454342684e-02,-2.796526348454342684e-02,-2.796526348454342684e-02,-2.796526348454342684e-02,-2.796526348454342684e-02,-2.796526348454342684e-02,-2.796526348454342684e-02,-2.796526348454342684e-02,-2.796526348454342684e-02,-2.796526348454342684e-02,-2.796526348454342684e-02,-2.796526348454342684e-02,-2.796526348454342684e-02
-2.796526348454342684e-02,-2.796526348454342684e-02,-2.796526348454342684e-02,-2.385198329353260815e-02,-2.221759514817692877e-02,-2.245287981691707763e-02,-2.265455239012292149e-02,-2.288983705886307035e-02,-2.312512172760321921e-02,-2.332679430080906308e-02,-2.356207896954921194e-02,-2.379736363828936080e-02,-2.399903621149520119e-02,-2.423432088023535005e-02,-2.446960554897549892e-02,-2.467127812218133931e-02,-2.490656279092148817e-02,-2.510823536412733203e-02,-2.534352003286748090e-02,-2.557880470160762976e-02,-2.578047727481347362e-02,-2.601576194355362248e-02,-2.625104661229377134e-02,-2.645271918549961174e-02,-2.668800385423976060e-02,-2.692328852297990946e-02,-2.712496109618575332e-02,-2.736024576492590218e-02,-2.759553043366605105e-02,-2.779720300687189144e-02,-2.796526348454342684e-02,-2.796526348454342684e-02,-2.796526348454342684e-02,-2.796526348454342684e-02,-2.796526348454342684e-02,-2.796526348454342684e-02,-2.796526348454342684e-02,-2.796526348454342684e-02,-2.796526348454342684e-02,-2.796526348454342684e-02,-2.796526348454342684e-02,-2.796526348454342684e-02,-2.796526348454342684e-02,-2.796526348454342684e-02,-2.796526348454342684e-02,-2.796526348454342684e-02,-2.796526348454342684e-02
-2.796526348454342684e-02,-2.796526348454342684e-02,-2.796526348454342684e-02,-2.159892251474859054e-02,-2.117562018661341139e-02,-2.137729275981925525e-02,-2.161257742855940411e-02,-2.184786209729955297e-02,-2.204953467050539684e-02,-2.228481933924554570e-02,-2.252010400798569456e-02,-2.272177658119153495e-02,-2.295706124993168382e-02,-2.319234591867183268e-02,-2.339401849187767654e-02,-2.362930316061782540e-02,-2.386458782935797079e-02,-2.406626040256381466e-02,-2.430154507130396352e-02,-2.453682974004411238e-02,-2.473850231324995624e-02,-2.497378698199010510e-02,-2.517545955519594550e-02,-2.541074422393609436e-02,-2.564602889267624322e-02,-2.584770146588208709e-02,-2.608298613462223595e-02,-2.631827080336238481e-02,-2.651994337656822520e-02,-2.675522804530837406e-02,-2.699051271404852292e-02,-2.719218528725436679e-02,-2.742746995599451565e-02,-2.766275462473466451e-02,-2.786442719794050490e-02,-2.796526348454342684e-02,-2.796526348454342684e-02,-2.796526348454342684e-02,-2.796526348454342684e-02,-2.796526348454342684e-02,-2.796526348454342684e-02,-2.796526348454342684e-02,-2.796526348454342684e-02,-2.796526348454342684e-02,-2.796526348454342684e-02,-2.796526348454342684e-02,-2.796526348454342684e-02
-2.796526348454342684e-02,-2.796526348454342684e-02,-2.692749003492169932e-02,-1.989836055630974515e-02,-2.010003312951558901e-02,-2.033531779825573788e-02,-2.057060246699588674e-02,-2.077227504020173060e-02,-2.100755970894187946e-02,-2.124284437768202832e-02,-2.144451695088786872e-02,-2.167980161962801758e-02,-2.191508628836816644e-02,-2.211675886157400683e-02,-2.235204353031415916e-02,-2.258732819905430803e-02,-2.278900077226014842e-02,-2.302428544100029728e-02,-2.325957010974044614e-02,-2.346124268294629001e-02,-2.369652735168643887e-02,-2.393181202042658773e-02,-2.413348459363242812e-02,-2.436876926237257698e-02,-2.457044183557842085e-02,-2.480572650431856971e-02,-2.504101117305871857e-02,-2.524268374626455896e-02,-2.547796841500470783e-02,-2.571325308374485669e-02,-2.591492565695070055e-02,-2.615021032569084941e-02,-2.638549499443099827e-02,-2.658716756763683867e-02,-2.682245223637698753e-02,-2.705773690511713639e-02,-2.725940947832298025e-02,-2.749469414706312911e-02,-2.772997881580327798e-02,-2.793165138900911837e-02,-2.796526348454342684e-02,-2.796526348454342684e-02,-2.796526348454342684e-02,-2.796526348454342684e-02,-2.796526348454342684e-02,-2.796526348454342684e-02,-2.796526348454342684e-02
-2.796526348454342684e-02,-2.796526348454342684e-02,-2.475320760504621381e-02,-1.882277349921192278e-02,-1.905805816795207164e-02,-1.929334283669222050e-02,-1.949501540989806436e-02,-1.973030007863821322e-02,-1.996558474737836208e-02,-2.016725732058420248e-02,-2.040254198932435134e-02,-2.063782665806450020e-02,-2.083949923127034060e-02,-2.107478390001049293e-02,-2.131006856875064179e-02,-2.151174114195648218e-02,-2.174702581069663104e-02,-2.198231047943677990e-02,-2.218398305264262377e-02,-2.241926772138277263e-02,-2.265455239012292149e-02,-2.285622496332876188e-02,-2.309150963206891422e-02,-2.332679430080906308e-02,-2.352846687401490347e-02,-2.376375154275505233e-02,-2.396542411596089273e-02,-2.420070878470104159e-02,-2.443599345344119045e-02,-2.463766602664703431e-02,-2.487295069538718317e-02,-2.510823536412733203e-02,-2.530990793733317243e-02,-2.554519260607332476e-02,-2.578047727481347362e-02,-2.598214984801931401e-02,-2.621743451675946288e-02,-2.645271918549961174e-02,-2.665439175870545213e-02,-2.688967642744560446e-02,-2.712496109618575332e-02,-2.732663366939159372e-02,-2.756191833813174258e-02,-2.779720300687189144e-02,-2.796526348454342684e-02,-2.796526348454342684e-02,-2.796526348454342684e-02
-2.796526348454342684e-02,-2.796526348454342684e-02,-2.242977150123724381e-02,-1.778079853764840540e-02,-1.801608320638855426e-02,-1.821775577959439812e-02,-1.845304044833454699e-02,-1.868832511707469585e-02,-1.888999769028053971e-02,-1.912528235902068857e-02,-1.936056702776083743e-02,-1.956223960096667783e-02,-1.979752426970682669e-02,-2.003280893844697555e-02,-2.023448151165281594e-02,-2.046976618039296481e-02,-2.070505084913311367e-02,-2.090672342233895753e-02,-2.114200809107910639e-02,-2.137729275981925525e-02,-2.157896533302509912e-02,-2.181425000176524451e-02,-2.204953467050539684e-02,-2.225120724371123723e-02,-2.248649191245138609e-02,-2.272177658119153495e-02,-2.292344915439737535e-02,-2.546678030940262571e-01,-2.549030877627663783e-01,-2.551047603359722360e-01,-2.553400450047124126e-01,-2.403264830702950966e-02,-2.426793297576965852e-02,-2.450321764450980738e-02,-2.470489021771564778e-02,-2.494017488645579664e-02,-2.517545955519594550e-02,-2.537713212840178936e-02,-2.561241679714193822e-02,-2.584770146588208709e-02,-2.604937403908792748e-02,-2.628465870782807634e-02,-2.651994337656822520e-02,-2.672161594977406907e-02,-2.695690061851421793e-02,-2.719218528725436679e-02,-2.739385786046020718e-02
-2.796526348454342684e-02,-2.796526348454342684e-02,-1.936897005164441021e-02,-1.673882357608488802e-02,-1.694049614929073189e-02,-1.717578081803088075e-02,-1.741106548677102961e-02,-1.761273805997687000e-02,-1.784802272871702233e-02,-1.808330739745717120e-02,-1.828497997066301159e-02,-1.852026463940316045e-02,-1.875554930814330931e-02,-1.895722188134914971e-02,-1.919250655008929857e-02,-1.942779121882944743e-02,-1.962946379203529129e-02,-1.986474846077544015e-02,-2.010003312951558901e-02,-2.030170570272143288e-02,-2.053699037146158174e-02,-2.077227504020172713e-02,-2.097394761340757099e-02,-2.120923228214771986e-02,-2.144451695088786872e-02,-2.164618952409370911e-02,-2.188147419283385797e-02,-2.536258281324627051e-01,-2.538275007056685628e-01,-2.540627853744087394e-01,-2.542980700431488605e-01,-2.299067334546599228e-02,-2.322595801420614114e-02,-2.342763058741198154e-02,-2.366291525615213040e-02,-2.389819992489227926e-02,-2.409987249809812312e-02,-2.433515716683827199e-02,-2.457044183557842085e-02,-2.477211440878426124e-02,-2.500739907752441010e-02,-2.524268374626455896e-02,-2.544435631947040283e-02,-2.567964098821055169e-02,-2.591492565695070055e-02,-2.611659823015654094e-02,-2.635188289889668981e-02
-2.796526348454342684e-02,-2.796526348454342684e-02,-1.585230455636754340e-02,-1.569684861452137065e-02,-1.589852118772721451e-02,-1.613380585646736337e-02,-1.633547842967320723e-02,-1.657076309841335610e-02,-1.680604776715350496e-02,-1.700772034035934535e-02,-1.724300500909949074e-02,-1.747828967783964654e-02,-1.767996225104548694e-02,-1.791524691978563233e-02,-1.815053158852578466e-02,-1.835220416173162505e-02,-1.858748883047177392e-02,-1.882277349921192278e-02,-1.902444607241776664e-02,-1.925973074115791550e-02,-1.949501540989806436e-02,-1.969668798310390476e-02,-1.993197265184405362e-02,-2.016725732058420248e-02,-2.036892989379004287e-02,-2.060421456253019520e-02,-2.083949923127034060e-02,-2.525502410753648896e-01,-2.527855257441050663e-01,-2.530208104128451874e-01,-2.532224829860510451e-01,-2.194869838390247491e-02,-2.218398305264262377e-02,-2.238565562584846763e-02,-2.262094029458861649e-02,-2.282261286779445689e-02,-2.305789753653460575e-02,-2.329318220527475461e-02,-2.349485477848059500e-02,-2.373013944722074386e-02,-2.396542411596089273e-02,-2.416709668916673659e-02,-2.440238135790688545e-02,-2.463766602664703431e-02,-2.483933859985287471e-02,-2.507462326859302357e-02,-2.530990793733317590e-02
-2.796526348454342684e-02,-2.538133364034357575e-02,-1.441958898421770614e-02,-1.462126155742354827e-02,-1.485654622616369713e-02,-1.509183089490384599e-02,-1.529350346810968812e-02,-1.552878813684983872e-02,-1.573046071005567911e-02,-1.596574537879582797e-02,-1.620103004753597684e-02,-1.640270262074182070e-02,-1.663798728948196956e-02,-1.687327195822211495e-02,-1.707494453142795882e-02,-1.731022920016810768e-02,-1.754551386890825654e-02,-1.774718644211410040e-02,-1.798247111085424926e-02,-1.821775577959439812e-02,-1.841942835280024199e-02,-1.865471302154039085e-02,-1.888999769028053624e-02,-1.909167026348638010e-02,-1.932695493222652897e-02,-1.956223960096667783e-02,-1.976391217417251822e-02,-2.515082661138013931e-01,-2.517435507825415142e-01,-2.519452233557473719e-01,-2.521805080244875485e-01,-2.090672342233895753e-02,-2.110839599554480139e-02,-2.134368066428494679e-02,-2.157896533302509912e-02,-2.178063790623093951e-02,-2.201592257497108837e-02,-2.221759514817692877e-02,-2.245287981691707763e-02,-2.268816448565722996e-02,-2.288983705886307035e-02,-2.312512172760321921e-02,-2.336040639634336807e-02,-2.356207896954921194e-02,-2.379736363828936080e-02,-2.403264830702950966e-02,-2.423432088023535005e-02
-2.796526348454342684e-02,-2.194344649397523758e-02,-1.334400192711988203e-02,-1.357928659586003090e-02,-1.381457126460017976e-02,-1.401624383780602189e-02,-1.425152850654617248e-02,-1.448681317528632134e-02,-1.468848574849216174e-02,-1.492377041723231060e-02,-1.512544299043815446e-02,-1.536072765917830332e-02,-1.559601232791845218e-02,-1.579768490112429258e-02,-1.603296956986444144e-02,-1.626825423860459030e-02,-1.646992681181043416e-02,-1.670521148055058303e-02,-1.694049614929073189e-02,-1.714216872249657575e-02,-1.737745339123672461e-02,-1.761273805997687347e-02,-1.781441063318271040e-02,-1.804969530192285926e-02,-1.828497997066301159e-02,-1.848665254386885198e-02,-1.872193721260900084e-02,-1.895722188134914971e-02,-1.915889445455499357e-02,-1.939417912329514243e-02,-1.962946379203529129e-02,-1.983113636524113516e-02,-2.006642103398128402e-02,-2.030170570272143288e-02,-2.050337827592727327e-02,-2.073866294466742213e-02,-2.097394761340757099e-02,-2.117562018661341139e-02,-2.141090485535356025e-02,-2.161257742855940411e-02,-2.184786209729955297e-02,-2.208314676603970184e-02,-2.228481933924554570e-02,-2.252010400798569456e-02,-2.275538867672584342e-02,-2.295706124993168382e-02,-2.319234591867183268e-02
-2.796526348454342684e-02,-1.852551652933039777e-02,-1.230202696555636119e-02,-1.253731163429651352e-02,-1.273898420750235565e-02,-1.297426887624250624e-02,-1.320955354498265163e-02,-1.341122611818849550e-02,-1.364651078692864436e-02,-1.388179545566879322e-02,-1.408346802887463535e-02,-1.431875269761478595e-02,-1.455403736635493481e-02,-1.475570993956077520e-02,-1.499099460830092406e-02,-1.519266718150676619e-02,-1.542795185024691679e-02,-1.566323651898706565e-02,-1.586490909219290604e-02,-1.610019376093305837e-02,-1.633547842967320723e-02,-1.653715100287904763e-02,-1.677243567161919649e-02,-1.700772034035934535e-02,-1.720939291356518575e-02,-1.744467758230533461e-02,-1.767996225104548694e-02,-1.788163482425132733e-02,-1.811691949299147619e-02,-1.835220416173162505e-02,-1.855387673493746892e-02,-1.878916140367761778e-02,-1.902444607241776664e-02,-1.922611864562360703e-02,-1.946140331436375590e-02,-1.969668798310390476e-02,-1.989836055630974515e-02,-2.013364522504989401e-02,-2.036892989379004287e-02,-2.057060246699588674e-02,-2.080588713573603560e-02,-2.104117180447618446e-02,-2.124284437768202832e-02,-2.147812904642217718e-02,-2.167980161962801758e-02,-2.191508628836816644e-02,-2.215037095710831530e-02
-2.796526348454342684e-02,-1.420111036324471152e-02,-1.126005200399285075e-02,-1.146172457719869114e-02,-1.169700924593883654e-02,-1.193229391467898540e-02,-1.213396648788482926e-02,-1.236925115662497986e-02,-1.260453582536512698e-02,-1.280620839857097085e-02,-1.304149306731111971e-02,-1.327677773605126683e-02,-1.347845030925710896e-02,-1.371373497799725782e-02,-1.394901964673740842e-02,-1.415069221994324881e-02,-1.438597688868339941e-02,-1.458764946188923980e-02,-1.482293413062939040e-02,-1.505821879936953926e-02,-1.525989137257538139e-02,-1.549517604131553025e-02,-1.573046071005567911e-02,-1.593213328326151951e-02,-1.616741795200166837e-02,-1.640270262074181723e-02,-1.660437519394766109e-02,-1.683965986268780995e-02,-1.707494453142795882e-02,-1.727661710463380268e-02,-1.751190177337395154e-02,-1.774718644211410040e-02,-1.794885901531994080e-02,-1.818414368406008966e-02,-1.841942835280024199e-02,-1.862110092600608238e-02,-1.885638559474623124e-02,-1.909167026348638010e-02,-1.929334283669222050e-02,-1.952862750543236936e-02,-1.976391217417251822e-02,-1.996558474737836208e-02,-2.020086941611851095e-02,-2.043615408485865981e-02,-2.063782665806450020e-02,-2.087311132680464906e-02,-2.107478390001049293e-02
-2.739595861643110211e-02,-9.982792373689184512e-03,-1.018446494689502144e-02,-1.041974961563517724e-02,-1.065503428437532610e-02,-1.085670685758116649e-02,-1.109199152632131188e-02,-1.132727619506146421e-02,-1.152894876826730461e-02,-1.176423343700745347e-02,-1.199951810574760233e-02,-1.220119067895344273e-02,-1.243647534769359332e-02,-1.267176001643374218e-02,-1.287343258963958431e-02,-1.310871725837973317e-02,-1.334400192711988203e-02,-1.354567450032572243e-02,-1.378095916906587476e-02,-1.401624383780602015e-02,-1.421791641101186401e-02,-1.445320107975201288e-02,-1.465487365295785500e-02,-1.489015832169800560e-02,-1.512544299043815446e-02,-1.532711556364399486e-02,-1.556240023238414372e-02,-1.579768490112429258e-02,-1.599935747433013644e-02,-1.623464214307028530e-02,-1.646992681181043416e-02,-1.667159938501627803e-02,-1.690688405375642342e-02,-1.714216872249657228e-02,-1.734384129570241614e-02,-1.757912596444256501e-02,-1.781441063318271387e-02,-1.801608320638855426e-02,-1.825136787512870312e-02,-1.848665254386885198e-02,-1.868832511707469585e-02,-1.892360978581484471e-02,-1.915889445455499357e-02,-1.936056702776083743e-02,-1.959585169650098629e-02,-1.983113636524113516e-02,-2.003280893844697555e-02
-2.315033079925395143e-02,-8.907205316591358668e-03,-9.142489985331507529e-03,-9.377774654071656391e-03,-9.579447227277496785e-03,-9.814731896017645646e-03,-1.005001656475779798e-02,-1.025168913796363837e-02,-1.048697380670378723e-02,-1.072225847544393609e-02,-1.092393104864977996e-02,-1.115921571738992882e-02,-1.139450038613007768e-02,-1.159617295933591807e-02,-1.183145762807606693e-02,-1.206674229681621580e-02,-1.226841487002205619e-02,-1.250369953876220679e-02,-1.273898420750235738e-02,-1.294065678070819778e-02,-1.317594144944834664e-02,-1.341122611818849550e-02,-1.361289869139433763e-02,-1.384818336013448649e-02,-1.404985593334032862e-02,-1.428514060208047748e-02,-1.452042527082062807e-02,-1.472209784402646847e-02,-1.495738251276661733e-02,-1.519266718150676619e-02,-1.539433975471260832e-02,-1.562962442345276065e-02,-1.586490909219290951e-02,-1.606658166539874991e-02,-1.630186633413889530e-02,-1.653715100287904763e-02,-1.673882357608488802e-02,-1.697410824482503688e-02,-1.720939291356518575e-02,-1.741106548677102961e-02,-1.764635015551117847e-02,-1.788163482425132733e-02,-1.808330739745717120e-02,-1.831859206619732006e-02,-1.855387673493746892e-02,-1.875554930814330931e-02,-1.899083397688345817e-02
-1.843308326661104862e-02,-7.865230355027844761e-03,-8.100515023767990153e-03,-8.302187596973830547e-03,-8.537472265713982877e-03,-8.772756934454131739e-03,-8.974429507659972133e-03,-9.209714176400120994e-03,-9.444998845140269855e-03,-9.646671418346113719e-03,-9.881956087086262580e-03,-1.011724075582641144e-02,-1.031891332903225184e-02,-1.055419799777240417e-02,-1.078948266651254956e-02,-1.099115523971839342e-02,-1.122643990845854228e-02,-1.146172457719868767e-02,-1.166339715040453154e-02,-1.189868181914468040e-02,-1.213396648788482926e-02,-1.233563906109067312e-02,-1.257092372983082199e-02,-1.280620839857097085e-02,-1.300788097177681298e-02,-1.324316564051696184e-02,-1.344483821372280397e-02,-1.368012288246295283e-02,-1.391540755120310169e-02,-1.411708012440894208e-02,-1.435236479314909094e-02,-1.458764946188924327e-02,-1.478932203509508367e-02,-1.502460670383523253e-02,-1.525989137257538139e-02,-1.546156394578122178e-02,-1.569684861452137065e-02,-1.593213328326151951e-02,-1.613380585646736337e-02,-1.636909052520751223e-02,-1.660437519394766109e-02,-1.680604776715350496e-02,-1.704133243589365382e-02,-1.727661710463380268e-02,-1.747828967783964307e-02,-1.771357434657979193e-02,-1.794885901531994080e-02
-1.393641511091204231e-02,-6.823255393464323915e-03,-7.024927966670164309e-03,-7.260212635410313170e-03,-7.495497304150462031e-03,-7.697169877356305895e-03,-7.932454546096458226e-03,-8.167739214836603617e-03,-8.369411788042447481e-03,-8.604696456782596342e-03,-8.839981125522745203e-03,-9.041653698728589067e-03,-9.276938367468734459e-03,-9.512223036208886789e-03,-9.713895609414727184e-03,-9.949180278154876045e-03,-1.018446494689502491e-02,-1.038613752010086530e-02,-1.062142218884101763e-02,-1.085670685758116302e-02,-1.105837943078700689e-02,-1.129366409952715575e-02,-1.152894876826730461e-02,-1.173062134147314847e-02,-1.196590601021329386e-02,-1.220119067895344273e-02,-1.240286325215928659e-02,-1.263814792089943545e-02,-1.287343258963958258e-02,-1.307510516284542644e-02,-1.331038983158557530e-02,-1.351206240479141743e-02,-1.374734707353156629e-02,-1.398263174227171515e-02,-1.418430431547755728e-02,-1.441958898421770614e-02,-1.465487365295785500e-02,-1.485654622616369713e-02,-1.509183089490384773e-02,-1.532711556364399659e-02,-1.552878813684983698e-02,-1.576407280558998758e-02,-1.599935747433013644e-02,-1.620103004753598031e-02,-1.643631471627612570e-02,-1.667159938501627456e-02,-1.687327195822211842e-02
-8.348404228333505123e-03,-5.747668336366501540e-03,-5.982953005106650402e-03,-6.218237673846799263e-03,-6.419910247052639657e-03,-6.655194915792788518e-03,-6.890479584532937379e-03,-7.092152157738781243e-03,-7.327436826478930104e-03,-7.562721495219075496e-03,-7.764394068424919360e-03,-7.999678737165071690e-03,-8.234963405905217082e-03,-8.436635979111060946e-03,-8.671920647851209807e-03,-8.907205316591358668e-03,-9.108877889797199062e-03,-9.344162558537347923e-03,-9.579447227277496785e-03,-9.781119800483340648e-03,-1.001640446922348951e-02,-1.025168913796363837e-02,-1.045336171116948223e-02,-1.068864637990963110e-02,-1.092393104864977996e-02,-1.112560362185562035e-02,-1.136088829059577268e-02,-1.159617295933591807e-02,-1.179784553254175847e-02,-1.203313020128191080e-02,-1.226841487002205966e-02,-1.247008744322790005e-02,-1.270537211196804891e-02,-1.290704468517389104e-02,-1.314232935391403990e-02,-1.337761402265418877e-02,-1.357928659586003090e-02,-1.381457126460017976e-02,-1.404985593334032862e-02,-1.425152850654617248e-02,-1.448681317528632134e-02,-1.472209784402646847e-02,-1.492377041723231060e-02,-1.515905508597246119e-02,-1.539433975471261005e-02,-1.559601232791845218e-02,-1.583129699665860105e-02
-4.504020801597143769e-03,-4.705693374802980694e-03,-4.940978043543129555e-03,-5.176262712283278417e-03,-5.377935285489122280e-03,-5.613219954229271141e-03,-5.814892527435115005e-03,-6.050177196175263866e-03,-6.285461864915409258e-03,-6.487134438121253122e-03,-6.722419106861401983e-03,-6.957703775601550844e-03,-7.159376348807394708e-03,-7.394661017547540099e-03,-7.629945686287688961e-03,-7.831618259493536294e-03,-8.066902928233681686e-03,-8.302187596973834016e-03,-8.503860170179674410e-03,-8.739144838919826741e-03,-8.974429507659972133e-03,-9.176102080865815996e-03,-9.411386749605961388e-03,-9.646671418346110249e-03,-9.848343991551954113e-03,-1.008362866029210297e-02,-1.031891332903225530e-02,-1.052058590223809570e-02,-1.075587057097824456e-02,-1.099115523971839342e-02,-1.119282781292423382e-02,-1.142811248166438615e-02,-1.166339715040453154e-02,-1.186506972361037540e-02,-1.210035439235052426e-02,-1.230202696555636466e-02,-1.253731163429651352e-02,-1.277259630303666238e-02,-1.297426887624250624e-02,-1.320955354498265337e-02,-1.344483821372280397e-02,-1.364651078692864436e-02,-1.388179545566879496e-02,-1.411708012440894208e-02,-1.431875269761478595e-02,-1.455403736635493481e-02,-1.478932203509508367e-02
-3.428433744499317926e-03,-3.663718413239466787e-03,-3.899003081979612179e-03,-4.100675655185456042e-03,-4.335960323925608373e-03,-4.571244992665753765e-03,-4.772917565871597628e-03,-5.008202234611746489e-03,-5.209874807817586884e-03,-5.445159476557735745e-03,-5.680444145297888076e-03,-5.882116718503728470e-03,-6.117401387243877331e-03,-6.352686055984029662e-03,-6.554358629189870056e-03,-6.789643297930015448e-03,-7.024927966670167778e-03,-7.226600539876004703e-03,-7.461885208616157034e-03,-7.697169877356309364e-03,-7.898842450562149758e-03,-8.134127119302295150e-03,-8.369411788042447481e-03,-8.571084361248291345e-03,-8.806369029988436736e-03,-9.041653698728585598e-03,-9.243326271934425992e-03,-9.478610940674574853e-03,-9.713895609414727184e-03,-9.915568182620567578e-03,-1.015085285136071644e-02,-1.038613752010086530e-02,-1.058781009330670916e-02,-1.082309476204686149e-02,-1.105837943078700689e-02,-1.126005200399284728e-02,-1.149533667273299614e-02,-1.169700924593884001e-02,-1.193229391467898887e-02,-1.216757858341913773e-02,-1.236925115662497812e-02,-1.260453582536512872e-02,-1.283982049410527584e-02,-1.304149306731111971e-02,-1.327677773605126857e-02,-1.351206240479141743e-02,-1.371373497799725782e-02
-2.386458782935804018e-03,-2.621743451675952880e-03,-2.823416024881789804e-03,-3.058700693621938665e-03,-3.293985362362087527e-03,-3.495657935567931390e-03,-3.730942604308080252e-03,-3.966227273048229113e-03,-4.167899846254072976e-03,-4.403184514994218368e-03,-4.604857088200062232e-03,-4.840141756940211093e-03,-5.075426425680359954e-03,-5.277098998886200348e-03,-5.512383667626349210e-03,-5.747668336366501540e-03,-5.949340909572341934e-03,-6.184625578312490796e-03,-6.419910247052643126e-03,-6.621582820258480051e-03,-6.856867488998632382e-03,-7.092152157738781243e-03,-7.293824730944621637e-03,-7.529109399684770498e-03,-7.764394068424919360e-03,-7.966066641630763223e-03,-8.201351310370912084e-03,-8.436635979111060946e-03,-8.638308552316904809e-03,-8.873593221057050201e-03,-9.108877889797199062e-03,-9.310550463003042926e-03,-9.545835131743191787e-03,-9.781119800483340648e-03,-9.982792373689181042e-03,-1.021807704242933337e-02,-1.045336171116947876e-02,-1.065503428437532263e-02,-1.089031895311547496e-02,-1.109199152632131188e-02,-1.132727619506146075e-02,-1.156256086380160961e-02,-1.176423343700745347e-02,-1.199951810574760233e-02,-1.223480277448775119e-02,-1.243647534769359159e-02,-1.267176001643374218e-02
-1.344483821372283172e-03,-1.546156394578123566e-03,-1.781441063318272428e-03,-2.016725732058424758e-03,-2.218398305264265152e-03,-2.453682974004417483e-03,-2.688967642744562875e-03,-2.890640215950406738e-03,-3.125924884690555600e-03,-3.361209553430704461e-03,-3.562882126636541386e-03,-3.798166795376693716e-03,-4.033451464116842577e-03,-4.235124037322686441e-03,-4.470408706062835302e-03,-4.672081279268675696e-03,-4.907365948008824558e-03,-5.142650616748973419e-03,-5.344323189954817283e-03,-5.579607858694962674e-03,-5.814892527435115005e-03,-6.016565100640958869e-03,-6.251849769381107730e-03,-6.487134438121253122e-03,-6.688807011327096985e-03,-6.924091680067245846e-03,-7.159376348807394708e-03,-7.361048922013235102e-03,-7.596333590753387432e-03,-7.831618259493532824e-03,-8.033290832699376688e-03,-8.268575501439525549e-03,-8.503860170179674410e-03,-8.705532743385518274e-03,-8.940817412125667135e-03,-9.176102080865815996e-03,-9.377774654071656391e-03,-9.613059322811805252e-03,-9.848343991551954113e-03,-1.005001656475779451e-02,-1.028530123349794337e-02,-1.052058590223809570e-02,-1.072225847544393609e-02,-1.095754314418408495e-02,-1.115921571738992882e-02,-1.139450038613007421e-02,-1.162978505487022654e-02
-2.688967642744573283e-04,-5.041814330146061895e-04,-7.394661017547550508e-04,-9.411386749605954449e-04,-1.176423343700751245e-03,-1.411708012440896637e-03,-1.613380585646740500e-03,-1.848665254386889362e-03,-2.083949923127038223e-03,-2.285622496332878617e-03,-2.520907165073027478e-03,-2.756191833813176340e-03,-2.957864407019016734e-03,-3.193149075759165595e-03,-3.428433744499310987e-03,-3.630106317705158320e-03,-3.865390986445307181e-03,-4.067063559651151045e-03,-4.302348228391299906e-03,-4.537632897131448767e-03,-4.739305470337292631e-03,-4.974590139077441492e-03,-5.209874807817586884e-03,-5.411547381023430747e-03,-5.646832049763579608e-03,-5.882116718503728470e-03,-6.083789291709568864e-03,-6.319073960449717725e-03,-6.554358629189870056e-03,-6.756031202395713919e-03,-6.991315871135859311e-03,-7.226600539876008172e-03,-7.428273113081852036e-03,-7.663557781821997428e-03,-7.898842450562146289e-03,-8.100515023767990153e-03,-8.335799692508139014e-03,-8.571084361248287875e-03,-8.772756934454131739e-03,-9.008041603194277130e-03,-9.243326271934425992e-03,-9.444998845140269855e-03,-9.680283513880418717e-03,-9.915568182620567578e-03,-1.011724075582641144e-02,-1.035252542456655683e-02,-1.055419799777240417e-02
-3.469446951953614189e-18,-3.469446951953614189e-18,-3.469446951953614189e-18,-3.469446951953614189e-18,-1.344483821372303989e-04,-3.361209553430742625e-04,-5.714056240832231237e-04,-8.066902928233685155e-04,-1.008362866029208910e-03,-1.243647534769361240e-03,-1.478932203509506632e-03,-1.680604776715353965e-03,-1.915889445455502826e-03,-2.151174114195651688e-03,-2.352846687401495551e-03,-2.588131356141640943e-03,-2.823416024881789804e-03,-3.025088598087633668e-03,-3.260373266827779060e-03,-3.495657935567927921e-03,-3.697330508773775254e-03,-3.932615177513924115e-03,-4.134287750719764509e-03,-4.369572419459916840e-03,-4.604857088200062232e-03,-4.806529661405906095e-03,-5.041814330146054957e-03,-5.277098998886200348e-03,-5.478771572092044212e-03,-5.714056240832189604e-03,-5.949340909572341934e-03,-6.151013482778185798e-03,-6.386298151518334659e-03,-6.621582820258480051e-03,-6.823255393464323915e-03,-7.058540062204472776e-03,-7.293824730944621637e-03,-7.495497304150462031e-03,-7.730781972890614362e-03,-7.966066641630763223e-03,-8.167739214836603617e-03,-8.403023883576755948e-03,-8.638308552316901340e-03,-8.839981125522745203e-03,-9.075265794262894065e-03,-9.310550463003042926e-03,-1.181885309225070083e-02
-3.469446951953614189e-18,-3.469446951953614189e-18,-3.469446951953614189e-18,-3.469446951953614189e-18,-3.469446951953614189e-18,-3.469446951953614189e-18,-3.469446951953614189e-18,-3.469446951953614189e-18,-3.469446951953614189e-18,-2.016725732058438636e-04,-4.033451464116842577e-04,-6.386298151518365884e-04,-8.739144838919854497e-04,-1.075587057097825844e-03,-1.310871725837974705e-03,-1.546156394578123566e-03,-1.747828967783967430e-03,-1.983113636524116291e-03,-2.218398305264268622e-03,-2.420070878470109016e-03,-2.655355547210257877e-03,-2.890640215950406738e-03,-3.092312789156247133e-03,-3.327597457896395994e-03,-3.529270031102236388e-03,-3.764554699842388719e-03,-3.999839368582537580e-03,-4.201511941788377974e-03,-4.436796610528526835e-03,-4.672081279268679166e-03,-4.873753852474519560e-03,-5.109038521214664952e-03,-5.344323189954817283e-03,-5.545995763160657677e-03,-5.781280431900806538e-03,-6.016565100640955399e-03,-6.218237673846799263e-03,-6.453522342586948124e-03,-6.688807011327100455e-03,-6.890479584532937379e-03,-7.125764253273086241e-03,-7.361048922013235102e-03,-7.562721495219078965e-03,-7.798006163959227827e-03,-8.033290832699376688e-03,-8.234963405905220551e-03,-1.517165962179782557e-02
-1.602176553801969855e-03,-1.092393104864981812e-03,-5.826096559279902998e-04,-1.456524139820010444e-04,-3.469446951953614189e-18,-3.469446951953614189e-18,-3.469446951953614189e-18,-3.469446951953614189e-18,-3.469446951953614189e-18,-3.469446951953614189e-18,-3.469446951953614189e-18,-3.469446951953614189e-18,-3.469446951953614189e-18,-3.361209553430846708e-05,-2.688967642744573283e-04,-4.705693374803011919e-04,-7.058540062204500531e-04,-9.411386749605989144e-04,-1.142811248166442778e-03,-1.378095916906588170e-03,-1.613380585646740500e-03,-1.815053158852580895e-03,-2.050337827592733225e-03,-2.285622496332878617e-03,-2.487295069538719011e-03,-2.722579738278867872e-03,-2.924252311484711736e-03,-3.159536980224860597e-03,-3.394821648965012928e-03,-3.596494222170853322e-03,-3.831778890910998714e-03,-4.067063559651147575e-03,-4.268736132856994908e-03,-4.504020801597140300e-03,-4.739305470337289161e-03,-4.940978043543133025e-03,-5.176262712283281886e-03,-5.411547381023427278e-03,-5.613219954229274611e-03,-5.848504622969420003e-03,-6.083789291709568864e-03,-6.285461864915412727e-03,-6.520746533655561589e-03,-6.756031202395713919e-03,-6.957703775601550844e-03,-7.192988444341703175e-03,-1.833854924792081148e-02
-3.859788970522925328e-03,-3.350005521585933815e-03,-2.913048279639941091e-03,-2.403264830702953048e-03,-1.893481381765965005e-03,-1.456524139819972280e-03,-9.467406908829807677e-04,-4.369572419459961943e-04,-3.469446951953614189e-18,-3.469446951953614189e-18,-3.469446951953614189e-18,-3.469446951953614189e-18,-3.469446951953614189e-18,-3.469446951953614189e-18,-3.469446951953614189e-18,-3.469446951953614189e-18,-3.469446951953614189e-18,-3.469446951953614189e-18,-1.008362866029219318e-04,-3.361209553430742625e-04,-5.377935285489146566e-04,-7.730781972890635179e-04,-1.008362866029212379e-03,-1.210035439235052773e-03,-1.445320107975205104e-03,-1.680604776715353965e-03,-1.882277349921194359e-03,-2.117562018661343221e-03,-2.352846687401492082e-03,-2.554519260607335945e-03,-2.789803929347484807e-03,-2.991476502553325201e-03,-3.226761171293474062e-03,-3.462045840033622923e-03,-3.663718413239463317e-03,-3.899003081979612179e-03,-4.134287750719767979e-03,-4.335960323925604903e-03,-4.571244992665753765e-03,-4.806529661405902626e-03,-5.008202234611746489e-03,-5.243486903351895351e-03,-5.478771572092044212e-03,-5.680444145297888076e-03,-5.915728814038036937e-03,-6.151013482778185798e-03,-2.256211912740357928e-02
-6.117401387243880800e-03,-5.680444145297884606e-03,-5.170660696360896563e-03,-4.660877247423905051e-03,-4.223920005477915796e-03,-3.714136556540927753e-03,-3.204353107603936240e-03,-2.767395865657946985e-03,-2.257612416720955473e-03,-1.747828967783967430e-03,-1.310871725837974705e-03,-8.010882769009901316e-04,-2.913048279639986193e-04,-3.469446951953614189e-18,-3.469446951953614189e-18,-3.469446951953614189e-18,-3.469446951953614189e-18,-3.469446951953614189e-18,-3.469446951953614189e-18,-3.469446951953614189e-18,-3.469446951953614189e-18,-3.469446951953614189e-18,-3.469446951953614189e-18,-1.680604776715353965e-04,-4.033451464116842577e-04,-6.050177196175281213e-04,-8.403023883576769826e-04,-1.075587057097825844e-03,-1.277259630303669707e-03,-1.512544299043818569e-03,-1.747828967783967430e-03,-1.949501540989811293e-03,-2.184786209729960155e-03,-2.386458782935800549e-03,-2.621743451675949410e-03,-2.857028120416094802e-03,-3.058700693621938665e-03,-3.293985362362090996e-03,-3.529270031102236388e-03,-3.730942604308080252e-03,-3.966227273048229113e-03,-4.201511941788381443e-03,-4.403184514994221838e-03,-4.638469183734367229e-03,-4.873753852474519560e-03,-5.075426425680359954e-03,-2.654935396016074381e-02
-8.375013803964829334e-03,-7.938056562018836609e-03,-7.428273113081852036e-03,-6.918489664144863993e-03,-6.481532422198871268e-03,-5.971748973261883225e-03,-5.534791731315890501e-03,-5.025008282378902458e-03,-4.515224833441910945e-03,-4.078267591495921690e-03,-3.568484142558926708e-03,-3.058700693621938665e-03,-2.621743451675945941e-03,-2.111960002738957898e-03,-1.602176553801969855e-03,-1.165219311855977130e-03,-6.554358629189890872e-04,-1.456524139820010444e-04,-3.469446951953614189e-18,-3.469446951953614189e-18,-3.469446951953614189e-18,-3.469446951953614189e-18,-3.469446951953614189e-18,-3.469446951953614189e-18,-3.469446951953614189e-18,-3.469446951953614189e-18,-3.469446951953614189e-18,-3.469446951953614189e-18,-2.352846687401523307e-04,-4.705693374803011919e-04,-6.722419106861450555e-04,-9.075265794262904473e-04,-1.142811248166435839e-03,-1.344483821372286642e-03,-1.579768490112428564e-03,-1.781441063318272428e-03,-2.016725732058421289e-03,-2.252010400798570150e-03,-2.453682974004414014e-03,-2.688967642744562875e-03,-2.924252311484711736e-03,-3.125924884690555600e-03,-3.361209553430700991e-03,-3.596494222170849853e-03,-3.798166795376693716e-03,-8.520666217946826909e-03,-2.796526348454342684e-02
-1.070545242767678012e-02,-1.019566897873979208e-02,-9.685885529802800570e-03,-9.248928287856811314e-03,-8.739144838919823272e-03,-8.229361389982831759e-03,-7.792404148036845973e-03,-7.282620699099854461e-03,-6.845663457153861736e-03,-6.335880008216877163e-03,-5.826096559279885650e-03,-5.389139317333892926e-03,-4.879355868396904883e-03,-4.369572419459916840e-03,-3.932615177513924115e-03,-3.422831728576932603e-03,-2.913048279639944560e-03,-2.476091037693951835e-03,-1.966307588756960323e-03,-1.456524139819968811e-03,-1.019566897873979555e-03,-5.097834489369915123e-04,-3.469446951953614189e-18,-3.469446951953614189e-18,-3.469446951953614189e-18,-3.469446951953614189e-18,-3.469446951953614189e-18,0.000000000000000000e+00,-3.469446951953614189e-18,-3.469446951953614189e-18,-3.469446951953614189e-18,-3.469446951953614189e-18,-6.722419106861693416e-05,-3.025088598087657954e-04,-5.377935285489181261e-04,-7.394661017547585202e-04,-9.747507704949073815e-04,-1.176423343700747776e-03,-1.411708012440893167e-03,-1.646992681181045498e-03,-1.848665254386889362e-03,-2.083949923127038223e-03,-2.319234591867187084e-03,-2.520907165073027478e-03,-2.756191833813179809e-03,-1.235664662079961375e-02,-2.796526348454342684e-02
-1.296306484439773560e-02,-1.245328139546074755e-02,-1.201632415351475830e-02,-1.150654070457777026e-02,-1.099675725564077874e-02,-1.055980001369478602e-02,-1.005001656475779451e-02,-9.540233115820802995e-03,-9.103275873874813739e-03,-8.593492424937825697e-03,-8.156535182991832972e-03,-7.646751734054844929e-03,-7.136968285117856886e-03,-6.700011043171864161e-03,-6.190227594234876118e-03,-5.680444145297888076e-03,-5.243486903351895351e-03,-4.733703454414907308e-03,-4.223920005477919265e-03,-3.786962763531923071e-03,-3.277179314594935028e-03,-2.767395865657943516e-03,-2.330438623711954260e-03,-1.820655174774966217e-03,-1.310871725837974705e-03,-8.739144838919819802e-04,-3.641310349549974068e-04,-3.469446951953614189e-18,-3.469446951953614189e-18,0.000000000000000000e+00,-3.469446951953614189e-18,-3.469446951953614189e-18,-3.469446951953614189e-18,-3.469446951953614189e-18,-3.469446951953614189e-18,-3.469446951953614189e-18,-3.469446951953614189e-18,-1.344483821372303989e-04,-3.697330508773792601e-04,-5.714056240832231237e-04,-8.066902928233719849e-04,-1.041974961563520846e-03,-1.243647534769361240e-03,-1.478932203509510102e-03,-1.714216872249658963e-03,-1.738270528116395847e-02,-2.796526348454342684e-02
-1.522067726111869107e-02,-1.478372001917270008e-02,-1.427393657023570857e-02,-1.376415312129872053e-02,-1.332719587935272954e-02,-1.281741243041573976e-02,-1.230762898147874998e-02,-1.187067173953276072e-02,-1.136088829059577268e-02,-1.085110484165877770e-02,-1.041414759971278844e-02,-9.904364150775800402e-03,-9.394580701838808889e-03,-8.957623459892819634e-03,-8.447840010955828122e-03,-8.010882769009835397e-03,-7.501099320072847354e-03,-6.991315871135859311e-03,-6.554358629189870056e-03,-6.044575180252878543e-03,-5.534791731315890501e-03,-5.097834489369897776e-03,-4.588051040432909733e-03,-4.078267591495921690e-03,-3.641310349549928965e-03,-3.131526900612940922e-03,-2.621743451675945941e-03,-2.184786209729956685e-03,-1.675002760792968642e-03,-1.165219311855977130e-03,-7.282620699099878747e-04,-2.184786209729998319e-04,-3.469446951953614189e-18,-3.469446951953614189e-18,-3.469446951953614189e-18,-3.469446951953614189e-18,-3.469446951953614189e-18,-3.469446951953614189e-18,0.000000000000000000e+00,-3.469446951953614189e-18,-3.469446951953614189e-18,-3.469446951953614189e-18,-2.016725732058438636e-04,-4.369572419459927248e-04,-6.386298151518365884e-04,-2.288563554692128049e-02,-2.796526348454342684e-02
-1.755111588483064186e-02,-1.704133243589365035e-02,-1.653154898695666231e-02,-1.609459174501067305e-02,-1.558480829607367980e-02,-1.507502484713669176e-02,-1.463806760519070251e-02,-1.412828415625371273e-02,-1.361850070731671948e-02,-1.318154346537073196e-02,-1.267176001643374218e-02,-1.216197656749675240e-02,-1.172501932555076315e-02,-1.121523587661377164e-02,-1.070545242767678359e-02,-1.026849518573079087e-02,-9.758711736793799357e-03,-9.321754494847810102e-03,-8.811971045910818590e-03,-8.302187596973834016e-03,-7.865230355027841291e-03,-7.355446906090853249e-03,-6.845663457153861736e-03,-6.408706215207869011e-03,-5.898922766270884438e-03,-5.389139317333892926e-03,-4.952182075387903670e-03,-4.442398626450912158e-03,-3.932615177513920646e-03,-3.495657935567931390e-03,-2.985874486630939878e-03,-2.476091037693948366e-03,-2.039133795747962580e-03,-1.529350346810971067e-03,-1.019566897873979555e-03,-5.826096559279937692e-04,-7.282620699100225692e-05,-3.469446951953614189e-18,-3.469446951953614189e-18,-3.469446951953614189e-18,-3.469446951953614189e-18,-3.469446951953614189e-18,-3.469446951953614189e-18,-3.469446951953614189e-18,-8.739144838919819802e-04,-2.796526348454342684e-02,-2.796526348454342684e-02
-1.980872830155159386e-02,-1.929894485261460582e-02,-1.886198761066861310e-02,-1.835220416173162505e-02,-1.784242071279463354e-02,-1.740546347084864429e-02,-1.689568002191165624e-02,-1.638589657297466473e-02,-1.594893933102867548e-02,-1.543915588209168570e-02,-1.492937243315469592e-02,-1.449241519120870493e-02,-1.398263174227171515e-02,-1.347284829333472538e-02,-1.303589105138873612e-02,-1.252610760245174634e-02,-1.201632415351475830e-02,-1.157936691156876557e-02,-1.106958346263177406e-02,-1.063262622068578481e-02,-1.012284277174879329e-02,-9.613059322811805252e-03,-9.176102080865815996e-03,-8.666318631928821015e-03,-8.156535182991836441e-03,-7.719577941045843716e-03,-7.209794492108855674e-03,-6.700011043171864161e-03,-6.263053801225874906e-03,-5.753270352288883394e-03,-5.243486903351895351e-03,-4.806529661405902626e-03,-4.296746212468914583e-03,-3.786962763531926540e-03,-3.350005521585933815e-03,-2.840222072648942303e-03,-2.330438623711954260e-03,-1.893481381765965005e-03,-1.383697932828973493e-03,-8.739144838919854497e-04,-4.369572419459961943e-04,-3.469446951953614189e-18,-3.469446951953614189e-18,-3.469446951953614189e-18,-6.991315871135859311e-03,-2.796526348454342684e-02,-2.796526348454342684e-02
-2.206634071827254934e-02,-2.162938347632655661e-02,-2.111960002738956857e-02,-2.060981657845257706e-02,-2.017285933650658780e-02,-1.966307588756959629e-02,-1.915329243863260825e-02,-1.871633519668661899e-02,-1.820655174774962748e-02,-1.769676829881263597e-02,-1.725981105686665018e-02,-1.675002760792965867e-02,-1.624024415899266716e-02,-1.580328691704667790e-02,-1.529350346810968812e-02,-1.478372001917269835e-02,-1.434676277722670909e-02,-1.383697932828971758e-02,-1.332719587935272954e-02,-1.289023863740673854e-02,-1.238045518846974877e-02,-1.187067173953275726e-02,-1.143371449758676800e-02,-1.092393104864977996e-02,-1.048697380670378376e-02,-9.977190357766795720e-03,-9.467406908829807677e-03,-9.030449666883814952e-03,-8.520666217946826909e-03,-8.010882769009835397e-03,-7.573925527063849611e-03,-7.064142078126858099e-03,-6.554358629189870056e-03,-6.117401387243877331e-03,-5.607617938306889288e-03,-5.097834489369897776e-03,-4.660877247423908520e-03,-4.151093798486917008e-03,-3.641310349549928965e-03,-3.204353107603936240e-03,-2.694569658666948198e-03,-2.184786209729956685e-03,-1.747828967783967430e-03,-1.238045518846975918e-03,-1.264445018881211677e-02,-2.796526348454342684e-02,-2.796526348454342684e-02
-2.439677934198450013e-02,-2.388699589304751209e-02,-2.337721244411052057e-02,-2.294025520216453132e-02,-2.243047175322753981e-02,-2.192068830429055176e-02,-2.148373106234455904e-02,-2.097394761340757099e-02,-2.046416416447058295e-02,-2.002720692252459023e-02,-1.951742347358759871e-02,-1.900764002465061067e-02,-1.857068278270462142e-02,-1.806089933376762990e-02,-1.755111588483064186e-02,-1.711415864288464914e-02,-1.660437519394766109e-02,-1.609459174501066958e-02,-1.565763450306468033e-02,-1.514785105412769228e-02,-1.463806760519070077e-02,-1.420111036324471152e-02,-1.369132691430772000e-02,-1.318154346537073196e-02,-1.274458622342474270e-02,-1.223480277448775119e-02,-1.179784553254176194e-02,-1.128806208360477042e-02,-1.077827863466778238e-02,-1.034132139272178966e-02,-9.831537943784801614e-03,-9.321754494847810102e-03,-8.884797252901817377e-03,-8.375013803964829334e-03,-7.865230355027841291e-03,-7.428273113081852036e-03,-6.918489664144860524e-03,-6.408706215207872481e-03,-5.971748973261883225e-03,-5.461965524324891713e-03,-4.952182075387900201e-03,-4.515224833441910945e-03,-4.005441384504919433e-03,-3.495657935567931390e-03,-1.940363252516416614e-02,-2.796526348454342684e-02,-2.796526348454342684e-02
-2.665439175870545213e-02,-2.614460830976846409e-02,-2.570765106782247483e-02,-2.519786761888548332e-02,-2.468808416994849528e-02,-2.425112692800250255e-02,-2.374134347906551451e-02,-2.323156003012852300e-02,-2.279460278818253374e-02,-2.228481933924554570e-02,-2.177503589030855419e-02,-2.133807864836256146e-02,-2.082829519942557342e-02,-2.031851175048858538e-02,-1.988155450854259265e-02,-1.937177105960560114e-02,-1.886198761066861310e-02,-1.842503036872262384e-02,-1.791524691978563233e-02,-1.740546347084864429e-02,-1.696850622890265503e-02,-1.645872277996566352e-02,-1.594893933102867548e-02,-1.551198208908268449e-02,-1.500219864014569471e-02,-1.449241519120870493e-02,-1.405545794926271394e-02,-1.354567450032572416e-02,-1.303589105138873439e-02,-1.259893380944274513e-02,-1.208915036050575362e-02,-1.165219311855976436e-02,-1.114240966962277285e-02,-1.063262622068578481e-02,-1.019566897873979208e-02,-9.685885529802804039e-03,-9.176102080865812527e-03,-8.739144838919823272e-03,-8.229361389982831759e-03,-7.719577941045843716e-03,-7.282620699099854461e-03,-6.772837250162866418e-03,-6.263053801225878375e-03,-5.826096559279885650e-03,-2.513414468776836025e-02,-2.796526348454342684e-02,-2.796526348454342684e-02
-2.796526348454342684e-02,-2.796526348454342684e-02,-2.796526348454342684e-02,-2.745548003560643879e-02,-2.701852279366044607e-02,-2.650873934472345803e-02,-2.599895589578646651e-02,-2.556199865384047726e-02,-2.505221520490348575e-02,-2.454243175596649770e-02,-2.410547451402050498e-02,-2.359569106508351694e-02,-2.308590761614652542e-02,-2.264895037420053617e-02,-2.213916692526354812e-02,-2.162938347632655661e-02,-2.119242623438056389e-02,-2.068264278544357931e-02,-2.017285933650658780e-02,-1.973590209456059508e-02,-1.922611864562360703e-02,-1.871633519668661899e-02,-1.827937795474062627e-02,-1.776959450580363475e-02,-1.725981105686664671e-02,-1.682285381492065746e-02,-1.631307036598366594e-02,-1.580328691704667790e-02,-1.536632967510068691e-02,-1.485654622616369713e-02,-1.434676277722670736e-02,-1.390980553528071463e-02,-1.340002208634372659e-02,-1.296306484439773733e-02,-1.245328139546074755e-02,-1.194349794652375604e-02,-1.150654070457777026e-02,-1.099675725564077874e-02,-1.048697380670378723e-02,-1.005001656475779451e-02,-9.540233115820806464e-03,-9.030449666883814952e-03,-8.593492424937825697e-03,-9.947604711176703113e-03,-2.796526348454342684e-02,-2.796526348454342684e-02,-2.796526348454342684e-02
-2.796526348454342684e-02,-2.796526348454342684e-02,-2.796526348454342684e-02,-2.796526348454342684e-02,-2.796526348454342684e-02,-2.796526348454342684e-02,-2.796526348454342684e-02,-2.781961107056142926e-02,-2.730982762162444122e-02,-2.687287037967844849e-02,-2.636308693074146045e-02,-2.585330348180446894e-02,-2.541634623985847968e-02,-2.490656279092148817e-02,-2.439677934198450013e-02,-2.395982210003851087e-02,-2.345003865110151936e-02,-2.294025520216453132e-02,-2.250329796021853859e-02,-2.199351451128155055e-02,-2.148373106234455904e-02,-2.104677382039856978e-02,-2.053699037146158174e-02,-2.002720692252459023e-02,-1.959024968057859750e-02,-1.908046623164160946e-02,-1.857068278270462142e-02,-1.813372554075862869e-02,-1.762394209182163718e-02,-1.711415864288465261e-02,-1.667720140093865988e-02,-1.616741795200166837e-02,-1.565763450306468033e-02,-1.522067726111868934e-02,-1.471089381218170129e-02,-1.427393657023571030e-02,-1.376415312129871879e-02,-1.325436967236173075e-02,-1.281741243041574149e-02,-1.230762898147874998e-02,-1.179784553254176194e-02,-1.136088829059576921e-02,-1.085110484165878117e-02,-1.584880329641605301e-02,-2.796526348454342684e-02,-2.796526348454342684e-02,-2.796526348454342684e-02
-2.796526348454342684e-02,-2.796526348454342684e-02,-2.796526348454342684e-02,-2.796526348454342684e-02,-2.796526348454342684e-02,-2.796526348454342684e-02,-2.796526348454342684e-02,-2.796526348454342684e-02,-2.796526348454342684e-02,-2.796526348454342684e-02,-2.796526348454342684e-02,-2.796526348454342684e-02,-2.767395865657943169e-02,-2.716417520764244364e-02,-2.672721796569645092e-02,-2.621743451675946288e-02,-2.570765106782247483e-02,-2.527069382587648211e-02,-2.476091037693949407e-02,-2.425112692800250255e-02,-2.381416968605651330e-02,-2.330438623711952179e-02,-2.279460278818253374e-02,-2.235764554623654102e-02,-2.184786209729955297e-02,-2.133807864836256146e-02,-2.090112140641657221e-02,-2.039133795747958416e-02,-1.988155450854259265e-02,-1.944459726659659993e-02,-1.893481381765961188e-02,-1.842503036872262384e-02,-1.798807312677663112e-02,-1.747828967783964307e-02,-1.696850622890265503e-02,-1.653154898695666231e-02,-1.602176553801967426e-02,-1.558480829607368327e-02,-1.507502484713669350e-02,-1.456524139819970372e-02,-1.412828415625371273e-02,-1.361850070731672295e-02,-1.310871725837973317e-02,-2.031851175048858538e-02,-2.796526348454342684e-02,-2.796526348454342684e-02,-2.796526348454342684e-02
-2.796526348454342684e-02,-2.796526348454342684e-02,-2.796526348454342684e-02,-2.796526348454342684e-02,-2.796526348454342684e-02,-2.796526348454342684e-02,-2.796526348454342684e-02,-2.796526348454342684e-02,-2.796526348454342684e-02,-2.796526348454342684e-02,-2.796526348454342684e-02,-2.796526348454342684e-02,-2.796526348454342684e-02,-2.796526348454342684e-02,-2.796526348454342684e-02,-2.796526348454342684e-02,-2.796526348454342684e-02,-2.752830624259743758e-02,-2.701852279366044607e-02,-2.658156555171445681e-02,-2.607178210277746530e-02,-2.556199865384047726e-02,-2.512504141189448453e-02,-2.461525796295749649e-02,-2.410547451402050498e-02,-2.366851727207451572e-02,-2.315873382313752421e-02,-2.264895037420053617e-02,-2.221199313225454691e-02,-2.170220968331755540e-02,-2.119242623438056736e-02,-1.724036839530694309e-01,-1.718939005041324464e-01,-1.713841170551954340e-01,-1.709471598132494552e-01,-1.878916140367761778e-02,-1.827937795474062627e-02,-1.784242071279463354e-02,-1.733263726385764897e-02,-1.689568002191165624e-02,-1.638589657297466473e-02,-1.587611312403767669e-02,-1.543915588209168570e-02,-2.429891912634034659e-02,-2.796526348454342684e-02,-2.796526348454342684e-02,-2.796526348454342684e-02
-2.796526348454342684e-02,-2.796526348454342684e-02,-2.796526348454342684e-02,-2.796526348454342684e-02,-2.796526348454342684e-02,-2.796526348454342684e-02,-2.796526348454342684e-02,-2.796526348454342684e-02,-2.796526348454342684e-02,-2.796526348454342684e-02,-2.796526348454342684e-02,-2.796526348454342684e-02,-2.796526348454342684e-02,-2.796526348454342684e-02,-2.796526348454342684e-02,-2.796526348454342684e-02,-2.796526348454342684e-02,-2.796526348454342684e-02,-2.796526348454342684e-02,-2.796526348454342684e-02,-2.796526348454342684e-02,-2.789243727755242805e-02,-2.738265382861544001e-02,-2.687287037967844849e-02,-2.643591313773245924e-02,-2.592612968879546773e-02,-2.541634623985847968e-02,-2.497938899791248696e-02,-2.446960554897549892e-02,-2.395982210003851087e-02,-2.352286485809251815e-02,-1.746612963697903864e-01,-1.741515129208534018e-01,-1.737145556789073952e-01,-1.732047722299704107e-01,-2.104677382039856978e-02,-2.060981657845258053e-02,-2.010003312951558901e-02,-1.959024968057859750e-02,-1.915329243863260825e-02,-1.864350898969562020e-02,-1.813372554075862869e-02,-1.769676829881263597e-02,-2.729162106987668979e-02,-2.796526348454342684e-02,-2.796526348454342684e-02,-2.796526348454342684e-02
-2.796526348454342684e-02,-2.796526348454342684e-02,-2.796526348454342684e-02,-2.796526348454342684e-02,-2.796526348454342684e-02,-2.796526348454342684e-02,-2.796526348454342684e-02,-2.796526348454342684e-02,-2.796526348454342684e-02,-2.796526348454342684e-02,-2.796526348454342684e-02,-2.796526348454342684e-02,-2.796526348454342684e-02,-2.796526348454342684e-02,-2.796526348454342684e-02,-2.796526348454342684e-02,-2.796526348454342684e-02,-2.796526348454342684e-02,-2.796526348454342684e-02,-2.796526348454342684e-02,-2.796526348454342684e-02,-2.796526348454342684e-02,-2.796526348454342684e-02,-2.796526348454342684e-02,-2.796526348454342684e-02,-2.796526348454342684e-02,-2.774678486357043047e-02,-2.723700141463344243e-02,-2.672721796569645092e-02,-2.629026072375046166e-02,-2.578047727481347362e-02,-1.769189087865113419e-01,-1.764819515445653353e-01,-1.759721680956283507e-01,-1.754623846466913661e-01,-2.337721244411052057e-02,-2.286742899517353253e-02,-2.235764554623654449e-02,-2.192068830429055176e-02,-2.141090485535356025e-02,-2.090112140641657221e-02,-2.046416416447058295e-02,-2.120608114819137746e-02,-2.796526348454342684e-02,-2.796526348454342684e-02,-2.796526348454342684e-02,-2.796526348454342684e-02
-2.796526348454342684e-02,-2.796526348454342684e-02,-2.796526348454342684e-02,-2.796526348454342684e-02,-2.796526348454342684e-02,-2.796526348454342684e-02,-2.796526348454342684e-02,-2.796526348454342684e-02,-2.796526348454342684e-02,-2.796526348454342684e-02,-2.796526348454342684e-02,-2.796526348454342684e-02,-2.796526348454342684e-02,-2.796526348454342684e-02,-2.796526348454342684e-02,-2.796526348454342684e-02,-2.796526348454342684e-02,-2.796526348454342684e-02,-2.796526348454342684e-02,-2.796526348454342684e-02,-2.796526348454342684e-02,-2.796526348454342684e-02,-2.796526348454342684e-02,-2.796526348454342684e-02,-2.796526348454342684e-02,-2.796526348454342684e-02,-2.796526348454342684e-02,-2.796526348454342684e-02,-2.796526348454342684e-02,-2.796526348454342684e-02,-2.796526348454342684e-02,-1.792493474102232753e-01,-1.787395639612862908e-01,-1.782297805123493062e-01,-1.777928232704033273e-01,-2.563482486083147605e-02,-2.512504141189448453e-02,-2.468808416994849528e-02,-2.417830072101150377e-02,-2.366851727207451572e-02,-2.323156003012852300e-02,-2.272177658119153495e-02,-2.436946951436287645e-02,-2.796526348454342684e-02,-2.796526348454342684e-02,-2.796526348454342684e-02,-2.796526348454342684e-02
