7.136401767033910028e-03,7.136401767033910028e-03,7.136401767033910028e-03,7.136401767033910028e-03,7.136401767033910028e-03,7.136401767033910028e-03,7.136401767033910028e-03,7.136401767033910028e-03,7.136401767033910028e-03,7.136401767033910028e-03,7.136401767033910028e-03,7.136401767033910028e-03,-4.995481236923737800e-02,-8.901722204142301087e-02,-8.901722204142299699e-02,-8.901722204142299699e-02,-8.901722204142299699e-02,-8.901722204142299699e-02,-8.901722204142298311e-02,-8.901722204142301087e-02,-8.901722204142301087e-02,-8.901722204142299699e-02,-8.901722204142299699e-02,-8.901722204142299699e-02,-8.688882151441287838e-02,-8.325802061539563925e-02,-7.950201968537777553e-02,-7.587121878636052252e-02,-6.975989227314398355e-02,-3.547073378285604817e-02,-4.112038518175791489e-03,7.136401767033910028e-03,7.136401767033910028e-03,7.136401767033910028e-03,7.136401767033910028e-03,7.136401767033910028e-03,7.136401767033910028e-03,7.136401767033910028e-03,7.136401767033910028e-03,7.136401767033910028e-03,7.136401767033910028e-03,7.136401767033910028e-03,7.136401767033910028e-03,7.136401767033910028e-03,7.136401767033910028e-03,7.136401767033910028e-03,7.136401767033910028e-03
7.136401767033910028e-03,7.136401767033910028e-03,7.136401767033910028e-03,7.136401767033910028e-03,7.136401767033910028e-03,7.136401767033910028e-03,7.136401767033910028e-03,7.136401767033910028e-03,7.136401767033910028e-03,7.136401767033910028e-03,7.136401767033910028e-03,1.126800279005353393e-03,-8.901722204142299699e-02,-8.901722204142299699e-02,-8.901722204142299699e-02,-8.901722204142299699e-02,-8.901722204142299699e-02,-8.901722204142299699e-02,-8.901722204142299699e-02,-8.901722204142299699e-02,-8.901722204142299699e-02,-8.901722204142299699e-02,-8.901722204142299699e-02,-8.889202201042240015e-02,-8.526122111140516102e-02,-8.163042021238789414e-02,-7.787441928237004429e-02,-7.424361838335280517e-02,-7.061281748433553829e-02,-6.698201658531829916e-02,-6.322601565530043544e-02,-3.665622157639293610e-02,-8.638802139041050487e-03,7.136401767033910028e-03,7.136401767033910028e-03,7.136401767033910028e-03,7.136401767033910028e-03,7.136401767033910028e-03,7.136401767033910028e-03,7.136401767033910028e-03,7.136401767033910028e-03,7.136401767033910028e-03,7.136401767033910028e-03,7.136401767033910028e-03,7.136401767033910028e-03,7.136401767033910028e-03,7.136401767033910028e-03
7.136401767033910028e-03,7.136401767033910028e-03,7.136401767033910028e-03,7.136401767033910028e-03,7.136401767033910028e-03,7.136401767033910028e-03,7.136401767033910028e-03,7.136401767033910028e-03,7.136401767033910028e-03,7.136401767033910028e-03,7.136401767033910028e-03,-3.793560939318026126e-02,-8.901722204142299699e-02,-8.901722204142299699e-02,-8.901722204142299699e-02,-8.901722204142299699e-02,-8.901722204142299699e-02,-8.901722204142299699e-02,-8.901722204142298311e-02,-8.901722204142301087e-02,-8.901722204142299699e-02,-8.901722204142299699e-02,-8.901722204142299699e-02,-8.726442160741466891e-02,-8.363362070839742979e-02,-7.987761977837956606e-02,-7.624681887936231306e-02,-7.261601798034507393e-02,-6.898521708132780705e-02,-6.535441618231055405e-02,-6.159841525229271808e-02,-5.796761435327545120e-02,-5.433681345425819820e-02,-3.624540897467223161e-02,-1.145580283655443787e-02,7.136401767033910028e-03,7.136401767033910028e-03,7.136401767033910028e-03,7.136401767033910028e-03,7.136401767033910028e-03,7.136401767033910028e-03,7.136401767033910028e-03,7.136401767033910028e-03,7.136401767033910028e-03,7.136401767033910028e-03,7.136401767033910028e-03,7.136401767033910028e-03
7.136401767033910028e-03,7.136401767033910028e-03,7.136401767033910028e-03,7.136401767033910028e-03,7.136401767033910028e-03,7.136401767033910028e-03,7.136401767033910028e-03,7.136401767033910028e-03,7.136401767033910028e-03,7.136401767033910028e-03,7.136401767033910028e-03,-7.699801906536588025e-02,-8.901722204142299699e-02,-8.901722204142299699e-02,-8.901722204142299699e-02,-8.901722204142299699e-02,-8.901722204142299699e-02,-8.901722204142299699e-02,-8.901722204142299699e-02,-8.901722204142299699e-02,-8.901722204142299699e-02,-8.901722204142299699e-02,-8.901722204142299699e-02,-8.563682120440695156e-02,-8.200602030538969855e-02,-7.825001937537183483e-02,-7.461921847635459570e-02,-7.098841757733732882e-02,-6.735761667832007582e-02,-6.372681577930282282e-02,-5.997081484928497297e-02,-5.634001395026771997e-02,-5.270921305125046696e-02,-4.907841215223321396e-02,-4.532241122221536411e-02,-3.406223343409935100e-02,-1.263737812912255065e-02,5.837451445402737707e-03,7.136401767033910028e-03,7.136401767033910028e-03,7.136401767033910028e-03,7.136401767033910028e-03,7.136401767033910028e-03,7.136401767033910028e-03,7.136401767033910028e-03,7.136401767033910028e-03,7.136401767033910028e-03
7.136401767033910028e-03,7.136401767033910028e-03,7.136401767033910028e-03,7.136401767033910028e-03,7.136401767033910028e-03,7.136401767033910028e-03,7.136401767033910028e-03,7.136401767033910028e-03,7.136401767033910028e-03,7.136401767033910028e-03,-2.892120716113742718e-02,-8.901722204142299699e-02,-8.901722204142301087e-02,-8.901722204142299699e-02,-8.901722204142299699e-02,-8.901722204142299699e-02,-8.901722204142298311e-02,-8.901722204142301087e-02,-8.901722204142299699e-02,-8.901722204142299699e-02,-8.901722204142299699e-02,-8.901722204142299699e-02,-8.764002170041645945e-02,-8.400922080139920645e-02,-8.037841990238193957e-02,-7.662241897236408972e-02,-7.299161807334685059e-02,-6.936081717432959759e-02,-6.573001627531234459e-02,-6.209921537629509158e-02,-5.834321444627722786e-02,-5.471241354725998873e-02,-5.108161264824273573e-02,-4.745081174922548273e-02,-4.369481081920762594e-02,-4.006400992019037988e-02,-3.643320902117312687e-02,-3.030623250408151503e-02,-1.215222800899525002e-02,3.067400759514575005e-03,7.136401767033910028e-03,7.136401767033910028e-03,7.136401767033910028e-03,7.136401767033910028e-03,7.136401767033910028e-03,7.136401767033910028e-03,7.136401767033910028e-03
7.136401767033910028e-03,7.136401767033910028e-03,7.136401767033910028e-03,7.136401767033910028e-03,7.136401767033910028e-03,7.136401767033910028e-03,7.136401767033910028e-03,7.136401767033910028e-03,7.136401767033910028e-03,7.136401767033910028e-03,-6.798361683332306005e-02,-8.901722204142299699e-02,-8.901722204142299699e-02,-8.901722204142299699e-02,-8.901722204142299699e-02,-8.901722204142299699e-02,-8.901722204142298311e-02,-8.901722204142299699e-02,-8.901722204142299699e-02,-8.901722204142299699e-02,-8.901722204142299699e-02,-8.901722204142299699e-02,-8.601242129740871434e-02,-8.238162039839146134e-02,-7.875081949937422221e-02,-7.499481856935637236e-02,-7.136401767033911936e-02,-6.773321677132185248e-02,-6.410241587230461335e-02,-6.034641494228676351e-02,-5.671561404326949662e-02,-5.308481314425225750e-02,-4.945401224523499756e-02,-4.582321134621773762e-02,-4.206721041619990165e-02,-3.843640951718264864e-02,-3.480560861816538870e-02,-3.117480771914814264e-02,-2.741880678913029279e-02,-2.378800589011303632e-02,-9.922102456797150805e-03,1.960162985353064435e-03,7.136401767033910028e-03,7.136401767033910028e-03,7.136401767033910028e-03,7.136401767033910028e-03,7.136401767033910028e-03
7.136401767033910028e-03,7.136401767033910028e-03,7.136401767033910028e-03,7.136401767033910028e-03,7.136401767033910028e-03,7.136401767033910028e-03,7.136401767033910028e-03,7.136401767033910028e-03,7.136401767033910028e-03,-1.990680492909459656e-02,-8.901722204142299699e-02,-8.901722204142299699e-02,-8.901722204142299699e-02,-8.901722204142298311e-02,-8.901722204142298311e-02,-8.901722204142298311e-02,-8.901722204142299699e-02,-8.901722204142299699e-02,-8.901722204142299699e-02,-8.901722204142298311e-02,-8.901722204142299699e-02,-8.801562179341824999e-02,-8.438482089440099698e-02,-8.075401999538373010e-02,-7.712321909636647710e-02,-7.336721816634862725e-02,-6.973641726733138813e-02,-6.610561636831413512e-02,-6.247481546929688212e-02,-5.871881453927901839e-02,-5.508801364026177233e-02,-5.145721274124451933e-02,-4.782641184222725939e-02,-4.419561094321000638e-02,-4.043961001319215653e-02,-3.680880911417491047e-02,-3.317800821515766441e-02,-2.954720731614040446e-02,-2.579120638612256156e-02,-2.216040548710530508e-02,-1.852960458808804861e-02,-1.489880368907079561e-02,-6.091764008372697013e-03,2.558775633574658127e-03,7.136401767033910028e-03,7.136401767033910028e-03,7.136401767033910028e-03
7.136401767033910028e-03,7.136401767033910028e-03,7.136401767033910028e-03,7.136401767033910028e-03,7.136401767033910028e-03,7.136401767033910028e-03,7.136401767033910028e-03,7.136401767033910028e-03,7.136401767033910028e-03,-5.896921460128021208e-02,-8.901722204142299699e-02,-8.901722204142299699e-02,-8.901722204142299699e-02,-8.901722204142299699e-02,-8.901722204142298311e-02,-8.901722204142299699e-02,-8.901722204142299699e-02,-8.901722204142299699e-02,-8.901722204142299699e-02,-8.901722204142299699e-02,-8.901722204142299699e-02,-8.638802139041050487e-02,-8.275722049139325187e-02,-7.912641959237599887e-02,-7.537041866235814902e-02,-7.173961776334090990e-02,-6.810881686432364301e-02,-6.447801596530640389e-02,-6.084721506628913701e-02,-5.709121413627128716e-02,-5.346041323725404110e-02,-4.982961233823678809e-02,-4.619881143921952815e-02,-4.244281050920167830e-02,-3.881200961018442530e-02,-3.518120871116717924e-02,-3.155040781214992623e-02,-2.791960691313268017e-02,-2.416360598311482338e-02,-2.053280508409757038e-02,-1.690200418508031391e-02,-1.327120328606306437e-02,-9.640402387045807903e-03,-5.884401457027962391e-03,-7.864126947224872252e-04,4.616751143146937547e-03,7.136401767033910028e-03
7.136401767033910028e-03,7.136401767033910028e-03,7.136401767033910028e-03,7.136401767033910028e-03,7.136401767033910028e-03,7.136401767033910028e-03,7.136401767033910028e-03,7.136401767033910028e-03,-1.089240269705176248e-02,-8.901722204142299699e-02,-8.901722204142299699e-02,-8.901722204142299699e-02,-8.901722204142299699e-02,-8.901722204142299699e-02,-8.901722204142299699e-02,-8.901722204142299699e-02,-8.901722204142299699e-02,-8.901722204142299699e-02,-8.901722204142299699e-02,-8.901722204142299699e-02,-8.839122188642002664e-02,-8.476042098740277364e-02,-8.112962008838552064e-02,-7.749881918936826763e-02,-7.374281825935041779e-02,-7.011201736033316478e-02,-6.648121646131589790e-02,-6.285041556229865878e-02,-5.921961466328140578e-02,-5.546361373326355593e-02,-5.183281283424630292e-02,-4.820201193522904992e-02,-4.457121103621179692e-02,-4.081521010619394013e-02,-3.718440920717670101e-02,-3.355360830815944106e-02,-2.992280740914219500e-02,-2.629200651012493506e-02,-2.253600558010708521e-02,-1.890520468108983221e-02,-1.527440378207258267e-02,-1.164360288305532967e-02,-7.887601953037479824e-03,-4.256801054020227688e-03,-6.260001550029746856e-04,3.004800744014278317e-03,6.666901650781678797e-03
7.136401767033910028e-03,7.136401767033910028e-03,7.136401767033910028e-03,7.136401767033910028e-03,7.136401767033910028e-03,7.136401767033910028e-03,7.136401767033910028e-03,7.136401767033910028e-03,-4.995481236923737800e-02,-8.901722204142299699e-02,-8.901722204142299699e-02,-8.901722204142299699e-02,-8.901722204142299699e-02,-8.901722204142299699e-02,-8.901722204142299699e-02,-8.901722204142299699e-02,-8.901722204142299699e-02,-8.901722204142299699e-02,-8.901722204142301087e-02,-8.901722204142299699e-02,-8.676362148341229541e-02,-8.313282058439504241e-02,-7.950201968537777553e-02,-7.587121878636053640e-02,-7.211521785634268655e-02,-6.848441695732541967e-02,-6.485361605830818055e-02,-6.122281515929092754e-02,-5.759201426027366066e-02,-5.383601333025581775e-02,-5.020521243123856475e-02,-4.657441153222131869e-02,-4.294361063320405875e-02,-3.918760970318620890e-02,-3.555680880416896283e-02,-3.192600790515170983e-02,-2.829520700613445683e-02,-2.466440610711720383e-02,-2.090840517709935398e-02,-1.727760427808210097e-02,-1.364680337906485144e-02,-1.001600248004759497e-02,-6.260001550029745988e-03,-2.629200651012492986e-03,1.001600248004758283e-03,4.632401147022012153e-03,7.136401767033910028e-03
7.136401767033910028e-03,7.136401767033910028e-03,7.136401767033910028e-03,7.136401767033910028e-03,7.136401767033910028e-03,7.136401767033910028e-03,7.136401767033910028e-03,-1.878000465008925791e-03,-8.901722204142299699e-02,-8.901722204142299699e-02,-8.901722204142298311e-02,-8.901722204142298311e-02,-8.901722204142298311e-02,-8.901722204142299699e-02,-8.901722204142299699e-02,-8.901722204142299699e-02,-8.901722204142299699e-02,-8.901722204142299699e-02,-8.901722204142299699e-02,-8.876682197942180330e-02,-8.513602108040456418e-02,-8.150522018138729730e-02,-7.787441928237003042e-02,-7.424361838335280517e-02,-7.048761745333495532e-02,-6.685681655431770232e-02,-6.322601565530044931e-02,-5.959521475628319631e-02,-5.583921382626534646e-02,-5.220841292724809346e-02,-4.857761202823083352e-02,-4.494681112921358052e-02,-4.131601023019632057e-02,-3.756000930017847766e-02,-3.392920840116123160e-02,-3.029840750214397166e-02,-2.666760660312672560e-02,-2.291160567310887228e-02,-1.928080477409161581e-02,-1.565000387507436627e-02,-1.201920297605711674e-02,-8.388402077039860266e-03,-4.632401147022013020e-03,-1.001600248004760017e-03,2.629200651012492986e-03,6.260001550029745121e-03,7.136401767033910028e-03
7.136401767033910028e-03,7.136401767033910028e-03,7.136401767033910028e-03,7.136401767033910028e-03,7.136401767033910028e-03,7.136401767033910028e-03,7.136401767033910028e-03,-4.094041013719454392e-02,-8.901722204142298311e-02,-8.901722204142299699e-02,-8.901722204142301087e-02,-8.901722204142299699e-02,-8.901722204142299699e-02,-8.901722204142299699e-02,-8.901722204142299699e-02,-8.901722204142299699e-02,-8.901722204142299699e-02,-8.901722204142299699e-02,-8.901722204142298311e-02,-8.713922157641408595e-02,-8.350842067739681907e-02,-7.987761977837956606e-02,-7.624681887936231306e-02,-7.261601798034507393e-02,-6.886001705032721021e-02,-6.522921615130997108e-02,-6.159841525229271808e-02,-5.796761435327545120e-02,-5.421161342325760135e-02,-5.058081252424035529e-02,-4.695001162522309535e-02,-4.331921072620584234e-02,-3.968840982718858934e-02,-3.593240889717074643e-02,-3.230160799815350037e-02,-2.867080709913624043e-02,-2.504000620011898742e-02,-2.128400527010113757e-02,-1.765320437108388457e-02,-1.402240347206663504e-02,-1.039160257304937857e-02,-6.760801674032124696e-03,-3.004800744014278317e-03,6.260001550029738182e-04,4.256801054020226821e-03,7.136401767033910028e-03,7.136401767033910028e-03
7.136401767033910028e-03,7.136401767033910028e-03,7.136401767033910028e-03,7.136401767033910028e-03,7.136401767033910028e-03,7.136401767033910028e-03,7.136401767033910028e-03,-8.000281980938016291e-02,-8.901722204142299699e-02,-8.901722204142299699e-02,-8.901722204142299699e-02,-8.901722204142299699e-02,-8.901722204142299699e-02,-8.901722204142299699e-02,-8.901722204142299699e-02,-8.901722204142299699e-02,-8.901722204142299699e-02,-8.901722204142299699e-02,-8.901722204142299699e-02,-8.551162117340635471e-02,-8.188082027438908783e-02,-7.825001937537183483e-02,-7.461921847635458183e-02,-7.086321754633671810e-02,-6.723241664731947898e-02,-6.360161574830222597e-02,-5.997081484928497297e-02,-5.634001395026771997e-02,-5.258401302024987706e-02,-4.895321212123261712e-02,-4.532241122221537105e-02,-4.169161032319810417e-02,-3.793560939318026126e-02,-3.430480849416300826e-02,-3.067400759514576219e-02,-2.704320669612850225e-02,-2.341240579711125272e-02,-1.965640486709340287e-02,-1.602560396807615334e-02,-1.239480306905890034e-02,-8.764002170041647333e-03,-5.133201271024391728e-03,-1.377200341006543614e-03,2.253600558010708521e-03,5.884401457027960657e-03,7.136401767033910028e-03,7.136401767033910028e-03
7.136401767033910028e-03,7.136401767033910028e-03,7.136401767033910028e-03,7.136401767033910028e-03,7.136401767033910028e-03,7.136401767033910028e-03,-3.192600790515170983e-02,-8.901722204142301087e-02,-8.901722204142299699e-02,-8.901722204142299699e-02,-8.901722204142299699e-02,-8.901722204142299699e-02,-8.901722204142298311e-02,-8.901722204142299699e-02,-8.901722204142299699e-02,-8.901722204142299699e-02,-8.901722204142299699e-02,-8.901722204142299699e-02,-8.764002170041644557e-02,-8.388402077039860960e-02,-8.025321987138135660e-02,-7.662241897236408972e-02,-7.299161807334685059e-02,-6.923561714332898687e-02,-6.560481624431174774e-02,-6.197401534529449474e-02,-5.834321444627724174e-02,-5.471241354725998873e-02,-5.095641261724213888e-02,-4.732561171822488588e-02,-4.369481081920762594e-02,-4.006400992019037988e-02,-3.630800899017253003e-02,-3.267720809115528396e-02,-2.904640719213803096e-02,-2.541560629312077102e-02,-2.178480539410351802e-02,-1.802880446408566817e-02,-1.439800356506841864e-02,-1.076720266605116563e-02,-7.136401767033910028e-03,-3.380400837016061914e-03,2.504000620011893538e-04,3.881200961018442357e-03,7.136401767033910028e-03,7.136401767033910028e-03,7.136401767033910028e-03
7.136401767033910028e-03,7.136401767033910028e-03,7.136401767033910028e-03,7.136401767033910028e-03,7.136401767033910028e-03,7.136401767033910028e-03,-7.098841757733732882e-02,-8.901722204142299699e-02,-8.901722204142299699e-02,-8.901722204142299699e-02,-8.901722204142298311e-02,-8.901722204142299699e-02,-8.901722204142299699e-02,-8.901722204142299699e-02,-8.901722204142299699e-02,-8.901722204142299699e-02,-8.901722204142299699e-02,-8.901722204142299699e-02,-8.601242129740872822e-02,-8.225642036739087837e-02,-7.862561946837361149e-02,-7.499481856935637236e-02,-7.136401767033913324e-02,-6.760801674032126951e-02,-6.397721584130401651e-02,-6.034641494228676351e-02,-5.671561404326951050e-02,-5.308481314425225056e-02,-4.932881221423440071e-02,-4.569801131521715465e-02,-4.206721041619989471e-02,-3.843640951718264170e-02,-3.468040858716479879e-02,-3.104960768814754579e-02,-2.741880678913029279e-02,-2.378800589011303979e-02,-2.015720499109578331e-02,-1.640120406107793347e-02,-1.277040316206068393e-02,-9.139602263043430930e-03,-5.508801364026177060e-03,-1.752800434008328946e-03,1.878000465008923189e-03,5.508801364026176192e-03,7.136401767033910028e-03,7.136401767033910028e-03,7.136401767033910028e-03
7.136401767033910028e-03,7.136401767033910028e-03,7.136401767033910028e-03,7.136401767033910028e-03,7.136401767033910028e-03,-2.291160567310887575e-02,-8.901722204142299699e-02,-8.901722204142301087e-02,-8.901722204142299699e-02,-8.901722204142299699e-02,-8.901722204142299699e-02,-8.901722204142299699e-02,-8.901722204142299699e-02,-8.901722204142299699e-02,-8.901722204142299699e-02,-8.901722204142299699e-02,-8.901722204142299699e-02,-8.801562179341824999e-02,-8.425962086340040014e-02,-8.062881996438313326e-02,-7.699801906536588025e-02,-7.336721816634862725e-02,-6.973641726733138813e-02,-6.598041633731353828e-02,-6.234961543829627140e-02,-5.871881453927901839e-02,-5.508801364026176539e-02,-5.133201271024392248e-02,-4.770121181122666948e-02,-4.407041091220940954e-02,-4.043961001319215653e-02,-3.680880911417491741e-02,-3.305280818415706756e-02,-2.942200728513981456e-02,-2.579120638612255462e-02,-2.216040548710530161e-02,-1.840440455708745177e-02,-1.477360365807020223e-02,-1.114280275905294923e-02,-7.512001860035695359e-03,-3.881200961018442357e-03,-1.252000310005959779e-04,3.505600868016657459e-03,7.136401767033910028e-03,7.136401767033910028e-03,7.136401767033910028e-03,7.136401767033910028e-03
7.136401767033910028e-03,7.136401767033910028e-03,7.136401767033910028e-03,7.136401767033910028e-03,7.136401767033910028e-03,-6.197401534529449474e-02,-8.901722204142299699e-02,-8.901722204142299699e-02,-8.901722204142299699e-02,-8.901722204142299699e-02,-8.901722204142299699e-02,-8.901722204142299699e-02,-8.901722204142299699e-02,-8.901722204142299699e-02,-8.901722204142299699e-02,-8.901722204142299699e-02,-8.901722204142299699e-02,-8.638802139041050487e-02,-8.263202046039266890e-02,-7.900121956137540202e-02,-7.537041866235814902e-02,-7.173961776334089602e-02,-6.810881686432364301e-02,-6.435281593430579317e-02,-6.072201503528854016e-02,-5.709121413627128716e-02,-5.346041323725403416e-02,-4.970441230723619819e-02,-4.607361140821893825e-02,-4.244281050920167830e-02,-3.881200961018442530e-02,-3.518120871116717924e-02,-3.142520778114933633e-02,-2.779440688213207639e-02,-2.416360598311482338e-02,-2.053280508409757038e-02,-1.677680415407971706e-02,-1.314600325506247100e-02,-9.515202356045214527e-03,-5.884401457027962391e-03,-2.253600558010709388e-03,1.502400372007137858e-03,5.133201271024390860e-03,7.136401767033910028e-03,7.136401767033910028e-03,7.136401767033910028e-03,7.136401767033910028e-03
7.136401767033910028e-03,7.136401767033910028e-03,7.136401767033910028e-03,7.136401767033910028e-03,-1.389720344106603819e-02,-8.901722204142299699e-02,-8.901722204142299699e-02,-8.901722204142298311e-02,-8.901722204142299699e-02,-8.901722204142299699e-02,-8.901722204142299699e-02,-8.901722204142299699e-02,-8.901722204142299699e-02,-8.901722204142299699e-02,-8.901722204142299699e-02,-8.901722204142299699e-02,-8.839122188642002664e-02,-8.476042098740278752e-02,-8.100442005738492379e-02,-7.737361915836765691e-02,-7.374281825935040391e-02,-7.011201736033315091e-02,-6.635601643031532881e-02,-6.272521553129807581e-02,-5.909441463228080893e-02,-5.546361373326355593e-02,-5.183281283424630292e-02,-4.807681190422845308e-02,-4.444601100521120007e-02,-4.081521010619394013e-02,-3.718440920717669407e-02,-3.355360830815944800e-02,-2.979760737814159816e-02,-2.616680647912433821e-02,-2.253600558010708521e-02,-1.890520468108983221e-02,-1.514920375107198583e-02,-1.151840285205473630e-02,-7.887601953037479824e-03,-4.256801054020227688e-03,-6.260001550029746856e-04,3.130000775014872560e-03,6.760801674032125563e-03,7.136401767033910028e-03,7.136401767033910028e-03,7.136401767033910028e-03,7.136401767033910028e-03
7.136401767033910028e-03,7.136401767033910028e-03,7.136401767033910028e-03,7.136401767033910028e-03,-5.295961311325165372e-02,-8.901722204142299699e-02,-8.901722204142299699e-02,-8.901722204142299699e-02,-8.901722204142299699e-02,-8.901722204142299699e-02,-8.901722204142299699e-02,-8.901722204142299699e-02,-8.901722204142299699e-02,-8.901722204142301087e-02,-8.901722204142299699e-02,-8.901722204142299699e-02,-8.676362148341228153e-02,-8.313282058439504241e-02,-7.937681965437719256e-02,-7.574601875535993956e-02,-7.211521785634268655e-02,-6.848441695732541967e-02,-6.472841602730758370e-02,-6.109761512829033070e-02,-5.746681422927307770e-02,-5.383601333025582469e-02,-5.020521243123856475e-02,-4.644921150122071490e-02,-4.281841060220346884e-02,-3.918760970318621584e-02,-3.555680880416896283e-02,-3.180080787415111299e-02,-2.817000697513385998e-02,-2.453920607611660698e-02,-2.090840517709935398e-02,-1.727760427808209751e-02,-1.352160334806425460e-02,-9.890802449047001593e-03,-6.260001550029745988e-03,-2.629200651012492986e-03,1.126800279005353393e-03,4.757601178022606396e-03,7.136401767033910028e-03,7.136401767033910028e-03,7.136401767033910028e-03,7.136401767033910028e-03,7.136401767033910028e-03
7.136401767033910028e-03,7.136401767033910028e-03,7.136401767033910028e-03,-1.878000465008924057e-03,-8.901722204142299699e-02,-8.901722204142298311e-02,-8.901722204142298311e-02,-8.901722204142299699e-02,-8.901722204142299699e-02,-8.901722204142299699e-02,-8.901722204142299699e-02,-8.901722204142299699e-02,-8.901722204142299699e-02,-8.901722204142299699e-02,-8.901722204142298311e-02,-8.876682197942180330e-02,-8.513602108040456418e-02,-8.150522018138729730e-02,-7.774921925136944745e-02,-7.411841835235220832e-02,-7.048761745333494144e-02,-6.685681655431770232e-02,-6.310081562429985247e-02,-5.947001472528259947e-02,-5.583921382626533259e-02,-5.220841292724809346e-02,-4.857761202823082658e-02,-4.482161109821298367e-02,-4.119081019919573067e-02,-3.756000930017848460e-02,-3.392920840116123160e-02,-3.017320747114338175e-02,-2.654240657212612875e-02,-2.291160567310887228e-02,-1.928080477409161927e-02,-1.565000387507436627e-02,-1.189400294505651989e-02,-8.263202046039263421e-03,-4.632401147022013020e-03,-1.001600248004760017e-03,2.754400682013087229e-03,6.385201581030340232e-03,7.136401767033910028e-03,7.136401767033910028e-03,7.136401767033910028e-03,7.136401767033910028e-03,7.136401767033910028e-03
7.136401767033910028e-03,7.136401767033910028e-03,7.136401767033910028e-03,-4.094041013719454392e-02,-8.901722204142299699e-02,-8.901722204142299699e-02,-8.901722204142299699e-02,-8.901722204142299699e-02,-8.901722204142299699e-02,-8.901722204142299699e-02,-8.901722204142299699e-02,-8.901722204142299699e-02,-8.901722204142301087e-02,-8.901722204142298311e-02,-8.901722204142299699e-02,-8.713922157641408595e-02,-8.350842067739683294e-02,-7.975241974737896922e-02,-7.612161884836171621e-02,-7.249081794934447709e-02,-6.886001705032721021e-02,-6.522921615130997108e-02,-6.147321522129212124e-02,-5.784241432227485435e-02,-5.421161342325760135e-02,-5.058081252424034835e-02,-4.682481159422250544e-02,-4.319401069520524550e-02,-3.956320979618799943e-02,-3.593240889717075337e-02,-3.230160799815349343e-02,-2.854560706813564358e-02,-2.491480616911839058e-02,-2.128400527010113757e-02,-1.765320437108388457e-02,-1.389720344106603819e-02,-1.026640254204878519e-02,-6.635601643031531320e-03,-3.004800744014278317e-03,6.260001550029746856e-04,4.382001085020821932e-03,7.136401767033910028e-03,7.136401767033910028e-03,7.136401767033910028e-03,7.136401767033910028e-03,7.136401767033910028e-03,7.136401767033910028e-03
7.136401767033910028e-03,7.136401767033910028e-03,7.136401767033910028e-03,-8.000281980938016291e-02,-8.901722204142299699e-02,-8.901722204142299699e-02,-8.901722204142298311e-02,-8.901722204142298311e-02,-8.901722204142299699e-02,-8.901722204142299699e-02,-8.901722204142299699e-02,-8.901722204142299699e-02,-8.901722204142299699e-02,-8.901722204142298311e-02,-8.901722204142298311e-02,-8.551162117340635471e-02,-8.188082027438908783e-02,-7.812481934437123798e-02,-7.449401844535398498e-02,-7.086321754633673198e-02,-6.723241664731947898e-02,-6.360161574830222597e-02,-5.984561481828437612e-02,-5.621481391926712312e-02,-5.258401302024987012e-02,-4.895321212123261712e-02,-4.519721119121476727e-02,-4.156641029219751426e-02,-3.793560939318026820e-02,-3.430480849416301520e-02,-3.067400759514576913e-02,-2.691800666512791235e-02,-2.328720576611065934e-02,-1.965640486709340634e-02,-1.602560396807614987e-02,-1.226960303805830696e-02,-8.638802139041050487e-03,-5.008001240023796617e-03,-1.377200341006545349e-03,2.253600558010707654e-03,6.009601488028555767e-03,7.136401767033910028e-03,7.136401767033910028e-03,7.136401767033910028e-03,7.136401767033910028e-03,7.136401767033910028e-03,7.136401767033910028e-03
7.136401767033910028e-03,7.136401767033910028e-03,-3.192600790515170983e-02,-8.901722204142299699e-02,-8.901722204142299699e-02,-8.901722204142299699e-02,-8.901722204142298311e-02,-8.901722204142299699e-02,-8.901722204142299699e-02,-8.901722204142299699e-02,-8.901722204142299699e-02,-8.901722204142299699e-02,-8.901722204142299699e-02,-8.901722204142299699e-02,-8.751482166941586260e-02,-8.388402077039859572e-02,-8.025321987138134272e-02,-7.649721894136350675e-02,-7.286641804234625375e-02,-6.923561714332900074e-02,-6.560481624431176162e-02,-6.184881531429389789e-02,-5.821801441527663101e-02,-5.458721351625939189e-02,-5.095641261724213888e-02,-4.732561171822487894e-02,-4.356961078820703603e-02,-3.993880988918978303e-02,-3.630800899017253003e-02,-3.267720809115527703e-02,-2.904640719213802402e-02,-2.529040626212017417e-02,-2.165960536310292464e-02,-1.802880446408566817e-02,-1.439800356506841864e-02,-1.064200263505056879e-02,-7.011201736033314917e-03,-3.380400837016061914e-03,2.504000620011893538e-04,3.881200961018442357e-03,7.136401767033910028e-03,7.136401767033910028e-03,7.136401767033910028e-03,7.136401767033910028e-03,7.136401767033910028e-03,7.136401767033910028e-03,7.136401767033910028e-03
7.136401767033910028e-03,7.136401767033910028e-03,-7.098841757733732882e-02,-8.901722204142301087e-02,-8.901722204142299699e-02,-8.901722204142299699e-02,-8.901722204142299699e-02,-8.901722204142299699e-02,-8.901722204142299699e-02,-8.901722204142299699e-02,-8.901722204142299699e-02,-8.901722204142299699e-02,-8.901722204142299699e-02,-8.901722204142299699e-02,-8.588722126640813137e-02,-8.225642036739087837e-02,-7.862561946837361149e-02,-7.486961853835577552e-02,-7.123881763933852251e-02,-6.760801674032126951e-02,-6.397721584130401651e-02,-6.022121491128616666e-02,-5.659041401226891366e-02,-5.295961311325166065e-02,-4.932881221423440765e-02,-4.569801131521714771e-02,-4.194201038519929786e-02,-3.831120948618204486e-02,-3.468040858716479879e-02,-3.104960768814754579e-02,-2.729360675812969594e-02,-2.366280585911244294e-02,-2.003200496009518647e-02,-1.640120406107793347e-02,-1.277040316206068393e-02,-9.014402232042837554e-03,-5.383601333025580214e-03,-1.752800434008328946e-03,1.878000465008923189e-03,5.634001395026771303e-03,7.136401767033910028e-03,7.136401767033910028e-03,7.136401767033910028e-03,7.136401767033910028e-03,7.136401767033910028e-03,7.136401767033910028e-03,7.136401767033910028e-03
7.136401767033910028e-03,-2.291160567310887575e-02,-8.901722204142299699e-02,-8.901722204142301087e-02,-8.901722204142299699e-02,-8.901722204142298311e-02,-8.901722204142301087e-02,-8.901722204142299699e-02,-8.901722204142299699e-02,-8.901722204142299699e-02,-8.901722204142299699e-02,-8.901722204142299699e-02,-8.901722204142299699e-02,-8.789042176241763926e-02,-8.425962086340040014e-02,-8.062881996438313326e-02,-7.699801906536588025e-02,-7.324201813534805816e-02,-6.961121723633077740e-02,-6.598041633731353828e-02,-6.234961543829628527e-02,-5.859361450827842155e-02,-5.496281360926117548e-02,-5.133201271024392942e-02,-4.770121181122667642e-02,-4.407041091220942342e-02,-4.031440998219155969e-02,-3.668360908317432056e-02,-3.305280818415706756e-02,-2.942200728513981456e-02,-2.566600635512196471e-02,-2.203520545610470824e-02,-1.840440455708745177e-02,-1.477360365807020570e-02,-1.114280275905295270e-02,-7.386801829035100249e-03,-3.756000930017847246e-03,-1.252000310005959779e-04,3.505600868016657459e-03,7.136401767033910028e-03,7.136401767033910028e-03,7.136401767033910028e-03,7.136401767033910028e-03,7.136401767033910028e-03,7.136401767033910028e-03,7.136401767033910028e-03,7.136401767033910028e-03
7.136401767033910028e-03,-6.197401534529449474e-02,-8.901722204142299699e-02,-8.901722204142299699e-02,-8.901722204142299699e-02,-8.901722204142301087e-02,-8.901722204142299699e-02,-8.901722204142299699e-02,-8.901722204142299699e-02,-8.901722204142299699e-02,-8.901722204142299699e-02,-8.901722204142298311e-02,-8.901722204142298311e-02,-8.626282135940989415e-02,-8.263202046039266890e-02,-7.900121956137538815e-02,-7.524521863135755217e-02,-7.161441773234031305e-02,-6.798361683332306005e-02,-6.435281593430579317e-02,-6.072201503528855404e-02,-5.696601410527069032e-02,-5.333521320625344425e-02,-4.970441230723619125e-02,-4.607361140821893131e-02,-4.231761047820108146e-02,-3.868680957918383539e-02,-3.505600868016658933e-02,-3.142520778114933633e-02,-2.779440688213208333e-02,-2.403840595211422654e-02,-2.040760505309697354e-02,-1.677680415407971706e-02,-1.314600325506247100e-02,-9.390002325044621151e-03,-5.759201426027365546e-03,-2.128400527010114278e-03,1.502400372007137858e-03,5.133201271024390860e-03,7.136401767033910028e-03,7.136401767033910028e-03,7.136401767033910028e-03,7.136401767033910028e-03,7.136401767033910028e-03,7.136401767033910028e-03,7.136401767033910028e-03,7.136401767033910028e-03
-1.389720344106603819e-02,-8.901722204142299699e-02,-8.901722204142299699e-02,-8.901722204142299699e-02,-8.901722204142299699e-02,-8.901722204142299699e-02,-8.901722204142299699e-02,-8.901722204142299699e-02,-8.901722204142299699e-02,-8.901722204142301087e-02,-8.901722204142299699e-02,-8.901722204142299699e-02,-8.826602185541942980e-02,-8.463522095640219067e-02,-8.100442005738492379e-02,-7.737361915836767079e-02,-7.361761822834982094e-02,-6.998681732933256794e-02,-6.635601643031532881e-02,-6.272521553129807581e-02,-5.909441463228080893e-02,-5.533841370226295908e-02,-5.170761280324570608e-02,-4.807681190422845308e-02,-4.444601100521120007e-02,-4.069001007519335023e-02,-3.705920917617610416e-02,-3.342840827715884422e-02,-2.979760737814159816e-02,-2.616680647912434515e-02,-2.241080554910648837e-02,-1.878000465008923883e-02,-1.514920375107198583e-02,-1.151840285205473630e-02,-7.762401922036885581e-03,-4.131601023019632578e-03,-5.008001240023795750e-04,3.130000775014872560e-03,6.760801674032125563e-03,7.136401767033910028e-03,7.136401767033910028e-03,7.136401767033910028e-03,7.136401767033910028e-03,7.136401767033910028e-03,7.136401767033910028e-03,7.136401767033910028e-03,7.136401767033910028e-03
-5.295961311325166065e-02,-8.901722204142299699e-02,-8.901722204142301087e-02,-8.901722204142299699e-02,-8.901722204142298311e-02,-8.901722204142299699e-02,-8.901722204142299699e-02,-8.901722204142299699e-02,-8.901722204142299699e-02,-8.901722204142299699e-02,-8.901722204142298311e-02,-8.901722204142299699e-02,-8.663842145241169856e-02,-8.300762055339444556e-02,-7.937681965437719256e-02,-7.574601875535992568e-02,-7.199001782534208971e-02,-6.835921692632483671e-02,-6.472841602730758370e-02,-6.109761512829031682e-02,-5.734161419827248085e-02,-5.371081329925522785e-02,-5.008001240023798178e-02,-4.644921150122072184e-02,-4.281841060220346190e-02,-3.906240967218561899e-02,-3.543160877316836599e-02,-3.180080787415111299e-02,-2.817000697513385998e-02,-2.453920607611660004e-02,-2.078320514609876060e-02,-1.715240424708150760e-02,-1.352160334806425460e-02,-9.890802449047001593e-03,-6.134801519029149143e-03,-2.504000620011897875e-03,1.126800279005353393e-03,4.757601178022606396e-03,7.136401767033910028e-03,7.136401767033910028e-03,7.136401767033910028e-03,7.136401767033910028e-03,7.136401767033910028e-03,7.136401767033910028e-03,7.136401767033910028e-03,7.136401767033910028e-03,7.136401767033910028e-03
-8.901722204142299699e-02,-8.901722204142298311e-02,-8.901722204142298311e-02,-8.901722204142299699e-02,-8.901722204142299699e-02,-8.901722204142299699e-02,-8.901722204142299699e-02,-8.901722204142299699e-02,-8.901722204142299699e-02,-8.901722204142299699e-02,-8.901722204142299699e-02,-8.864162194842120646e-02,-8.501082104940396733e-02,-8.138002015038671433e-02,-7.774921925136943357e-02,-7.411841835235220832e-02,-7.036241742233435847e-02,-6.673161652331709159e-02,-6.310081562429985247e-02,-5.947001472528258559e-02,-5.571401379526474962e-02,-5.208321289624749661e-02,-4.845241199723023667e-02,-4.482161109821298367e-02,-4.119081019919573067e-02,-3.743480926917788776e-02,-3.380400837016063476e-02,-3.017320747114338869e-02,-2.654240657212612875e-02,-2.278640564210827890e-02,-1.915560474309102243e-02,-1.552480384407377290e-02,-1.189400294505651989e-02,-8.263202046039263421e-03,-4.507201116021416175e-03,-8.764002170041649067e-04,2.754400682013088096e-03,6.385201581030340232e-03,7.136401767033910028e-03,7.136401767033910028e-03,7.136401767033910028e-03,7.136401767033910028e-03,7.136401767033910028e-03,7.136401767033910028e-03,7.136401767033910028e-03,7.136401767033910028e-03,7.136401767033910028e-03
-8.901722204142299699e-02,-8.901722204142299699e-02,-8.901722204142299699e-02,-8.901722204142299699e-02,-8.901722204142299699e-02,-8.901722204142299699e-02,-8.901722204142299699e-02,-8.901722204142299699e-02,-8.901722204142299699e-02,-8.901722204142299699e-02,-8.901722204142299699e-02,-8.701402154541347522e-02,-8.338322064639623610e-02,-7.975241974737896922e-02,-7.612161884836171621e-02,-7.249081794934446321e-02,-6.873481701932661336e-02,-6.510401612030936036e-02,-6.147321522129210736e-02,-5.784241432227485435e-02,-5.408641339225700451e-02,-5.045561249323975844e-02,-4.682481159422249850e-02,-4.319401069520524550e-02,-3.956320979618799250e-02,-3.580720886617015652e-02,-3.217640796715290352e-02,-2.854560706813565052e-02,-2.491480616911839058e-02,-2.115880523910054420e-02,-1.752800434008328773e-02,-1.389720344106603819e-02,-1.026640254204878519e-02,-6.635601643031531320e-03,-2.879600713013683207e-03,7.512001860035689288e-04,4.382001085020821932e-03,7.136401767033910028e-03,7.136401767033910028e-03,7.136401767033910028e-03,7.136401767033910028e-03,7.136401767033910028e-03,7.136401767033910028e-03,7.136401767033910028e-03,7.136401767033910028e-03,7.136401767033910028e-03,7.136401767033910028e-03
-8.901722204142299699e-02,-8.901722204142299699e-02,-8.901722204142299699e-02,-8.901722204142299699e-02,-8.901722204142298311e-02,-8.901722204142299699e-02,-8.901722204142299699e-02,-8.901722204142299699e-02,-8.901722204142299699e-02,-8.901722204142298311e-02,-8.901722204142299699e-02,-8.538642114240574399e-02,-8.175562024338850486e-02,-7.812481934437123798e-02,-7.449401844535398498e-02,-7.073801751533613513e-02,-6.710721661631889601e-02,-6.347641571730162913e-02,-5.984561481828437612e-02,-5.621481391926712312e-02,-5.245881298924928021e-02,-4.882801209023202027e-02,-4.519721119121476727e-02,-4.156641029219751426e-02,-3.781040936217966442e-02,-3.417960846316241835e-02,-3.054880756414516535e-02,-2.691800666512791235e-02,-2.328720576611065587e-02,-1.953120483609280950e-02,-1.590040393707555649e-02,-1.226960303805830349e-02,-8.638802139041050487e-03,-4.882801209023199772e-03,-1.252000310005950239e-03,2.378800589011302764e-03,6.009601488028555767e-03,7.136401767033910028e-03,7.136401767033910028e-03,7.136401767033910028e-03,7.136401767033910028e-03,7.136401767033910028e-03,7.136401767033910028e-03,7.136401767033910028e-03,7.136401767033910028e-03,7.136401767033910028e-03,7.136401767033910028e-03
-8.901722204142299699e-02,-8.901722204142299699e-02,-8.901722204142299699e-02,-8.901722204142299699e-02,-8.901722204142299699e-02,-8.901722204142299699e-02,-8.901722204142298311e-02,-8.901722204142299699e-02,-8.901722204142299699e-02,-8.901722204142299699e-02,-8.751482166941586260e-02,-8.375882073939801276e-02,-8.012801984038075975e-02,-7.649721894136350675e-02,-7.286641804234625375e-02,-6.911041711232841778e-02,-6.547961621331115090e-02,-6.184881531429389789e-02,-5.821801441527663101e-02,-5.458721351625939189e-02,-5.083121258624154204e-02,-4.720041168722428904e-02,-4.356961078820702910e-02,-3.993880988918978303e-02,-3.618280895917194012e-02,-3.255200806015468018e-02,-2.892120716113743412e-02,-2.529040626212018111e-02,-2.165960536310292811e-02,-1.790360443308507479e-02,-1.427280353406782179e-02,-1.064200263505057226e-02,-7.011201736033316652e-03,-3.255200806015468538e-03,3.756000930017844644e-04,4.006400992019036600e-03,7.136401767033910028e-03,7.136401767033910028e-03,7.136401767033910028e-03,7.136401767033910028e-03,7.136401767033910028e-03,7.136401767033910028e-03,7.136401767033910028e-03,7.136401767033910028e-03,7.136401767033910028e-03,7.136401767033910028e-03,7.136401767033910028e-03
-8.901722204142298311e-02,-8.901722204142299699e-02,-8.901722204142299699e-02,-8.901722204142299699e-02,-8.901722204142299699e-02,-8.901722204142299699e-02,-8.901722204142298311e-02,-8.901722204142299699e-02,-8.901722204142301087e-02,-8.901722204142299699e-02,-8.576202123540753453e-02,-8.213122033639026764e-02,-7.850041943737302852e-02,-7.486961853835576164e-02,-7.123881763933852251e-02,-6.748281670932067267e-02,-6.385201581030341966e-02,-6.022121491128616666e-02,-5.659041401226889978e-02,-5.295961311325166065e-02,-4.920361218323381081e-02,-4.557281128421655780e-02,-4.194201038519929786e-02,-3.831120948618205180e-02,-3.455520855616420195e-02,-3.092440765714694895e-02,-2.729360675812969594e-02,-2.366280585911244294e-02,-2.003200496009518647e-02,-1.627600403007734009e-02,-1.264520313106009056e-02,-9.014402232042837554e-03,-5.383601333025580214e-03,-1.627600403007733836e-03,2.003200496009518300e-03,5.634001395026771303e-03,7.136401767033910028e-03,7.136401767033910028e-03,7.136401767033910028e-03,7.136401767033910028e-03,7.136401767033910028e-03,7.136401767033910028e-03,7.136401767033910028e-03,7.136401767033910028e-03,7.136401767033910028e-03,7.136401767033910028e-03,7.136401767033910028e-03
-8.901722204142299699e-02,-8.901722204142299699e-02,-8.901722204142299699e-02,-8.901722204142299699e-02,-8.901722204142299699e-02,-8.901722204142299699e-02,-8.901722204142299699e-02,-8.901722204142301087e-02,-8.901722204142299699e-02,-8.789042176241763926e-02,-8.413442083239980329e-02,-8.050361993338255029e-02,-7.687281903436528341e-02,-7.324201813534804428e-02,-6.961121723633077740e-02,-6.585521630631294143e-02,-6.222441540729568843e-02,-5.859361450827843543e-02,-5.496281360926117548e-02,-5.120681267924333258e-02,-4.757601178022607263e-02,-4.394521088120881963e-02,-4.031440998219155969e-02,-3.668360908317431363e-02,-3.292760815315647072e-02,-2.929680725413921771e-02,-2.566600635512195777e-02,-2.203520545610470824e-02,-1.827920452608685839e-02,-1.464840362706960886e-02,-1.101760272805235585e-02,-7.386801829035100249e-03,-3.756000930017847246e-03,0.000000000000000000e+00,3.630800899017252135e-03,7.136401767033910028e-03,7.136401767033910028e-03,7.136401767033910028e-03,7.136401767033910028e-03,7.136401767033910028e-03,7.136401767033910028e-03,7.136401767033910028e-03,7.136401767033910028e-03,7.136401767033910028e-03,7.136401767033910028e-03,7.136401767033910028e-03,7.136401767033910028e-03
-8.901722204142299699e-02,-8.901722204142299699e-02,-8.901722204142299699e-02,-8.901722204142299699e-02,-8.901722204142299699e-02,-8.901722204142299699e-02,-8.901722204142299699e-02,-8.901722204142301087e-02,-8.901722204142299699e-02,-8.626282135940992191e-02,-8.250682042939207206e-02,-7.887601953037480518e-02,-7.524521863135755217e-02,-7.161441773234029917e-02,-6.798361683332306005e-02,-6.422761590330521020e-02,-6.059681500428794332e-02,-5.696601410527069032e-02,-5.333521320625344425e-02,-4.957921227623559440e-02,-4.594841137721834140e-02,-4.231761047820108146e-02,-3.868680957918382846e-02,-3.505600868016658239e-02,-3.130000775014873948e-02,-2.766920685113148648e-02,-2.403840595211422654e-02,-2.040760505309697354e-02,-1.665160412307912369e-02,-1.302080322406187068e-02,-9.390002325044621151e-03,-5.759201426027365546e-03,-2.128400527010114278e-03,1.627600403007733836e-03,5.258401302024985971e-03,7.136401767033910028e-03,7.136401767033910028e-03,7.136401767033910028e-03,7.136401767033910028e-03,7.136401767033910028e-03,7.136401767033910028e-03,7.136401767033910028e-03,7.136401767033910028e-03,7.136401767033910028e-03,7.136401767033910028e-03,7.136401767033910028e-03,7.136401767033910028e-03
-8.901722204142298311e-02,-8.901722204142299699e-02,-8.901722204142299699e-02,-8.901722204142299699e-02,-8.901722204142299699e-02,-8.901722204142299699e-02,-8.901722204142299699e-02,-8.901722204142299699e-02,-8.826602185541942980e-02,-8.463522095640217680e-02,-8.087922002638432695e-02,-7.724841912736707394e-02,-7.361761822834983482e-02,-6.998681732933256794e-02,-6.623081639931473197e-02,-6.260001550029746509e-02,-5.896921460128021208e-02,-5.533841370226296602e-02,-5.170761280324570608e-02,-4.795161187322785623e-02,-4.432081097421060323e-02,-4.069001007519335023e-02,-3.705920917617610416e-02,-3.330320824615826125e-02,-2.967240734714100131e-02,-2.604160644812374831e-02,-2.241080554910649184e-02,-1.878000465008923536e-02,-1.502400372007139245e-02,-1.139320282105413945e-02,-7.762401922036885581e-03,-4.131601023019632578e-03,-3.756000930017853318e-04,3.255200806015467237e-03,6.886001705032719807e-03,7.136401767033910028e-03,7.136401767033910028e-03,7.136401767033910028e-03,7.136401767033910028e-03,7.136401767033910028e-03,7.136401767033910028e-03,7.136401767033910028e-03,7.136401767033910028e-03,7.136401767033910028e-03,7.136401767033910028e-03,7.136401767033910028e-03,7.136401767033910028e-03
-8.901722204142299699e-02,-8.901722204142299699e-02,-8.901722204142299699e-02,-8.901722204142299699e-02,-8.901722204142299699e-02,-8.901722204142301087e-02,-8.901722204142299699e-02,-8.901722204142299699e-02,-8.663842145241169856e-02,-8.300762055339443168e-02,-7.925161962337659571e-02,-7.562081872435934271e-02,-7.199001782534208971e-02,-6.835921692632483671e-02,-6.460321599630698686e-02,-6.097241509728973385e-02,-5.734161419827248085e-02,-5.371081329925523479e-02,-5.008001240023797485e-02,-4.632401147022013194e-02,-4.269321057120286506e-02,-3.906240967218561899e-02,-3.543160877316837293e-02,-3.167560784315052308e-02,-2.804480694413327008e-02,-2.441400604511601014e-02,-2.078320514609875713e-02,-1.715240424708150413e-02,-1.339640331706366122e-02,-9.765602418046404748e-03,-6.134801519029150878e-03,-2.504000620011899610e-03,1.252000310005948504e-03,4.882801209023201507e-03,7.136401767033910028e-03,7.136401767033910028e-03,7.136401767033910028e-03,7.136401767033910028e-03,7.136401767033910028e-03,7.136401767033910028e-03,7.136401767033910028e-03,7.136401767033910028e-03,7.136401767033910028e-03,7.136401767033910028e-03,7.136401767033910028e-03,7.136401767033910028e-03,7.136401767033910028e-03
-8.901722204142299699e-02,-8.901722204142299699e-02,-8.901722204142301087e-02,-8.901722204142299699e-02,-8.901722204142299699e-02,-8.901722204142299699e-02,-8.901722204142299699e-02,-8.864162194842122033e-02,-8.501082104940395345e-02,-8.138002015038671433e-02,-7.762401922036885060e-02,-7.399321832135159760e-02,-7.036241742233434460e-02,-6.673161652331709159e-02,-6.297561559329925562e-02,-5.934481469428200262e-02,-5.571401379526473574e-02,-5.208321289624749661e-02,-4.845241199723024361e-02,-4.469641106721238683e-02,-4.106561016819512688e-02,-3.743480926917789470e-02,-3.380400837016063476e-02,-3.004800744014278491e-02,-2.641720654112553190e-02,-2.278640564210827890e-02,-1.915560474309102590e-02,-1.552480384407377290e-02,-1.176880291405592305e-02,-8.138002015038670045e-03,-4.507201116021417910e-03,-8.764002170041649067e-04,2.879600713013682339e-03,6.510401612030935342e-03,7.136401767033910028e-03,7.136401767033910028e-03,7.136401767033910028e-03,7.136401767033910028e-03,7.136401767033910028e-03,7.136401767033910028e-03,7.136401767033910028e-03,7.136401767033910028e-03,7.136401767033910028e-03,7.136401767033910028e-03,7.136401767033910028e-03,7.136401767033910028e-03,7.136401767033910028e-03
-8.300762055339444556e-02,-8.901722204142299699e-02,-8.901722204142298311e-02,-8.901722204142298311e-02,-8.901722204142298311e-02,-8.901722204142299699e-02,-8.901722204142299699e-02,-8.701402154541347522e-02,-8.338322064639623610e-02,-7.962721971637837237e-02,-7.599641881736111937e-02,-7.236561791834388024e-02,-6.873481701932661336e-02,-6.510401612030936036e-02,-6.134801519029151051e-02,-5.771721429127425751e-02,-5.408641339225701838e-02,-5.045561249323975150e-02,-4.669961156322191553e-02,-4.306881066420465559e-02,-3.943800976518739565e-02,-3.580720886617014959e-02,-3.217640796715290352e-02,-2.842040703713505367e-02,-2.478960613811779373e-02,-2.115880523910054420e-02,-1.752800434008328773e-02,-1.377200341006544135e-02,-1.014120251104818834e-02,-6.510401612030936210e-03,-2.879600713013683207e-03,7.512001860035689288e-04,4.507201116021417042e-03,7.136401767033910028e-03,7.136401767033910028e-03,7.136401767033910028e-03,7.136401767033910028e-03,7.136401767033910028e-03,7.136401767033910028e-03,7.136401767033910028e-03,7.136401767033910028e-03,7.136401767033910028e-03,7.136401767033910028e-03,7.136401767033910028e-03,7.136401767033910028e-03,7.136401767033910028e-03,7.136401767033910028e-03
7.136401767033910028e-03,-3.192600790515170983e-02,-7.399321832135159760e-02,-8.901722204142299699e-02,-8.901722204142299699e-02,-8.901722204142299699e-02,-8.901722204142299699e-02,-8.538642114240575787e-02,-8.175562024338850486e-02,-7.799961931337062726e-02,-7.436881841435338814e-02,-7.073801751533614901e-02,-6.710721661631889601e-02,-6.347641571730162913e-02,-5.972041478728379316e-02,-5.608961388826652628e-02,-5.245881298924928715e-02,-4.882801209023202027e-02,-4.507201116021417736e-02,-4.144121026119691048e-02,-3.781040936217967136e-02,-3.417960846316241835e-02,-3.054880756414516535e-02,-2.679280663412732244e-02,-2.316200573511006250e-02,-1.953120483609280950e-02,-1.590040393707555649e-02,-1.214440300705771011e-02,-8.513602108040457112e-03,-4.882801209023201507e-03,-1.252000310005950239e-03,2.378800589011303632e-03,6.134801519029150878e-03,7.136401767033910028e-03,7.136401767033910028e-03,7.136401767033910028e-03,7.136401767033910028e-03,7.136401767033910028e-03,7.136401767033910028e-03,7.136401767033910028e-03,7.136401767033910028e-03,7.136401767033910028e-03,7.136401767033910028e-03,7.136401767033910028e-03,7.136401767033910028e-03,7.136401767033910028e-03,7.136401767033910028e-03
7.136401767033910028e-03,7.136401767033910028e-03,7.136401767033910028e-03,-2.291160567310887575e-02,-6.197401534529449474e-02,-8.901722204142299699e-02,-8.738962163841526576e-02,-8.375882073939802663e-02,-8.012801984038074588e-02,-7.637201891036289603e-02,-7.274121801134565690e-02,-6.911041711232840390e-02,-6.547961621331115090e-02,-6.172361528329330105e-02,-5.809281438427604805e-02,-5.446201348525879504e-02,-5.083121258624154204e-02,-4.720041168722428904e-02,-4.344441075720643919e-02,-3.981360985818918619e-02,-3.618280895917194012e-02,-3.255200806015468712e-02,-2.879600713013683727e-02,-2.516520623111957733e-02,-2.153440533210232780e-02,-1.790360443308507479e-02,-1.427280353406782179e-02,-1.051680260404997541e-02,-6.886001705032721541e-03,-3.255200806015466804e-03,3.756000930017844644e-04,4.006400992019036600e-03,7.136401767033910028e-03,7.136401767033910028e-03,7.136401767033910028e-03,7.136401767033910028e-03,7.136401767033910028e-03,7.136401767033910028e-03,7.136401767033910028e-03,7.136401767033910028e-03,7.136401767033910028e-03,7.136401767033910028e-03,7.136401767033910028e-03,7.136401767033910028e-03,7.136401767033910028e-03,7.136401767033910028e-03,7.136401767033910028e-03
7.136401767033910028e-03,7.136401767033910028e-03,7.136401767033910028e-03,7.136401767033910028e-03,7.136401767033910028e-03,-1.389720344106603819e-02,-5.092511260949199314e-02,-8.213122033639026764e-02,-7.850041943737302852e-02,-7.474441850735517867e-02,-7.111361760833792567e-02,-6.748281670932067267e-02,-6.385201581030341966e-02,-6.009601488028556981e-02,-5.646521398126830293e-02,-5.283441308225106381e-02,-4.920361218323381081e-02,-4.557281128421655780e-02,-4.181681035419869408e-02,-3.818600945518145495e-02,-3.455520855616420889e-02,-3.092440765714695589e-02,-2.716840672712909910e-02,-2.353760582811184263e-02,-1.990680492909459309e-02,-1.627600403007734009e-02,-1.264520313106009056e-02,-8.889202201042240709e-03,-5.258401302024986838e-03,-1.627600403007733836e-03,2.003200496009518300e-03,5.759201426027365546e-03,7.136401767033910028e-03,7.136401767033910028e-03,7.136401767033910028e-03,7.136401767033910028e-03,7.136401767033910028e-03,7.136401767033910028e-03,7.136401767033910028e-03,7.136401767033910028e-03,7.136401767033910028e-03,7.136401767033910028e-03,7.136401767033910028e-03,7.136401767033910028e-03,7.136401767033910028e-03,7.136401767033910028e-03,7.136401767033910028e-03
7.136401767033910028e-03,7.136401767033910028e-03,7.136401767033910028e-03,7.136401767033910028e-03,7.136401767033910028e-03,7.136401767033910028e-03,7.136401767033910028e-03,-3.818600945518145669e-03,-3.749349678370941102e-02,-6.810099186238610658e-02,-6.948601720533018056e-02,-6.585521630631294143e-02,-6.222441540729568843e-02,-5.846841447727783858e-02,-5.483761357826057864e-02,-5.120681267924333258e-02,-4.757601178022607263e-02,-4.394521088120881963e-02,-4.018920995119096284e-02,-3.655840905217372372e-02,-3.292760815315647072e-02,-2.929680725413921771e-02,-2.554080632412136787e-02,-2.191000542510411486e-02,-1.827920452608686186e-02,-1.464840362706960886e-02,-1.101760272805235585e-02,-7.261601798034505138e-03,-3.630800899017252135e-03,0.000000000000000000e+00,3.630800899017252135e-03,7.136401767033910028e-03,7.136401767033910028e-03,7.136401767033910028e-03,7.136401767033910028e-03,7.136401767033910028e-03,7.136401767033910028e-03,7.136401767033910028e-03,7.136401767033910028e-03,7.136401767033910028e-03,7.136401767033910028e-03,7.136401767033910028e-03,7.136401767033910028e-03,7.136401767033910028e-03,7.136401767033910028e-03,7.136401767033910028e-03,7.136401767033910028e-03
7.136401767033910028e-03,7.136401767033910028e-03,7.136401767033910028e-03,7.136401767033910028e-03,7.136401767033910028e-03,7.136401767033910028e-03,7.136401767033910028e-03,7.136401767033910028e-03,7.136401767033910028e-03,4.679351158647234235e-03,-2.567383135705950115e-02,-5.307698814231472106e-02,-6.059681500428794332e-02,-5.684081407427009347e-02,-5.321001317525284741e-02,-4.957921227623560134e-02,-4.594841137721834140e-02,-4.219241044720048461e-02,-3.856160954818324549e-02,-3.493080864916599249e-02,-3.130000775014873948e-02,-2.766920685113148648e-02,-2.391320592111362969e-02,-2.028240502209638016e-02,-1.665160412307912369e-02,-1.302080322406187762e-02,-9.264802294044027775e-03,-5.634001395026770435e-03,-2.003200496009519167e-03,1.627600403007733836e-03,5.258401302024985971e-03,7.136401767033910028e-03,7.136401767033910028e-03,7.136401767033910028e-03,7.136401767033910028e-03,7.136401767033910028e-03,7.136401767033910028e-03,7.136401767033910028e-03,7.136401767033910028e-03,7.136401767033910028e-03,7.136401767033910028e-03,7.136401767033910028e-03,7.136401767033910028e-03,7.136401767033910028e-03,7.136401767033910028e-03,7.136401767033910028e-03,7.136401767033910028e-03
7.136401767033910028e-03,7.136401767033910028e-03,7.136401767033910028e-03,7.136401767033910028e-03,7.136401767033910028e-03,7.136401767033910028e-03,7.136401767033910028e-03,7.136401767033910028e-03,7.136401767033910028e-03,7.136401767033910028e-03,7.136401767033910028e-03,7.136401767033910028e-03,-1.558740385957407132e-02,-3.962580981168829786e-02,-5.158241277224510923e-02,-4.795161187322785623e-02,-4.432081097421060323e-02,-4.056481004419275338e-02,-3.693400914517550732e-02,-3.330320824615825431e-02,-2.967240734714100825e-02,-2.604160644812374831e-02,-2.228560551810589846e-02,-1.865480461908864199e-02,-1.502400372007139245e-02,-1.139320282105413945e-02,-7.637201891036288735e-03,-4.006400992019037467e-03,-3.756000930017844644e-04,3.255200806015467671e-03,6.886001705032719807e-03,7.136401767033910028e-03,7.136401767033910028e-03,7.136401767033910028e-03,7.136401767033910028e-03,7.136401767033910028e-03,7.136401767033910028e-03,7.136401767033910028e-03,7.136401767033910028e-03,7.136401767033910028e-03,7.136401767033910028e-03,7.136401767033910028e-03,7.136401767033910028e-03,7.136401767033910028e-03,7.136401767033910028e-03,7.136401767033910028e-03,7.136401767033910028e-03
7.136401767033910028e-03,7.136401767033910028e-03,7.136401767033910028e-03,7.136401767033910028e-03,7.136401767033910028e-03,7.136401767033910028e-03,7.136401767033910028e-03,7.136401767033910028e-03,7.136401767033910028e-03,7.136401767033910028e-03,7.136401767033910028e-03,7.136401767033910028e-03,7.136401767033910028e-03,7.136401767033910028e-03,-7.136401767033911762e-03,-2.794699441991405076e-02,-4.269321057120287199e-02,-3.893720964118502215e-02,-3.530640874216777608e-02,-3.167560784315052308e-02,-2.804480694413327008e-02,-2.428880601411541329e-02,-2.065800511509816723e-02,-1.702720421608090728e-02,-1.339640331706366122e-02,-9.765602418046404748e-03,-6.009601488028555767e-03,-2.378800589011304499e-03,1.252000310005948504e-03,4.882801209023201507e-03,7.136401767033910028e-03,7.136401767033910028e-03,7.136401767033910028e-03,7.136401767033910028e-03,7.136401767033910028e-03,7.136401767033910028e-03,7.136401767033910028e-03,7.136401767033910028e-03,7.136401767033910028e-03,7.136401767033910028e-03,7.136401767033910028e-03,7.136401767033910028e-03,7.136401767033910028e-03,7.136401767033910028e-03,7.136401767033910028e-03,7.136401767033910028e-03,7.136401767033910028e-03
7.136401767033910028e-03,7.136401767033910028e-03,7.136401767033910028e-03,7.136401767033910028e-03,7.136401767033910028e-03,7.136401767033910028e-03,7.136401767033910028e-03,7.136401767033910028e-03,7.136401767033910028e-03,7.136401767033910028e-03,7.136401767033910028e-03,7.136401767033910028e-03,7.136401767033910028e-03,7.136401767033910028e-03,7.136401767033910028e-03,7.136401767033910028e-03,-3.951625978456272878e-04,-1.786447942339739262e-02,-3.240333302334147403e-02,-3.004800744014279185e-02,-2.641720654112553190e-02,-2.266120561110768206e-02,-1.903040471209042905e-02,-1.539960381307317605e-02,-1.176880291405592305e-02,-8.138002015038670045e-03,-4.382001085020822799e-03,-7.512001860035697962e-04,2.879600713013683207e-03,6.510401612030935342e-03,7.136401767033910028e-03,7.136401767033910028e-03,7.136401767033910028e-03,7.136401767033910028e-03,7.136401767033910028e-03,7.136401767033910028e-03,7.136401767033910028e-03,7.136401767033910028e-03,7.136401767033910028e-03,7.136401767033910028e-03,7.136401767033910028e-03,7.136401767033910028e-03,7.136401767033910028e-03,7.136401767033910028e-03,7.136401767033910028e-03,7.136401767033910028e-03,7.136401767033910028e-03
