3.201682831961999692e-03,3.201682831961999692e-03,3.201682831961999692e-03,3.201682831961999692e-03,3.201682831961999692e-03,3.201682831961999692e-03,3.201682831961999692e-03,3.201682831961999692e-03,3.201682831961999692e-03,3.201682831961999692e-03,3.201682831961999692e-03,3.201682831961999692e-03,3.201682831961999692e-03,3.201682831961999692e-03,3.201682831961999692e-03,2.813600064451454025e-03,-2.910620756329091417e-04,-3.298703523839637084e-03,-6.306344972046363725e-03,-9.313986420253089066e-03,-1.241864856033745440e-02,-1.542629000854418148e-02,-1.843393145675090855e-02,-2.144157290495763563e-02,-2.444921435316436270e-02,-2.755387649324872804e-02,-2.739621786894757063e-02,-2.027732460242600079e-02,-1.280673132784800050e-02,-5.336138053270000209e-03,2.134455221307999650e-03,3.201682831961999692e-03,3.201682831961999692e-03,3.201682831961999692e-03,3.201682831961999692e-03,3.201682831961999692e-03,3.201682831961999692e-03,3.201682831961999692e-03,3.201682831961999692e-03,3.201682831961999692e-03,3.201682831961999692e-03,3.201682831961999692e-03,3.201682831961999692e-03,3.201682831961999692e-03,3.201682831961999692e-03,3.201682831961999692e-03,3.201682831961999692e-03
3.201682831961999692e-03,3.201682831961999692e-03,3.201682831961999692e-03,3.201682831961999692e-03,3.201682831961999692e-03,3.201682831961999692e-03,3.201682831961999692e-03,3.201682831961999692e-03,3.201682831961999692e-03,3.201682831961999692e-03,3.201682831961999692e-03,3.201682831961999692e-03,3.201682831961999692e-03,3.201682831961999692e-03,3.201682831961999692e-03,2.134455221307999650e-03,-9.702069187763639503e-04,-3.977848366983090592e-03,-6.985489815189819401e-03,-9.993131263396544742e-03,-1.309779340348090834e-02,-1.610543485168763542e-02,-1.911307629989436249e-02,-2.212071774810108957e-02,-2.512835919630781664e-02,-2.823302133639217851e-02,-3.094960070896600121e-02,-3.094960070896600121e-02,-3.094960070896600121e-02,-3.094960070896600121e-02,-3.094960070896600121e-02,-2.347900743438800092e-02,-1.600841415981000063e-02,-8.537820885232000334e-03,-1.067227610654000475e-03,3.201682831961999692e-03,3.201682831961999692e-03,3.201682831961999692e-03,3.201682831961999692e-03,3.201682831961999692e-03,3.201682831961999692e-03,3.201682831961999692e-03,3.201682831961999692e-03,3.201682831961999692e-03,3.201682831961999692e-03,3.201682831961999692e-03,3.201682831961999692e-03
3.201682831961999692e-03,3.201682831961999692e-03,3.201682831961999692e-03,3.201682831961999692e-03,3.201682831961999692e-03,3.201682831961999692e-03,3.201682831961999692e-03,3.201682831961999692e-03,3.201682831961999692e-03,3.201682831961999692e-03,3.201682831961999692e-03,3.201682831961999692e-03,3.201682831961999692e-03,3.201682831961999692e-03,3.201682831961999692e-03,1.358289686286908750e-03,-1.649351761919818759e-03,-4.656993210126546268e-03,-7.664634658333271608e-03,-1.067227610654000042e-02,-1.377693824662436575e-02,-1.678457969483109283e-02,-1.979222114303781990e-02,-2.279986259124454351e-02,-2.580750403945127405e-02,-2.891216617953563592e-02,-3.094960070896600121e-02,-3.094960070896600121e-02,-3.094960070896600121e-02,-3.094960070896600121e-02,-3.094960070896600121e-02,-3.094960070896600121e-02,-3.094960070896600121e-02,-3.094960070896600121e-02,-3.094960070896600121e-02,-2.668069026635000104e-02,-1.921009699177200075e-02,-1.173950371719400046e-02,-4.268910442616000167e-03,3.201682831961999692e-03,3.201682831961999692e-03,3.201682831961999692e-03,3.201682831961999692e-03,3.201682831961999692e-03,3.201682831961999692e-03,3.201682831961999692e-03,3.201682831961999692e-03
3.201682831961999692e-03,3.201682831961999692e-03,3.201682831961999692e-03,3.201682831961999692e-03,3.201682831961999692e-03,3.201682831961999692e-03,3.201682831961999692e-03,3.201682831961999692e-03,3.201682831961999692e-03,3.201682831961999692e-03,3.201682831961999692e-03,3.201682831961999692e-03,3.201682831961999692e-03,3.201682831961999692e-03,3.201682831961999692e-03,6.791448431434543749e-04,-2.328496605063272700e-03,-5.336138053269998474e-03,-8.343779501476727284e-03,-1.135142094968345609e-02,-1.445608308976781622e-02,-1.746372453797454677e-02,-2.047136598618127384e-02,-2.347900743438800439e-02,-2.658366957447236278e-02,-2.959131102267908639e-02,-3.094960070896600121e-02,-3.094960070896600121e-02,-3.094960070896600121e-02,-3.094960070896600121e-02,-3.094960070896600121e-02,-3.094960070896600121e-02,-3.094960070896600121e-02,-3.094960070896600121e-02,-3.094960070896600121e-02,-3.094960070896600121e-02,-3.094960070896600121e-02,-3.094960070896600121e-02,-3.094960070896600121e-02,-2.988237309831199770e-02,-2.241177982373400088e-02,-1.494118654915600058e-02,-7.280016915532643018e-03,5.145561694224636863e-04,3.201682831961999692e-03,3.201682831961999692e-03,3.201682831961999692e-03
3.201682831961999692e-03,3.201682831961999692e-03,3.201682831961999692e-03,3.201682831961999692e-03,3.201682831961999692e-03,3.201682831961999692e-03,3.201682831961999692e-03,3.201682831961999692e-03,3.201682831961999692e-03,3.201682831961999692e-03,3.201682831961999692e-03,3.201682831961999692e-03,3.201682831961999692e-03,3.201682831961999692e-03,3.104662140084363166e-03,0.000000000000000000e+00,-3.007641448206727509e-03,-6.015282896413454150e-03,-9.022924344620181225e-03,-1.203056579282691003e-02,-1.513522793291127364e-02,-1.814286938111800418e-02,-2.115051082932472779e-02,-2.415815227753145139e-02,-2.726281441761582020e-02,-3.027045586582255074e-02,-3.094960070896600121e-02,-3.094960070896600121e-02,-3.094960070896600121e-02,-3.094960070896600121e-02,-3.094960070896600121e-02,-3.094960070896600121e-02,-3.094960070896600121e-02,-3.094960070896600121e-02,-3.094960070896600121e-02,-3.094960070896600121e-02,-3.094960070896600121e-02,-3.094960070896600121e-02,-3.094960070896600121e-02,-3.094960070896600121e-02,-3.094960070896600121e-02,-3.094960070896600121e-02,-2.927252874936685581e-02,-2.439377395780571375e-02,-1.609417352138041088e-02,-8.137610531236750752e-03,-2.248801036735215055e-03
3.201682831961999692e-03,3.201682831961999692e-03,3.201682831961999692e-03,3.201682831961999692e-03,3.201682831961999692e-03,3.201682831961999692e-03,3.201682831961999692e-03,3.201682831961999692e-03,3.201682831961999692e-03,3.201682831961999692e-03,3.201682831961999692e-03,3.201682831961999692e-03,3.201682831961999692e-03,3.201682831961999692e-03,2.425517296940908792e-03,-6.791448431434543749e-04,-3.686786291350181450e-03,-6.694427739556908091e-03,-9.702069187763635166e-03,-1.270971063597036224e-02,-1.581437277605472758e-02,-1.882201422426145812e-02,-2.182965567246818173e-02,-2.483729712067491227e-02,-2.794195926075927414e-02,-3.094960070896600121e-02,-3.094960070896599427e-02,-3.094960070896600121e-02,-3.094960070896600121e-02,-3.094960070896600121e-02,-3.094960070896600121e-02,-3.094960070896600121e-02,-3.094960070896600121e-02,-3.094960070896600121e-02,-3.094960070896600121e-02,-3.094960070896600121e-02,-3.094960070896600121e-02,-3.094960070896600121e-02,-3.094960070896600121e-02,-3.094960070896600121e-02,-3.094960070896600121e-02,-3.094960070896600121e-02,-2.820530113871285924e-02,-2.332654634715171371e-02,-1.860025264282685539e-02,-1.387395893850200054e-02,-9.147665234177143959e-03
3.201682831961999692e-03,3.201682831961999692e-03,3.201682831961999692e-03,3.201682831961999692e-03,3.201682831961999692e-03,3.201682831961999692e-03,3.201682831961999692e-03,3.201682831961999692e-03,3.201682831961999692e-03,3.201682831961999692e-03,3.201682831961999692e-03,3.201682831961999692e-03,3.201682831961999692e-03,3.201682831961999692e-03,1.746372453797454417e-03,-1.358289686286908316e-03,-4.365931134493636692e-03,-7.373572582700362033e-03,-1.038121403090709084e-02,-1.348587617099145444e-02,-1.649351761919818499e-02,-1.950115906740490859e-02,-2.250880051561163567e-02,-2.551644196381836274e-02,-2.862110410390272461e-02,-3.094960070896600121e-02,-3.094960070896600121e-02,-3.094960070896600121e-02,-3.094960070896600121e-02,-3.094960070896600121e-02,-3.094960070896600121e-02,-3.094960070896600121e-02,-3.094960070896600121e-02,-3.094960070896600121e-02,-3.094960070896600121e-02,-3.094960070896599427e-02,-3.094960070896600121e-02,-3.094960070896600121e-02,-3.094960070896600121e-02,-3.094960070896600121e-02,-3.094960070896600121e-02,-3.094960070896600121e-02,-2.698561244082256852e-02,-2.225931873649771367e-02,-1.753302503217285882e-02,-1.280673132784800050e-02,-8.080437623523142182e-03
3.201682831961999692e-03,3.201682831961999692e-03,3.201682831961999692e-03,3.201682831961999692e-03,3.201682831961999692e-03,3.201682831961999692e-03,-2.635320057897613463e-02,-2.635320057897613463e-02,-2.635320057897613463e-02,3.201682831961999692e-03,3.201682831961999692e-03,3.201682831961999692e-03,3.201682831961999692e-03,3.201682831961999692e-03,1.067227610653999608e-03,-2.037434529430363992e-03,-5.045075977637090633e-03,-8.052717425843817708e-03,-1.106035887405054652e-02,-1.416502101413491185e-02,-1.717266246234163893e-02,-2.018030391054836600e-02,-2.318794535875508961e-02,-2.619558680696182015e-02,-2.930024894704618202e-02,-3.094960070896600121e-02,-3.094960070896600121e-02,-3.094960070896600121e-02,-3.094960070896600121e-02,-3.094960070896600121e-02,-3.094960070896600121e-02,-3.094960070896600121e-02,-3.094960070896600121e-02,-3.094960070896600121e-02,-3.094960070896600121e-02,-3.094960070896600121e-02,-3.094960070896600121e-02,-3.094960070896600121e-02,-3.094960070896600121e-02,-3.094960070896600121e-02,-3.094960070896600121e-02,-3.079713962172971400e-02,-2.591838483016857542e-02,-2.119209112584371363e-02,-1.646579742151885531e-02,-1.173950371719400219e-02,-7.013210012869142140e-03
3.201682831961999692e-03,3.201682831961999692e-03,3.201682831961999692e-03,3.201682831961999692e-03,3.201682831961999692e-03,3.201682831961999692e-03,-2.635320057897613463e-02,-2.635320057897613463e-02,-2.635320057897613463e-02,3.201682831961999692e-03,3.201682831961999692e-03,3.201682831961999692e-03,3.201682831961999692e-03,3.201682831961999692e-03,2.910620756329087080e-04,-2.716579372573818801e-03,-5.724220820780546309e-03,-8.731862268987271650e-03,-1.173950371719399872e-02,-1.484416585727836232e-02,-1.785180730548509287e-02,-2.085944875369181994e-02,-2.386709020189854702e-02,-2.687473165010527409e-02,-2.997939379018963249e-02,-3.094960070896600121e-02,-3.094960070896600121e-02,-3.094960070896600121e-02,-3.094960070896600121e-02,-3.094960070896600121e-02,-3.094960070896600121e-02,-3.094960070896600121e-02,-3.094960070896600121e-02,-3.094960070896600121e-02,-3.094960070896600121e-02,-3.094960070896600121e-02,-3.094960070896600121e-02,-3.094960070896600121e-02,-3.094960070896600121e-02,-3.094960070896600121e-02,-3.094960070896600121e-02,-2.972991201107571743e-02,-2.485115721951457537e-02,-2.012486351518971359e-02,-1.539856981086485874e-02,-1.067227610654000042e-02,-5.945982402215142099e-03
3.201682831961999692e-03,3.201682831961999692e-03,3.201682831961999692e-03,3.201682831961999692e-03,3.201682831961999692e-03,3.201682831961999692e-03,-2.635320057897613463e-02,-2.635320057897613463e-02,-2.635320057897613463e-02,3.201682831961999692e-03,3.201682831961999692e-03,3.201682831961999692e-03,3.201682831961999692e-03,2.716579372573817933e-03,-3.880827675105456669e-04,-3.395724215717273609e-03,-6.403365663924000251e-03,-9.411007112130727326e-03,-1.241864856033745267e-02,-1.552331070042181627e-02,-1.853095214862854681e-02,-2.153859359683527042e-02,-2.454623504504200096e-02,-2.765089718512636283e-02,-3.065853863333308990e-02,-3.094960070896600121e-02,-3.094960070896600121e-02,-3.094960070896600121e-02,-3.094960070896600121e-02,-3.094960070896600121e-02,-3.094960070896600121e-02,-3.094960070896600121e-02,-3.094960070896600121e-02,-3.094960070896600121e-02,-3.094960070896600121e-02,-3.094960070896600121e-02,-3.094960070896600121e-02,-3.094960070896600121e-02,-3.094960070896600121e-02,-3.094960070896600121e-02,-3.094960070896600121e-02,-2.866268440042171392e-02,-2.378392960886057186e-02,-1.905763590453571701e-02,-1.433134220021085870e-02,-9.605048495886000376e-03,-4.726293704324856584e-03
3.201682831961999692e-03,3.201682831961999692e-03,3.201682831961999692e-03,3.201682831961999692e-03,3.201682831961999692e-03,3.201682831961999692e-03,3.201682831961999692e-03,3.201682831961999692e-03,3.201682831961999692e-03,3.201682831961999692e-03,3.201682831961999692e-03,3.201682831961999692e-03,3.201682831961999692e-03,2.037434529430363558e-03,-1.067227610654000475e-03,-4.074869058860727117e-03,-7.082510507067454192e-03,-1.009015195527418127e-02,-1.309779340348090834e-02,-1.620245554356527021e-02,-1.921009699177200075e-02,-2.221773843997872436e-02,-2.522537988818545490e-02,-2.833004202826982024e-02,-3.094960070896600121e-02,-3.094960070896600121e-02,-3.094960070896600121e-02,-3.094960070896600121e-02,-3.094960070896600121e-02,-3.094960070896600121e-02,-3.094960070896599427e-02,-3.094960070896600121e-02,-3.094960070896600121e-02,-3.094960070896600121e-02,-3.094960070896600121e-02,-3.094960070896600121e-02,-3.094960070896600121e-02,-3.094960070896600121e-02,-3.094960070896600121e-02,-3.094960070896600121e-02,-3.094960070896600121e-02,-2.759545678976771735e-02,-2.271670199820657182e-02,-1.799040829388171350e-02,-1.326411458955685865e-02,-8.537820885232002069e-03,-3.659066093670857844e-03
3.201682831961999692e-03,3.201682831961999692e-03,3.201682831961999692e-03,3.201682831961999692e-03,3.201682831961999692e-03,3.201682831961999692e-03,3.201682831961999692e-03,3.201682831961999692e-03,3.201682831961999692e-03,3.201682831961999692e-03,3.201682831961999692e-03,3.201682831961999692e-03,3.201682831961999692e-03,1.358289686286908750e-03,-1.746372453797454417e-03,-4.754013902004182793e-03,-7.761655350210908133e-03,-1.076929679841763694e-02,-1.377693824662436228e-02,-1.688160038670872415e-02,-1.988924183491545469e-02,-2.289688328312218177e-02,-2.590452473132891231e-02,-2.900918687141327765e-02,-3.094960070896600121e-02,-3.094960070896600121e-02,-3.094960070896600121e-02,-3.094960070896600121e-02,-3.094960070896600121e-02,-3.094960070896600121e-02,-3.094960070896600121e-02,-3.094960070896600121e-02,-3.094960070896600121e-02,-3.094960070896600121e-02,-3.094960070896600121e-02,-3.094960070896600121e-02,-3.094960070896600121e-02,-3.094960070896600121e-02,-3.094960070896600121e-02,-3.094960070896599427e-02,-3.094960070896600121e-02,-2.652822917911371731e-02,-2.164947438755257525e-02,-1.692318068322771346e-02,-1.219688697890285861e-02,-7.470593274578002027e-03,-2.591838483016857802e-03
3.201682831961999692e-03,3.201682831961999692e-03,3.201682831961999692e-03,3.201682831961999692e-03,3.201682831961999692e-03,3.201682831961999692e-03,3.201682831961999692e-03,3.201682831961999692e-03,3.201682831961999692e-03,3.201682831961999692e-03,3.201682831961999692e-03,3.201682831961999692e-03,3.201682831961999692e-03,6.791448431434543749e-04,-2.425517296940909225e-03,-5.433158745147636734e-03,-8.440800193354363809e-03,-1.144844164156109088e-02,-1.455310378164545448e-02,-1.756074522985218503e-02,-2.056838667805890863e-02,-2.357602812626563571e-02,-2.658366957447236625e-02,-2.968833171455672812e-02,-3.094960070896600121e-02,-3.094960070896600121e-02,-3.094960070896600121e-02,-3.094960070896600121e-02,-3.094960070896600121e-02,-3.094960070896600121e-02,-3.094960070896600121e-02,-3.094960070896600121e-02,-3.094960070896600121e-02,-3.094960070896600121e-02,-3.094960070896600121e-02,-3.094960070896600121e-02,-3.094960070896600121e-02,-3.094960070896600121e-02,-3.094960070896600121e-02,-3.094960070896600121e-02,-3.018729527278457211e-02,-2.530854048122343006e-02,-2.058224677689857174e-02,-1.585595307257371342e-02,-1.112965936824885857e-02,-6.403365663924000251e-03,-1.524610872362856893e-03
3.201682831961999692e-03,3.201682831961999692e-03,3.201682831961999692e-03,3.201682831961999692e-03,3.201682831961999692e-03,3.201682831961999692e-03,3.201682831961999692e-03,3.201682831961999692e-03,3.201682831961999692e-03,3.201682831961999692e-03,3.201682831961999692e-03,3.201682831961999692e-03,3.007641448206727075e-03,0.000000000000000000e+00,-3.104662140084363166e-03,-6.112303588291090675e-03,-9.119945036497816016e-03,-1.212758648470454483e-02,-1.523224862478890843e-02,-1.823989007299564244e-02,-2.124753152120236604e-02,-2.425517296940908965e-02,-2.726281441761581673e-02,-3.036747655770017859e-02,-3.094960070896600121e-02,-3.094960070896600121e-02,-3.094960070896600121e-02,-3.094960070896600121e-02,-3.094960070896600121e-02,-3.094960070896600121e-02,-3.094960070896600121e-02,-3.094960070896600121e-02,-3.094960070896600121e-02,-3.094960070896600121e-02,-3.094960070896600121e-02,-3.094960070896600121e-02,-3.094960070896600121e-02,-3.094960070896600121e-02,-3.094960070896600121e-02,-3.094960070896600121e-02,-2.912006766213056860e-02,-2.424131287056942655e-02,-1.951501916624457170e-02,-1.478872546191971685e-02,-1.006243175759485853e-02,-5.336138053270000209e-03,-4.573832617088577183e-04
3.201682831961999692e-03,3.201682831961999692e-03,3.201682831961999692e-03,3.201682831961999692e-03,3.201682831961999692e-03,3.201682831961999692e-03,3.201682831961999692e-03,3.201682831961999692e-03,3.201682831961999692e-03,3.201682831961999692e-03,3.201682831961999692e-03,3.201682831961999692e-03,2.328496605063272266e-03,-6.791448431434548086e-04,-3.783806983227817975e-03,-6.791448431434544616e-03,-9.799089879641273426e-03,-1.280673132784800050e-02,-1.591139346793236237e-02,-1.891903491613909638e-02,-2.192667636434581999e-02,-2.493431781255254706e-02,-2.794195926075927067e-02,-3.094960070896600121e-02,-3.094960070896600121e-02,-3.094960070896599427e-02,-3.094960070896600121e-02,-3.094960070896600121e-02,-3.094960070896600121e-02,-3.094960070896600121e-02,-3.094960070896600121e-02,-3.094960070896600121e-02,-3.094960070896600121e-02,-3.094960070896600121e-02,-3.094960070896600121e-02,-3.094960070896600121e-02,-3.094960070896600121e-02,-3.094960070896600121e-02,-3.094960070896600121e-02,-3.094960070896600121e-02,-2.805284005147657897e-02,-2.317408525991542997e-02,-1.844779155559057165e-02,-1.372149785126571334e-02,-8.995204146940858486e-03,-4.268910442616000167e-03,6.098443489451427571e-04
3.201682831961999692e-03,3.201682831961999692e-03,3.201682831961999692e-03,3.201682831961999692e-03,3.201682831961999692e-03,3.201682831961999692e-03,3.201682831961999692e-03,3.201682831961999692e-03,3.201682831961999692e-03,3.201682831961999692e-03,3.201682831961999692e-03,3.201682831961999692e-03,1.649351761919817892e-03,-1.455310378164545709e-03,-4.462951826371273217e-03,-7.470593274578000292e-03,-1.047823472278472737e-02,-1.348587617099145444e-02,-1.659053831107581631e-02,-1.959817975928254338e-02,-2.260582120748927393e-02,-2.561346265569600100e-02,-2.862110410390272461e-02,-3.094960070896600121e-02,-3.094960070896600121e-02,-3.094960070896600121e-02,-3.094960070896600121e-02,-3.094960070896600121e-02,-3.094960070896600121e-02,-3.094960070896600121e-02,-3.094960070896600121e-02,-3.094960070896600121e-02,-3.094960070896600121e-02,-3.094960070896600121e-02,-3.094960070896599427e-02,-3.094960070896600121e-02,-3.094960070896600121e-02,-3.094960070896600121e-02,-3.094960070896600121e-02,-3.094960070896600121e-02,-2.698561244082257546e-02,-2.210685764926142646e-02,-1.738056394493657161e-02,-1.265427024061171329e-02,-7.927976536286858444e-03,-3.201682831961999692e-03,1.677071959599142582e-03
3.201682831961999692e-03,3.201682831961999692e-03,3.201682831961999692e-03,3.201682831961999692e-03,3.201682831961999692e-03,3.201682831961999692e-03,3.201682831961999692e-03,3.201682831961999692e-03,3.201682831961999692e-03,3.201682831961999692e-03,3.201682831961999692e-03,3.201682831961999692e-03,9.702069187763635166e-04,-2.134455221307999650e-03,-5.142096669514725424e-03,-8.149738117721454234e-03,-1.115737956592817957e-02,-1.416502101413490838e-02,-1.726968315421927372e-02,-2.027732460242600079e-02,-2.328496605063272787e-02,-2.629260749883945841e-02,-2.939726963892381681e-02,-3.094960070896600121e-02,-3.094960070896600121e-02,-3.094960070896600121e-02,-3.094960070896600121e-02,-3.094960070896600121e-02,-3.094960070896600121e-02,-3.094960070896600121e-02,-3.094960070896600121e-02,-3.094960070896600121e-02,-3.094960070896600121e-02,-3.094960070896600121e-02,-3.094960070896600121e-02,-3.094960070896600121e-02,-3.094960070896600121e-02,-3.094960070896600121e-02,-3.094960070896600121e-02,-3.064467853449342680e-02,-2.591838483016857195e-02,-2.103963003860742642e-02,-1.631333633428257157e-02,-1.158704262995771672e-02,-6.860748925632856668e-03,-1.981994134071714177e-03,2.744299570253142407e-03
3.201682831961999692e-03,3.201682831961999692e-03,3.201682831961999692e-03,3.201682831961999692e-03,3.201682831961999692e-03,3.201682831961999692e-03,3.201682831961999692e-03,3.201682831961999692e-03,3.201682831961999692e-03,3.201682831961999692e-03,3.201682831961999692e-03,3.201682831961999692e-03,2.910620756329091417e-04,-2.813600064451455326e-03,-5.821241512658182835e-03,-8.828882960864909910e-03,-1.183652440907163525e-02,-1.484416585727836579e-02,-1.794882799736272766e-02,-2.095646944556945127e-02,-2.396411089377617834e-02,-2.697175234198290888e-02,-3.007641448206727422e-02,-3.094960070896600121e-02,-3.094960070896600121e-02,-3.094960070896600121e-02,-3.094960070896600121e-02,-3.094960070896600121e-02,-3.094960070896600121e-02,-3.094960070896600121e-02,-3.094960070896600121e-02,-3.094960070896600121e-02,-3.094960070896600121e-02,-3.094960070896600121e-02,-3.094960070896600121e-02,-3.094960070896600121e-02,-3.094960070896600121e-02,-3.094960070896600121e-02,-3.094960070896600121e-02,-2.957745092383943022e-02,-2.485115721951457191e-02,-1.997240242795342638e-02,-1.524610872362857153e-02,-1.051981501930371495e-02,-5.793521314978858361e-03,-9.147665234177150030e-04,3.201682831961999692e-03
3.201682831961999692e-03,3.201682831961999692e-03,3.201682831961999692e-03,3.201682831961999692e-03,-1.031205991010437362e-01,-1.031205991010437362e-01,-1.031205991010437362e-01,3.201682831961999692e-03,3.201682831961999692e-03,3.201682831961999692e-03,3.201682831961999692e-03,2.619558680696181408e-03,-3.880827675105456669e-04,-3.492744907594910134e-03,-6.500386355801636776e-03,-2.367561112150440294e-01,-2.397637526632507565e-01,-2.428684148033351253e-01,-1.862797284050618507e-02,-2.163561428871290868e-02,-2.464325573691963228e-02,-2.765089718512636283e-02,-3.075555932521072469e-02,-3.094960070896600121e-02,-3.094960070896600121e-02,-3.094960070896600121e-02,-3.094960070896600121e-02,-3.094960070896600121e-02,-3.094960070896600121e-02,-3.094960070896600121e-02,-3.094960070896600121e-02,-3.094960070896600121e-02,-3.094960070896600121e-02,-3.094960070896600121e-02,-3.094960070896600121e-02,-3.094960070896600121e-02,-3.094960070896600121e-02,-3.094960070896600121e-02,-3.094960070896600121e-02,-2.851022331318542671e-02,-2.363146852162428466e-02,-1.890517481729942981e-02,-1.417888111297457149e-02,-9.452587408649716638e-03,-4.726293704324856584e-03,1.524610872362850388e-04,3.201682831961999692e-03
3.201682831961999692e-03,3.201682831961999692e-03,3.201682831961999692e-03,3.201682831961999692e-03,-1.031205991010437362e-01,-1.031205991010437362e-01,-1.031205991010437362e-01,3.201682831961999692e-03,3.201682831961999692e-03,3.201682831961999692e-03,3.201682831961999692e-03,1.940413837552727033e-03,-1.067227610654000475e-03,-4.171889750738365377e-03,-7.179531198945090717e-03,-2.374352560581874660e-01,-2.404428975063941931e-01,-2.435475596464785619e-01,-1.930711768364963554e-02,-2.231475913185636262e-02,-2.532240058006309316e-02,-2.833004202826981330e-02,-3.094960070896600121e-02,-3.094960070896600121e-02,-3.094960070896600121e-02,-3.094960070896600121e-02,-3.094960070896600121e-02,-3.094960070896600121e-02,-3.094960070896600121e-02,-3.094960070896599427e-02,-3.094960070896600121e-02,-3.094960070896600121e-02,-3.094960070896600121e-02,-3.094960070896600121e-02,-3.094960070896600121e-02,-3.094960070896600121e-02,-3.094960070896600121e-02,-3.094960070896600121e-02,-3.094960070896600121e-02,-2.744299570253143014e-02,-2.256424091097028808e-02,-1.783794720664542630e-02,-1.311165350232057145e-02,-8.385359797995714862e-03,-3.659066093670858711e-03,1.219688697890285514e-03,3.201682831961999692e-03
3.201682831961999692e-03,3.201682831961999692e-03,3.201682831961999692e-03,3.201682831961999692e-03,-1.031205991010437362e-01,-1.031205991010437362e-01,-1.031205991010437362e-01,3.201682831961999692e-03,3.201682831961999692e-03,3.201682831961999692e-03,3.201682831961999692e-03,1.261268994409272442e-03,-1.746372453797455284e-03,-4.851034593881817583e-03,-7.858676042088544658e-03,-2.381144009013309304e-01,-2.411220423495376575e-01,-2.442267044896220263e-01,-1.998626252679308948e-02,-2.299390397499981656e-02,-2.600154542320654710e-02,-2.900918687141327765e-02,-3.094960070896600121e-02,-3.094960070896600121e-02,-3.094960070896600121e-02,-3.094960070896600121e-02,-3.094960070896600121e-02,-3.094960070896600121e-02,-3.094960070896600121e-02,-3.094960070896600121e-02,-3.094960070896600121e-02,-3.094960070896600121e-02,-3.094960070896600121e-02,-3.094960070896600121e-02,-3.094960070896600121e-02,-7.572623653852021686e-02,-7.572623653852021686e-02,-7.572623653852021686e-02,-7.572623653852021686e-02,-2.637576809187743357e-02,-2.149701330031628457e-02,-1.677071959599142625e-02,-1.204442589166657140e-02,-7.318132187341714820e-03,-2.591838483016857802e-03,2.286916308544285556e-03,3.201682831961999692e-03
3.201682831961999692e-03,3.201682831961999692e-03,3.201682831961999692e-03,3.201682831961999692e-03,3.201682831961999692e-03,3.201682831961999692e-03,3.201682831961999692e-03,3.201682831961999692e-03,3.201682831961999692e-03,3.201682831961999692e-03,3.201682831961999692e-03,5.821241512658178498e-04,-2.522537988818546618e-03,-5.530179437025273259e-03,-8.537820885231998599e-03,-1.154546233343872394e-02,-1.455310378164545448e-02,-1.765776592172981982e-02,-2.066540736993654689e-02,-2.367304881814327397e-02,-2.668069026634999757e-02,-2.968833171455672812e-02,-3.094960070896600121e-02,-3.094960070896600121e-02,-3.094960070896600121e-02,-3.094960070896600121e-02,-3.094960070896600121e-02,-3.094960070896600121e-02,-3.094960070896600121e-02,-3.094960070896600121e-02,-3.094960070896600121e-02,-3.094960070896600121e-02,-3.094960070896600121e-02,-3.094960070896600121e-02,-3.094960070896600121e-02,-7.572623653852021686e-02,-7.572623653852021686e-02,-7.572623653852021686e-02,-7.481147001510250749e-02,-2.530854048122343006e-02,-2.042978568966228800e-02,-1.570349198533742621e-02,-1.097719828101257136e-02,-6.250904576687713043e-03,-1.524610872362856893e-03,3.201682831961999692e-03,3.201682831961999692e-03
3.201682831961999692e-03,3.201682831961999692e-03,3.201682831961999692e-03,3.201682831961999692e-03,3.201682831961999692e-03,3.201682831961999692e-03,3.201682831961999692e-03,3.201682831961999692e-03,3.201682831961999692e-03,3.201682831961999692e-03,2.910620756329090550e-03,-9.702069187763695882e-05,-3.201682831962000559e-03,-6.209324280168727200e-03,-9.216965728375454275e-03,-1.222460717658217962e-02,-1.523224862478890843e-02,-1.833691076487327723e-02,-2.134455221308000084e-02,-2.435219366128672444e-02,-2.735983510949345499e-02,-3.046449724957782032e-02,-3.094960070896600121e-02,-3.094960070896600121e-02,-3.094960070896600121e-02,-3.094960070896600121e-02,-3.094960070896600121e-02,-3.094960070896600121e-02,-3.094960070896600121e-02,-3.094960070896600121e-02,-3.094960070896600121e-02,-3.094960070896600121e-02,-3.094960070896600121e-02,-3.094960070896600121e-02,-3.094960070896600121e-02,-7.572623653852021686e-02,-7.572623653852021686e-02,-7.572623653852021686e-02,-7.374424240444850398e-02,-2.424131287056942655e-02,-1.936255807900828449e-02,-1.463626437468342617e-02,-9.909970670358573056e-03,-5.183676966033714736e-03,-3.049221744725722459e-04,3.201682831961999692e-03,3.201682831961999692e-03
3.201682831961999692e-03,3.201682831961999692e-03,3.201682831961999692e-03,3.201682831961999692e-03,3.201682831961999692e-03,3.201682831961999692e-03,3.201682831961999692e-03,3.201682831961999692e-03,3.201682831961999692e-03,3.201682831961999692e-03,2.231475913185636175e-03,-7.761655350210909000e-04,-3.880827675105454500e-03,-6.888469123312181142e-03,-9.896110571518908217e-03,-1.290375201972563529e-02,-1.591139346793236584e-02,-1.901605560801672770e-02,-2.202369705622345478e-02,-2.503133850443018185e-02,-2.803897995263690893e-02,-3.094960070896600121e-02,-3.094960070896600121e-02,-3.094960070896600121e-02,-3.094960070896599427e-02,-3.094960070896600121e-02,-3.094960070896600121e-02,-3.094960070896600121e-02,-3.094960070896600121e-02,-3.094960070896600121e-02,-3.094960070896600121e-02,-3.094960070896600121e-02,-3.094960070896600121e-02,-3.094960070896600121e-02,-3.094960070896600121e-02,-7.572623653852021686e-02,-7.572623653852021686e-02,-7.572623653852021686e-02,-7.267701479379450047e-02,-2.317408525991542997e-02,-1.829533046835428792e-02,-1.356903676402942960e-02,-8.842743059704571279e-03,-4.116449355379714695e-03,7.623054361814282295e-04,3.201682831961999692e-03,3.201682831961999692e-03
3.201682831961999692e-03,3.201682831961999692e-03,3.201682831961999692e-03,3.201682831961999692e-03,3.201682831961999692e-03,3.201682831961999692e-03,3.201682831961999692e-03,3.201682831961999692e-03,3.201682831961999692e-03,3.201682831961999692e-03,1.552331070042181583e-03,-1.455310378164545709e-03,-4.559972518248909742e-03,-7.567613966455635083e-03,-1.057525541466236216e-02,-1.358289686286909270e-02,-1.659053831107581631e-02,-1.969520045116018164e-02,-2.270284189936691219e-02,-2.571048334757363579e-02,-2.871812479578036634e-02,-3.094960070896600121e-02,-3.094960070896600121e-02,-3.094960070896600121e-02,-3.094960070896600121e-02,-3.094960070896600121e-02,-3.094960070896600121e-02,-3.094960070896600121e-02,-3.094960070896600121e-02,-3.094960070896600121e-02,-3.094960070896600121e-02,-3.094960070896600121e-02,-3.094960070896600121e-02,-3.094960070896599427e-02,-3.094960070896600121e-02,-3.094960070896600121e-02,-3.094960070896600121e-02,-3.094960070896600121e-02,-2.683315135358628825e-02,-2.210685764926142993e-02,-1.722810285770028441e-02,-1.250180915337542956e-02,-7.775515449050571237e-03,-3.049221744725715087e-03,1.829533046835428271e-03,3.201682831961999692e-03,3.201682831961999692e-03
3.201682831961999692e-03,3.201682831961999692e-03,3.201682831961999692e-03,3.201682831961999692e-03,3.201682831961999692e-03,3.201682831961999692e-03,3.201682831961999692e-03,3.201682831961999692e-03,3.201682831961999692e-03,3.201682831961999692e-03,8.731862268987269915e-04,-2.134455221307999650e-03,-5.239117361392363684e-03,-8.246758809599092493e-03,-1.125440025780581610e-02,-1.426204170601254317e-02,-1.736670384609690851e-02,-2.037434529430363905e-02,-2.338198674251036613e-02,-2.638962819071708973e-02,-2.939726963892381681e-02,-3.094960070896600121e-02,-3.094960070896600121e-02,-3.094960070896600121e-02,-3.094960070896600121e-02,-3.094960070896600121e-02,-3.094960070896600121e-02,-3.094960070896600121e-02,-3.094960070896600121e-02,-3.094960070896600121e-02,-3.094960070896600121e-02,-3.094960070896600121e-02,-3.094960070896600121e-02,-3.094960070896600121e-02,-3.094960070896600121e-02,-3.094960070896600121e-02,-3.094960070896600121e-02,-3.049221744725714653e-02,-2.576592374293228821e-02,-2.088716895137114268e-02,-1.616087524704628436e-02,-1.143458154272142951e-02,-6.708287838396569461e-03,-1.981994134071714177e-03,2.896760657489428313e-03,3.201682831961999692e-03,3.201682831961999692e-03
3.201682831961999692e-03,3.201682831961999692e-03,3.201682831961999692e-03,3.201682831961999692e-03,3.201682831961999692e-03,3.201682831961999692e-03,3.201682831961999692e-03,3.201682831961999692e-03,3.201682831961999692e-03,3.201682831961999692e-03,1.940413837552726166e-04,-2.813600064451454458e-03,-5.918262204535819360e-03,-8.925903652742546435e-03,-1.193354510094927004e-02,-1.494118654915599712e-02,-1.804584868924036592e-02,-2.105349013744708953e-02,-2.406113158565381660e-02,-2.706877303386054021e-02,-3.007641448206727422e-02,-3.094960070896600121e-02,-3.094960070896600121e-02,-3.094960070896600121e-02,-3.094960070896600121e-02,-3.094960070896600121e-02,-3.094960070896600121e-02,-3.094960070896600121e-02,-3.094960070896600121e-02,-3.094960070896600121e-02,-3.094960070896600121e-02,-3.094960070896600121e-02,-3.094960070896600121e-02,-3.094960070896600121e-02,-3.094960070896600121e-02,-3.094960070896600121e-02,-3.094960070896600121e-02,-2.942498983660314302e-02,-2.469869613227828817e-02,-1.981994134071714264e-02,-1.509364763639228432e-02,-1.036735393206742947e-02,-5.641060227742571154e-03,-9.147665234177150030e-04,3.201682831961999692e-03,3.201682831961999692e-03,3.201682831961999692e-03
3.201682831961999692e-03,3.201682831961999692e-03,3.201682831961999692e-03,-1.924478241822661362e-01,-1.924478241822661362e-01,-1.924478241822661362e-01,-1.924478241822661362e-01,3.201682831961999692e-03,3.201682831961999692e-03,2.522537988818545317e-03,-4.851034593881821920e-04,-3.589765599472545792e-03,-6.597407047679273301e-03,-9.605048495886000376e-03,-1.261268994409272745e-02,-1.562033139229945453e-02,-1.872499353238381986e-02,-2.173263498059054347e-02,-2.474027642879727401e-02,-2.774791787700399762e-02,-3.075555932521072469e-02,-3.094960070896600121e-02,-3.094960070896600121e-02,-3.094960070896600121e-02,-3.094960070896600121e-02,-3.094960070896600121e-02,-3.094960070896600121e-02,-3.094960070896600121e-02,-3.094960070896600121e-02,-3.094960070896600121e-02,-3.094960070896600121e-02,-3.094960070896600121e-02,-3.094960070896600121e-02,-3.094960070896600121e-02,-3.094960070896600121e-02,-3.094960070896600121e-02,-3.094960070896600121e-02,-2.835776222594914645e-02,-2.363146852162428466e-02,-1.875271373006314260e-02,-1.402642002573828428e-02,-9.300126321413429431e-03,-4.573832617088572847e-03,1.524610872362854724e-04,3.201682831961999692e-03,3.201682831961999692e-03,3.201682831961999692e-03
3.201682831961999692e-03,3.201682831961999692e-03,3.201682831961999692e-03,-1.924478241822661362e-01,-1.924478241822661362e-01,-1.924478241822661362e-01,-1.924478241822661362e-01,3.201682831961999692e-03,3.201682831961999692e-03,1.843393145675090725e-03,-1.164248302531636133e-03,-4.268910442616000167e-03,-7.276551890822727242e-03,-1.028419333902945432e-02,-1.329183478723618139e-02,-1.629947623544290847e-02,-1.940413837552727380e-02,-2.241177982373399741e-02,-2.541942127194072795e-02,-2.842706272014745503e-02,-3.094960070896600121e-02,-3.094960070896600121e-02,-3.094960070896600121e-02,-3.094960070896600121e-02,-3.094960070896600121e-02,-3.094960070896600121e-02,-3.094960070896600121e-02,-3.094960070896600121e-02,-3.094960070896599427e-02,-3.094960070896600121e-02,-3.094960070896600121e-02,-3.094960070896600121e-02,-3.094960070896600121e-02,-3.094960070896600121e-02,-3.094960070896600121e-02,-3.094960070896600121e-02,-3.094960070896600121e-02,-2.729053461529514293e-02,-2.256424091097028461e-02,-1.768548611940914603e-02,-1.295919241508428771e-02,-8.232898710759429389e-03,-3.506605006434571504e-03,1.372149785126570987e-03,3.201682831961999692e-03,3.201682831961999692e-03,3.201682831961999692e-03
3.201682831961999692e-03,3.201682831961999692e-03,3.201682831961999692e-03,-1.924478241822661362e-01,-1.924478241822661362e-01,-1.924478241822661362e-01,-1.924478241822661362e-01,3.201682831961999692e-03,3.201682831961999692e-03,1.164248302531636133e-03,-1.843393145675091809e-03,-4.948055285759454108e-03,-7.955696733966182918e-03,-1.096333818217290999e-02,-1.397097963037963533e-02,-1.697862107858636241e-02,-2.008328321867072774e-02,-2.309092466687745135e-02,-2.609856611508418536e-02,-2.910620756329091244e-02,-3.094960070896600121e-02,-3.094960070896600121e-02,-3.094960070896600121e-02,-3.094960070896600121e-02,-3.094960070896600121e-02,-3.094960070896600121e-02,-3.094960070896600121e-02,-3.094960070896600121e-02,-3.094960070896600121e-02,-3.094960070896600121e-02,-3.094960070896600121e-02,-3.094960070896600121e-02,-3.094960070896600121e-02,-3.094960070896600121e-02,-3.094960070896600121e-02,-3.094960070896600121e-02,-3.094960070896600121e-02,-2.622330700464114636e-02,-2.149701330031628804e-02,-1.661825850875514252e-02,-1.189196480443028593e-02,-7.165671100105429348e-03,-2.439377395780572329e-03,2.439377395780571028e-03,3.201682831961999692e-03,3.201682831961999692e-03,3.201682831961999692e-03
3.201682831961999692e-03,3.201682831961999692e-03,3.201682831961999692e-03,-1.924478241822661362e-01,-1.924478241822661362e-01,-1.924478241822661362e-01,-1.924478241822661362e-01,3.201682831961999692e-03,3.201682831961999692e-03,4.851034593881813246e-04,-2.522537988818545750e-03,-5.627200128902911519e-03,-8.634841577109635125e-03,-1.164248302531636220e-02,-1.465012447352308927e-02,-1.765776592172981982e-02,-2.076242806181418168e-02,-2.377006951002091223e-02,-2.677771095822763583e-02,-2.978535240643436291e-02,-3.094960070896600121e-02,-3.094960070896600121e-02,-3.094960070896600121e-02,-3.094960070896600121e-02,-3.094960070896600121e-02,-3.094960070896600121e-02,-3.094960070896600121e-02,-3.094960070896600121e-02,-3.094960070896600121e-02,-3.094960070896600121e-02,-3.094960070896600121e-02,-3.094960070896600121e-02,-3.094960070896600121e-02,-3.094960070896600121e-02,-3.094960070896600121e-02,-3.094960070896600121e-02,-2.988237309831199770e-02,-2.515607939398714285e-02,-2.042978568966228800e-02,-1.555103089810114247e-02,-1.082473719377628589e-02,-6.098443489451429306e-03,-1.372149785126571420e-03,3.201682831961999692e-03,3.201682831961999692e-03,3.201682831961999692e-03,3.201682831961999692e-03
3.201682831961999692e-03,3.201682831961999692e-03,3.201682831961999692e-03,3.201682831961999692e-03,3.201682831961999692e-03,3.201682831961999692e-03,3.201682831961999692e-03,3.201682831961999692e-03,2.813600064451454025e-03,-1.940413837552730503e-04,-3.201682831962000559e-03,-6.306344972046363725e-03,-9.313986420253090801e-03,-1.232162786845981788e-02,-1.532926931666654669e-02,-1.843393145675091202e-02,-2.144157290495763563e-02,-2.444921435316436270e-02,-2.745685580137108978e-02,-3.046449724957782032e-02,-3.094960070896600121e-02,-3.094960070896600121e-02,-3.094960070896600121e-02,-3.094960070896600121e-02,-3.094960070896600121e-02,-3.094960070896600121e-02,-3.094960070896600121e-02,-3.094960070896600121e-02,-3.094960070896600121e-02,-3.094960070896600121e-02,-3.094960070896600121e-02,-3.094960070896600121e-02,-3.094960070896600121e-02,-3.094960070896600121e-02,-3.094960070896600121e-02,-3.094960070896600121e-02,-2.881514548765800113e-02,-2.408885178333314628e-02,-1.921009699177199728e-02,-1.448380328744714243e-02,-9.757509583122285848e-03,-5.031215878797429264e-03,-3.049221744725722459e-04,3.201682831961999692e-03,3.201682831961999692e-03,3.201682831961999692e-03,3.201682831961999692e-03
3.201682831961999692e-03,3.201682831961999692e-03,3.201682831961999692e-03,3.201682831961999692e-03,3.201682831961999692e-03,3.201682831961999692e-03,3.201682831961999692e-03,3.201682831961999692e-03,2.134455221307999650e-03,-8.731862268987274252e-04,-3.880827675105454500e-03,-6.985489815189817667e-03,-9.993131263396544742e-03,-1.300077271160327355e-02,-1.600841415981000063e-02,-1.911307629989436249e-02,-2.212071774810108957e-02,-2.512835919630781664e-02,-2.813600064451454372e-02,-3.094960070896600121e-02,-3.094960070896600121e-02,-3.094960070896600121e-02,-3.094960070896600121e-02,-3.094960070896599427e-02,-3.094960070896599427e-02,-3.094960070896600121e-02,-3.094960070896600121e-02,-3.094960070896600121e-02,-3.094960070896600121e-02,-3.094960070896600121e-02,-3.094960070896600121e-02,-3.094960070896600121e-02,-3.094960070896600121e-02,-3.094960070896600121e-02,-3.094960070896600121e-02,-3.094960070896600121e-02,-2.774791787700400109e-02,-2.302162417267914277e-02,-1.814286938111800071e-02,-1.341657567679314239e-02,-8.690281972468285807e-03,-3.963988268143429222e-03,7.623054361814282295e-04,3.201682831961999692e-03,3.201682831961999692e-03,3.201682831961999692e-03,3.201682831961999692e-03
3.201682831961999692e-03,3.201682831961999692e-03,3.201682831961999692e-03,3.201682831961999692e-03,3.201682831961999692e-03,3.201682831961999692e-03,3.201682831961999692e-03,3.201682831961999692e-03,1.455310378164545275e-03,-1.552331070042182234e-03,-4.656993210126546268e-03,-7.664634658333273343e-03,-1.067227610654000042e-02,-1.367991755474672402e-02,-1.668755900295345457e-02,-1.979222114303781643e-02,-2.279986259124454698e-02,-2.580750403945127405e-02,-2.881514548765800113e-02,-3.094960070896600121e-02,-3.094960070896600121e-02,-3.094960070896600121e-02,-3.094960070896600121e-02,-3.094960070896600121e-02,-3.094960070896600121e-02,-3.094960070896600121e-02,-3.094960070896600121e-02,-3.094960070896600121e-02,-3.094960070896600121e-02,-3.094960070896600121e-02,-3.094960070896600121e-02,-3.094960070896600121e-02,-3.094960070896599427e-02,-3.094960070896600121e-02,-3.094960070896600121e-02,-3.094960070896600121e-02,-2.668069026635000104e-02,-2.195439656202514273e-02,-1.707564177046400414e-02,-1.234934806613914408e-02,-7.623054361814285765e-03,-2.896760657489429614e-03,1.829533046835428271e-03,3.201682831961999692e-03,3.201682831961999692e-03,3.201682831961999692e-03,3.201682831961999692e-03
3.201682831961999692e-03,3.201682831961999692e-03,3.201682831961999692e-03,3.201682831961999692e-03,3.201682831961999692e-03,3.201682831961999692e-03,3.201682831961999692e-03,3.201682831961999692e-03,7.761655350210909000e-04,-2.231475913185637042e-03,-5.336138053270000209e-03,-8.343779501476727284e-03,-1.135142094968345609e-02,-1.435906239789018143e-02,-1.736670384609690851e-02,-2.047136598618127384e-02,-2.347900743438800092e-02,-2.648664888259472799e-02,-2.949429033080145160e-02,-3.094960070896600121e-02,-3.094960070896600121e-02,-3.094960070896600121e-02,-3.094960070896600121e-02,-3.094960070896600121e-02,-3.094960070896600121e-02,-3.094960070896600121e-02,-3.094960070896600121e-02,-3.094960070896600121e-02,-3.094960070896600121e-02,-3.094960070896600121e-02,-3.094960070896600121e-02,-3.094960070896600121e-02,-3.094960070896600121e-02,-3.094960070896600121e-02,-3.094960070896600121e-02,-3.033975636002085932e-02,-2.561346265569600100e-02,-2.088716895137114268e-02,-1.600841415981000063e-02,-1.128212045548514404e-02,-6.555826751160285723e-03,-1.829533046835428705e-03,2.896760657489428313e-03,3.201682831961999692e-03,3.201682831961999692e-03,3.201682831961999692e-03,3.201682831961999692e-03
3.201682831961999692e-03,3.201682831961999692e-03,3.201682831961999692e-03,3.201682831961999692e-03,3.201682831961999692e-03,3.201682831961999692e-03,3.201682831961999692e-03,3.104662140084363166e-03,9.702069187763609145e-05,-2.910620756329090984e-03,-6.015282896413454150e-03,-9.022924344620182960e-03,-1.203056579282690657e-02,-1.503820724103363538e-02,-1.804584868924036245e-02,-2.115051082932472779e-02,-2.415815227753145139e-02,-2.716579372573818194e-02,-3.017343517394490901e-02,-3.094960070896600121e-02,-3.094960070896600121e-02,-3.094960070896600121e-02,-3.094960070896600121e-02,-3.094960070896600121e-02,-3.094960070896600121e-02,-3.094960070896600121e-02,-3.094960070896600121e-02,-3.094960070896600121e-02,-3.094960070896600121e-02,-3.094960070896600121e-02,-3.094960070896600121e-02,-3.094960070896600121e-02,-3.094960070896600121e-02,-3.094960070896600121e-02,-3.094960070896600121e-02,-2.927252874936686275e-02,-2.454623504504200096e-02,-1.981994134071714611e-02,-1.494118654915600058e-02,-1.021489284483114227e-02,-5.488599140506285681e-03,-7.623054361814286632e-04,3.201682831961999692e-03,3.201682831961999692e-03,3.201682831961999692e-03,3.201682831961999692e-03,3.201682831961999692e-03
3.201682831961999692e-03,3.201682831961999692e-03,3.201682831961999692e-03,3.201682831961999692e-03,3.201682831961999692e-03,3.201682831961999692e-03,3.201682831961999692e-03,2.425517296940908792e-03,-5.821241512658182835e-04,-3.589765599472544925e-03,-6.694427739556909826e-03,-9.702069187763635166e-03,-1.270971063597036224e-02,-1.571735208417708932e-02,-1.872499353238381639e-02,-2.182965567246817826e-02,-2.483729712067491227e-02,-2.784493856888163588e-02,-3.085258001708836642e-02,-3.094960070896599427e-02,-3.094960070896600121e-02,-3.094960070896600121e-02,-3.094960070896600121e-02,-3.094960070896600121e-02,-3.094960070896600121e-02,-3.094960070896600121e-02,-3.094960070896600121e-02,-3.094960070896600121e-02,-3.094960070896600121e-02,-3.094960070896600121e-02,-3.094960070896600121e-02,-3.094960070896600121e-02,-3.094960070896600121e-02,-3.094960070896600121e-02,-3.094960070896600121e-02,-2.820530113871285924e-02,-2.347900743438799745e-02,-1.875271373006314260e-02,-1.387395893850200054e-02,-9.147665234177142224e-03,-4.421371529852285640e-03,3.049221744725709449e-04,3.201682831961999692e-03,3.201682831961999692e-03,3.201682831961999692e-03,3.201682831961999692e-03,3.201682831961999692e-03
3.201682831961999692e-03,3.201682831961999692e-03,3.201682831961999692e-03,3.201682831961999692e-03,3.201682831961999692e-03,3.201682831961999692e-03,3.201682831961999692e-03,1.746372453797454417e-03,-1.261268994409272658e-03,-4.268910442616000167e-03,-7.373572582700363767e-03,-1.038121403090708911e-02,-1.338885547911381618e-02,-1.639649692732054673e-02,-1.950115906740490859e-02,-2.250880051561163567e-02,-2.551644196381836274e-02,-2.852408341202508982e-02,-3.094960070896600121e-02,-3.094960070896600121e-02,-3.094960070896600121e-02,-3.094960070896600121e-02,-3.094960070896600121e-02,-3.094960070896600121e-02,-3.094960070896600121e-02,-3.094960070896600121e-02,-3.094960070896600121e-02,-3.094960070896599427e-02,-3.094960070896599427e-02,-3.094960070896600121e-02,-3.094960070896600121e-02,-3.094960070896600121e-02,-3.094960070896600121e-02,-3.094960070896600121e-02,-3.094960070896600121e-02,-2.713807352805885920e-02,-2.241177982373399741e-02,-1.753302503217285882e-02,-1.280673132784800050e-02,-8.080437623523142182e-03,-3.354143919198286031e-03,1.372149785126571203e-03,3.201682831961999692e-03,3.201682831961999692e-03,3.201682831961999692e-03,3.201682831961999692e-03,3.201682831961999692e-03
3.201682831961999692e-03,3.201682831961999692e-03,3.201682831961999692e-03,3.201682831961999692e-03,3.201682831961999692e-03,3.201682831961999692e-03,3.201682831961999692e-03,1.067227610653999608e-03,-1.940413837552727467e-03,-4.948055285759454108e-03,-8.052717425843817708e-03,-1.106035887405054478e-02,-1.406800032225727012e-02,-1.707564177046400067e-02,-2.018030391054836600e-02,-2.318794535875509308e-02,-2.619558680696182015e-02,-2.920322825516854723e-02,-3.094960070896600121e-02,-3.094960070896600121e-02,-3.094960070896600121e-02,-3.094960070896600121e-02,-3.094960070896600121e-02,-3.094960070896600121e-02,-3.094960070896600121e-02,-3.094960070896600121e-02,-3.094960070896600121e-02,-3.094960070896600121e-02,-3.094960070896600121e-02,-3.094960070896600121e-02,-3.094960070896600121e-02,-3.094960070896600121e-02,-3.094960070896600121e-02,-3.094960070896600121e-02,-3.079713962172971400e-02,-2.607084591740485915e-02,-2.134455221307999737e-02,-1.646579742151885531e-02,-1.173950371719400219e-02,-7.013210012869143875e-03,-2.286916308544285990e-03,2.439377395780571028e-03,3.201682831961999692e-03,3.201682831961999692e-03,3.201682831961999692e-03,3.201682831961999692e-03,3.201682831961999692e-03
3.201682831961999692e-03,3.201682831961999692e-03,3.201682831961999692e-03,3.201682831961999692e-03,3.201682831961999692e-03,3.201682831961999692e-03,3.201682831961999692e-03,3.880827675105452332e-04,-2.619558680696183143e-03,-5.724220820780544575e-03,-8.731862268987273384e-03,-1.173950371719399872e-02,-1.474714516540072753e-02,-1.775478661360745461e-02,-2.085944875369181994e-02,-2.386709020189854355e-02,-2.687473165010527409e-02,-2.988237309831199770e-02,-3.094960070896600121e-02,-3.094960070896600121e-02,-3.094960070896600121e-02,-3.094960070896600121e-02,-3.094960070896600121e-02,-3.094960070896600121e-02,-3.094960070896600121e-02,-3.094960070896600121e-02,-3.094960070896600121e-02,-3.094960070896600121e-02,-3.094960070896600121e-02,-3.094960070896600121e-02,-3.094960070896600121e-02,-3.094960070896600121e-02,-3.094960070896600121e-02,-3.094960070896600121e-02,-2.972991201107571743e-02,-2.500361830675085911e-02,-2.027732460242600079e-02,-1.539856981086485874e-02,-1.067227610654000042e-02,-5.945982402215142099e-03,-1.219688697890285948e-03,3.201682831961999692e-03,3.201682831961999692e-03,3.201682831961999692e-03,3.201682831961999692e-03,3.201682831961999692e-03,3.201682831961999692e-03
3.201682831961999692e-03,3.201682831961999692e-03,3.201682831961999692e-03,3.201682831961999692e-03,3.201682831961999692e-03,3.201682831961999692e-03,2.716579372573817933e-03,-2.910620756329091417e-04,-3.298703523839637084e-03,-6.403365663924000251e-03,-9.411007112130727326e-03,-1.241864856033745440e-02,-1.542629000854418148e-02,-1.843393145675090855e-02,-2.153859359683527042e-02,-2.454623504504200096e-02,-2.755387649324872804e-02,-3.056151794145545511e-02,-3.094960070896600121e-02,-3.094960070896600121e-02,-3.094960070896600121e-02,-3.094960070896600121e-02,-3.094960070896600121e-02,-3.094960070896600121e-02,-3.094960070896600121e-02,-3.094960070896600121e-02,-3.094960070896600121e-02,-3.094960070896600121e-02,-3.094960070896600121e-02,-3.094960070896600121e-02,-3.094960070896600121e-02,-3.094960070896600121e-02,-3.094960070896600121e-02,-3.094960070896600121e-02,-2.866268440042171392e-02,-2.393639069609685907e-02,-1.921009699177199728e-02,-1.433134220021085870e-02,-9.605048495886000376e-03,-4.878754791561142057e-03,-1.524610872362859061e-04,3.201682831961999692e-03,3.201682831961999692e-03,3.201682831961999692e-03,3.201682831961999692e-03,3.201682831961999692e-03,3.201682831961999692e-03
3.201682831961999692e-03,3.201682831961999692e-03,3.201682831961999692e-03,3.201682831961999692e-03,3.201682831961999692e-03,3.201682831961999692e-03,2.037434529430363558e-03,-9.702069187763639503e-04,-3.977848366983090592e-03,-7.082510507067454192e-03,-1.009015195527418127e-02,-1.309779340348090834e-02,-1.610543485168763542e-02,-1.911307629989436249e-02,-2.221773843997872436e-02,-2.522537988818545490e-02,-2.823302133639217851e-02,-3.094960070896600121e-02,-3.094960070896600121e-02,-3.094960070896600121e-02,-3.094960070896600121e-02,-3.094960070896600121e-02,-3.094960070896599427e-02,-3.094960070896599427e-02,-3.094960070896600121e-02,-3.094960070896600121e-02,-3.094960070896600121e-02,-3.094960070896600121e-02,-3.094960070896600121e-02,-3.094960070896600121e-02,-3.094960070896600121e-02,-3.094960070896600121e-02,-3.094960070896600121e-02,-3.094960070896600121e-02,-2.759545678976771735e-02,-2.286916308544285556e-02,-1.814286938111800071e-02,-1.326411458955685865e-02,-8.537820885232002069e-03,-3.811527180907142449e-03,9.147665234177141357e-04,3.201682831961999692e-03,3.201682831961999692e-03,3.201682831961999692e-03,3.201682831961999692e-03,3.201682831961999692e-03,3.201682831961999692e-03
3.201682831961999692e-03,3.201682831961999692e-03,3.201682831961999692e-03,3.201682831961999692e-03,3.201682831961999692e-03,3.201682831961999692e-03,1.358289686286908750e-03,-1.649351761919818759e-03,-4.656993210126546268e-03,-7.761655350210908133e-03,-1.076929679841763521e-02,-1.377693824662436575e-02,-1.678457969483109283e-02,-1.979222114303781990e-02,-2.289688328312218177e-02,-2.590452473132890884e-02,-2.891216617953563592e-02,-3.094960070896600121e-02,-3.094960070896600121e-02,-3.094960070896600121e-02,-3.094960070896600121e-02,-3.094960070896600121e-02,-3.094960070896600121e-02,-3.094960070896600121e-02,-3.094960070896600121e-02,-3.094960070896600121e-02,-3.094960070896600121e-02,-3.094960070896600121e-02,-3.094960070896600121e-02,-3.094960070896600121e-02,-3.094960070896600121e-02,-3.094960070896599427e-02,-3.094960070896599427e-02,-3.094960070896600121e-02,-2.652822917911371384e-02,-2.180193547478885899e-02,-1.707564177046400067e-02,-1.219688697890285514e-02,-7.470593274578000292e-03,-2.744299570253143274e-03,1.981994134071713744e-03,3.201682831961999692e-03,3.201682831961999692e-03,3.201682831961999692e-03,3.201682831961999692e-03,3.201682831961999692e-03,3.201682831961999692e-03
3.201682831961999692e-03,3.201682831961999692e-03,3.201682831961999692e-03,3.201682831961999692e-03,3.201682831961999692e-03,3.201682831961999692e-03,1.309779340348090704e-03,-2.155678497656232911e-03,-5.336138053269998474e-03,-8.440800193354363809e-03,-1.144844164156108915e-02,-1.445608308976781622e-02,-1.746372453797454677e-02,-2.047136598618127384e-02,-2.357602812626563918e-02,-2.658366957447236278e-02,-2.959131102267908639e-02,-3.094960070896600121e-02,-3.094960070896600121e-02,-3.094960070896600121e-02,-3.094960070896600121e-02,-3.094960070896600121e-02,-3.094960070896600121e-02,-3.094960070896600121e-02,-3.094960070896600121e-02,-3.094960070896600121e-02,-3.094960070896600121e-02,-3.094960070896600121e-02,-3.094960070896600121e-02,-3.094960070896600121e-02,-3.094960070896600121e-02,-3.094960070896600121e-02,-3.094960070896600121e-02,-3.018729527278457211e-02,-2.546100156845971380e-02,-2.073470786413485895e-02,-1.600841415981000063e-02,-1.112965936824885857e-02,-6.403365663924000251e-03,-1.677071959599143233e-03,3.049221744725713786e-03,3.201682831961999692e-03,3.201682831961999692e-03,3.201682831961999692e-03,3.201682831961999692e-03,3.201682831961999692e-03,3.201682831961999692e-03
3.201682831961999692e-03,3.201682831961999692e-03,3.201682831961999692e-03,3.201682831961999692e-03,3.201682831961999692e-03,3.201682831961999692e-03,3.201682831961999692e-03,3.201682831961999692e-03,1.185471578879868960e-03,-2.189029360489170521e-03,-6.858150157100419836e-03,-1.284311408730211268e-02,-1.814286938111800418e-02,-2.255873073413422469e-01,-2.285949487895489740e-01,-2.316025902377557011e-01,-3.027045586582255074e-02,-3.094960070896600121e-02,-3.094960070896600121e-02,-3.094960070896600121e-02,-3.094960070896600121e-02,-3.094960070896600121e-02,-3.094960070896600121e-02,-3.094960070896600121e-02,-3.094960070896600121e-02,-3.094960070896600121e-02,-3.094960070896600121e-02,-3.094960070896600121e-02,-3.094960070896600121e-02,-3.094960070896600121e-02,-3.094960070896600121e-02,-3.094960070896600121e-02,-3.094960070896600121e-02,-2.912006766213057554e-02,-2.439377395780571375e-02,-1.966748025348085890e-02,-1.478872546191971685e-02,-1.006243175759485853e-02,-5.336138053270000209e-03,-6.098443489451431908e-04,3.201682831961999692e-03,3.201682831961999692e-03,3.201682831961999692e-03,3.201682831961999692e-03,3.201682831961999692e-03,3.201682831961999692e-03,3.201682831961999692e-03
3.201682831961999692e-03,3.201682831961999692e-03,3.201682831961999692e-03,3.201682831961999692e-03,3.201682831961999692e-03,3.201682831961999692e-03,3.201682831961999692e-03,3.201682831961999692e-03,3.201682831961999692e-03,3.201682831961999692e-03,3.201682831961999692e-03,3.201682831961999692e-03,4.487206999340678445e-04,-2.097759664619087139e-01,-2.169645933507173274e-01,-2.254690633731163962e-01,-3.094960070896600121e-02,-3.094960070896599427e-02,-3.094960070896599427e-02,-3.094960070896600121e-02,-3.094960070896600121e-02,-3.094960070896600121e-02,-3.094960070896600121e-02,-3.094960070896600121e-02,-3.094960070896600121e-02,-3.094960070896600121e-02,-3.094960070896600121e-02,-3.094960070896600121e-02,-3.094960070896600121e-02,-3.094960070896600121e-02,-3.094960070896600121e-02,-3.094960070896600121e-02,-3.094960070896600121e-02,-2.805284005147657203e-02,-2.332654634715171371e-02,-1.860025264282685539e-02,-1.372149785126571334e-02,-8.995204146940858486e-03,-4.268910442616000167e-03,4.573832617088568510e-04,3.201682831961999692e-03,3.201682831961999692e-03,3.201682831961999692e-03,3.201682831961999692e-03,3.201682831961999692e-03,3.201682831961999692e-03,3.201682831961999692e-03
3.201682831961999692e-03,3.201682831961999692e-03,3.201682831961999692e-03,3.201682831961999692e-03,3.201682831961999692e-03,3.201682831961999692e-03,3.201682831961999692e-03,3.201682831961999692e-03,3.201682831961999692e-03,3.201682831961999692e-03,3.201682831961999692e-03,3.201682831961999692e-03,3.201682831961999692e-03,-2.011380929881778912e-01,-2.011380929881778912e-01,-2.011380929881778912e-01,2.134455221307999650e-03,-5.336138053270000209e-03,-1.280673132784800050e-02,-2.027732460242600079e-02,-2.774791787700400109e-02,-3.094960070896600121e-02,-3.094960070896600121e-02,-3.094960070896600121e-02,-3.094960070896600121e-02,-3.094960070896600121e-02,-3.094960070896599427e-02,-3.094960070896599427e-02,-3.094960070896600121e-02,-3.094960070896600121e-02,-3.094960070896600121e-02,-3.094960070896600121e-02,-3.094960070896600121e-02,-2.698561244082256852e-02,-2.225931873649771367e-02,-1.753302503217285882e-02,-1.265427024061171329e-02,-7.927976536286858444e-03,-3.201682831962000559e-03,1.524610872362856893e-03,3.201682831961999692e-03,3.201682831961999692e-03,3.201682831961999692e-03,3.201682831961999692e-03,3.201682831961999692e-03,3.201682831961999692e-03,3.201682831961999692e-03
