-3.955026028848063896e-02,-3.955026028848063896e-02,-3.955026028848063896e-02,-3.955026028848063896e-02,-3.955026028848063896e-02,-3.955026028848063896e-02,-3.955026028848063896e-02,-3.955026028848063896e-02,-3.955026028848063896e-02,-3.955026028848063896e-02,-3.955026028848063896e-02,-3.955026028848063896e-02,-3.955026028848063896e-02,-3.955026028848063896e-02,-3.955026028848063896e-02,-3.955026028848063896e-02,-3.955026028848063896e-02,-3.955026028848063896e-02,-3.955026028848063896e-02,-3.955026028848063896e-02,-3.955026028848063896e-02,-3.955026028848063896e-02,-3.955026028848063896e-02,-3.955026028848063896e-02,-3.955026028848063896e-02,-3.955026028848063896e-02,-3.955026028848063896e-02,-3.955026028848063896e-02,-3.955026028848063896e-02,-3.955026028848063896e-02,-3.955026028848063896e-02,-3.955026028848063896e-02,-3.955026028848063896e-02,-3.955026028848063896e-02,-3.955026028848063896e-02,-3.955026028848063896e-02,-3.955026028848063896e-02,-3.955026028848063896e-02,-3.955026028848063896e-02,-3.955026028848063896e-02,-3.955026028848063896e-02,-3.955026028848063896e-02,-3.955026028848063896e-02,-3.955026028848063896e-02,-3.955026028848063896e-02,-3.955026028848063896e-02,-3.955026028848063896e-02
-3.955026028848063896e-02,-3.955026028848063896e-02,-3.955026028848063896e-02,-3.955026028848063896e-02,-3.955026028848063896e-02,-3.955026028848063896e-02,-3.955026028848063896e-02,-3.955026028848063896e-02,-3.955026028848063896e-02,-3.955026028848063896e-02,-3.955026028848063896e-02,-3.955026028848063896e-02,-3.955026028848063896e-02,-3.955026028848063896e-02,-3.955026028848063896e-02,-3.955026028848063896e-02,-3.955026028848063896e-02,-3.955026028848063896e-02,-3.955026028848063896e-02,-3.955026028848063896e-02,-3.955026028848063896e-02,-3.955026028848063896e-02,-3.955026028848063896e-02,-3.955026028848063896e-02,-3.955026028848063896e-02,-3.955026028848063896e-02,-3.955026028848063896e-02,-3.955026028848063896e-02,-3.955026028848063896e-02,-3.955026028848063896e-02,-3.955026028848063896e-02,-3.955026028848063896e-02,-3.955026028848063896e-02,-3.955026028848063896e-02,-3.955026028848063896e-02,-3.955026028848063896e-02,-3.955026028848063896e-02,-3.955026028848063896e-02,-3.955026028848063896e-02,-3.955026028848063896e-02,-3.955026028848063896e-02,-3.955026028848063896e-02,-3.955026028848063896e-02,-3.955026028848063896e-02,-3.955026028848063896e-02,-3.955026028848063896e-02,-3.955026028848063896e-02
-3.955026028848063896e-02,-3.955026028848063896e-02,-3.955026028848063896e-02,-3.955026028848063896e-02,-3.955026028848063896e-02,-3.955026028848063896e-02,-3.955026028848063896e-02,-3.955026028848063896e-02,-3.955026028848063896e-02,-3.955026028848063896e-02,-3.955026028848063896e-02,-3.955026028848063896e-02,-3.955026028848063896e-02,-3.955026028848063896e-02,-3.955026028848063896e-02,-3.955026028848063896e-02,-3.955026028848063896e-02,-3.955026028848063896e-02,-3.955026028848063896e-02,-3.955026028848063896e-02,-3.955026028848063896e-02,-3.955026028848063896e-02,-3.955026028848063896e-02,-3.955026028848063896e-02,-3.955026028848063896e-02,-3.955026028848063896e-02,-3.955026028848063896e-02,-3.955026028848063896e-02,-3.955026028848063896e-02,-3.955026028848063896e-02,-3.955026028848063896e-02,-3.955026028848063896e-02,-3.955026028848063896e-02,-3.955026028848063896e-02,-3.955026028848063896e-02,-3.955026028848063896e-02,-3.955026028848063896e-02,-3.955026028848063896e-02,-3.955026028848063896e-02,-3.955026028848063896e-02,-3.955026028848063896e-02,-3.955026028848063896e-02,-3.955026028848063896e-02,-3.955026028848063896e-02,-3.955026028848063896e-02,-3.955026028848063896e-02,-3.955026028848063896e-02
-3.955026028848063896e-02,-3.955026028848063896e-02,-3.955026028848063896e-02,-3.955026028848063896e-02,-3.955026028848063896e-02,-3.955026028848063896e-02,-3.955026028848063896e-02,-3.955026028848063896e-02,-3.955026028848063896e-02,-3.955026028848063896e-02,-3.955026028848063896e-02,-3.955026028848063896e-02,-3.955026028848063896e-02,-3.955026028848063896e-02,-3.955026028848063896e-02,-3.955026028848063896e-02,-3.955026028848063896e-02,-3.955026028848063896e-02,-3.955026028848063896e-02,-3.955026028848063896e-02,-3.955026028848063896e-02,-3.955026028848063896e-02,-3.955026028848063896e-02,-3.955026028848063896e-02,-3.955026028848063896e-02,-3.955026028848063896e-02,-3.955026028848063896e-02,-3.955026028848063896e-02,-3.955026028848063896e-02,-3.955026028848063896e-02,-3.955026028848063896e-02,-3.955026028848063896e-02,-3.955026028848063896e-02,-3.955026028848063896e-02,-3.955026028848063896e-02,-3.955026028848063896e-02,-3.955026028848063896e-02,-3.955026028848063896e-02,-3.955026028848063896e-02,-3.955026028848063896e-02,-3.955026028848063896e-02,-3.955026028848063896e-02,-3.955026028848063896e-02,-3.955026028848063896e-02,-3.955026028848063896e-02,-3.955026028848063896e-02,-3.955026028848063896e-02
-3.955026028848063896e-02,-3.955026028848063896e-02,-3.955026028848063896e-02,-3.955026028848063896e-02,-3.955026028848063896e-02,-3.955026028848063896e-02,-3.955026028848063896e-02,-3.955026028848063896e-02,-3.955026028848063896e-02,-3.955026028848063896e-02,-3.955026028848063896e-02,-3.955026028848063896e-02,-3.955026028848063896e-02,-3.955026028848063896e-02,-3.955026028848063896e-02,-3.955026028848063896e-02,-3.955026028848063896e-02,-3.955026028848063896e-02,-3.955026028848063896e-02,-3.955026028848063896e-02,-3.955026028848063896e-02,-3.955026028848063896e-02,-3.955026028848063896e-02,-3.955026028848063896e-02,-3.955026028848063896e-02,-3.955026028848063896e-02,-3.955026028848063896e-02,-3.955026028848063896e-02,-3.955026028848063896e-02,-3.955026028848063896e-02,-3.955026028848063896e-02,-3.955026028848063896e-02,-3.955026028848063896e-02,-3.955026028848063896e-02,-3.955026028848063896e-02,-3.955026028848063896e-02,-3.955026028848063896e-02,-3.955026028848063896e-02,-3.955026028848063896e-02,-3.955026028848063896e-02,-3.955026028848063896e-02,-3.955026028848063896e-02,-3.955026028848063896e-02,-3.955026028848063896e-02,-3.955026028848063896e-02,-3.955026028848063896e-02,-3.955026028848063896e-02
-3.955026028848063896e-02,-3.955026028848063896e-02,-3.955026028848063896e-02,-3.955026028848063896e-02,-3.955026028848063896e-02,-3.955026028848063896e-02,-3.955026028848063896e-02,-3.955026028848063896e-02,-3.955026028848063896e-02,-3.955026028848063896e-02,-3.955026028848063896e-02,-3.955026028848063896e-02,-3.955026028848063896e-02,-3.955026028848063896e-02,-3.955026028848063896e-02,-3.955026028848063896e-02,-3.955026028848063896e-02,-3.955026028848063896e-02,-3.955026028848063896e-02,-3.955026028848063896e-02,-3.955026028848063896e-02,-3.955026028848063896e-02,-3.955026028848063896e-02,-3.955026028848063896e-02,-3.955026028848063896e-02,-3.955026028848063896e-02,-3.955026028848063896e-02,-3.955026028848063896e-02,-3.955026028848063896e-02,-3.955026028848063896e-02,-3.955026028848063896e-02,-3.955026028848063896e-02,-3.955026028848063896e-02,-3.955026028848063896e-02,-3.955026028848063896e-02,-3.955026028848063896e-02,-3.955026028848063896e-02,-3.955026028848063896e-02,-3.955026028848063896e-02,-3.955026028848063896e-02,-3.955026028848063896e-02,-3.955026028848063896e-02,-3.955026028848063896e-02,-3.955026028848063896e-02,-3.955026028848063896e-02,-3.955026028848063896e-02,-3.955026028848063896e-02
-3.955026028848063896e-02,-3.955026028848063896e-02,-3.955026028848063896e-02,-3.955026028848063896e-02,-3.955026028848063896e-02,-3.955026028848063896e-02,-3.955026028848063896e-02,-3.955026028848063896e-02,-3.955026028848063896e-02,-3.955026028848063896e-02,-3.955026028848063896e-02,-3.955026028848063896e-02,-3.955026028848063896e-02,-3.955026028848063896e-02,-3.955026028848063896e-02,-3.955026028848063896e-02,-3.955026028848063896e-02,-3.955026028848063896e-02,-3.955026028848063896e-02,-3.955026028848063896e-02,-3.955026028848063896e-02,-3.955026028848063896e-02,-3.955026028848063896e-02,-3.955026028848063896e-02,-3.955026028848063896e-02,-3.955026028848063896e-02,-3.955026028848063896e-02,-3.955026028848063896e-02,-3.955026028848063896e-02,-3.955026028848063896e-02,-3.955026028848063896e-02,-3.955026028848063896e-02,-3.955026028848063896e-02,-3.955026028848063896e-02,-3.955026028848063896e-02,-3.955026028848063896e-02,-3.955026028848063896e-02,-3.955026028848063896e-02,-3.955026028848063896e-02,-3.955026028848063896e-02,-3.955026028848063896e-02,-3.955026028848063896e-02,-3.955026028848063896e-02,-3.955026028848063896e-02,-3.955026028848063896e-02,-3.955026028848063896e-02,-3.955026028848063896e-02
-3.955026028848063896e-02,-3.955026028848063896e-02,-3.955026028848063896e-02,-3.925092970524262509e-02,-3.326431804048237545e-02,-3.615140979493933204e-02,-3.924127387997688315e-02,-3.955026028848063896e-02,-3.955026028848063896e-02,-3.955026028848063896e-02,-3.955026028848063896e-02,-3.955026028848063896e-02,-3.955026028848063896e-02,-3.955026028848063896e-02,-3.955026028848063896e-02,-3.955026028848063896e-02,-3.955026028848063896e-02,-3.955026028848063896e-02,-3.955026028848063896e-02,-3.955026028848063896e-02,-3.955026028848063896e-02,-3.955026028848063896e-02,-3.955026028848063896e-02,-3.955026028848063896e-02,-3.955026028848063896e-02,-3.955026028848063896e-02,-3.955026028848063896e-02,-3.955026028848063896e-02,-3.955026028848063896e-02,-3.955026028848063896e-02,-3.955026028848063896e-02,-3.955026028848063896e-02,-3.955026028848063896e-02,-3.955026028848063896e-02,-3.955026028848063896e-02,-3.955026028848063896e-02,-3.955026028848063896e-02,-3.955026028848063896e-02,-3.955026028848063896e-02,-3.955026028848063896e-02,-3.955026028848063896e-02,-3.955026028848063896e-02,-3.955026028848063896e-02,-3.955026028848063896e-02,-3.955026028848063896e-02,-3.955026028848063896e-02,-3.955026028848063896e-02
-3.955026028848063896e-02,-3.955026028848063896e-02,-3.955026028848063896e-02,-3.307120153516752981e-02,-2.348296704628538220e-02,-2.657283113132292984e-02,-2.966269521636048095e-02,-3.275255930139803207e-02,-3.584242338643557624e-02,-3.893228747147312735e-02,-3.955026028848063896e-02,-3.955026028848063896e-02,-3.955026028848063896e-02,-3.955026028848063896e-02,-3.955026028848063896e-02,-3.955026028848063896e-02,-3.955026028848063896e-02,-3.955026028848063896e-02,-3.955026028848063896e-02,-3.955026028848063896e-02,-3.955026028848063896e-02,-3.955026028848063896e-02,-3.955026028848063896e-02,-3.955026028848063896e-02,-3.955026028848063896e-02,-3.955026028848063896e-02,-3.955026028848063896e-02,-3.955026028848063896e-02,-3.955026028848063896e-02,-3.955026028848063896e-02,-3.955026028848063896e-02,-3.955026028848063896e-02,-3.955026028848063896e-02,-3.955026028848063896e-02,-3.955026028848063896e-02,-3.955026028848063896e-02,-3.955026028848063896e-02,-3.955026028848063896e-02,-3.955026028848063896e-02,-3.955026028848063896e-02,-3.955026028848063896e-02,-3.955026028848063896e-02,-3.955026028848063896e-02,-3.955026028848063896e-02,-3.955026028848063896e-02,-3.955026028848063896e-02,-3.955026028848063896e-02
-3.955026028848063896e-02,-3.955026028848063896e-02,-3.955026028848063896e-02,-2.089520587506643254e-02,-1.421337479117273581e-02,-1.730323887621028345e-02,-2.039310296124783109e-02,-2.348296704628538220e-02,-2.657283113132292984e-02,-2.935370880785672515e-02,-3.244357289289427626e-02,-3.553343697793182737e-02,-3.862330106296937154e-02,-3.955026028848063896e-02,-3.955026028848063896e-02,-3.955026028848063896e-02,-3.955026028848063896e-02,-3.955026028848063896e-02,-3.955026028848063896e-02,-3.955026028848063896e-02,-3.955026028848063896e-02,-3.955026028848063896e-02,-3.955026028848063896e-02,-3.955026028848063896e-02,-3.955026028848063896e-02,-3.955026028848063896e-02,-3.955026028848063896e-02,-3.955026028848063896e-02,-3.955026028848063896e-02,-3.955026028848063896e-02,-3.955026028848063896e-02,-3.955026028848063896e-02,-3.955026028848063896e-02,-3.955026028848063896e-02,-3.955026028848063896e-02,-3.955026028848063896e-02,-3.955026028848063896e-02,-3.955026028848063896e-02,-3.955026028848063896e-02,-3.955026028848063896e-02,-3.955026028848063896e-02,-3.955026028848063896e-02,-3.955026028848063896e-02,-3.955026028848063896e-02,-3.955026028848063896e-02,-3.955026028848063896e-02,-3.955026028848063896e-02
-3.955026028848063896e-02,-3.955026028848063896e-02,-3.955026028848063896e-02,-3.031929133443099500e-03,-4.943782536060085941e-03,-7.724660212593881248e-03,-1.081452429763143236e-02,-1.390438838266898000e-02,-1.699425246770652764e-02,-2.008411655274408222e-02,-2.317398063778162987e-02,-2.626384472281917404e-02,-2.935370880785672515e-02,-3.244357289289427626e-02,-3.553343697793182737e-02,-3.831431465446562268e-02,-3.955026028848063896e-02,-3.955026028848063896e-02,-3.955026028848063896e-02,-3.955026028848063896e-02,-3.955026028848063896e-02,-3.955026028848063896e-02,-3.955026028848063896e-02,-3.955026028848063896e-02,-3.955026028848063896e-02,-3.955026028848063896e-02,-3.955026028848063896e-02,-3.955026028848063896e-02,-3.955026028848063896e-02,-3.955026028848063896e-02,-3.955026028848063896e-02,-3.955026028848063896e-02,-3.955026028848063896e-02,-3.955026028848063896e-02,-3.955026028848063896e-02,-3.955026028848063896e-02,-3.955026028848063896e-02,-3.955026028848063896e-02,-3.955026028848063896e-02,-3.955026028848063896e-02,-3.955026028848063896e-02,-3.955026028848063896e-02,-3.955026028848063896e-02,-3.955026028848063896e-02,-3.955026028848063896e-02,-3.955026028848063896e-02,-3.955026028848063896e-02
-3.955026028848063896e-02,-3.955026028848063896e-02,-2.719080394833044145e-02,0.000000000000000000e+00,-6.938893903907228378e-18,-6.938893903907228378e-18,-1.544932042518779025e-03,-4.634796127556330136e-03,-7.724660212593881248e-03,-1.081452429763142889e-02,-1.390438838266898347e-02,-1.668526605920277184e-02,-1.977513014424032295e-02,-2.286499422927787406e-02,-2.595485831431542170e-02,-2.904472239935296934e-02,-3.213458648439052046e-02,-3.522445056942807157e-02,-3.831431465446562268e-02,-3.955026028848063896e-02,-3.955026028848063896e-02,-3.955026028848063896e-02,-3.955026028848063896e-02,-3.955026028848063896e-02,-3.955026028848063896e-02,-3.955026028848063896e-02,-3.955026028848063896e-02,-3.955026028848063896e-02,-3.955026028848063896e-02,-3.955026028848063896e-02,-3.955026028848063896e-02,-3.955026028848063896e-02,-3.955026028848063896e-02,-3.955026028848063896e-02,-3.955026028848063896e-02,-3.955026028848063896e-02,-3.955026028848063896e-02,-3.955026028848063896e-02,-3.955026028848063896e-02,-3.955026028848063896e-02,-3.955026028848063896e-02,-3.955026028848063896e-02,-3.955026028848063896e-02,-3.955026028848063896e-02,-3.955026028848063896e-02,-3.955026028848063896e-02,-3.955026028848063896e-02
-3.955026028848063896e-02,-3.955026028848063896e-02,-1.483134760818024395e-02,-6.938893903907228378e-18,-6.938893903907228378e-18,-6.938893903907228378e-18,-6.938893903907228378e-18,-6.938893903907228378e-18,-6.938893903907228378e-18,-1.235945634015030159e-03,-4.325809719052574331e-03,-7.415673804090125443e-03,-1.050553788912767655e-02,-1.359540197416522767e-02,-1.668526605920277184e-02,-1.977513014424032295e-02,-2.255600782077411826e-02,-2.564587190581166937e-02,-2.873573599084921701e-02,-3.182560007588676465e-02,-3.491546416092431576e-02,-3.800532824596186687e-02,-3.955026028848063896e-02,-3.955026028848063896e-02,-3.955026028848063896e-02,-3.955026028848063896e-02,-3.955026028848063896e-02,-3.955026028848063896e-02,-3.955026028848063896e-02,-3.955026028848063896e-02,-3.955026028848063896e-02,-3.955026028848063896e-02,-3.955026028848063896e-02,-3.955026028848063896e-02,-3.955026028848063896e-02,-3.955026028848063896e-02,-3.955026028848063896e-02,-3.955026028848063896e-02,-3.955026028848063896e-02,-3.955026028848063896e-02,-3.955026028848063896e-02,-3.955026028848063896e-02,-3.955026028848063896e-02,-3.955026028848063896e-02,-3.955026028848063896e-02,-3.955026028848063896e-02,-3.955026028848063896e-02
-3.955026028848063896e-02,-3.955026028848063896e-02,-2.471891268030046440e-03,-1.387778780781445676e-17,-1.387778780781445676e-17,-6.938893903907228378e-18,-6.938893903907228378e-18,-6.938893903907228378e-18,-6.938893903907228378e-18,-6.938893903907228378e-18,-6.938893903907228378e-18,-6.938893903907228378e-18,-9.269592255112743540e-04,-4.016823310548825465e-03,-7.106687395586369638e-03,-1.019655148062392075e-02,-1.328641556566146839e-02,-1.637627965069901950e-02,-1.946614373573656714e-02,-2.255600782077411826e-02,-2.564587190581166590e-02,-2.873573599084921354e-02,-3.151661366738300885e-02,-3.460647775242055996e-02,-3.769634183745811107e-02,-3.955026028848063896e-02,-3.955026028848063896e-02,-3.955026028848063896e-02,-3.955026028848063896e-02,-3.955026028848063896e-02,-3.955026028848063896e-02,-3.955026028848063896e-02,-3.955026028848063896e-02,-3.955026028848063896e-02,-3.955026028848063896e-02,-3.955026028848063896e-02,-3.955026028848063896e-02,-3.955026028848063896e-02,-3.955026028848063896e-02,-3.955026028848063896e-02,-3.955026028848063896e-02,-3.955026028848063896e-02,-3.955026028848063896e-02,-3.955026028848063896e-02,-3.955026028848063896e-02,-3.955026028848063896e-02,-3.955026028848063896e-02
-3.955026028848063896e-02,-2.912196900147891176e-02,-1.853918451022534830e-03,-1.235945634015023220e-03,-6.179728170075185489e-04,-6.938893903907228378e-18,-6.938893903907228378e-18,-6.938893903907228378e-18,-6.938893903907228378e-18,-6.938893903907228378e-18,-6.938893903907228378e-18,-6.938893903907228378e-18,-1.387778780781445676e-17,-6.938893903907228378e-18,-6.938893903907228378e-18,-9.269592255112743540e-04,-4.016823310548818526e-03,-7.106687395586369638e-03,-9.887565072120164944e-03,-1.297742915715771606e-02,-1.606729324219526370e-02,-1.915715732723281481e-02,-2.224702141227036245e-02,-2.533688549730791009e-02,-2.842674958234546120e-02,-3.151661366738300885e-02,-3.460647775242055996e-02,-3.033292509809527027e-01,-3.054921558404790072e-01,-3.054921558404790072e-01,-3.955026028848063896e-02,-3.955026028848063896e-02,-3.955026028848063896e-02,-3.955026028848063896e-02,-3.955026028848063896e-02,-3.955026028848063896e-02,-3.955026028848063896e-02,-3.955026028848063896e-02,-3.955026028848063896e-02,-3.955026028848063896e-02,-3.955026028848063896e-02,-3.955026028848063896e-02,-3.955026028848063896e-02,-3.955026028848063896e-02,-3.955026028848063896e-02,-3.955026028848063896e-02,-3.955026028848063896e-02
-3.955026028848063896e-02,-1.863574276288272949e-02,-3.707836902045062721e-03,-3.089864085037551111e-03,-2.533688549730801765e-03,-1.915715732723290154e-03,-1.297742915715778544e-03,-6.797700987082669344e-04,-6.179728170075532434e-05,0.000000000000000000e+00,-6.938893903907228378e-18,-6.938893903907228378e-18,-6.938893903907228378e-18,-6.938893903907228378e-18,-6.938893903907228378e-18,-6.938893903907228378e-18,-6.938893903907228378e-18,-6.938893903907228378e-18,-6.179728170075185489e-04,-3.707836902045069660e-03,-6.797700987082613833e-03,-9.887565072120164944e-03,-1.297742915715771259e-02,-1.575830683369150789e-02,-1.884817091872905553e-02,-2.193803500376660665e-02,-2.502789908880415776e-02,-2.940596587258400563e-01,-2.971495228108776421e-01,-3.002393868959151724e-01,-3.738735542895435526e-02,-3.955026028848063896e-02,-3.955026028848063896e-02,-3.955026028848063896e-02,-3.955026028848063896e-02,-3.955026028848063896e-02,-3.955026028848063896e-02,-3.955026028848063896e-02,-3.955026028848063896e-02,-3.955026028848063896e-02,-3.955026028848063896e-02,-3.955026028848063896e-02,-3.955026028848063896e-02,-3.955026028848063896e-02,-3.955026028848063896e-02,-3.955026028848063896e-02,-3.955026028848063896e-02
-3.955026028848063896e-02,-9.364219342716931238e-03,-5.623552634768345937e-03,-5.005579817760834327e-03,-4.387607000753329656e-03,-3.769634183745818046e-03,-3.151661366738306436e-03,-2.533688549730801765e-03,-1.915715732723297093e-03,-1.359540197416526930e-03,-7.415673804090153198e-04,-1.235945634015037098e-04,-6.938893903907228378e-18,-6.938893903907228378e-18,-6.938893903907228378e-18,-6.938893903907228378e-18,-6.938893903907228378e-18,-6.938893903907228378e-18,-6.938893903907228378e-18,-6.938893903907228378e-18,-1.387778780781445676e-17,-3.089864085037696828e-04,-3.398850493541306916e-03,-6.488714578578864967e-03,-9.578578663616412608e-03,-1.266844274865395678e-02,-1.575830683369151136e-02,-2.847900664707274099e-01,-2.878799305557649957e-01,-2.906608082322987840e-01,-2.780877676533795306e-02,-3.089864085037550070e-02,-3.398850493541304835e-02,-3.707836902045059946e-02,-3.955026028848063896e-02,-3.955026028848063896e-02,-3.955026028848063896e-02,-3.955026028848063896e-02,-3.955026028848063896e-02,-3.955026028848063896e-02,-3.955026028848063896e-02,-3.955026028848063896e-02,-3.955026028848063896e-02,-3.955026028848063896e-02,-3.955026028848063896e-02,-3.955026028848063896e-02,-3.955026028848063896e-02
-3.087739803479086845e-02,-8.095443902798385438e-03,-7.477471085790873828e-03,-6.859498268783369157e-03,-6.241525451775857547e-03,-5.685349916469094322e-03,-5.067377099461589651e-03,-4.449404282454078041e-03,-3.831431465446573370e-03,-3.213458648439061760e-03,-2.595485831431550150e-03,-1.977513014424038540e-03,-1.359540197416533869e-03,-7.415673804090222587e-04,-1.235945634015037098e-04,-6.938893903907228378e-18,-6.938893903907228378e-18,-6.938893903907228378e-18,-1.387778780781445676e-17,-6.938893903907228378e-18,-6.938893903907228378e-18,0.000000000000000000e+00,-6.938893903907228378e-18,-6.938893903907228378e-18,-6.938893903907228378e-18,-3.089864085037551111e-03,-6.179728170075109162e-03,-9.269592255112656803e-03,-1.235945634015020445e-02,-1.544932042518775209e-02,-1.853918451022530320e-02,-2.162904859526285084e-02,-2.471891268030040195e-02,-2.780877676533795306e-02,-3.058965444187174837e-02,-3.367951852690929254e-02,-3.676938261194684365e-02,-3.955026028848063896e-02,-3.955026028848063896e-02,-3.955026028848063896e-02,-3.955026028848063896e-02,-3.955026028848063896e-02,-3.955026028848063896e-02,-3.955026028848063896e-02,-3.955026028848063896e-02,-3.955026028848063896e-02,-3.955026028848063896e-02
-2.234164849987463689e-02,-1.001115963552166865e-02,-9.393186818514157044e-03,-8.775214001506645434e-03,-8.157241184499140763e-03,-7.539268367491629153e-03,-6.921295550484117542e-03,-6.303322733476605932e-03,-5.685349916469101261e-03,-5.067377099461582712e-03,-4.449404282454078041e-03,-3.893228747147314817e-03,-3.275255930139810145e-03,-2.657283113132298535e-03,-2.039310296124786925e-03,-1.421337479117275315e-03,-8.033646621097706442e-04,-1.853918451022590341e-04,-6.938893903907228378e-18,-6.938893903907228378e-18,-6.938893903907228378e-18,-6.938893903907228378e-18,-6.938893903907228378e-18,-6.938893903907228378e-18,-6.938893903907228378e-18,-6.938893903907228378e-18,-6.938893903907228378e-18,-6.938893903907228378e-18,-3.089864085037551111e-03,-6.179728170075109162e-03,-8.960605846608900998e-03,-1.205046993164644864e-02,-1.514033401668399975e-02,-1.823019810172155086e-02,-2.132006218675909850e-02,-2.440992627179664615e-02,-2.749979035683419726e-02,-3.058965444187174490e-02,-3.367951852690929254e-02,-3.676938261194684365e-02,-3.955026028848063896e-02,-3.955026028848063896e-02,-3.955026028848063896e-02,-3.955026028848063896e-02,-3.955026028848063896e-02,-3.955026028848063896e-02,-3.955026028848063896e-02
-1.586645207666782451e-02,-1.186507808654419655e-02,-1.124710526953668493e-02,-1.062913245252917679e-02,-1.001115963552166865e-02,-9.393186818514157044e-03,-8.837011283207397289e-03,-8.219038466199889148e-03,-7.601065649192377538e-03,-6.983092832184865928e-03,-6.365120015177354318e-03,-5.747147198169849647e-03,-5.129174381162338037e-03,-4.511201564154833366e-03,-3.893228747147314817e-03,-3.275255930139810145e-03,-2.719080394833046921e-03,-2.101107577825542250e-03,-1.483134760818030640e-03,-8.651619438105259685e-04,-2.471891268030143585e-04,-6.938893903907228378e-18,-6.938893903907228378e-18,-6.938893903907228378e-18,-6.938893903907228378e-18,-6.938893903907228378e-18,-6.938893903907228378e-18,-1.387778780781445676e-17,-6.938893903907228378e-18,-6.938893903907228378e-18,-6.938893903907228378e-18,-2.780877676533795306e-03,-5.870741761571353357e-03,-8.960605846608900998e-03,-1.205046993164644517e-02,-1.514033401668399975e-02,-1.792121169321779506e-02,-2.101107577825534270e-02,-2.410093986329289381e-02,-2.719080394833044145e-02,-3.028066803336799256e-02,-3.337053211840554368e-02,-3.646039620344308785e-02,-3.955026028848063896e-02,-3.955026028848063896e-02,-3.955026028848063896e-02,-3.955026028848063896e-02
-1.433696935457423605e-02,-1.371899653756672444e-02,-1.316282100225996815e-02,-1.254484818525245654e-02,-1.192687536824494493e-02,-1.130890255123743679e-02,-1.069092973422992865e-02,-1.007295691722242051e-02,-9.454984100214905429e-03,-8.837011283207397289e-03,-8.219038466199889148e-03,-7.601065649192377538e-03,-7.044890113885614313e-03,-6.426917296878109642e-03,-5.808944479870598032e-03,-5.190971662863093361e-03,-4.572998845855581751e-03,-3.955026028848070141e-03,-3.337053211840558531e-03,-2.719080394833046921e-03,-2.101107577825542250e-03,-1.483134760818030640e-03,-9.269592255112743540e-04,-3.089864085037627439e-04,-1.387778780781445676e-17,-6.938893903907228378e-18,-6.938893903907228378e-18,-6.938893903907228378e-18,-6.938893903907228378e-18,-6.938893903907228378e-18,-1.387778780781445676e-17,-1.387778780781445676e-17,-6.938893903907228378e-18,-6.938893903907228378e-18,-2.471891268030046440e-03,-5.561755353067597551e-03,-8.651619438105145193e-03,-1.174148352314269630e-02,-1.483134760818024395e-02,-1.792121169321779506e-02,-2.101107577825534270e-02,-2.379195345478913454e-02,-2.688181753982668565e-02,-2.997168162486423676e-02,-3.306154570990178787e-02,-3.615140979493933204e-02,-3.924127387997688315e-02
-1.625268508729751926e-02,-1.563471227029000418e-02,-1.501673945328249951e-02,-1.439876663627498790e-02,-1.378079381926747976e-02,-1.316282100225996815e-02,-1.254484818525245654e-02,-1.192687536824494493e-02,-1.137069983293818864e-02,-1.075272701593067703e-02,-1.013475419892316889e-02,-9.516781381915660754e-03,-8.898808564908149144e-03,-8.280835747900637533e-03,-7.662862930893125923e-03,-7.044890113885614313e-03,-6.426917296878109642e-03,-5.870741761571346418e-03,-5.252768944563841746e-03,-4.634796127556330136e-03,-4.016823310548818526e-03,-3.398850493541313855e-03,-2.780877676533802245e-03,-2.162904859526290635e-03,-1.544932042518785964e-03,-9.269592255112674151e-04,-3.089864085037627439e-04,-6.938893903907228378e-18,-6.938893903907228378e-18,-6.938893903907228378e-18,-6.938893903907228378e-18,-6.938893903907228378e-18,-6.938893903907228378e-18,-6.938893903907228378e-18,-6.938893903907228378e-18,-6.938893903907228378e-18,-6.938893903907228378e-18,-2.162904859526290635e-03,-5.252768944563841746e-03,-8.342633029601385919e-03,-1.143249711463894050e-02,-1.452236119967649161e-02,-1.761222528471403925e-02,-2.070208936975158689e-02,-2.379195345478913801e-02,-2.688181753982668565e-02,-2.997168162486423676e-02
-1.810660353832004715e-02,-1.748863072131253554e-02,-1.687065790430502393e-02,-1.631448236899826765e-02,-1.569650955199075951e-02,-1.507853673498324790e-02,-1.446056391797573976e-02,-1.384259110096822815e-02,-1.322461828396072001e-02,-1.260664546695320840e-02,-1.198867264994569679e-02,-1.137069983293818864e-02,-1.075272701593068050e-02,-1.019655148062392075e-02,-9.578578663616409139e-03,-8.960605846608900998e-03,-8.342633029601389388e-03,-7.724660212593881248e-03,-7.106687395586369638e-03,-6.488714578578858028e-03,-5.870741761571353357e-03,-5.252768944563841746e-03,-4.634796127556330136e-03,-4.078620592249573851e-03,-3.460647775242062241e-03,-2.842674958234550631e-03,-2.224702141227045959e-03,-1.606729324219534349e-03,-9.887565072120227394e-04,-3.707836902045111294e-04,-6.938893903907228378e-18,-6.938893903907228378e-18,-6.938893903907228378e-18,-6.938893903907228378e-18,-6.938893903907228378e-18,-6.938893903907228378e-18,-6.938893903907228378e-18,-6.938893903907228378e-18,-6.938893903907228378e-18,-6.938893903907228378e-18,-2.162904859526297574e-03,-5.252768944563841746e-03,-8.033646621097637053e-03,-1.112351070613518816e-02,-1.421337479117273581e-02,-1.730323887621028345e-02,-2.039310296124783456e-02
-2.002231927104332690e-02,-1.940434645403581529e-02,-1.878637363702830715e-02,-1.816840082002079554e-02,-1.755042800301328740e-02,-1.693245518600577926e-02,-1.631448236899826765e-02,-1.569650955199075951e-02,-1.507853673498324790e-02,-1.452236119967648814e-02,-1.390438838266897653e-02,-1.328641556566147186e-02,-1.266844274865396025e-02,-1.205046993164645211e-02,-1.143249711463894397e-02,-1.081452429763143236e-02,-1.019655148062392075e-02,-9.578578663616409139e-03,-8.960605846608900998e-03,-8.404430311302141243e-03,-7.786457494294629633e-03,-7.168484677287124962e-03,-6.550511860279613352e-03,-5.932539043272101742e-03,-5.314566226264597071e-03,-4.696593409257078522e-03,-4.078620592249566912e-03,-3.460647775242062241e-03,-2.842674958234557570e-03,-2.286499422927794345e-03,-1.668526605920282735e-03,-1.050553788912771125e-03,-4.325809719052664537e-04,-6.938893903907228378e-18,-6.938893903907228378e-18,-6.938893903907228378e-18,0.000000000000000000e+00,0.000000000000000000e+00,-6.938893903907228378e-18,-6.938893903907228378e-18,-6.938893903907228378e-18,-6.938893903907228378e-18,-6.938893903907228378e-18,-1.853918451022534830e-03,-4.943782536060085941e-03,-8.033646621097637053e-03,-1.112351070613518469e-02
-2.187623772206585826e-02,-2.125826490505834665e-02,-2.064029208805083504e-02,-2.002231927104332690e-02,-1.940434645403581876e-02,-1.884817091872905900e-02,-1.823019810172154739e-02,-1.761222528471403925e-02,-1.699425246770652764e-02,-1.637627965069901950e-02,-1.575830683369150789e-02,-1.514033401668399975e-02,-1.452236119967648814e-02,-1.390438838266897653e-02,-1.328641556566146839e-02,-1.273024003035471211e-02,-1.211226721334720050e-02,-1.149429439633969235e-02,-1.087632157933218074e-02,-1.025834876232467260e-02,-9.640375945317157524e-03,-9.022403128309652853e-03,-8.404430311302141243e-03,-7.786457494294629633e-03,-7.230281958987873347e-03,-6.612309141980361737e-03,-5.994336324972857066e-03,-5.376363507965338517e-03,-4.758390690957833846e-03,-4.140417873950322236e-03,-3.522445056942810626e-03,-2.904472239935305955e-03,-2.286499422927794345e-03,-1.668526605920275796e-03,-1.112351070613526449e-03,-4.943782536060148391e-04,-6.938893903907228378e-18,-6.938893903907228378e-18,-6.938893903907228378e-18,-6.938893903907228378e-18,-6.938893903907228378e-18,-6.938893903907228378e-18,-6.938893903907228378e-18,-6.938893903907228378e-18,-6.938893903907228378e-18,-6.938893903907228378e-18,-1.544932042518785964e-03
-2.373015617308838615e-02,-2.317398063778162640e-02,-2.255600782077411826e-02,-2.193803500376660665e-02,-2.132006218675909850e-02,-2.070208936975158689e-02,-2.008411655274407875e-02,-1.946614373573656714e-02,-1.884817091872905900e-02,-1.823019810172154739e-02,-1.767402256641478764e-02,-1.705604974940727950e-02,-1.643807693239977136e-02,-1.582010411539225975e-02,-1.520213129838474814e-02,-1.458415848137724000e-02,-1.396618566436973186e-02,-1.334821284736222025e-02,-1.273024003035470864e-02,-1.211226721334720050e-02,-1.155609167804044074e-02,-1.093811886103292913e-02,-1.032014604402542446e-02,-9.702173227017912849e-03,-9.084200410010401239e-03,-8.466227593002889629e-03,-7.848254775995384958e-03,-7.230281958987873347e-03,-6.612309141980361737e-03,-5.994336324972850127e-03,-5.438160789666093842e-03,-4.820187972658582232e-03,-4.202215155651077561e-03,-3.584242338643565950e-03,-2.966269521636054340e-03,-2.348296704628542730e-03,-1.730323887621038059e-03,-1.112351070613526449e-03,-4.943782536060217780e-04,-6.938893903907228378e-18,-6.938893903907228378e-18,-1.387778780781445676e-17,-6.938893903907228378e-18,-6.938893903907228378e-18,-6.938893903907228378e-18,-6.938893903907228378e-18,-6.938893903907228378e-18
-2.564587190581166937e-02,-2.502789908880415776e-02,-2.440992627179664615e-02,-2.379195345478913801e-02,-2.317398063778162987e-02,-2.255600782077411826e-02,-2.199983228546735850e-02,-2.138185946845985036e-02,-2.076388665145233875e-02,-2.014591383444482714e-02,-1.952794101743731900e-02,-1.890996820042981086e-02,-1.829199538342229925e-02,-1.767402256641478764e-02,-1.705604974940727603e-02,-1.643807693239977136e-02,-1.588190139709300813e-02,-1.526392858008550346e-02,-1.464595576307799185e-02,-1.402798294607048024e-02,-1.341001012906296863e-02,-1.279203731205546396e-02,-1.217406449504794888e-02,-1.155609167804043727e-02,-1.093811886103293260e-02,-1.032014604402542446e-02,-9.763970508718661234e-03,-9.145997691711156563e-03,-8.528024874703644953e-03,-7.910052057696133343e-03,-7.292079240688621733e-03,-6.674106423681110123e-03,-6.056133606673605452e-03,-5.438160789666093842e-03,-4.820187972658582232e-03,-4.264012437351825946e-03,-3.646039620344314336e-03,-3.028066803336802726e-03,-2.410093986329298055e-03,-1.792121169321779506e-03,-1.174148352314281774e-03,-5.561755353067701635e-04,-6.938893903907228378e-18,-6.938893903907228378e-18,-6.938893903907228378e-18,-6.938893903907228378e-18,-6.938893903907228378e-18
-2.749979035683419726e-02,-2.688181753982668565e-02,-2.632564200451992936e-02,-2.570766918751241775e-02,-2.508969637050490614e-02,-2.447172355349739800e-02,-2.385375073648988639e-02,-2.323577791948237825e-02,-2.261780510247486664e-02,-2.199983228546735850e-02,-2.138185946845984689e-02,-2.076388665145233875e-02,-2.020771111614557899e-02,-1.958973829913806738e-02,-1.897176548213055924e-02,-1.835379266512305110e-02,-1.773581984811553949e-02,-1.711784703110803135e-02,-1.649987421410051974e-02,-1.588190139709301160e-02,-1.526392858008549999e-02,-1.464595576307799185e-02,-1.408978022777123210e-02,-1.347180741076372049e-02,-1.285383459375621235e-02,-1.223586177674870074e-02,-1.161788895974119259e-02,-1.099991614273368445e-02,-1.038194332572617284e-02,-9.763970508718661234e-03,-9.145997691711149624e-03,-8.589822156404393338e-03,-7.971849339396881728e-03,-7.353876522389377057e-03,-6.735903705381865447e-03,-6.117930888374353837e-03,-5.499958071366842227e-03,-4.881985254359337556e-03,-4.264012437351825946e-03,-3.646039620344314336e-03,-3.028066803336802726e-03,-2.471891268030046440e-03,-1.853918451022534830e-03,-1.235945634015030159e-03,-6.179728170075185489e-04,-6.938893903907228378e-18,-3.707836902045062721e-03
-2.941550608955747700e-02,-2.879753327254996886e-02,-2.817956045554245725e-02,-2.756158763853494564e-02,-2.694361482152743750e-02,-2.632564200451992936e-02,-2.570766918751241775e-02,-2.508969637050490614e-02,-2.453352083519814986e-02,-2.391554801819063825e-02,-2.329757520118313011e-02,-2.267960238417561850e-02,-2.206162956716811036e-02,-2.144365675016060221e-02,-2.082568393315308714e-02,-2.020771111614557899e-02,-1.958973829913807085e-02,-1.903356276383130763e-02,-1.841558994682379949e-02,-1.779761712981629135e-02,-1.717964431280877974e-02,-1.656167149580127160e-02,-1.594369867879376346e-02,-1.532572586178625185e-02,-1.470775304477874024e-02,-1.408978022777123210e-02,-1.347180741076372049e-02,-1.291563187545696073e-02,-1.229765905844945606e-02,-1.167968624144194792e-02,-1.106171342443443631e-02,-1.044374060742692470e-02,-9.825767790419413089e-03,-9.207794973411904949e-03,-8.589822156404393338e-03,-7.971849339396888667e-03,-7.353876522389377057e-03,-6.797700987082613833e-03,-6.179728170075109162e-03,-5.561755353067597551e-03,-4.943782536060085941e-03,-4.325809719052581270e-03,-3.707836902045062721e-03,-3.089864085037558050e-03,-2.471891268030046440e-03,-1.853918451022534830e-03,-1.680113596239168200e-02
-3.126942454058000836e-02,-3.065145172357249675e-02,-3.003347890656498861e-02,-2.947730337125822886e-02,-2.885933055425071725e-02,-2.824135773724320911e-02,-2.762338492023570097e-02,-2.700541210322818936e-02,-2.638743928622067775e-02,-2.576946646921316961e-02,-2.515149365220565800e-02,-2.453352083519814986e-02,-2.391554801819063825e-02,-2.335937248288387849e-02,-2.274139966587637035e-02,-2.212342684886885874e-02,-2.150545403186135060e-02,-2.088748121485384246e-02,-2.026950839784633085e-02,-1.965153558083881924e-02,-1.903356276383131110e-02,-1.841558994682379949e-02,-1.779761712981629135e-02,-1.724144159450953159e-02,-1.662346877750202345e-02,-1.600549596049451184e-02,-1.538752314348700370e-02,-1.476955032647949209e-02,-1.415157750947198395e-02,-1.353360469246447581e-02,-1.291563187545696073e-02,-1.229765905844945606e-02,-1.167968624144194445e-02,-1.112351070613518816e-02,-1.050553788912767655e-02,-9.887565072120164944e-03,-9.269592255112656803e-03,-8.651619438105148663e-03,-8.033646621097637053e-03,-7.415673804090125443e-03,-6.797700987082620772e-03,-6.179728170075102223e-03,-5.623552634768345937e-03,-5.005579817760834327e-03,-4.387607000753329656e-03,-3.769634183745811107e-03,-2.931315434174060902e-02
-3.318514027330328464e-02,-3.256716745629577997e-02,-3.194919463928826836e-02,-3.133122182228075675e-02,-3.071324900527324861e-02,-3.009527618826573700e-02,-2.947730337125822886e-02,-2.885933055425071725e-02,-2.824135773724320911e-02,-2.768518220193644935e-02,-2.706720938492893774e-02,-2.644923656792142960e-02,-2.583126375091392146e-02,-2.521329093390640985e-02,-2.459531811689889824e-02,-2.397734529989139010e-02,-2.335937248288388196e-02,-2.274139966587637035e-02,-2.212342684886886221e-02,-2.156725131356210245e-02,-2.094927849655459084e-02,-2.033130567954707923e-02,-1.971333286253957456e-02,-1.909536004553206295e-02,-1.847738722852455134e-02,-1.785941441151703973e-02,-1.724144159450952812e-02,-1.662346877750202345e-02,-1.606729324219526370e-02,-1.544932042518775556e-02,-1.483134760818024395e-02,-1.421337479117273234e-02,-1.359540197416522420e-02,-1.297742915715771606e-02,-1.235945634015020445e-02,-1.174148352314269284e-02,-1.112351070613518469e-02,-1.050553788912767655e-02,-9.949362353820916799e-03,-9.331389536813408658e-03,-8.713416719805897048e-03,-8.095443902798385438e-03,-7.477471085790873828e-03,-6.859498268783369157e-03,-6.241525451775857547e-03,-8.804181477303874709e-03,-3.955026028848063896e-02
-3.503905872432581947e-02,-3.442108590731830786e-02,-3.380311309031079625e-02,-3.318514027330328464e-02,-3.256716745629577997e-02,-3.201099192098901675e-02,-3.139301910398151207e-02,-3.077504628697400046e-02,-3.015707346996648885e-02,-2.953910065295897724e-02,-2.892112783595146910e-02,-2.830315501894396096e-02,-2.768518220193644935e-02,-2.706720938492893774e-02,-2.651103384962218146e-02,-2.589306103261466985e-02,-2.527508821560716171e-02,-2.465711539859965010e-02,-2.403914258159214196e-02,-2.342116976458463035e-02,-2.280319694757712221e-02,-2.218522413056961060e-02,-2.156725131356209899e-02,-2.094927849655459084e-02,-2.039310296124783109e-02,-1.977513014424032295e-02,-1.915715732723281134e-02,-1.853918451022530320e-02,-1.792121169321779506e-02,-1.730323887621028345e-02,-1.668526605920277184e-02,-1.606729324219526717e-02,-1.544932042518775209e-02,-1.483134760818024395e-02,-1.427517207287348419e-02,-1.365719925586597605e-02,-1.303922643885846791e-02,-1.242125362185095630e-02,-1.180328080484344469e-02,-1.118530798783593655e-02,-1.056733517082842494e-02,-9.949362353820913329e-03,-9.331389536813408658e-03,-8.713416719805897048e-03,-8.157241184499140763e-03,-2.054373383539341569e-02,-3.955026028848063896e-02
-3.689297717534834736e-02,-3.633680164004159108e-02,-3.571882882303407947e-02,-3.510085600602656786e-02,-3.448288318901905625e-02,-3.386491037201154464e-02,-3.324693755500403997e-02,-3.262896473799652836e-02,-3.201099192098901675e-02,-3.139301910398151207e-02,-3.083684356867474885e-02,-3.021887075166723724e-02,-2.960089793465972910e-02,-2.898292511765222096e-02,-2.836495230064470935e-02,-2.774697948363719774e-02,-2.712900666662968960e-02,-2.651103384962218146e-02,-2.589306103261466985e-02,-2.527508821560715824e-02,-2.471891268030040195e-02,-2.410093986329289034e-02,-2.348296704628538220e-02,-2.286499422927787059e-02,-2.224702141227036245e-02,-2.162904859526285431e-02,-2.101107577825534270e-02,-2.039310296124783456e-02,-1.977513014424032295e-02,-1.915715732723281481e-02,-1.860098179192605505e-02,-1.798300897491854344e-02,-1.736503615791103530e-02,-1.674706334090352369e-02,-1.612909052389601555e-02,-1.551111770688850741e-02,-1.489314488988099233e-02,-1.427517207287348419e-02,-1.365719925586597605e-02,-1.303922643885846444e-02,-1.248305090355170816e-02,-1.186507808654419655e-02,-1.124710526953668493e-02,-1.062913245252917679e-02,-1.001115963552166865e-02,-3.106858337505256570e-02,-3.955026028848063896e-02
-3.880869290807162364e-02,-3.819072009106411897e-02,-3.757274727405660736e-02,-3.695477445704909575e-02,-3.633680164004159108e-02,-3.571882882303407947e-02,-3.516265328772731624e-02,-3.454468047071981157e-02,-3.392670765371229996e-02,-3.330873483670478835e-02,-3.269076201969728368e-02,-3.207278920268977207e-02,-3.145481638568226046e-02,-3.083684356867474885e-02,-3.021887075166723724e-02,-2.960089793465973257e-02,-2.904472239935297281e-02,-2.842674958234546120e-02,-2.780877676533795306e-02,-2.719080394833044145e-02,-2.657283113132292984e-02,-2.595485831431542170e-02,-2.533688549730791356e-02,-2.471891268030040195e-02,-2.410093986329289034e-02,-2.348296704628538220e-02,-2.292679151097862592e-02,-2.230881869397111431e-02,-2.169084587696360616e-02,-2.107287305995609455e-02,-2.045490024294858641e-02,-1.983692742594107133e-02,-1.921895460893356666e-02,-1.860098179192605505e-02,-1.798300897491854344e-02,-1.742683343961178716e-02,-1.680886062260427555e-02,-1.619088780559676394e-02,-1.557291498858925580e-02,-1.495494217158174419e-02,-1.433696935457423605e-02,-1.371899653756672444e-02,-1.310102372055921283e-02,-1.248305090355170816e-02,-1.359540197416522420e-02,-3.955026028848063896e-02,-3.955026028848063896e-02
-3.955026028848063896e-02,-3.955026028848063896e-02,-3.948846300677989057e-02,-3.887049018977237896e-02,-3.825251737276486735e-02,-3.763454455575735574e-02,-3.701657173874985107e-02,-3.639859892174233946e-02,-3.578062610473482785e-02,-3.516265328772731624e-02,-3.454468047071981157e-02,-3.392670765371229996e-02,-3.337053211840554368e-02,-3.275255930139803207e-02,-3.213458648439052046e-02,-3.151661366738300885e-02,-3.089864085037550070e-02,-3.028066803336799256e-02,-2.966269521636048095e-02,-2.904472239935297281e-02,-2.842674958234546120e-02,-2.787057404703870145e-02,-2.725260123003119331e-02,-2.663462841302368170e-02,-2.601665559601617356e-02,-2.539868277900866195e-02,-2.478070996200115034e-02,-2.416273714499364567e-02,-2.354476432798613406e-02,-2.292679151097862245e-02,-2.230881869397111431e-02,-2.175264315866435455e-02,-2.113467034165684641e-02,-2.051669752464933480e-02,-1.989872470764182666e-02,-1.928075189063431505e-02,-1.866277907362680691e-02,-1.804480625661929530e-02,-1.742683343961178369e-02,-1.680886062260427555e-02,-1.619088780559676394e-02,-1.563471227029000418e-02,-1.501673945328249951e-02,-1.439876663627498790e-02,-2.344434374522241099e-02,-3.955026028848063896e-02,-3.955026028848063896e-02
-3.955026028848063896e-02,-3.955026028848063896e-02,-3.955026028848063896e-02,-3.955026028848063896e-02,-3.955026028848063896e-02,-3.948846300677989057e-02,-3.887049018977237896e-02,-3.831431465446562268e-02,-3.769634183745811107e-02,-3.707836902045059946e-02,-3.646039620344308785e-02,-3.584242338643557624e-02,-3.522445056942807157e-02,-3.460647775242055996e-02,-3.398850493541304835e-02,-3.337053211840554368e-02,-3.275255930139803207e-02,-3.219638376609126884e-02,-3.157841094908376417e-02,-3.096043813207625256e-02,-3.034246531506874095e-02,-2.972449249806122934e-02,-2.910651968105372467e-02,-2.848854686404621306e-02,-2.787057404703870145e-02,-2.725260123003119331e-02,-2.663462841302368170e-02,-2.607845287771692541e-02,-2.546048006070941380e-02,-2.484250724370190566e-02,-2.422453442669439405e-02,-2.360656160968688591e-02,-2.298858879267937430e-02,-2.237061597567186616e-02,-2.175264315866435455e-02,-2.113467034165684294e-02,-2.051669752464933480e-02,-1.996052198934257504e-02,-1.934254917233506343e-02,-1.872457635532755529e-02,-1.810660353832004715e-02,-1.748863072131253554e-02,-1.687065790430502393e-02,-1.625268508729751926e-02,-3.207665153279606884e-02,-3.955026028848063896e-02,-3.955026028848063896e-02
-3.955026028848063896e-02,-3.955026028848063896e-02,-3.955026028848063896e-02,-3.955026028848063896e-02,-3.955026028848063896e-02,-3.955026028848063896e-02,-3.955026028848063896e-02,-3.955026028848063896e-02,-3.955026028848063896e-02,-3.893228747147312735e-02,-3.831431465446562268e-02,-3.769634183745811107e-02,-3.707836902045059946e-02,-3.652219348514384317e-02,-3.590422066813633156e-02,-3.528624785112881995e-02,-3.466827503412130834e-02,-3.405030221711380367e-02,-3.343232940010629206e-02,-3.281435658309878045e-02,-3.219638376609126884e-02,-3.157841094908375723e-02,-3.096043813207625256e-02,-3.040426259676949280e-02,-2.978628977976198466e-02,-2.916831696275447305e-02,-2.855034414574696144e-02,-2.793237132873945330e-02,-2.731439851173194516e-02,-2.669642569472443355e-02,-2.607845287771692194e-02,-2.546048006070941380e-02,-2.490430452540265405e-02,-2.428633170839514591e-02,-2.366835889138763430e-02,-2.305038607438012616e-02,-2.243241325737261455e-02,-2.181444044036510294e-02,-2.119646762335759826e-02,-2.057849480635008665e-02,-1.996052198934257504e-02,-1.934254917233506343e-02,-1.878637363702830715e-02,-1.883658392841016521e-02,-3.955026028848063896e-02,-3.955026028848063896e-02,-3.955026028848063896e-02
-3.955026028848063896e-02,-3.955026028848063896e-02,-3.955026028848063896e-02,-3.955026028848063896e-02,-3.955026028848063896e-02,-3.955026028848063896e-02,-3.955026028848063896e-02,-3.955026028848063896e-02,-3.955026028848063896e-02,-3.955026028848063896e-02,-3.955026028848063896e-02,-3.955026028848063896e-02,-3.899408475317388267e-02,-3.837611193616637106e-02,-3.775813911915885945e-02,-3.714016630215134784e-02,-3.652219348514384317e-02,-3.590422066813633156e-02,-3.528624785112881995e-02,-3.473007231582206367e-02,-3.411209949881455206e-02,-3.349412668180704045e-02,-3.287615386479952884e-02,-3.225818104779202417e-02,-3.164020823078451256e-02,-3.102223541377700095e-02,-3.040426259676949280e-02,-2.978628977976198466e-02,-2.923011424445522491e-02,-2.861214142744771330e-02,-2.799416861044020516e-02,-2.737619579343269355e-02,-2.675822297642518194e-02,-2.614025015941767727e-02,-2.552227734241016566e-02,-2.490430452540265405e-02,-2.428633170839514591e-02,-2.366835889138763777e-02,-2.311218335608087801e-02,-2.249421053907336640e-02,-2.187623772206585826e-02,-2.125826490505834665e-02,-2.064029208805083851e-02,-2.673504899578740129e-02,-3.955026028848063896e-02,-3.955026028848063896e-02,-3.955026028848063896e-02
-3.955026028848063896e-02,-3.955026028848063896e-02,-3.955026028848063896e-02,-3.955026028848063896e-02,-3.955026028848063896e-02,-3.955026028848063896e-02,-3.955026028848063896e-02,-3.955026028848063896e-02,-3.955026028848063896e-02,-3.955026028848063896e-02,-3.955026028848063896e-02,-3.955026028848063896e-02,-3.955026028848063896e-02,-3.955026028848063896e-02,-3.955026028848063896e-02,-3.905588203487463106e-02,-3.843790921786711945e-02,-3.781993640085960784e-02,-3.720196358385210317e-02,-3.658399076684459156e-02,-3.596601794983707995e-02,-3.534804513282957528e-02,-3.473007231582206367e-02,-3.411209949881455206e-02,-3.355592396350779577e-02,-3.293795114650028416e-02,-3.231997832949277255e-02,-3.170200551248526788e-02,-3.108403269547775280e-02,-3.046605987847024466e-02,-2.984808706146273305e-02,-2.923011424445522491e-02,-2.861214142744771330e-02,-2.799416861044020516e-02,-2.743799307513344540e-02,-2.682002025812593726e-02,-2.620204744111842565e-02,-2.558407462411091404e-02,-2.496610180710340590e-02,-2.434812899009589776e-02,-2.373015617308838615e-02,-2.311218335608087801e-02,-2.249421053907336640e-02,-3.347481503127555658e-02,-3.955026028848063896e-02,-3.955026028848063896e-02,-3.955026028848063896e-02
-3.955026028848063896e-02,-3.955026028848063896e-02,-3.955026028848063896e-02,-3.955026028848063896e-02,-3.955026028848063896e-02,-3.955026028848063896e-02,-3.955026028848063896e-02,-3.955026028848063896e-02,-3.955026028848063896e-02,-3.955026028848063896e-02,-3.955026028848063896e-02,-3.955026028848063896e-02,-3.955026028848063896e-02,-3.955026028848063896e-02,-3.955026028848063896e-02,-3.955026028848063896e-02,-3.955026028848063896e-02,-3.955026028848063896e-02,-3.905588203487463106e-02,-3.843790921786711945e-02,-3.788173368256036316e-02,-3.726376086555285155e-02,-3.664578804854533994e-02,-3.602781523153783527e-02,-3.540984241453032366e-02,-3.479186959752281205e-02,-3.417389678051530044e-02,-3.355592396350779577e-02,-3.293795114650028416e-02,-3.231997832949277255e-02,-3.176380279418601627e-02,-3.114582997717850466e-02,-3.052785716017099304e-02,-2.990988434316348490e-02,-2.929191152615597676e-02,-2.867393870914846515e-02,-2.805596589214095354e-02,-2.743799307513344540e-02,-2.682002025812593726e-02,-2.626384472281917404e-02,-2.564587190581166590e-02,-2.502789908880415776e-02,-2.488306170981802179e-02,-3.905781319992777945e-02,-3.955026028848063896e-02,-3.955026028848063896e-02,-3.955026028848063896e-02
-3.955026028848063896e-02,-3.955026028848063896e-02,-3.955026028848063896e-02,-3.955026028848063896e-02,-3.955026028848063896e-02,-3.955026028848063896e-02,-3.955026028848063896e-02,-3.955026028848063896e-02,-3.955026028848063896e-02,-3.955026028848063896e-02,-3.955026028848063896e-02,-3.955026028848063896e-02,-3.955026028848063896e-02,-3.955026028848063896e-02,-3.955026028848063896e-02,-3.955026028848063896e-02,-3.955026028848063896e-02,-3.955026028848063896e-02,-3.955026028848063896e-02,-3.955026028848063896e-02,-3.955026028848063896e-02,-3.911767931657537944e-02,-3.849970649956787477e-02,-3.788173368256036316e-02,-3.726376086555285155e-02,-3.670758533024609527e-02,-3.608961251323858366e-02,-3.547163969623107205e-02,-3.485366687922356044e-02,-3.423569406221605577e-02,-3.361772124520854416e-02,-3.299974842820103255e-02,-3.238177561119352788e-02,-3.176380279418601627e-02,-3.114582997717850466e-02,-3.058965444187174490e-02,-2.997168162486423676e-02,-2.935370880785672515e-02,-2.873573599084921701e-02,-2.811776317384170540e-02,-2.749979035683419726e-02,-2.688181753982668565e-02,-3.041584958708838313e-02,-3.955026028848063896e-02,-3.955026028848063896e-02,-3.955026028848063896e-02,-3.955026028848063896e-02
-3.955026028848063896e-02,-3.955026028848063896e-02,-3.955026028848063896e-02,-3.955026028848063896e-02,-3.955026028848063896e-02,-3.955026028848063896e-02,-3.955026028848063896e-02,-3.955026028848063896e-02,-3.955026028848063896e-02,-3.955026028848063896e-02,-3.955026028848063896e-02,-3.955026028848063896e-02,-3.955026028848063896e-02,-3.955026028848063896e-02,-3.955026028848063896e-02,-3.955026028848063896e-02,-3.955026028848063896e-02,-3.955026028848063896e-02,-3.955026028848063896e-02,-3.955026028848063896e-02,-3.955026028848063896e-02,-3.955026028848063896e-02,-3.955026028848063896e-02,-3.955026028848063896e-02,-3.917947659827613477e-02,-3.856150378126862316e-02,-3.794353096426111155e-02,-3.732555814725360688e-02,-3.670758533024609527e-02,-3.608961251323858366e-02,-3.547163969623107205e-02,-3.491546416092431576e-02,-3.429749134391680415e-02,-3.367951852690929254e-02,-3.306154570990178787e-02,-3.244357289289427626e-02,-3.182560007588676465e-02,-3.120762725887925304e-02,-3.058965444187174490e-02,-2.997168162486423676e-02,-2.941550608955747700e-02,-2.879753327254996886e-02,-3.528624785112881995e-02,-3.955026028848063896e-02,-3.955026028848063896e-02,-3.955026028848063896e-02,-3.955026028848063896e-02
-3.955026028848063896e-02,-3.955026028848063896e-02,-3.955026028848063896e-02,-3.955026028848063896e-02,-3.955026028848063896e-02,-3.955026028848063896e-02,-3.955026028848063896e-02,-3.955026028848063896e-02,-3.955026028848063896e-02,-3.955026028848063896e-02,-3.955026028848063896e-02,-3.955026028848063896e-02,-3.955026028848063896e-02,-3.955026028848063896e-02,-3.955026028848063896e-02,-3.955026028848063896e-02,-3.955026028848063896e-02,-3.955026028848063896e-02,-3.955026028848063896e-02,-3.955026028848063896e-02,-3.955026028848063896e-02,-3.955026028848063896e-02,-3.955026028848063896e-02,-3.955026028848063896e-02,-3.955026028848063896e-02,-3.955026028848063896e-02,-3.955026028848063896e-02,-3.924127387997688315e-02,-3.862330106296937154e-02,-3.800532824596186687e-02,-3.738735542895435526e-02,-3.676938261194684365e-02,-3.615140979493933204e-02,-3.553343697793182737e-02,-3.491546416092431576e-02,-3.429749134391680415e-02,-3.367951852690929254e-02,-3.312334299160253626e-02,-3.250537017459502465e-02,-3.188739735758751304e-02,-3.126942454058000836e-02,-3.065145172357249675e-02,-3.895546145211090799e-02,-3.955026028848063896e-02,-3.955026028848063896e-02,-3.955026028848063896e-02,-3.955026028848063896e-02
-3.955026028848063896e-02,-3.955026028848063896e-02,-3.955026028848063896e-02,-3.955026028848063896e-02,-3.955026028848063896e-02,-3.955026028848063896e-02,-3.955026028848063896e-02,-3.955026028848063896e-02,-3.955026028848063896e-02,-3.955026028848063896e-02,-3.955026028848063896e-02,-3.955026028848063896e-02,-3.955026028848063896e-02,-3.955026028848063896e-02,-3.955026028848063896e-02,-3.955026028848063896e-02,-3.955026028848063896e-02,-3.955026028848063896e-02,-3.955026028848063896e-02,-3.955026028848063896e-02,-3.955026028848063896e-02,-3.955026028848063896e-02,-3.955026028848063896e-02,-3.955026028848063896e-02,-3.955026028848063896e-02,-3.955026028848063896e-02,-3.955026028848063896e-02,-3.955026028848063896e-02,-3.955026028848063896e-02,-3.955026028848063896e-02,-3.924127387997688315e-02,-3.862330106296937154e-02,-3.806712552766261526e-02,-3.744915271065510365e-02,-3.683117989364759204e-02,-3.621320707664008737e-02,-3.559523425963257576e-02,-3.497726144262506415e-02,-3.435928862561755948e-02,-3.374131580861004787e-02,-3.312334299160253626e-02,-3.470689833518428302e-02,-3.955026028848063896e-02,-3.955026028848063896e-02,-3.955026028848063896e-02,-3.955026028848063896e-02,-3.955026028848063896e-02
-3.955026028848063896e-02,-3.955026028848063896e-02,-3.955026028848063896e-02,-3.955026028848063896e-02,-3.955026028848063896e-02,-3.955026028848063896e-02,-3.955026028848063896e-02,-3.955026028848063896e-02,-3.955026028848063896e-02,-3.955026028848063896e-02,-3.955026028848063896e-02,-3.955026028848063896e-02,-3.955026028848063896e-02,-3.955026028848063896e-02,-3.955026028848063896e-02,-3.955026028848063896e-02,-3.955026028848063896e-02,-3.955026028848063896e-02,-3.955026028848063896e-02,-3.955026028848063896e-02,-3.955026028848063896e-02,-3.955026028848063896e-02,-3.955026028848063896e-02,-3.955026028848063896e-02,-3.955026028848063896e-02,-3.955026028848063896e-02,-3.955026028848063896e-02,-3.955026028848063896e-02,-3.955026028848063896e-02,-3.955026028848063896e-02,-3.955026028848063896e-02,-3.955026028848063896e-02,-3.955026028848063896e-02,-3.930307116167763848e-02,-3.868509834467012687e-02,-3.806712552766261526e-02,-3.744915271065510365e-02,-3.683117989364759204e-02,-3.627500435834083575e-02,-3.565703154133332414e-02,-3.503905872432581947e-02,-3.762681989554476220e-02,-3.955026028848063896e-02,-3.955026028848063896e-02,-3.955026028848063896e-02,-3.955026028848063896e-02,-3.955026028848063896e-02
-3.955026028848063896e-02,-3.955026028848063896e-02,-3.955026028848063896e-02,-3.955026028848063896e-02,-3.955026028848063896e-02,-3.955026028848063896e-02,-3.955026028848063896e-02,-3.955026028848063896e-02,-3.955026028848063896e-02,-3.955026028848063896e-02,-3.955026028848063896e-02,-3.955026028848063896e-02,-3.955026028848063896e-02,-3.955026028848063896e-02,-3.955026028848063896e-02,-3.955026028848063896e-02,-3.955026028848063896e-02,-3.955026028848063896e-02,-3.955026028848063896e-02,-3.955026028848063896e-02,-3.955026028848063896e-02,-3.955026028848063896e-02,-3.955026028848063896e-02,-3.955026028848063896e-02,-3.955026028848063896e-02,-3.955026028848063896e-02,-3.955026028848063896e-02,-3.955026028848063896e-02,-3.955026028848063896e-02,-3.955026028848063896e-02,-3.955026028848063896e-02,-3.955026028848063896e-02,-3.955026028848063896e-02,-3.955026028848063896e-02,-3.955026028848063896e-02,-3.955026028848063896e-02,-3.936486844337838686e-02,-3.874689562637087525e-02,-3.812892280936336364e-02,-3.751094999235585897e-02,-3.689297717534834736e-02,-3.924320504503003154e-02,-3.955026028848063896e-02,-3.955026028848063896e-02,-3.955026028848063896e-02,-3.955026028848063896e-02,-3.955026028848063896e-02
-3.955026028848063896e-02,-3.955026028848063896e-02,-3.955026028848063896e-02,-3.955026028848063896e-02,-3.955026028848063896e-02,-3.955026028848063896e-02,-3.955026028848063896e-02,-3.955026028848063896e-02,-3.955026028848063896e-02,-3.955026028848063896e-02,-3.955026028848063896e-02,-3.955026028848063896e-02,-3.955026028848063896e-02,-3.955026028848063896e-02,-3.955026028848063896e-02,-3.955026028848063896e-02,-3.955026028848063896e-02,-3.955026028848063896e-02,-3.955026028848063896e-02,-3.955026028848063896e-02,-3.955026028848063896e-02,-3.955026028848063896e-02,-3.955026028848063896e-02,-3.955026028848063896e-02,-3.955026028848063896e-02,-3.955026028848063896e-02,-3.955026028848063896e-02,-3.955026028848063896e-02,-3.955026028848063896e-02,-3.955026028848063896e-02,-3.955026028848063896e-02,-3.955026028848063896e-02,-3.955026028848063896e-02,-3.955026028848063896e-02,-3.955026028848063896e-02,-3.955026028848063896e-02,-3.955026028848063896e-02,-3.955026028848063896e-02,-3.955026028848063896e-02,-3.942666572507913525e-02,-3.901725873381166332e-02,-3.955026028848063896e-02,-3.955026028848063896e-02,-3.955026028848063896e-02,-3.955026028848063896e-02,-3.955026028848063896e-02,-3.955026028848063896e-02
