1.060196821109218174e-01,1.060196821109218174e-01,1.060196821109218174e-01,8.841005791576476980e-02,7.233170538975181030e-02,7.416923139272471599e-02,7.570050306186880407e-02,7.723177473101289214e-02,7.876304640015699410e-02,8.060057240312989979e-02,8.213184407227398787e-02,8.366311574141807594e-02,8.519438741056217790e-02,8.703191341353508359e-02,8.856318508267917167e-02,9.009445675182325974e-02,9.162572842096736170e-02,9.346325442394026739e-02,9.499452609308435547e-02,9.652579776222844354e-02,9.805706943137254550e-02,9.989459543434545119e-02,1.014258671034895393e-01,1.029571387726336273e-01,1.044884104417777293e-01,1.060196821109218174e-01,1.060196821109218174e-01,1.060196821109218174e-01,1.060196821109218174e-01,1.060196821109218174e-01,1.060196821109218174e-01,1.060196821109218174e-01,1.060196821109218174e-01,1.060196821109218174e-01,1.060196821109218174e-01,1.060196821109218174e-01,1.060196821109218174e-01,1.060196821109218174e-01,1.060196821109218174e-01,1.060196821109218174e-01,1.060196821109218174e-01,1.060196821109218174e-01,1.060196821109218174e-01,1.060196821109218174e-01,1.060196821109218174e-01,1.060196821109218174e-01,1.060196821109218174e-01
1.060196821109218174e-01,1.060196821109218174e-01,1.060196821109218174e-01,7.667668875094815761e-02,6.283782104105843647e-02,6.436909271020252454e-02,6.590036437934661262e-02,6.773789038231953219e-02,6.926916205146362027e-02,7.080043372060770834e-02,7.233170538975181030e-02,7.416923139272471599e-02,7.570050306186880407e-02,7.723177473101289214e-02,7.876304640015699410e-02,8.060057240312989979e-02,8.213184407227398787e-02,8.366311574141807594e-02,8.519438741056216402e-02,8.703191341353508359e-02,8.856318508267917167e-02,9.009445675182325974e-02,9.162572842096736170e-02,9.315700009011144977e-02,9.499452609308435547e-02,9.652579776222844354e-02,9.805706943137254550e-02,9.958834110051663357e-02,1.014258671034895393e-01,1.029571387726336273e-01,1.044884104417777293e-01,1.060196821109218174e-01,1.060196821109218174e-01,1.060196821109218174e-01,1.060196821109218174e-01,1.060196821109218174e-01,1.060196821109218174e-01,1.060196821109218174e-01,1.060196821109218174e-01,1.060196821109218174e-01,1.060196821109218174e-01,1.060196821109218174e-01,1.060196821109218174e-01,1.060196821109218174e-01,1.060196821109218174e-01,1.060196821109218174e-01,1.060196821109218174e-01
1.060196821109218174e-01,1.060196821109218174e-01,1.060196821109218174e-01,6.002410934900617029e-02,5.303768235853625890e-02,5.487520836150915071e-02,5.640648003065325267e-02,5.793775169979734074e-02,5.946902336894143576e-02,6.130654937191434145e-02,6.283782104105843647e-02,6.436909271020252454e-02,6.590036437934661262e-02,6.743163604849070070e-02,6.926916205146362027e-02,7.080043372060770834e-02,7.233170538975181030e-02,7.386297705889589837e-02,7.570050306186881794e-02,7.723177473101289214e-02,7.876304640015699410e-02,8.029431806930108217e-02,8.213184407227398787e-02,8.366311574141807594e-02,8.519438741056217790e-02,8.672565907970626597e-02,8.856318508267917167e-02,9.009445675182325974e-02,9.162572842096736170e-02,9.315700009011144977e-02,9.499452609308435547e-02,9.652579776222844354e-02,9.805706943137254550e-02,9.958834110051663357e-02,1.014258671034895393e-01,1.029571387726336273e-01,1.044884104417777293e-01,1.060196821109218174e-01,1.060196821109218174e-01,1.060196821109218174e-01,1.060196821109218174e-01,1.060196821109218174e-01,1.060196821109218174e-01,1.060196821109218174e-01,1.060196821109218174e-01,1.060196821109218174e-01,1.060196821109218174e-01
1.060196821109218174e-01,1.060196821109218174e-01,1.060196821109218174e-01,4.201252634069879699e-02,4.354379800984289894e-02,4.507506967898698702e-02,4.660634134813107510e-02,4.813761301727516317e-02,4.997513902024806887e-02,5.150641068939216388e-02,5.303768235853625196e-02,5.456895402768034004e-02,5.640648003065325267e-02,5.793775169979734768e-02,5.946902336894143576e-02,6.100029503808552384e-02,6.283782104105843647e-02,6.436909271020252454e-02,6.590036437934661262e-02,6.743163604849070070e-02,6.926916205146362027e-02,7.080043372060770834e-02,7.233170538975181030e-02,7.386297705889589837e-02,7.570050306186881794e-02,7.723177473101289214e-02,7.876304640015699410e-02,8.029431806930108217e-02,8.213184407227398787e-02,8.366311574141807594e-02,8.519438741056217790e-02,8.672565907970626597e-02,8.856318508267917167e-02,9.009445675182325974e-02,9.162572842096736170e-02,9.315700009011144977e-02,9.468827175925553785e-02,9.652579776222844354e-02,9.805706943137254550e-02,9.958834110051663357e-02,1.011196127696607217e-01,1.029571387726336273e-01,1.044884104417777293e-01,1.060196821109218174e-01,1.060196821109218174e-01,1.060196821109218174e-01,1.060196821109218174e-01
1.060196821109218174e-01,1.060196821109218174e-01,9.424803115437661860e-02,3.221238765817661942e-02,3.374365932732069362e-02,3.527493099646479557e-02,3.711245699943770127e-02,3.864372866858178934e-02,4.017500033772589130e-02,4.170627200686997937e-02,4.354379800984288507e-02,4.507506967898698702e-02,4.660634134813106816e-02,4.813761301727517011e-02,4.997513902024806887e-02,5.150641068939216388e-02,5.303768235853625890e-02,5.456895402768034697e-02,5.640648003065325267e-02,5.793775169979734768e-02,5.946902336894143576e-02,6.100029503808553077e-02,6.283782104105843647e-02,6.436909271020252454e-02,6.590036437934661262e-02,6.743163604849070070e-02,6.896290771763480265e-02,7.080043372060770834e-02,7.233170538975181030e-02,7.386297705889589837e-02,7.539424872803998645e-02,7.723177473101290602e-02,7.876304640015699410e-02,8.029431806930108217e-02,8.182558973844517025e-02,8.366311574141807594e-02,8.519438741056217790e-02,8.672565907970626597e-02,8.825693074885035405e-02,9.009445675182325974e-02,9.162572842096736170e-02,9.315700009011144977e-02,9.468827175925553785e-02,9.652579776222844354e-02,9.805706943137254550e-02,9.958834110051663357e-02,1.011196127696607217e-01
1.060196821109218174e-01,1.060196821109218174e-01,7.675325233440537243e-02,2.241224897565442797e-02,2.424977497862733367e-02,2.578104664777142174e-02,2.731231831691549594e-02,2.884358998605959790e-02,3.068111598903251747e-02,3.221238765817660554e-02,3.374365932732070750e-02,3.527493099646478170e-02,3.711245699943768739e-02,3.864372866858180322e-02,4.017500033772589130e-02,4.170627200686997937e-02,4.354379800984288507e-02,4.507506967898698008e-02,4.660634134813106816e-02,4.813761301727516317e-02,4.966888468641925819e-02,5.150641068939216388e-02,5.303768235853625890e-02,5.456895402768034697e-02,5.610022569682444199e-02,5.793775169979734074e-02,5.946902336894143576e-02,6.100029503808552384e-02,6.253156670722961885e-02,6.436909271020252454e-02,6.590036437934661262e-02,6.743163604849071457e-02,6.896290771763480265e-02,7.080043372060770834e-02,7.233170538975181030e-02,7.386297705889589837e-02,7.539424872803998645e-02,7.723177473101289214e-02,7.876304640015699410e-02,8.029431806930108217e-02,8.182558973844517025e-02,8.366311574141807594e-02,8.519438741056217790e-02,8.672565907970626597e-02,8.825693074885035405e-02,9.009445675182325974e-02,9.162572842096736170e-02
1.060196821109218174e-01,1.060196821109218174e-01,5.870338753436939172e-02,1.291836462696105414e-02,1.444963629610515610e-02,1.598090796524921642e-02,1.781843396822214987e-02,1.934970563736623794e-02,2.088097730651032602e-02,2.241224897565442797e-02,2.394352064479851605e-02,2.578104664777143562e-02,2.731231831691549594e-02,2.884358998605959790e-02,3.037486165520368597e-02,3.221238765817660554e-02,3.374365932732069362e-02,3.527493099646479557e-02,3.680620266560888365e-02,3.864372866858178934e-02,4.017500033772589130e-02,4.170627200686997937e-02,4.323754367601406745e-02,4.507506967898698702e-02,4.660634134813107510e-02,4.813761301727516317e-02,4.966888468641925125e-02,5.150641068939216388e-02,5.303768235853624502e-02,5.456895402768034004e-02,5.610022569682443505e-02,5.793775169979734074e-02,5.946902336894143576e-02,6.100029503808552384e-02,6.253156670722961885e-02,6.436909271020252454e-02,6.590036437934662650e-02,6.743163604849070070e-02,6.896290771763480265e-02,7.049417938677889073e-02,7.233170538975181030e-02,7.386297705889589837e-02,7.539424872803998645e-02,7.692552039718408841e-02,7.876304640015699410e-02,8.029431806930108217e-02,8.182558973844517025e-02
1.060196821109218174e-01,1.060196821109218174e-01,3.748570446879156970e-02,3.118225944438862696e-03,4.649497613582950772e-03,6.487023616555870342e-03,8.018295285699958419e-03,9.549566954844060374e-03,1.108083862398814845e-02,1.291836462696106802e-02,1.444963629610515610e-02,1.598090796524921642e-02,1.751217963439333225e-02,1.934970563736623794e-02,2.088097730651032602e-02,2.241224897565442797e-02,2.394352064479851605e-02,2.578104664777142174e-02,2.731231831691552370e-02,2.884358998605959790e-02,3.037486165520368597e-02,3.221238765817660554e-02,3.374365932732069362e-02,3.527493099646479557e-02,3.680620266560889753e-02,3.864372866858178934e-02,4.017500033772587742e-02,4.170627200686997937e-02,4.323754367601406745e-02,4.507506967898698008e-02,4.660634134813107510e-02,4.813761301727516317e-02,4.966888468641925125e-02,5.120015635556333933e-02,5.303768235853625196e-02,5.456895402768034697e-02,5.610022569682443505e-02,5.763149736596852313e-02,5.946902336894143576e-02,6.100029503808552384e-02,6.253156670722961885e-02,6.406283837637370693e-02,6.590036437934661262e-02,6.743163604849070070e-02,6.896290771763480265e-02,7.049417938677889073e-02,7.233170538975181030e-02
1.060196821109218174e-01,1.060196821109218174e-01,1.320547806492558540e-02,-6.375658404254483380e-03,-4.844386735110409181e-03,-3.313115065966307227e-03,-1.781843396822219150e-03,5.568260615068654218e-05,1.586954275294774619e-03,3.118225944438876573e-03,4.649497613582964650e-03,6.487023616555856464e-03,8.018295285699958419e-03,9.549566954844046496e-03,1.108083862398813457e-02,1.291836462696105414e-02,1.444963629610515610e-02,1.598090796524923030e-02,1.751217963439333225e-02,1.934970563736623794e-02,2.088097730651032602e-02,2.241224897565442797e-02,2.394352064479850217e-02,2.578104664777142174e-02,2.731231831691552370e-02,2.884358998605959790e-02,3.037486165520368597e-02,3.190613332434778793e-02,3.374365932732069362e-02,3.527493099646478170e-02,3.680620266560889753e-02,3.833747433475297173e-02,4.017500033772587742e-02,4.170627200686997937e-02,4.323754367601406745e-02,4.476881534515815553e-02,4.660634134813106816e-02,4.813761301727517011e-02,4.966888468641925125e-02,5.120015635556335321e-02,5.303768235853625196e-02,5.456895402768034697e-02,5.610022569682442811e-02,5.763149736596852313e-02,5.946902336894143576e-02,6.100029503808552384e-02,6.253156670722961885e-02
1.060196821109218174e-01,1.060196821109218174e-01,-1.770706875592076290e-02,-1.617579708677667483e-02,-1.464452541763258675e-02,-1.280699941465966718e-02,-2.208218601558644689e-01,-2.192905884867203392e-01,-2.177593168175762650e-01,-6.375658404254483380e-03,-4.844386735110409181e-03,-3.313115065966307227e-03,-1.781843396822219150e-03,5.568260615068654218e-05,1.586954275294774619e-03,3.118225944438876573e-03,4.649497613582964650e-03,6.180769282727052727e-03,8.018295285699958419e-03,9.549566954844060374e-03,1.108083862398814845e-02,1.261211029313223653e-02,1.444963629610515610e-02,1.598090796524923030e-02,1.751217963439334613e-02,1.904345130353742033e-02,2.088097730651032602e-02,2.241224897565442797e-02,2.394352064479851605e-02,2.547479231394260413e-02,2.731231831691549594e-02,2.884358998605959790e-02,3.037486165520368597e-02,3.190613332434778793e-02,3.374365932732069362e-02,3.527493099646479557e-02,3.680620266560888365e-02,3.833747433475297173e-02,4.017500033772587742e-02,4.170627200686997937e-02,4.323754367601406745e-02,4.476881534515816247e-02,4.660634134813106816e-02,4.813761301727516317e-02,4.966888468641925125e-02,5.120015635556334627e-02,5.273142802470742740e-02
1.060196821109218174e-01,8.491684442052981063e-02,-2.750720743844296823e-02,-2.566968143547003478e-02,-2.413840976632593283e-02,-2.260713809718188638e-02,-2.306219988383866326e-01,-2.290907271692425584e-01,-2.272532011662696250e-01,-1.617579708677667483e-02,-1.464452541763257287e-02,-1.311325374848849867e-02,-1.127572774551557910e-02,-9.744456076371491027e-03,-8.213184407227402950e-03,-6.681912738083314873e-03,-4.844386735110409181e-03,-3.313115065966307227e-03,-1.781843396822219150e-03,-2.505717276781310732e-04,1.586954275294788497e-03,3.118225944438876573e-03,4.649497613582964650e-03,6.180769282727052727e-03,8.018295285699958419e-03,9.549566954844060374e-03,1.108083862398813457e-02,1.261211029313223653e-02,1.444963629610514222e-02,1.598090796524924417e-02,1.751217963439333225e-02,1.904345130353742033e-02,2.088097730651032602e-02,2.241224897565442797e-02,2.394352064479850217e-02,2.547479231394260413e-02,2.700606398308669220e-02,2.884358998605959790e-02,3.037486165520368597e-02,3.190613332434778793e-02,3.343740499349187600e-02,3.527493099646479557e-02,3.680620266560889753e-02,3.833747433475297173e-02,3.986874600389705980e-02,4.170627200686997937e-02,4.323754367601406745e-02
1.060196821109218174e-01,5.885651470128380053e-02,-3.118225944438877961e-02,-3.118225944438877961e-02,-3.118225944438877961e-02,-3.118225944438877961e-02,-2.401158831870799926e-01,-2.385846115179359184e-01,-2.370533398487918442e-01,-2.597593576929886627e-02,-2.413840976632596058e-02,-2.260713809718185863e-02,-2.107586642803778443e-02,-1.954459475889368247e-02,-1.770706875592076290e-02,-1.617579708677667483e-02,-1.464452541763257287e-02,-1.311325374848847092e-02,-1.127572774551559298e-02,-9.744456076371491027e-03,-8.213184407227389072e-03,-6.681912738083314873e-03,-4.844386735110409181e-03,-3.313115065966321104e-03,-1.781843396822219150e-03,-2.505717276781310732e-04,1.586954275294774619e-03,3.118225944438876573e-03,4.649497613582964650e-03,6.180769282727052727e-03,7.712040951871140804e-03,9.549566954844046496e-03,1.108083862398813457e-02,1.261211029313222265e-02,1.414338196227633848e-02,1.598090796524923030e-02,1.751217963439331837e-02,1.904345130353742033e-02,2.057472297268152228e-02,2.241224897565442797e-02,2.394352064479851605e-02,2.547479231394260413e-02,2.700606398308669220e-02,2.884358998605961177e-02,3.037486165520368597e-02,3.190613332434778793e-02,3.343740499349188988e-02
1.060196821109218174e-01,3.741871133326651888e-02,-3.118225944438880737e-02,-3.118225944438877961e-02,-3.118225944438875186e-02,-3.118225944438877961e-02,-3.118225944438877961e-02,-3.118225944438877961e-02,-3.118225944438877961e-02,-3.118225944438875186e-02,-3.118225944438877961e-02,-3.118225944438877961e-02,-3.056975077673114438e-02,-2.903847910758704243e-02,-2.750720743844296823e-02,-2.597593576929886627e-02,-2.413840976632596058e-02,-2.260713809718185863e-02,-2.107586642803778443e-02,-1.954459475889368247e-02,-1.770706875592077678e-02,-1.617579708677668870e-02,-1.464452541763257287e-02,-1.311325374848849867e-02,-1.158198207934439672e-02,-9.744456076371491027e-03,-8.213184407227402950e-03,-6.681912738083300995e-03,-5.150641068939212919e-03,-3.313115065966307227e-03,-1.781843396822219150e-03,-2.505717276781171954e-04,1.280699941465957004e-03,3.118225944438862696e-03,4.649497613582964650e-03,6.180769282727052727e-03,7.712040951871154681e-03,9.549566954844046496e-03,1.108083862398813457e-02,1.261211029313223653e-02,1.414338196227632460e-02,1.598090796524923030e-02,1.751217963439333225e-02,1.904345130353742033e-02,2.057472297268152228e-02,2.241224897565441410e-02,2.394352064479851605e-02
1.060196821109218174e-01,1.598090796524924417e-02,-3.118225944438877961e-02,-3.118225944438877961e-02,-3.118225944438877961e-02,-3.118225944438877961e-02,-3.118225944438877961e-02,-3.118225944438877961e-02,-3.118225944438877961e-02,-3.118225944438877961e-02,-3.118225944438877961e-02,-3.118225944438877961e-02,-3.118225944438875186e-02,-3.118225944438877961e-02,-3.118225944438877961e-02,-3.118225944438877961e-02,-3.118225944438877961e-02,-3.118225944438877961e-02,-3.087600511055994812e-02,-2.903847910758707018e-02,-2.750720743844296823e-02,-2.597593576929886627e-02,-2.444466410015479207e-02,-2.260713809718185863e-02,-2.107586642803778443e-02,-1.954459475889368247e-02,-1.801332308974958052e-02,-1.617579708677667483e-02,-1.464452541763257287e-02,-1.311325374848849867e-02,-1.158198207934439672e-02,-9.744456076371491027e-03,-8.213184407227402950e-03,-6.681912738083314873e-03,-5.150641068939212919e-03,-3.313115065966321104e-03,-1.781843396822219150e-03,-2.505717276781310732e-04,1.280699941465957004e-03,3.118225944438862696e-03,4.649497613582964650e-03,6.180769282727038849e-03,7.712040951871140804e-03,9.243312621015228880e-03,1.108083862398813457e-02,1.261211029313223653e-02,1.414338196227632460e-02
1.060196821109218174e-01,-5.456895402768044412e-03,-3.118225944438877961e-02,-3.118225944438877961e-02,-3.118225944438877961e-02,-3.118225944438875186e-02,-3.118225944438877961e-02,-3.118225944438877961e-02,-3.118225944438877961e-02,-3.118225944438877961e-02,-3.118225944438877961e-02,-3.118225944438877961e-02,-3.118225944438877961e-02,-3.118225944438875186e-02,-3.118225944438877961e-02,-3.118225944438877961e-02,-3.118225944438877961e-02,-3.118225944438877961e-02,-3.118225944438877961e-02,-3.118225944438877961e-02,-3.118225944438875186e-02,-3.118225944438877961e-02,-3.118225944438877961e-02,-3.118225944438877961e-02,-3.087600511055997587e-02,-2.903847910758704243e-02,-2.750720743844294047e-02,-2.597593576929886627e-02,-2.444466410015476432e-02,-2.260713809718185863e-02,-2.107586642803778443e-02,-1.954459475889368247e-02,-1.801332308974958052e-02,-1.617579708677668870e-02,-1.464452541763257287e-02,-1.311325374848849867e-02,-1.158198207934439672e-02,-1.005071041020032252e-02,-8.213184407227389072e-03,-6.681912738083314873e-03,-5.150641068939212919e-03,-3.619369399795110964e-03,-1.781843396822219150e-03,-2.505717276781310732e-04,1.280699941465943126e-03,2.811971610610058958e-03,4.649497613582950772e-03
1.060196821109218174e-01,-3.118225944438877961e-02,-3.118225944438877961e-02,-3.118225944438877961e-02,-3.118225944438877961e-02,-3.118225944438877961e-02,-3.118225944438877961e-02,-3.118225944438877961e-02,-3.118225944438880737e-02,-3.118225944438877961e-02,-3.118225944438877961e-02,-3.118225944438875186e-02,-3.118225944438877961e-02,-3.118225944438877961e-02,-3.118225944438877961e-02,-3.118225944438877961e-02,-3.118225944438877961e-02,-3.118225944438877961e-02,-3.118225944438877961e-02,-3.118225944438877961e-02,-3.118225944438877961e-02,-3.118225944438877961e-02,-3.118225944438877961e-02,-3.118225944438877961e-02,-3.118225944438877961e-02,-3.118225944438877961e-02,-3.118225944438877961e-02,-3.118225944438877961e-02,-3.118225944438877961e-02,-3.118225944438875186e-02,-3.087600511055994812e-02,-2.934473344141587392e-02,-2.750720743844294047e-02,-2.597593576929886627e-02,-2.444466410015479207e-02,-2.291339243101066236e-02,-2.107586642803778443e-02,-1.954459475889365472e-02,-1.801332308974958052e-02,-1.648205142060549244e-02,-1.464452541763257287e-02,-1.311325374848849867e-02,-1.158198207934439672e-02,-1.005071041020030864e-02,-8.213184407227402950e-03,-6.681912738083314873e-03,-5.150641068939212919e-03
8.458187874290454267e-02,-3.118225944438877961e-02,-3.118225944438877961e-02,-3.118225944438877961e-02,-3.118225944438875186e-02,-3.118225944438880737e-02,-3.118225944438877961e-02,-3.118225944438877961e-02,-3.118225944438877961e-02,-3.118225944438877961e-02,-3.118225944438877961e-02,-3.118225944438875186e-02,-3.118225944438877961e-02,-3.118225944438877961e-02,-3.118225944438877961e-02,-3.118225944438877961e-02,-3.118225944438875186e-02,-3.118225944438877961e-02,-3.118225944438877961e-02,-3.118225944438877961e-02,-3.118225944438877961e-02,-3.118225944438877961e-02,-3.118225944438877961e-02,-3.118225944438877961e-02,-3.118225944438877961e-02,-3.118225944438877961e-02,-3.118225944438877961e-02,-3.118225944438880737e-02,-3.118225944438877961e-02,-3.118225944438877961e-02,-3.118225944438877961e-02,-3.118225944438877961e-02,-3.118225944438875186e-02,-3.118225944438877961e-02,-3.118225944438877961e-02,-3.118225944438877961e-02,-3.087600511055994812e-02,-2.934473344141587392e-02,-2.750720743844296823e-02,-2.597593576929886627e-02,-2.444466410015476432e-02,-2.291339243101069012e-02,-2.107586642803778443e-02,-1.954459475889368247e-02,-1.801332308974958052e-02,-1.648205142060547856e-02,-1.495077975146140437e-02
5.885651470128379359e-02,-3.118225944438877961e-02,-3.118225944438877961e-02,-3.118225944438877961e-02,-3.118225944438877961e-02,-3.118225944438880737e-02,-3.118225944438877961e-02,-3.118225944438875186e-02,-3.118225944438877961e-02,-3.118225944438875186e-02,-3.118225944438877961e-02,-3.118225944438877961e-02,-3.118225944438877961e-02,-3.118225944438877961e-02,-3.118225944438875186e-02,-3.118225944438877961e-02,-3.118225944438875186e-02,-3.118225944438875186e-02,-3.118225944438877961e-02,-3.118225944438877961e-02,-3.118225944438877961e-02,-3.118225944438877961e-02,-3.118225944438877961e-02,-3.118225944438877961e-02,-3.118225944438877961e-02,-3.118225944438877961e-02,-3.118225944438877961e-02,-3.118225944438875186e-02,-3.118225944438875186e-02,-3.118225944438877961e-02,-3.118225944438877961e-02,-3.118225944438877961e-02,-3.118225944438877961e-02,-3.118225944438877961e-02,-3.118225944438877961e-02,-3.118225944438877961e-02,-3.118225944438877961e-02,-3.118225944438877961e-02,-3.118225944438877961e-02,-3.118225944438877961e-02,-3.118225944438877961e-02,-3.118225944438877961e-02,-3.087600511055994812e-02,-2.934473344141587392e-02,-2.781346177227177197e-02,-2.597593576929886627e-02,-2.444466410015476432e-02
3.741871133326651888e-02,-3.118225944438877961e-02,-3.118225944438877961e-02,-3.118225944438877961e-02,-3.118225944438877961e-02,-3.118225944438877961e-02,-3.118225944438875186e-02,-3.118225944438877961e-02,-3.118225944438877961e-02,-3.118225944438877961e-02,-3.118225944438877961e-02,-3.118225944438880737e-02,-3.118225944438877961e-02,-3.118225944438877961e-02,-3.118225944438877961e-02,-3.118225944438877961e-02,-3.118225944438875186e-02,-3.118225944438877961e-02,-3.118225944438877961e-02,-3.118225944438877961e-02,-3.118225944438877961e-02,-3.118225944438877961e-02,-3.118225944438877961e-02,-3.118225944438877961e-02,-3.118225944438877961e-02,-3.118225944438875186e-02,-3.118225944438875186e-02,-3.118225944438877961e-02,-3.118225944438875186e-02,-3.118225944438877961e-02,-3.118225944438877961e-02,-3.118225944438877961e-02,-3.118225944438877961e-02,-3.118225944438877961e-02,-3.118225944438877961e-02,-3.118225944438877961e-02,-3.118225944438877961e-02,-3.118225944438877961e-02,-3.118225944438877961e-02,-3.118225944438875186e-02,-3.118225944438877961e-02,-3.118225944438880737e-02,-3.118225944438877961e-02,-3.118225944438877961e-02,-3.118225944438877961e-02,-3.118225944438875186e-02,-3.118225944438877961e-02
1.598090796524923030e-02,-3.118225944438877961e-02,-3.118225944438877961e-02,-3.118225944438875186e-02,-3.118225944438877961e-02,-3.118225944438877961e-02,-3.118225944438877961e-02,-3.118225944438877961e-02,-3.118225944438877961e-02,-3.118225944438877961e-02,-3.118225944438877961e-02,-3.118225944438880737e-02,-3.118225944438877961e-02,-3.118225944438877961e-02,-3.118225944438875186e-02,-3.118225944438877961e-02,-3.118225944438877961e-02,-3.118225944438877961e-02,-3.118225944438877961e-02,-3.118225944438875186e-02,-3.118225944438877961e-02,-3.118225944438877961e-02,-3.118225944438877961e-02,-3.118225944438877961e-02,-3.118225944438877961e-02,-3.118225944438877961e-02,-3.118225944438877961e-02,-3.118225944438877961e-02,-3.118225944438875186e-02,-3.118225944438877961e-02,-3.118225944438877961e-02,-3.118225944438877961e-02,-3.118225944438877961e-02,-5.864695102905446988e-02,-5.864695102905446988e-02,-5.864695102905446988e-02,-3.118225944438877961e-02,-3.118225944438875186e-02,-3.118225944438877961e-02,-3.118225944438877961e-02,-3.118225944438877961e-02,-3.118225944438877961e-02,-3.118225944438877961e-02,-3.118225944438877961e-02,-3.118225944438877961e-02,-3.118225944438875186e-02,-3.118225944438877961e-02
-5.456895402768044412e-03,-3.118225944438880737e-02,-3.118225944438877961e-02,-3.118225944438877961e-02,-3.118225944438877961e-02,-3.118225944438877961e-02,-3.118225944438877961e-02,-3.118225944438877961e-02,-3.118225944438877961e-02,-3.118225944438875186e-02,-3.118225944438877961e-02,-3.118225944438877961e-02,-3.118225944438877961e-02,-3.118225944438877961e-02,-3.118225944438877961e-02,-3.118225944438875186e-02,-3.118225944438877961e-02,-3.118225944438877961e-02,-3.118225944438877961e-02,-3.118225944438877961e-02,-3.118225944438877961e-02,-3.118225944438877961e-02,-3.118225944438877961e-02,-3.118225944438880737e-02,-3.118225944438877961e-02,-3.118225944438877961e-02,-3.118225944438877961e-02,-3.118225944438877961e-02,-3.118225944438877961e-02,-3.118225944438875186e-02,-3.118225944438877961e-02,-3.118225944438875186e-02,-3.118225944438877961e-02,-5.864695102905446988e-02,-5.864695102905446988e-02,-5.864695102905446988e-02,-3.118225944438877961e-02,-3.118225944438877961e-02,-3.118225944438877961e-02,-3.118225944438877961e-02,-3.118225944438875186e-02,-3.118225944438877961e-02,-3.118225944438875186e-02,-3.118225944438877961e-02,-3.118225944438877961e-02,-3.118225944438875186e-02,-3.118225944438875186e-02
-2.689469877078533300e-02,-3.118225944438877961e-02,-3.118225944438877961e-02,-3.118225944438877961e-02,-3.118225944438880737e-02,-3.118225944438877961e-02,-3.118225944438877961e-02,-3.118225944438877961e-02,-3.118225944438875186e-02,-3.118225944438877961e-02,-3.118225944438877961e-02,-3.118225944438877961e-02,-3.118225944438877961e-02,-3.118225944438880737e-02,-3.118225944438877961e-02,-3.118225944438875186e-02,-3.118225944438877961e-02,-3.118225944438877961e-02,-3.118225944438877961e-02,-3.118225944438877961e-02,-3.118225944438877961e-02,-3.118225944438875186e-02,-3.118225944438877961e-02,-3.118225944438877961e-02,-3.118225944438877961e-02,-3.118225944438877961e-02,-3.118225944438877961e-02,-3.118225944438877961e-02,-3.118225944438877961e-02,-3.118225944438877961e-02,-3.118225944438877961e-02,-3.118225944438877961e-02,-3.118225944438877961e-02,-5.864695102905446988e-02,-5.864695102905446988e-02,-5.864695102905444213e-02,-3.118225944438877961e-02,-3.118225944438877961e-02,-3.118225944438877961e-02,-3.118225944438880737e-02,-3.118225944438877961e-02,-3.118225944438877961e-02,-3.118225944438877961e-02,-3.118225944438877961e-02,-3.118225944438877961e-02,-3.118225944438875186e-02,-3.118225944438877961e-02
-3.118225944438877961e-02,-3.118225944438875186e-02,-3.118225944438877961e-02,-3.118225944438877961e-02,-3.118225944438880737e-02,-3.118225944438877961e-02,-3.118225944438877961e-02,-3.118225944438877961e-02,-3.118225944438877961e-02,-3.118225944438877961e-02,-3.118225944438877961e-02,-3.118225944438877961e-02,-3.118225944438877961e-02,-3.118225944438877961e-02,-3.118225944438877961e-02,-3.118225944438877961e-02,-3.118225944438877961e-02,-3.118225944438877961e-02,-3.118225944438877961e-02,-3.118225944438877961e-02,-3.118225944438877961e-02,-3.118225944438877961e-02,-3.118225944438877961e-02,-3.118225944438877961e-02,-3.118225944438877961e-02,-3.118225944438877961e-02,-3.118225944438875186e-02,-3.118225944438875186e-02,-3.118225944438877961e-02,-3.118225944438880737e-02,-3.118225944438877961e-02,-3.118225944438877961e-02,-3.118225944438877961e-02,-3.118225944438877961e-02,-3.118225944438875186e-02,-3.118225944438877961e-02,-3.118225944438877961e-02,-3.118225944438877961e-02,-3.118225944438877961e-02,-3.118225944438877961e-02,-3.118225944438877961e-02,-3.118225944438877961e-02,-3.118225944438877961e-02,-3.118225944438877961e-02,-3.118225944438877961e-02,-3.118225944438880737e-02,-3.118225944438877961e-02
-3.118225944438877961e-02,-3.118225944438877961e-02,-3.118225944438877961e-02,-3.118225944438877961e-02,-3.118225944438877961e-02,-3.118225944438875186e-02,-3.118225944438877961e-02,-3.118225944438877961e-02,-3.118225944438877961e-02,-3.118225944438875186e-02,-3.118225944438875186e-02,-3.118225944438877961e-02,-3.118225944438877961e-02,-3.118225944438875186e-02,-3.118225944438877961e-02,-3.118225944438877961e-02,-3.118225944438875186e-02,-3.118225944438877961e-02,-3.118225944438877961e-02,-3.118225944438877961e-02,-3.118225944438880737e-02,-3.118225944438880737e-02,-3.118225944438877961e-02,-3.118225944438877961e-02,-3.118225944438877961e-02,-3.118225944438877961e-02,-3.118225944438877961e-02,-3.118225944438877961e-02,-3.118225944438877961e-02,-3.118225944438880737e-02,-3.118225944438877961e-02,-3.118225944438877961e-02,-3.118225944438875186e-02,-3.118225944438877961e-02,-3.118225944438877961e-02,-3.118225944438877961e-02,-3.118225944438877961e-02,-3.118225944438877961e-02,-3.118225944438877961e-02,-3.118225944438877961e-02,-3.118225944438877961e-02,-3.118225944438877961e-02,-3.118225944438877961e-02,-3.118225944438877961e-02,-3.118225944438877961e-02,-3.118225944438877961e-02,-3.118225944438875186e-02
-3.118225944438877961e-02,-3.118225944438880737e-02,-3.118225944438877961e-02,-3.118225944438877961e-02,-3.118225944438877961e-02,-3.118225944438877961e-02,-3.118225944438877961e-02,-3.118225944438877961e-02,-3.118225944438875186e-02,-3.118225944438877961e-02,-3.118225944438877961e-02,-3.118225944438877961e-02,-3.118225944438877961e-02,-3.118225944438877961e-02,-3.118225944438877961e-02,-3.118225944438877961e-02,-3.118225944438877961e-02,-3.118225944438877961e-02,-3.118225944438877961e-02,-3.118225944438877961e-02,-3.118225944438877961e-02,-3.118225944438880737e-02,-3.118225944438877961e-02,-3.118225944438877961e-02,-3.118225944438877961e-02,-3.118225944438877961e-02,-3.118225944438877961e-02,-3.118225944438877961e-02,-3.118225944438875186e-02,-3.118225944438877961e-02,-3.118225944438877961e-02,-3.118225944438877961e-02,-3.118225944438880737e-02,-3.118225944438880737e-02,-3.118225944438877961e-02,-3.118225944438877961e-02,-3.118225944438877961e-02,-3.118225944438877961e-02,-3.118225944438877961e-02,-3.118225944438875186e-02,-3.118225944438877961e-02,-3.118225944438880737e-02,-3.118225944438877961e-02,-3.118225944438877961e-02,-3.118225944438875186e-02,-3.118225944438877961e-02,-3.118225944438877961e-02
-3.118225944438877961e-02,-3.118225944438877961e-02,-3.118225944438877961e-02,-3.118225944438877961e-02,-3.118225944438877961e-02,-3.118225944438877961e-02,-3.118225944438877961e-02,-3.118225944438877961e-02,-3.118225944438875186e-02,-3.118225944438877961e-02,-3.118225944438877961e-02,-3.118225944438875186e-02,-3.118225944438877961e-02,-3.118225944438877961e-02,-3.118225944438877961e-02,-3.118225944438877961e-02,-3.118225944438877961e-02,-3.118225944438877961e-02,-3.118225944438877961e-02,-3.118225944438877961e-02,-3.118225944438877961e-02,-3.118225944438877961e-02,-3.118225944438877961e-02,-3.118225944438877961e-02,-3.118225944438877961e-02,-3.118225944438877961e-02,-3.118225944438877961e-02,-3.118225944438877961e-02,-3.118225944438877961e-02,-3.118225944438877961e-02,-3.118225944438877961e-02,-3.118225944438877961e-02,-3.118225944438877961e-02,-3.118225944438877961e-02,-3.118225944438877961e-02,-3.118225944438877961e-02,-3.118225944438877961e-02,-3.118225944438877961e-02,-3.118225944438877961e-02,-3.118225944438877961e-02,-3.118225944438877961e-02,-3.118225944438880737e-02,-3.118225944438877961e-02,-3.118225944438877961e-02,-3.118225944438877961e-02,-3.118225944438877961e-02,-2.689469877078533300e-02
-3.118225944438877961e-02,-3.118225944438877961e-02,-3.118225944438877961e-02,-3.118225944438875186e-02,-3.118225944438877961e-02,-3.118225944438877961e-02,-3.118225944438877961e-02,-3.118225944438877961e-02,-3.118225944438877961e-02,-3.118225944438877961e-02,-3.118225944438877961e-02,-3.118225944438877961e-02,-3.118225944438877961e-02,-3.118225944438877961e-02,-3.118225944438877961e-02,-3.118225944438877961e-02,-3.118225944438877961e-02,-3.118225944438877961e-02,-3.118225944438877961e-02,-3.118225944438877961e-02,-3.118225944438875186e-02,-3.118225944438877961e-02,-3.118225944438877961e-02,-3.118225944438880737e-02,-3.118225944438877961e-02,-3.118225944438877961e-02,-3.118225944438877961e-02,-3.118225944438877961e-02,-3.118225944438877961e-02,-3.118225944438877961e-02,-3.118225944438877961e-02,-3.118225944438877961e-02,-3.118225944438877961e-02,-3.118225944438877961e-02,-3.118225944438877961e-02,-3.118225944438877961e-02,-3.118225944438877961e-02,-3.118225944438877961e-02,-3.118225944438877961e-02,-3.118225944438877961e-02,-3.118225944438877961e-02,-3.118225944438877961e-02,-3.118225944438877961e-02,-3.118225944438875186e-02,-3.118225944438877961e-02,-3.118225944438877961e-02,-5.456895402768044412e-03
-3.118225944438877961e-02,-3.118225944438877961e-02,-3.118225944438875186e-02,-3.118225944438877961e-02,-3.118225944438875186e-02,-3.118225944438877961e-02,-3.118225944438877961e-02,-3.118225944438875186e-02,-3.118225944438877961e-02,-3.118225944438877961e-02,-3.118225944438875186e-02,-3.118225944438877961e-02,-3.118225944438877961e-02,-3.118225944438877961e-02,-3.118225944438877961e-02,-3.118225944438875186e-02,-3.118225944438875186e-02,-3.118225944438877961e-02,-3.118225944438877961e-02,-3.118225944438877961e-02,-3.118225944438877961e-02,-3.118225944438877961e-02,-3.118225944438877961e-02,-3.118225944438877961e-02,-3.118225944438877961e-02,-3.118225944438877961e-02,-3.118225944438877961e-02,-3.118225944438877961e-02,-3.118225944438875186e-02,-3.118225944438877961e-02,-3.118225944438877961e-02,-3.118225944438875186e-02,-3.118225944438877961e-02,-3.118225944438877961e-02,-3.118225944438877961e-02,-3.118225944438880737e-02,-3.118225944438877961e-02,-3.118225944438877961e-02,-3.118225944438877961e-02,-3.118225944438877961e-02,-3.118225944438877961e-02,-3.118225944438877961e-02,-3.118225944438875186e-02,-3.118225944438877961e-02,-3.118225944438877961e-02,-3.118225944438877961e-02,1.598090796524923030e-02
-3.118225944438877961e-02,-3.118225944438877961e-02,-3.118225944438877961e-02,-3.118225944438877961e-02,-3.118225944438877961e-02,-3.118225944438877961e-02,-3.118225944438877961e-02,-3.118225944438877961e-02,-3.118225944438877961e-02,-3.118225944438877961e-02,-3.118225944438877961e-02,-3.118225944438877961e-02,-3.118225944438877961e-02,-3.118225944438877961e-02,-3.118225944438877961e-02,-3.118225944438875186e-02,-3.118225944438877961e-02,-3.118225944438877961e-02,-3.118225944438877961e-02,-3.118225944438877961e-02,-3.118225944438877961e-02,-3.118225944438877961e-02,-3.118225944438877961e-02,-3.118225944438877961e-02,-3.118225944438877961e-02,-3.118225944438877961e-02,-3.118225944438877961e-02,-3.118225944438877961e-02,-3.118225944438877961e-02,-3.118225944438877961e-02,-3.118225944438877961e-02,-3.118225944438875186e-02,-3.118225944438877961e-02,-3.118225944438877961e-02,-3.118225944438877961e-02,-3.118225944438877961e-02,-3.118225944438880737e-02,-3.118225944438877961e-02,-3.118225944438877961e-02,-3.118225944438880737e-02,-3.118225944438877961e-02,-3.118225944438877961e-02,-3.118225944438877961e-02,-3.118225944438877961e-02,-3.118225944438877961e-02,-3.118225944438877961e-02,3.741871133326651888e-02
-2.260713809718185863e-02,-2.455602931245616516e-02,-2.650492052773047169e-02,-2.884358998605961177e-02,-3.079248120133394606e-02,-3.118225944438877961e-02,-3.118225944438877961e-02,-3.118225944438877961e-02,-3.118225944438875186e-02,-3.118225944438877961e-02,-3.118225944438875186e-02,-3.118225944438877961e-02,-3.118225944438877961e-02,-3.118225944438875186e-02,-3.118225944438877961e-02,-3.118225944438877961e-02,-3.118225944438877961e-02,-3.118225944438877961e-02,-3.118225944438877961e-02,-3.118225944438877961e-02,-3.118225944438877961e-02,-3.118225944438877961e-02,-3.118225944438877961e-02,-3.118225944438877961e-02,-3.118225944438877961e-02,-3.118225944438877961e-02,-3.118225944438877961e-02,-3.118225944438875186e-02,-3.118225944438877961e-02,-3.118225944438877961e-02,-3.118225944438877961e-02,-3.118225944438877961e-02,-3.118225944438877961e-02,-3.118225944438877961e-02,-3.118225944438877961e-02,-3.118225944438877961e-02,-3.118225944438877961e-02,-3.118225944438875186e-02,-3.118225944438877961e-02,-3.118225944438877961e-02,-3.118225944438877961e-02,-3.118225944438877961e-02,-3.118225944438877961e-02,-3.118225944438877961e-02,-3.118225944438877961e-02,-3.118225944438877961e-02,6.314407537488725408e-02
-1.013423431942635233e-02,-1.247290377775550629e-02,-1.442179499302981283e-02,-1.637068620830410548e-02,-1.831957742357841201e-02,-2.065824688190757985e-02,-2.260713809718185863e-02,-2.455602931245616516e-02,-2.650492052773047169e-02,-2.884358998605963953e-02,-3.079248120133394606e-02,-3.118225944438877961e-02,-3.118225944438877961e-02,-3.118225944438877961e-02,-3.118225944438877961e-02,-3.118225944438877961e-02,-3.118225944438877961e-02,-3.118225944438877961e-02,-3.118225944438877961e-02,-3.118225944438877961e-02,-3.118225944438877961e-02,-3.118225944438877961e-02,-3.118225944438875186e-02,-3.118225944438877961e-02,-3.118225944438877961e-02,-3.118225944438877961e-02,-3.118225944438877961e-02,-3.118225944438875186e-02,-3.118225944438877961e-02,-3.118225944438877961e-02,-3.118225944438877961e-02,-3.118225944438875186e-02,-3.118225944438877961e-02,-3.118225944438877961e-02,-3.118225944438877961e-02,-3.118225944438877961e-02,-3.118225944438877961e-02,-3.118225944438877961e-02,-3.118225944438877961e-02,-3.118225944438877961e-02,-3.118225944438880737e-02,-3.118225944438877961e-02,-3.118225944438877961e-02,-3.118225944438877961e-02,-3.118225944438875186e-02,-3.118225944438880737e-02,8.458187874290454267e-02
1.948891215274292654e-03,0.000000000000000000e+00,-1.948891215274306532e-03,-4.287560673603446615e-03,-6.236451888877739269e-03,-8.185343104152045801e-03,-1.013423431942635233e-02,-1.247290377775552017e-02,-1.442179499302981283e-02,-1.637068620830411936e-02,-1.831957742357839813e-02,-2.065824688190757985e-02,-2.260713809718185863e-02,-2.455602931245616516e-02,-2.650492052773047169e-02,-2.884358998605963953e-02,-3.079248120133391831e-02,-3.118225944438877961e-02,-3.118225944438877961e-02,-3.118225944438877961e-02,-3.118225944438877961e-02,-3.118225944438877961e-02,-3.118225944438877961e-02,-3.118225944438877961e-02,-3.118225944438877961e-02,-3.118225944438877961e-02,-3.118225944438877961e-02,-3.118225944438877961e-02,-3.118225944438877961e-02,-3.118225944438877961e-02,-3.118225944438875186e-02,-3.118225944438877961e-02,-3.118225944438877961e-02,-3.118225944438877961e-02,-3.118225944438877961e-02,-3.118225944438877961e-02,-3.118225944438877961e-02,-3.118225944438877961e-02,-3.118225944438880737e-02,-3.118225944438877961e-02,-3.118225944438877961e-02,-3.118225944438877961e-02,-3.118225944438877961e-02,-3.118225944438877961e-02,-3.118225944438877961e-02,-3.118225944438877961e-02,1.060196821109218174e-01
1.442179499302979895e-02,1.208312553470065887e-02,1.013423431942633846e-02,8.185343104152045801e-03,6.236451888877753147e-03,3.897782430548599186e-03,1.948891215274292654e-03,-1.387778780781445676e-17,-1.948891215274306532e-03,-4.287560673603446615e-03,-6.236451888877753147e-03,-8.185343104152045801e-03,-1.013423431942635233e-02,-1.208312553470065887e-02,-1.442179499302979895e-02,-1.637068620830410548e-02,-1.831957742357841201e-02,-2.026846863885271854e-02,-2.260713809718185863e-02,-2.455602931245616516e-02,-2.650492052773047169e-02,-2.845381174300475047e-02,-3.079248120133394606e-02,-3.118225944438877961e-02,-3.118225944438877961e-02,-3.118225944438877961e-02,-3.118225944438877961e-02,-3.118225944438877961e-02,-3.118225944438877961e-02,-3.118225944438877961e-02,-3.118225944438877961e-02,-3.118225944438877961e-02,-3.118225944438877961e-02,-3.118225944438875186e-02,-3.118225944438877961e-02,-3.118225944438877961e-02,-3.118225944438877961e-02,-3.118225944438877961e-02,-3.118225944438877961e-02,-3.118225944438877961e-02,-3.118225944438880737e-02,-3.118225944438877961e-02,-3.118225944438877961e-02,-3.118225944438877961e-02,-3.118225944438877961e-02,-5.456895402768044412e-03,1.060196821109218174e-01
2.650492052773044394e-02,2.455602931245615128e-02,2.260713809718185863e-02,2.065824688190755209e-02,1.831957742357839813e-02,1.637068620830410548e-02,1.442179499302979895e-02,1.247290377775550629e-02,1.013423431942633846e-02,8.185343104152045801e-03,6.236451888877753147e-03,4.287560673603460493e-03,1.948891215274292654e-03,0.000000000000000000e+00,-1.948891215274292654e-03,-3.897782430548613064e-03,-6.236451888877753147e-03,-8.185343104152045801e-03,-1.013423431942635233e-02,-1.208312553470065887e-02,-1.442179499302981283e-02,-1.637068620830413324e-02,-1.831957742357842589e-02,-2.026846863885269079e-02,-2.260713809718185863e-02,-2.455602931245616516e-02,-2.650492052773047169e-02,-2.845381174300477822e-02,-3.079248120133394606e-02,-3.118225944438877961e-02,-3.118225944438877961e-02,-3.118225944438877961e-02,-3.118225944438880737e-02,-3.118225944438877961e-02,-3.118225944438875186e-02,-3.118225944438877961e-02,-3.118225944438877961e-02,-3.118225944438877961e-02,-3.118225944438877961e-02,-3.118225944438877961e-02,-3.118225944438877961e-02,-3.118225944438877961e-02,-3.118225944438877961e-02,-3.118225944438877961e-02,-3.118225944438877961e-02,1.598090796524924417e-02,1.060196821109218174e-01
3.897782430548595023e-02,3.702893309021165757e-02,3.469026363188250361e-02,3.274137241660819708e-02,3.079248120133390443e-02,2.884358998605961177e-02,2.650492052773044394e-02,2.455602931245615128e-02,2.260713809718185863e-02,2.065824688190756597e-02,1.831957742357839813e-02,1.637068620830410548e-02,1.442179499302979895e-02,1.247290377775550629e-02,1.013423431942635233e-02,8.185343104152045801e-03,6.236451888877753147e-03,4.287560673603460493e-03,1.948891215274292654e-03,0.000000000000000000e+00,-1.948891215274292654e-03,-3.897782430548599186e-03,-5.846673645822891840e-03,-8.185343104152045801e-03,-1.013423431942635233e-02,-1.208312553470064499e-02,-1.403201674997495152e-02,-1.637068620830410548e-02,-1.831957742357841201e-02,-2.026846863885271854e-02,-2.221735985412699732e-02,-2.455602931245616516e-02,-2.650492052773047169e-02,-2.845381174300475047e-02,-3.040270295827905700e-02,-3.118225944438877961e-02,-3.118225944438875186e-02,-3.118225944438877961e-02,-3.118225944438877961e-02,-3.118225944438877961e-02,-3.118225944438875186e-02,-3.118225944438877961e-02,-3.118225944438877961e-02,-3.118225944438877961e-02,-3.118225944438880737e-02,3.741871133326651888e-02,1.060196821109218174e-01
5.106094984018660216e-02,4.911205862491230256e-02,4.716316740963800991e-02,4.521427619436371032e-02,4.287560673603454942e-02,4.092671552076025676e-02,3.897782430548595023e-02,3.702893309021167145e-02,3.469026363188248974e-02,3.274137241660819708e-02,3.079248120133391831e-02,2.884358998605961177e-02,2.650492052773044394e-02,2.455602931245616516e-02,2.260713809718187250e-02,2.065824688190753822e-02,1.870935566663325944e-02,1.637068620830410548e-02,1.442179499302979895e-02,1.247290377775549242e-02,1.052401256248119976e-02,8.185343104152045801e-03,6.236451888877753147e-03,4.287560673603446615e-03,2.338669458329153961e-03,0.000000000000000000e+00,-1.948891215274292654e-03,-3.897782430548585308e-03,-5.846673645822891840e-03,-8.185343104152045801e-03,-1.013423431942635233e-02,-1.208312553470065887e-02,-1.403201674997495152e-02,-1.637068620830410548e-02,-1.831957742357841201e-02,-2.026846863885271854e-02,-2.221735985412699732e-02,-2.455602931245616516e-02,-2.650492052773047169e-02,-2.845381174300475047e-02,-3.040270295827905700e-02,-3.118225944438877961e-02,-3.118225944438877961e-02,-3.118225944438877961e-02,-3.118225944438877961e-02,5.885651470128380053e-02,1.060196821109218174e-01
6.353385361794211539e-02,6.158496240266782273e-02,5.924629294433866183e-02,5.729740172906436224e-02,5.534851051379006265e-02,5.339961929851576999e-02,5.145072808324146346e-02,4.911205862491230950e-02,4.716316740963801685e-02,4.521427619436371725e-02,4.326538497908941072e-02,4.092671552076025676e-02,3.897782430548595023e-02,3.702893309021165757e-02,3.508004187493736492e-02,3.274137241660821096e-02,3.079248120133390443e-02,2.884358998605961177e-02,2.689469877078531912e-02,2.455602931245615128e-02,2.260713809718184475e-02,2.065824688190755209e-02,1.870935566663325944e-02,1.637068620830410548e-02,1.442179499302979895e-02,1.247290377775550629e-02,1.052401256248119976e-02,8.185343104152059679e-03,6.236451888877753147e-03,4.287560673603460493e-03,2.338669458329167838e-03,-1.387778780781445676e-17,-1.948891215274292654e-03,-3.897782430548599186e-03,-5.846673645822891840e-03,-7.795564861097184495e-03,-1.013423431942635233e-02,-1.208312553470065887e-02,-1.403201674997493764e-02,-1.598090796524924417e-02,-1.831957742357841201e-02,-2.026846863885271854e-02,-2.221735985412699732e-02,-2.416625106940130385e-02,-2.650492052773047169e-02,8.500819869624579028e-02,1.060196821109218174e-01
7.600675739569762168e-02,7.366808793736846772e-02,7.171919672209417507e-02,6.977030550681986854e-02,6.782141429154557588e-02,6.548274483321642192e-02,6.353385361794211539e-02,6.158496240266781580e-02,5.963607118739351620e-02,5.729740172906436224e-02,5.534851051379006959e-02,5.339961929851576306e-02,5.145072808324147040e-02,4.911205862491230950e-02,4.716316740963800991e-02,4.521427619436371725e-02,4.326538497908941072e-02,4.092671552076025676e-02,3.897782430548595023e-02,3.702893309021164370e-02,3.508004187493736492e-02,3.274137241660821096e-02,3.079248120133391831e-02,2.884358998605961177e-02,2.689469877078531912e-02,2.455602931245615128e-02,2.260713809718185863e-02,2.065824688190756597e-02,1.870935566663325944e-02,1.676046445135896679e-02,1.442179499302979895e-02,1.247290377775549242e-02,1.052401256248119976e-02,8.575121347206907108e-03,6.236451888877753147e-03,4.287560673603446615e-03,2.338669458329167838e-03,3.897782430548751842e-04,-1.948891215274292654e-03,-3.897782430548599186e-03,-5.846673645822891840e-03,-7.795564861097184495e-03,-1.013423431942635233e-02,-1.208312553470064499e-02,-1.403201674997495152e-02,1.060196821109218174e-01,1.060196821109218174e-01
8.808988293039826667e-02,8.614099171512397402e-02,8.419210049984968136e-02,8.185343104152051352e-02,7.990453982624622087e-02,7.795564861097192821e-02,7.600675739569762168e-02,7.366808793736846772e-02,7.171919672209417507e-02,6.977030550681986854e-02,6.782141429154557588e-02,6.548274483321642192e-02,6.353385361794211539e-02,6.158496240266782273e-02,5.963607118739352314e-02,5.729740172906436224e-02,5.534851051379006959e-02,5.339961929851576999e-02,5.145072808324147040e-02,4.911205862491230950e-02,4.716316740963800297e-02,4.521427619436371032e-02,4.326538497908941072e-02,4.131649376381511807e-02,3.897782430548595023e-02,3.702893309021165757e-02,3.508004187493735104e-02,3.313115065966307227e-02,3.079248120133390443e-02,2.884358998605961177e-02,2.689469877078531912e-02,2.494580755551101259e-02,2.260713809718185863e-02,2.065824688190753822e-02,1.870935566663325944e-02,1.676046445135896679e-02,1.442179499302979895e-02,1.247290377775550629e-02,1.052401256248119976e-02,8.575121347206907108e-03,6.236451888877753147e-03,4.287560673603460493e-03,2.338669458329153961e-03,3.897782430548613064e-04,1.829521628338746930e-02,1.060196821109218174e-01,1.060196821109218174e-01
1.005627867081537868e-01,9.822411724982461900e-02,9.627522603455032635e-02,9.432633481927603369e-02,9.237744360400172716e-02,9.003877414567257320e-02,8.808988293039826667e-02,8.614099171512397402e-02,8.419210049984968136e-02,8.185343104152052740e-02,7.990453982624622087e-02,7.795564861097192821e-02,7.600675739569762168e-02,7.405786618042332903e-02,7.171919672209417507e-02,6.977030550681986854e-02,6.782141429154557588e-02,6.587252307627126935e-02,6.353385361794211539e-02,6.158496240266782273e-02,5.963607118739351620e-02,5.768717997211922355e-02,5.534851051379006959e-02,5.339961929851576306e-02,5.145072808324147040e-02,4.950183686796717081e-02,4.716316740963800297e-02,4.521427619436371032e-02,4.326538497908941072e-02,4.131649376381511807e-02,3.897782430548595023e-02,3.702893309021165757e-02,3.508004187493736492e-02,3.313115065966305839e-02,3.079248120133391831e-02,2.884358998605961177e-02,2.689469877078530524e-02,2.494580755551101259e-02,2.260713809718185863e-02,2.065824688190755209e-02,1.870935566663325944e-02,1.676046445135896679e-02,1.442179499302981283e-02,1.247290377775550629e-02,4.335064896975766857e-02,1.060196821109218174e-01,1.060196821109218174e-01
1.060196821109218174e-01,1.060196821109218174e-01,1.060196821109218174e-01,1.060196821109218174e-01,1.044605691387023721e-01,1.025116779234280795e-01,1.005627867081537868e-01,9.861389549287948031e-02,9.627522603455032635e-02,9.432633481927603369e-02,9.237744360400172716e-02,9.042855238872743451e-02,8.808988293039826667e-02,8.614099171512397402e-02,8.419210049984968136e-02,8.224320928457537483e-02,7.990453982624622087e-02,7.795564861097192821e-02,7.600675739569762168e-02,7.405786618042332903e-02,7.171919672209417507e-02,6.977030550681986854e-02,6.782141429154557588e-02,6.587252307627126935e-02,6.353385361794211539e-02,6.158496240266782273e-02,5.963607118739352314e-02,5.768717997211922355e-02,5.534851051379006959e-02,5.339961929851576306e-02,5.145072808324147040e-02,4.950183686796716387e-02,4.755294565269286428e-02,4.521427619436371725e-02,4.326538497908941072e-02,4.131649376381511807e-02,3.936760254854081154e-02,3.702893309021165757e-02,3.508004187493736492e-02,3.313115065966307227e-02,3.118225944438876573e-02,2.884358998605961177e-02,2.689469877078530524e-02,2.494580755551101259e-02,6.450829922557926865e-02,1.060196821109218174e-01,1.060196821109218174e-01
1.060196821109218174e-01,1.060196821109218174e-01,1.060196821109218174e-01,1.060196821109218174e-01,1.060196821109218174e-01,1.060196821109218174e-01,1.060196821109218174e-01,1.060196821109218174e-01,1.060196821109218174e-01,1.060196821109218174e-01,1.044605691387023721e-01,1.025116779234280795e-01,1.005627867081537868e-01,9.861389549287948031e-02,9.627522603455032635e-02,9.432633481927603369e-02,9.237744360400172716e-02,9.042855238872743451e-02,8.808988293039826667e-02,8.614099171512397402e-02,8.419210049984968136e-02,8.224320928457537483e-02,7.990453982624622087e-02,7.795564861097192821e-02,7.600675739569762168e-02,7.405786618042331515e-02,7.210897496514903637e-02,6.977030550681986854e-02,6.782141429154557588e-02,6.587252307627126935e-02,6.392363186099697669e-02,6.158496240266781580e-02,5.963607118739351620e-02,5.768717997211922355e-02,5.573828875684492395e-02,5.339961929851576306e-02,5.145072808324146346e-02,4.950183686796717081e-02,4.755294565269286428e-02,4.521427619436371032e-02,4.326538497908941072e-02,4.131649376381511807e-02,3.936760254854081154e-02,3.702893309021165757e-02,8.163418077980216792e-02,1.060196821109218174e-01,1.060196821109218174e-01
1.060196821109218174e-01,1.060196821109218174e-01,1.060196821109218174e-01,1.060196821109218174e-01,1.060196821109218174e-01,1.060196821109218174e-01,1.060196821109218174e-01,1.060196821109218174e-01,1.060196821109218174e-01,1.060196821109218174e-01,1.060196821109218174e-01,1.060196821109218174e-01,1.060196821109218174e-01,1.060196821109218174e-01,1.060196821109218174e-01,1.060196821109218174e-01,1.044605691387023721e-01,1.025116779234280795e-01,1.005627867081537868e-01,9.861389549287948031e-02,9.666500427760518765e-02,9.432633481927603369e-02,9.237744360400172716e-02,9.042855238872743451e-02,8.847966117345312798e-02,8.614099171512397402e-02,8.419210049984968136e-02,8.224320928457537483e-02,8.029431806930108217e-02,7.795564861097192821e-02,7.600675739569762168e-02,7.405786618042332903e-02,7.210897496514903637e-02,6.977030550681986854e-02,6.782141429154557588e-02,6.587252307627128323e-02,6.392363186099697669e-02,6.158496240266782273e-02,5.963607118739352314e-02,5.768717997211923049e-02,5.573828875684492395e-02,5.339961929851576306e-02,5.145072808324147040e-02,4.950183686796716387e-02,9.688425453932354714e-02,1.060196821109218174e-01,1.060196821109218174e-01
1.060196821109218174e-01,1.060196821109218174e-01,1.060196821109218174e-01,1.060196821109218174e-01,1.060196821109218174e-01,1.060196821109218174e-01,1.060196821109218174e-01,1.060196821109218174e-01,1.060196821109218174e-01,1.060196821109218174e-01,1.060196821109218174e-01,1.060196821109218174e-01,1.060196821109218174e-01,1.060196821109218174e-01,1.060196821109218174e-01,1.060196821109218174e-01,1.060196821109218174e-01,1.060196821109218174e-01,1.060196821109218174e-01,1.060196821109218174e-01,1.060196821109218174e-01,1.060196821109218174e-01,1.048503473817572335e-01,1.025116779234280795e-01,1.005627867081537868e-01,9.861389549287948031e-02,9.666500427760518765e-02,9.432633481927603369e-02,9.237744360400172716e-02,9.042855238872743451e-02,8.847966117345312798e-02,8.614099171512397402e-02,8.419210049984968136e-02,8.224320928457537483e-02,8.029431806930108217e-02,7.795564861097192821e-02,7.600675739569762168e-02,7.405786618042332903e-02,7.210897496514903637e-02,7.016008374987472984e-02,6.782141429154556200e-02,6.587252307627128323e-02,6.392363186099697669e-02,6.197474064572268404e-02,1.060196821109218174e-01,1.060196821109218174e-01,1.060196821109218174e-01
1.060196821109218174e-01,1.060196821109218174e-01,1.060196821109218174e-01,1.060196821109218174e-01,1.060196821109218174e-01,1.060196821109218174e-01,1.060196821109218174e-01,1.060196821109218174e-01,1.060196821109218174e-01,1.060196821109218174e-01,1.060196821109218174e-01,1.060196821109218174e-01,1.060196821109218174e-01,1.060196821109218174e-01,1.060196821109218174e-01,1.060196821109218174e-01,1.060196821109218174e-01,1.060196821109218174e-01,1.060196821109218174e-01,1.060196821109218174e-01,1.060196821109218174e-01,1.060196821109218174e-01,1.060196821109218174e-01,1.060196821109218174e-01,1.060196821109218174e-01,1.060196821109218174e-01,1.060196821109218174e-01,1.060196821109218174e-01,1.048503473817572335e-01,1.025116779234280795e-01,1.005627867081537868e-01,9.861389549287948031e-02,9.666500427760518765e-02,9.471611306233088112e-02,9.237744360400172716e-02,9.042855238872743451e-02,8.847966117345312798e-02,8.653076995817883532e-02,8.419210049984968136e-02,8.224320928457537483e-02,8.029431806930108217e-02,7.834542685402678952e-02,7.600675739569762168e-02,7.905189991956371176e-02,1.060196821109218174e-01,1.060196821109218174e-01,1.060196821109218174e-01
1.060196821109218174e-01,1.060196821109218174e-01,1.060196821109218174e-01,1.060196821109218174e-01,1.060196821109218174e-01,1.060196821109218174e-01,1.060196821109218174e-01,1.060196821109218174e-01,1.060196821109218174e-01,1.060196821109218174e-01,1.060196821109218174e-01,1.060196821109218174e-01,1.060196821109218174e-01,1.060196821109218174e-01,1.060196821109218174e-01,1.060196821109218174e-01,1.060196821109218174e-01,1.060196821109218174e-01,1.060196821109218174e-01,1.060196821109218174e-01,1.060196821109218174e-01,1.060196821109218174e-01,1.060196821109218174e-01,1.060196821109218174e-01,1.060196821109218174e-01,1.060196821109218174e-01,1.060196821109218174e-01,1.060196821109218174e-01,1.060196821109218174e-01,1.060196821109218174e-01,1.060196821109218174e-01,1.060196821109218174e-01,1.060196821109218174e-01,1.060196821109218174e-01,1.048503473817572335e-01,1.029014561664829408e-01,1.005627867081537868e-01,9.861389549287948031e-02,9.666500427760518765e-02,9.471611306233088112e-02,9.237744360400172716e-02,9.042855238872743451e-02,8.847966117345312798e-02,9.323008351068423627e-02,1.060196821109218174e-01,1.060196821109218174e-01,1.060196821109218174e-01
1.060196821109218174e-01,1.060196821109218174e-01,1.060196821109218174e-01,1.060196821109218174e-01,1.060196821109218174e-01,1.060196821109218174e-01,1.060196821109218174e-01,1.060196821109218174e-01,1.060196821109218174e-01,1.060196821109218174e-01,1.060196821109218174e-01,1.060196821109218174e-01,1.060196821109218174e-01,1.060196821109218174e-01,1.060196821109218174e-01,1.060196821109218174e-01,1.060196821109218174e-01,1.060196821109218174e-01,1.060196821109218174e-01,1.060196821109218174e-01,1.060196821109218174e-01,1.060196821109218174e-01,1.060196821109218174e-01,1.060196821109218174e-01,1.060196821109218174e-01,1.060196821109218174e-01,1.060196821109218174e-01,1.060196821109218174e-01,1.060196821109218174e-01,1.060196821109218174e-01,1.060196821109218174e-01,1.060196821109218174e-01,1.060196821109218174e-01,1.060196821109218174e-01,1.060196821109218174e-01,1.060196821109218174e-01,1.060196821109218174e-01,1.060196821109218174e-01,1.060196821109218174e-01,1.060196821109218174e-01,1.048503473817572335e-01,1.029014561664829408e-01,1.005627867081537868e-01,1.023167888019006488e-01,1.060196821109218174e-01,1.060196821109218174e-01,1.060196821109218174e-01
