-2.615792559393970151e-02,-2.615792559393970151e-02,-2.615792559393970151e-02,-2.615792559393970151e-02,-2.615792559393970151e-02,-2.615792559393970151e-02,-2.615792559393970151e-02,-2.615792559393970151e-02,-2.615792559393970151e-02,-2.615792559393970151e-02,-2.615792559393970151e-02,-2.615792559393970151e-02,-2.615792559393970151e-02,-2.615792559393970151e-02,-2.615792559393970151e-02,-2.615792559393970151e-02,-2.615792559393970151e-02,-2.615792559393970151e-02,-2.615792559393970151e-02,-2.615792559393970151e-02,-2.615792559393970151e-02,-2.615792559393970151e-02,-2.615792559393970151e-02,-2.615792559393970151e-02,-2.615792559393970151e-02,-2.615792559393970151e-02,-2.615792559393970151e-02,-2.615792559393970151e-02,-2.615792559393970151e-02,-2.615792559393970151e-02,-2.615792559393970151e-02,-2.615792559393970151e-02,-2.615792559393970151e-02,-2.615792559393970151e-02,-2.615792559393970151e-02,-2.605130361461657773e-02,-2.548265305822658422e-02,-2.569145443440103496e-02,-2.615792559393970151e-02,-2.615792559393970151e-02,-2.615792559393970151e-02,-2.615792559393970151e-02,-2.615792559393970151e-02,-2.615792559393970151e-02,-2.615792559393970151e-02,-2.615792559393970151e-02,-2.615792559393970151e-02
-2.615792559393970151e-02,-2.615792559393970151e-02,-2.615792559393970151e-02,-2.615792559393970151e-02,-2.615792559393970151e-02,-2.615792559393970151e-02,-2.615792559393970151e-02,-2.615792559393970151e-02,-2.615792559393970151e-02,-2.615792559393970151e-02,-2.615792559393970151e-02,-2.615792559393970151e-02,-2.615792559393970151e-02,-2.615792559393970151e-02,-2.615792559393970151e-02,-2.615792559393970151e-02,-2.615792559393970151e-02,-2.615792559393970151e-02,-2.615792559393970151e-02,-2.615792559393970151e-02,-2.615792559393970151e-02,-2.615792559393970151e-02,-2.615792559393970151e-02,-2.615792559393970151e-02,-2.615792559393970151e-02,-2.615792559393970151e-02,-2.615792559393970151e-02,-2.615792559393970151e-02,-2.615792559393970151e-02,-2.615792559393970151e-02,-2.615792559393970151e-02,-2.615792559393970151e-02,-2.615792559393970151e-02,-2.615792559393970151e-02,-2.562481569732408260e-02,-2.505616514093408909e-02,-2.448751458454409557e-02,-2.419874672387730200e-02,-2.615792559393970151e-02,-2.615792559393970151e-02,-2.615792559393970151e-02,-2.615792559393970151e-02,-2.615792559393970151e-02,-2.615792559393970151e-02,-2.615792559393970151e-02,-2.615792559393970151e-02,-2.615792559393970151e-02
-2.615792559393970151e-02,-2.615792559393970151e-02,-2.615792559393970151e-02,-2.615792559393970151e-02,-2.615792559393970151e-02,-2.615792559393970151e-02,-2.615792559393970151e-02,-2.615792559393970151e-02,-2.615792559393970151e-02,-2.615792559393970151e-02,-2.615792559393970151e-02,-2.615792559393970151e-02,-2.615792559393970151e-02,-2.615792559393970151e-02,-2.615792559393970151e-02,-2.615792559393970151e-02,-2.615792559393970151e-02,-2.615792559393970151e-02,-2.615792559393970151e-02,-2.615792559393970151e-02,-2.615792559393970151e-02,-2.615792559393970151e-02,-2.615792559393970151e-02,-2.615792559393970151e-02,-2.615792559393970151e-02,-2.615792559393970151e-02,-2.615792559393970151e-02,-2.615792559393970151e-02,-2.615792559393970151e-02,-2.615792559393970151e-02,-2.615792559393970151e-02,-2.615792559393970151e-02,-2.576697833642158098e-02,-2.519832778003158746e-02,-2.462967722364159395e-02,-2.406102666725160044e-02,-2.349237611086160693e-02,-2.292372555447161342e-02,-2.425650029601066071e-02,-2.615792559393970151e-02,-2.615792559393970151e-02,-2.615792559393970151e-02,-2.615792559393970151e-02,-2.615792559393970151e-02,-2.615792559393970151e-02,-2.615792559393970151e-02,-2.615792559393970151e-02
-2.615792559393970151e-02,-2.615792559393970151e-02,-2.615792559393970151e-02,-2.615792559393970151e-02,-2.615792559393970151e-02,-2.615792559393970151e-02,-2.615792559393970151e-02,-2.615792559393970151e-02,-2.615792559393970151e-02,-2.615792559393970151e-02,-2.615792559393970151e-02,-2.615792559393970151e-02,-2.615792559393970151e-02,-2.615792559393970151e-02,-2.615792559393970151e-02,-2.615792559393970151e-02,-2.615792559393970151e-02,-8.209729330611784115e-02,-8.209729330611784115e-02,-8.209729330611784115e-02,-2.615792559393970151e-02,-2.615792559393970151e-02,-2.615792559393970151e-02,-2.615792559393970151e-02,-2.615792559393970151e-02,-2.615792559393970151e-02,-2.615792559393970151e-02,-2.615792559393970151e-02,-2.615792559393970151e-02,-2.615792559393970151e-02,-2.594468163529345395e-02,-2.537603107890346044e-02,-2.480738052251346693e-02,-2.423872996612347341e-02,-2.367007940973347990e-02,-2.306588819356911180e-02,-2.249723763717911829e-02,-2.192858708078912477e-02,-2.135993652439913126e-02,-2.548709564069838104e-02,-2.615792559393970151e-02,-2.615792559393970151e-02,-2.615792559393970151e-02,-2.615792559393970151e-02,-2.615792559393970151e-02,-2.615792559393970151e-02,-2.615792559393970151e-02
-2.615792559393970151e-02,-2.615792559393970151e-02,-2.615792559393970151e-02,-2.615792559393970151e-02,-2.615792559393970151e-02,-2.615792559393970151e-02,-2.615792559393970151e-02,-2.615792559393970151e-02,-2.615792559393970151e-02,-2.615792559393970151e-02,-2.615792559393970151e-02,-2.615792559393970151e-02,-2.615792559393970151e-02,-2.615792559393970151e-02,-2.615792559393970151e-02,-2.615792559393970151e-02,-2.615792559393970151e-02,-8.209729330611784115e-02,-8.209729330611784115e-02,-8.209729330611784115e-02,-2.615792559393970151e-02,-2.615792559393970151e-02,-2.615792559393970151e-02,-2.615792559393970151e-02,-2.615792559393970151e-02,-2.615792559393970151e-02,-2.615792559393970151e-02,-2.615792559393970151e-02,-2.608684427439095233e-02,-2.551819371800095881e-02,-2.494954316161096530e-02,-2.438089260522097179e-02,-2.381224204883097828e-02,-2.324359149244098477e-02,-2.267494093605099126e-02,-2.210629037966099775e-02,-2.153763982327100424e-02,-2.096898926688101072e-02,-2.040033871049101721e-02,-2.220402719404052788e-02,-2.615792559393970151e-02,-2.615792559393970151e-02,-2.615792559393970151e-02,-2.615792559393970151e-02,-2.615792559393970151e-02,-2.615792559393970151e-02,-2.615792559393970151e-02
-2.615792559393970151e-02,-2.615792559393970151e-02,-2.615792559393970151e-02,-2.615792559393970151e-02,-2.615792559393970151e-02,-2.615792559393970151e-02,-2.615792559393970151e-02,-2.615792559393970151e-02,-2.615792559393970151e-02,-2.615792559393970151e-02,-2.615792559393970151e-02,-2.615792559393970151e-02,-2.615792559393970151e-02,-2.615792559393970151e-02,-2.615792559393970151e-02,-2.615792559393970151e-02,-2.615792559393970151e-02,-8.209729330611784115e-02,-8.209729330611784115e-02,-8.209729330611784115e-02,-2.615792559393970151e-02,-2.615792559393970151e-02,-2.615792559393970151e-02,-2.615792559393970151e-02,-2.615792559393970151e-02,-2.615792559393970151e-02,-2.615792559393970151e-02,-2.566035635709845719e-02,-2.509170580070846368e-02,-2.452305524431847017e-02,-2.395440468792847666e-02,-2.338575413153848315e-02,-2.281710357514848964e-02,-2.224845301875849612e-02,-2.167980246236850261e-02,-2.111115190597850910e-02,-2.054250134958851559e-02,-1.997385079319852208e-02,-1.940520023680852857e-02,-1.883654968041853506e-02,-2.393885564927718951e-02,-2.615792559393970151e-02,-2.615792559393970151e-02,-2.615792559393970151e-02,-2.615792559393970151e-02,-2.615792559393970151e-02,-2.615792559393970151e-02
-2.615792559393970151e-02,-2.615792559393970151e-02,-2.615792559393970151e-02,-2.615792559393970151e-02,-2.615792559393970151e-02,-2.615792559393970151e-02,-2.615792559393970151e-02,-2.615792559393970151e-02,-2.615792559393970151e-02,-2.615792559393970151e-02,-2.615792559393970151e-02,-2.615792559393970151e-02,-2.615792559393970151e-02,-2.615792559393970151e-02,-2.615792559393970151e-02,-2.615792559393970151e-02,-2.615792559393970151e-02,-2.615792559393970151e-02,-2.615792559393970151e-02,-2.615792559393970151e-02,-2.615792559393970151e-02,-2.615792559393970151e-02,-2.615792559393970151e-02,-2.615792559393970151e-02,-2.615792559393970151e-02,-2.583805965597033016e-02,-2.526940909958033665e-02,-2.470075854319034314e-02,-2.413210798680034963e-02,-2.356345743041035612e-02,-2.299480687402036261e-02,-2.242615631763036910e-02,-2.185750576124037559e-02,-2.128885520485038207e-02,-2.068466398868601397e-02,-2.011601343229602046e-02,-1.954736287590602695e-02,-1.897871231951603344e-02,-1.841006176312603992e-02,-1.784141120673604641e-02,-1.921639048175716180e-02,-2.615792559393970151e-02,-2.615792559393970151e-02,-2.615792559393970151e-02,-2.615792559393970151e-02,-2.615792559393970151e-02,-2.615792559393970151e-02
-2.615792559393970151e-02,-2.615792559393970151e-02,-2.615792559393970151e-02,-2.615792559393970151e-02,-2.615792559393970151e-02,-2.615792559393970151e-02,-2.615792559393970151e-02,-2.615792559393970151e-02,-2.615792559393970151e-02,-2.615792559393970151e-02,-2.615792559393970151e-02,-2.615792559393970151e-02,-2.615792559393970151e-02,-2.615792559393970151e-02,-2.615792559393970151e-02,-2.615792559393970151e-02,-2.615792559393970151e-02,-2.615792559393970151e-02,-2.615792559393970151e-02,-2.615792559393970151e-02,-2.615792559393970151e-02,-2.615792559393970151e-02,-2.615792559393970151e-02,-2.598022229506782854e-02,-2.541157173867783503e-02,-2.484292118228784152e-02,-2.427427062589784801e-02,-2.370562006950785450e-02,-2.313696951311786099e-02,-2.256831895672786747e-02,-2.199966840033787396e-02,-2.143101784394788045e-02,-2.086236728755788694e-02,-2.029371673116789343e-02,-1.972506617477789992e-02,-1.915641561838790641e-02,-1.858776506199791290e-02,-1.801911450560791939e-02,-1.745046394921792587e-02,-1.688181339282793236e-02,-1.631316283643793885e-02,-2.192747643517117470e-02,-2.615792559393970151e-02,-2.615792559393970151e-02,-2.615792559393970151e-02,-2.615792559393970151e-02,-2.615792559393970151e-02
-2.615792559393970151e-02,-2.615792559393970151e-02,-2.615792559393970151e-02,-2.615792559393970151e-02,-2.615792559393970151e-02,-2.615792559393970151e-02,-2.615792559393970151e-02,-2.615792559393970151e-02,-2.615792559393970151e-02,-2.615792559393970151e-02,-2.615792559393970151e-02,-2.615792559393970151e-02,-2.615792559393970151e-02,-2.615792559393970151e-02,-2.615792559393970151e-02,-2.615792559393970151e-02,-2.615792559393970151e-02,-2.615792559393970151e-02,-2.615792559393970151e-02,-2.615792559393970151e-02,-2.615792559393970151e-02,-2.612238493416532692e-02,-2.555373437777533341e-02,-2.498508382138533990e-02,-2.441643326499534639e-02,-2.384778270860535287e-02,-2.327913215221535936e-02,-2.271048159582536585e-02,-2.214183103943537234e-02,-2.157318048304537883e-02,-2.100452992665538532e-02,-2.043587937026539181e-02,-1.986722881387539830e-02,-1.929857825748540479e-02,-1.872992770109541127e-02,-1.816127714470541776e-02,-1.759262658831542425e-02,-1.702397603192543074e-02,-1.645532547553543723e-02,-1.588667491914544372e-02,-1.531802436275545021e-02,-1.581892553645054128e-02,-2.578363802069081820e-02,-2.615792559393970151e-02,-2.615792559393970151e-02,-2.615792559393970151e-02,-2.615792559393970151e-02
-2.615792559393970151e-02,-2.615792559393970151e-02,-2.615792559393970151e-02,-2.615792559393970151e-02,-2.615792559393970151e-02,-2.615792559393970151e-02,-2.615792559393970151e-02,-2.615792559393970151e-02,-2.615792559393970151e-02,-2.615792559393970151e-02,-2.615792559393970151e-02,-2.615792559393970151e-02,-2.615792559393970151e-02,-2.615792559393970151e-02,-2.615792559393970151e-02,-2.615792559393970151e-02,-2.615792559393970151e-02,-2.615792559393970151e-02,-2.615792559393970151e-02,-2.615792559393970151e-02,-2.573143767664720638e-02,-2.516278712025721287e-02,-2.459413656386721936e-02,-2.402548600747722585e-02,-2.345683545108723234e-02,-2.288818489469723882e-02,-2.231953433830724531e-02,-2.175088378191725180e-02,-2.118223322552725829e-02,-2.061358266913726478e-02,-2.004493211274727127e-02,-1.944074089658290316e-02,-1.887209034019290965e-02,-1.830343978380291614e-02,-1.773478922741292263e-02,-1.716613867102292912e-02,-1.659748811463293561e-02,-1.602883755824294210e-02,-1.546018700185294859e-02,-1.489153644546295507e-02,-1.432288588907296156e-02,-1.375423533268296805e-02,-1.926636953456487694e-02,-2.615792559393970151e-02,-2.615792559393970151e-02,-2.615792559393970151e-02,-2.615792559393970151e-02
-2.615792559393970151e-02,-2.615792559393970151e-02,-2.615792559393970151e-02,-2.615792559393970151e-02,-2.615792559393970151e-02,-2.615792559393970151e-02,-2.615792559393970151e-02,-2.615792559393970151e-02,-2.615792559393970151e-02,-2.615792559393970151e-02,-2.615792559393970151e-02,-2.615792559393970151e-02,-2.615792559393970151e-02,-2.615792559393970151e-02,-2.615792559393970151e-02,-2.615792559393970151e-02,-2.615792559393970151e-02,-2.615792559393970151e-02,-2.587360031574470476e-02,-2.530494975935471125e-02,-2.473629920296471774e-02,-2.416764864657472422e-02,-2.359899809018473071e-02,-2.303034753379473720e-02,-2.246169697740474369e-02,-2.189304642101475018e-02,-2.132439586462475667e-02,-2.075574530823476316e-02,-2.018709475184476965e-02,-1.961844419545477614e-02,-1.904979363906478262e-02,-1.848114308267478911e-02,-1.791249252628479560e-02,-1.734384196989480209e-02,-1.677519141350480858e-02,-1.620654085711481507e-02,-1.563789030072482156e-02,-1.506923974433482805e-02,-1.450058918794483453e-02,-1.393193863155484102e-02,-1.332774741539047292e-02,-1.275909685900047941e-02,-1.219044630261048590e-02,-2.343240124749235154e-02,-2.615792559393970151e-02,-2.615792559393970151e-02,-2.615792559393970151e-02
-2.615792559393970151e-02,-2.615792559393970151e-02,-2.615792559393970151e-02,-2.615792559393970151e-02,-2.615792559393970151e-02,-2.615792559393970151e-02,-2.615792559393970151e-02,-2.615792559393970151e-02,-2.615792559393970151e-02,-2.615792559393970151e-02,-2.615792559393970151e-02,-2.615792559393970151e-02,-2.615792559393970151e-02,-2.615792559393970151e-02,-2.615792559393970151e-02,-2.615792559393970151e-02,-2.605130361461657773e-02,-2.548265305822658422e-02,-2.487846184206221611e-02,-2.430981128567222260e-02,-2.374116072928222909e-02,-2.317251017289223558e-02,-2.260385961650224207e-02,-2.203520906011224856e-02,-2.146655850372225505e-02,-2.089790794733226154e-02,-2.032925739094226802e-02,-1.976060683455227451e-02,-1.919195627816228100e-02,-1.862330572177228749e-02,-1.805465516538229398e-02,-1.748600460899230047e-02,-1.691735405260230696e-02,-1.634870349621231345e-02,-1.578005293982231994e-02,-1.521140238343232642e-02,-1.464275182704233291e-02,-1.407410127065233940e-02,-1.350545071426234589e-02,-1.293680015787235238e-02,-1.236814960148235887e-02,-1.179949904509236536e-02,-1.123084848870237185e-02,-1.550461282657091683e-02,-2.615792559393970151e-02,-2.615792559393970151e-02,-2.615792559393970151e-02
-2.615792559393970151e-02,-2.615792559393970151e-02,-2.615792559393970151e-02,-2.615792559393970151e-02,-2.615792559393970151e-02,-2.615792559393970151e-02,-2.615792559393970151e-02,-2.615792559393970151e-02,-2.615792559393970151e-02,-2.615792559393970151e-02,-2.615792559393970151e-02,-2.615792559393970151e-02,-2.615792559393970151e-02,-2.615792559393970151e-02,-2.615792559393970151e-02,-2.562481569732408260e-02,-2.505616514093408909e-02,-2.448751458454409557e-02,-2.391886402815410206e-02,-2.335021347176410855e-02,-2.278156291537411504e-02,-2.221291235898412153e-02,-2.164426180259412802e-02,-2.107561124620413451e-02,-2.050696068981414100e-02,-1.993831013342414749e-02,-1.936965957703415397e-02,-1.880100902064416046e-02,-1.819681780447979236e-02,-1.762816724808979885e-02,-1.705951669169980534e-02,-1.649086613530981182e-02,-1.592221557891981831e-02,-1.535356502252982480e-02,-1.478491446613983129e-02,-1.421626390974983778e-02,-1.364761335335984427e-02,-1.307896279696985076e-02,-1.251031224057985725e-02,-1.194166168418986373e-02,-1.137301112779987022e-02,-1.080436057140987671e-02,-1.023571001501988320e-02,-9.667059458629889690e-03,-2.082682662778351235e-02,-2.615792559393970151e-02,-2.615792559393970151e-02
-2.615792559393970151e-02,-2.615792559393970151e-02,-2.615792559393970151e-02,-2.615792559393970151e-02,-2.615792559393970151e-02,-2.615792559393970151e-02,-2.615792559393970151e-02,-2.615792559393970151e-02,-2.615792559393970151e-02,-2.615792559393970151e-02,-2.615792559393970151e-02,-2.615792559393970151e-02,-2.615792559393970151e-02,-2.576697833642158098e-02,-2.519832778003158746e-02,-2.462967722364159395e-02,-2.406102666725160044e-02,-2.349237611086160693e-02,-2.292372555447161342e-02,-2.235507499808161991e-02,-2.178642444169162640e-02,-2.121777388530163289e-02,-2.064912332891163937e-02,-2.008047277252164586e-02,-1.951182221613165235e-02,-1.894317165974165884e-02,-1.837452110335166533e-02,-1.780587054696167182e-02,-1.723721999057167831e-02,-1.666856943418168480e-02,-1.609991887779169129e-02,-1.553126832140169777e-02,-1.496261776501170426e-02,-1.439396720862171075e-02,-1.382531665223171724e-02,-1.325666609584172373e-02,-1.268801553945173022e-02,-1.208382432328736211e-02,-1.151517376689736860e-02,-1.094652321050737509e-02,-1.037787265411738158e-02,-9.809222097727388068e-03,-9.240571541337394557e-03,-8.671920984947401045e-03,-1.148851827206658766e-02,-2.615792559393970151e-02,-2.615792559393970151e-02
-2.615792559393970151e-02,-2.615792559393970151e-02,-2.615792559393970151e-02,-2.615792559393970151e-02,-2.615792559393970151e-02,-2.615792559393970151e-02,-2.615792559393970151e-02,-2.615792559393970151e-02,-2.615792559393970151e-02,-2.615792559393970151e-02,-2.615792559393970151e-02,-2.594468163529345395e-02,-2.537603107890346044e-02,-2.480738052251346693e-02,-2.423872996612347341e-02,-2.367007940973347990e-02,-2.306588819356911180e-02,-4.612017114147948238e-02,-4.555152058508948887e-02,-4.498287002869949536e-02,-4.441421947230950185e-02,-2.022263541161914424e-02,-1.965398485522915073e-02,-1.908533429883915722e-02,-1.851668374244916371e-02,-1.794803318605917020e-02,-1.737938262966917669e-02,-1.681073207327918317e-02,-1.624208151688918966e-02,-1.567343096049919615e-02,-1.510478040410920264e-02,-1.453612984771920913e-02,-1.396747929132921562e-02,-1.339882873493922211e-02,-1.283017817854922860e-02,-1.226152762215923508e-02,-1.169287706576924157e-02,-1.112422650937924806e-02,-1.055557595298925455e-02,-9.986925396599261040e-03,-9.418274840209267529e-03,-8.849624283819274018e-03,-8.280973727429280506e-03,-7.712323171039286995e-03,-7.143672614649293484e-03,-1.759040529707952411e-02,-2.615792559393970151e-02
-2.615792559393970151e-02,-2.615792559393970151e-02,-2.615792559393970151e-02,-2.615792559393970151e-02,-2.615792559393970151e-02,-2.615792559393970151e-02,-2.615792559393970151e-02,-2.615792559393970151e-02,-2.615792559393970151e-02,-2.608684427439095233e-02,-2.551819371800095881e-02,-2.494954316161096530e-02,-2.438089260522097179e-02,-2.381224204883097828e-02,-2.324359149244098477e-02,-2.267494093605099126e-02,-2.210629037966099775e-02,-4.516057332757136833e-02,-4.459192277118137482e-02,-4.402327221479138131e-02,-4.345462165840138780e-02,-1.926303759771103019e-02,-1.869438704132103668e-02,-1.812573648493104317e-02,-1.755708592854104966e-02,-1.698843537215105615e-02,-1.638424415598668804e-02,-1.581559359959669453e-02,-1.524694304320670102e-02,-1.467829248681670751e-02,-1.410964193042671400e-02,-1.354099137403672048e-02,-1.297234081764672697e-02,-1.240369026125673346e-02,-1.183503970486673995e-02,-1.126638914847674644e-02,-1.069773859208675293e-02,-1.012908803569675942e-02,-9.560437479306765907e-03,-8.991786922916772395e-03,-8.423136366526778884e-03,-7.854485810136785373e-03,-7.285835253746791862e-03,-6.717184697356798351e-03,-6.148534140966804840e-03,-6.866011210161990230e-03,-2.417542316590036780e-02
-2.615792559393970151e-02,-2.615792559393970151e-02,-2.615792559393970151e-02,-2.615792559393970151e-02,-2.615792559393970151e-02,-2.615792559393970151e-02,-2.615792559393970151e-02,-2.615792559393970151e-02,-2.566035635709845719e-02,-2.509170580070846368e-02,-2.452305524431847017e-02,-2.395440468792847666e-02,-2.338575413153848315e-02,-2.281710357514848964e-02,-2.224845301875849612e-02,-2.167980246236850261e-02,-2.111115190597850910e-02,-4.416543485388887968e-02,-4.359678429749888617e-02,-4.302813374110889266e-02,-4.245948318471889915e-02,-1.826789912402854155e-02,-1.769924856763854804e-02,-1.713059801124855452e-02,-1.656194745485856101e-02,-1.599329689846856750e-02,-1.542464634207857399e-02,-1.485599578568858048e-02,-1.428734522929858697e-02,-1.371869467290859346e-02,-1.315004411651859995e-02,-1.258139356012860643e-02,-1.201274300373861292e-02,-1.144409244734861941e-02,-1.087544189095862590e-02,-1.027125067479425780e-02,-9.702600118404264284e-03,-9.133949562014270773e-03,-8.565299005624277262e-03,-7.996648449234283751e-03,-7.427997892844290240e-03,-6.859347336454296729e-03,-6.290696780064303217e-03,-5.722046223674309706e-03,-5.153395667284316195e-03,-4.584745110894322684e-03,-1.301121341427494832e-02
-2.615792559393970151e-02,-2.615792559393970151e-02,-2.615792559393970151e-02,-2.615792559393970151e-02,-2.615792559393970151e-02,-2.615792559393970151e-02,-2.583805965597033016e-02,-2.526940909958033665e-02,-2.470075854319034314e-02,-2.413210798680034963e-02,-2.356345743041035612e-02,-2.299480687402036261e-02,-2.242615631763036910e-02,-2.182196510146600099e-02,-2.125331454507600748e-02,-2.068466398868601397e-02,-2.011601343229602046e-02,-4.317029638020639104e-02,-4.260164582381639753e-02,-4.203299526742640402e-02,-4.146434471103641051e-02,-1.727276065034605290e-02,-1.670411009395605939e-02,-1.613545953756606588e-02,-1.556680898117607237e-02,-1.499815842478607886e-02,-1.442950786839608535e-02,-1.386085731200609183e-02,-1.329220675561609832e-02,-1.272355619922610481e-02,-1.215490564283611130e-02,-1.158625508644611779e-02,-1.101760453005612428e-02,-1.044895397366613077e-02,-9.880303417276137257e-03,-9.311652860886143745e-03,-8.743002304496150234e-03,-8.174351748106156723e-03,-7.605701191716163212e-03,-7.037050635326169701e-03,-6.468400078936176190e-03,-5.899749522546182678e-03,-5.331098966156189167e-03,-4.762448409766195656e-03,-4.158257193601827550e-03,-3.589606637211834039e-03,-3.020956080821840528e-03
-2.615792559393970151e-02,-2.615792559393970151e-02,-2.615792559393970151e-02,-2.615792559393970151e-02,-2.598022229506782854e-02,-2.541157173867783503e-02,-2.484292118228784152e-02,-2.427427062589784801e-02,-2.370562006950785450e-02,-2.313696951311786099e-02,-2.256831895672786747e-02,-2.199966840033787396e-02,-2.143101784394788045e-02,-2.086236728755788694e-02,-2.029371673116789343e-02,-1.972506617477789992e-02,-1.915641561838790641e-02,-1.858776506199791290e-02,-1.801911450560791939e-02,-1.745046394921792587e-02,-1.688181339282793236e-02,-1.631316283643793885e-02,-1.574451228004794534e-02,-1.514032106388357724e-02,-1.457167050749358372e-02,-1.400301995110359021e-02,-1.343436939471359670e-02,-1.286571883832360319e-02,-1.229706828193360968e-02,-1.172841772554361617e-02,-1.115976716915362266e-02,-1.059111661276362915e-02,-1.002246605637363563e-02,-9.453815499983642123e-03,-8.885164943593648612e-03,-8.316514387203655101e-03,-7.747863830813661590e-03,-7.179213274423668079e-03,-6.610562718033674567e-03,-6.041912161643681056e-03,-5.473261605253687545e-03,-4.904611048863694034e-03,-4.335960492473700523e-03,-3.767309936083707012e-03,-3.198659379693713500e-03,-2.630008823303719989e-03,-2.061358266913726478e-03
-2.615792559393970151e-02,-2.615792559393970151e-02,-2.612238493416532692e-02,-2.555373437777533341e-02,-2.498508382138533990e-02,-2.441643326499534639e-02,-2.384778270860535287e-02,-2.327913215221535936e-02,-2.271048159582536585e-02,-2.214183103943537234e-02,-2.157318048304537883e-02,-2.100452992665538532e-02,-2.043587937026539181e-02,-1.986722881387539830e-02,-1.929857825748540479e-02,-1.872992770109541127e-02,-1.816127714470541776e-02,-1.759262658831542425e-02,-1.702397603192543074e-02,-1.645532547553543723e-02,-1.588667491914544372e-02,-1.531802436275545021e-02,-1.474937380636545670e-02,-1.418072324997546318e-02,-1.361207269358546967e-02,-1.304342213719547616e-02,-1.247477158080548265e-02,-1.190612102441548914e-02,-1.133747046802549563e-02,-1.076881991163550212e-02,-1.020016935524550861e-02,-9.631518798855515096e-03,-9.062868242465521584e-03,-8.458677026301153479e-03,-7.890026469911159968e-03,-7.321375913521166456e-03,-6.752725357131172945e-03,-6.184074800741179434e-03,-5.615424244351185923e-03,-5.046773687961192412e-03,-4.478123131571198901e-03,-3.909472575181205389e-03,-3.340822018791211878e-03,-2.772171462401218367e-03,-2.203520906011224856e-03,-1.634870349621231345e-03,-1.066219793231237833e-03
-2.615792559393970151e-02,-2.573143767664720638e-02,-2.516278712025721287e-02,-2.459413656386721936e-02,-2.402548600747722585e-02,-2.345683545108723234e-02,-2.288818489469723882e-02,-2.231953433830724531e-02,-2.175088378191725180e-02,-2.118223322552725829e-02,-2.061358266913726478e-02,-2.004493211274727127e-02,-1.944074089658290316e-02,-1.887209034019290965e-02,-1.830343978380291614e-02,-1.773478922741292263e-02,-1.716613867102292912e-02,-1.659748811463293561e-02,-1.602883755824294210e-02,-1.546018700185294859e-02,-1.489153644546295507e-02,-1.432288588907296156e-02,-1.375423533268296805e-02,-1.318558477629297454e-02,-1.261693421990298103e-02,-1.204828366351298752e-02,-1.147963310712299401e-02,-1.091098255073300050e-02,-1.034233199434300698e-02,-9.773681437953013473e-03,-9.205030881563019962e-03,-8.636380325173026451e-03,-8.067729768783032940e-03,-7.499079212393039429e-03,-6.930428656003045917e-03,-6.361778099613052406e-03,-5.793127543223058895e-03,-5.224476986833065384e-03,-4.655826430443071873e-03,-4.087175874053078362e-03,-3.518525317663084850e-03,-2.949874761273091339e-03,-2.345683545108723234e-03,-1.777032988718729722e-03,-1.208382432328736211e-03,-6.397318759387427001e-04,-7.108131954874918890e-05
-2.530494975935471125e-02,-2.473629920296471774e-02,-2.416764864657472422e-02,-2.359899809018473071e-02,-2.303034753379473720e-02,-2.246169697740474369e-02,-2.189304642101475018e-02,-2.132439586462475667e-02,-2.075574530823476316e-02,-2.018709475184476965e-02,-1.961844419545477614e-02,-1.904979363906478262e-02,-1.848114308267478911e-02,-1.791249252628479560e-02,-1.734384196989480209e-02,-1.677519141350480858e-02,-1.620654085711481507e-02,-1.563789030072482156e-02,-1.506923974433482805e-02,-1.450058918794483453e-02,-1.389639797178046643e-02,-1.332774741539047292e-02,-1.275909685900047941e-02,-1.219044630261048590e-02,-1.162179574622049238e-02,-1.105314518983049887e-02,-1.048449463344050536e-02,-9.915844077050511851e-03,-9.347193520660518340e-03,-8.778542964270524829e-03,-8.209892407880531318e-03,-7.641241851490537806e-03,-7.072591295100544295e-03,-6.503940738710550784e-03,-5.935290182320557273e-03,-5.366639625930563762e-03,-4.797989069540570251e-03,-4.229338513150576739e-03,-3.660687956760583228e-03,-3.092037400370589717e-03,-2.523386843980596206e-03,-1.954736287590602695e-03,-1.386085731200609183e-03,-8.174351748106156723e-04,-2.487846184206221611e-04,0.000000000000000000e+00,0.000000000000000000e+00
-2.430981128567222260e-02,-2.374116072928222909e-02,-2.317251017289223558e-02,-2.260385961650224207e-02,-2.203520906011224856e-02,-2.146655850372225505e-02,-2.089790794733226154e-02,-2.032925739094226802e-02,-1.976060683455227451e-02,-1.919195627816228100e-02,-1.862330572177228749e-02,-1.805465516538229398e-02,-1.748600460899230047e-02,-1.691735405260230696e-02,-1.634870349621231345e-02,-1.578005293982231994e-02,-1.521140238343232642e-02,-1.464275182704233291e-02,-1.407410127065233940e-02,-1.350545071426234589e-02,-1.293680015787235238e-02,-1.236814960148235887e-02,-1.179949904509236536e-02,-1.123084848870237185e-02,-1.066219793231237833e-02,-1.009354737592238482e-02,-9.524896819532391312e-03,-8.956246263142397801e-03,-8.387595706752404290e-03,-7.818945150362410779e-03,-7.214753934198042673e-03,-6.646103377808049162e-03,-6.077452821418055651e-03,-5.508802265028062140e-03,-4.940151708638068628e-03,-4.371501152248075117e-03,-3.802850595858081606e-03,-3.234200039468088095e-03,-2.665549483078094584e-03,-2.096898926688101072e-03,-1.528248370298107561e-03,-9.595978139081140501e-04,-3.909472575181205389e-04,0.000000000000000000e+00,0.000000000000000000e+00,-1.362391958017693944e-03,-5.722046223674309706e-03
-2.335021347176410855e-02,-2.278156291537411504e-02,-2.221291235898412153e-02,-2.164426180259412802e-02,-2.107561124620413451e-02,-2.050696068981414100e-02,-1.993831013342414749e-02,-1.936965957703415397e-02,-1.880100902064416046e-02,-1.819681780447979236e-02,-1.762816724808979885e-02,-1.705951669169980534e-02,-1.649086613530981182e-02,-1.592221557891981831e-02,-1.535356502252982480e-02,-1.478491446613983129e-02,-1.421626390974983778e-02,-1.364761335335984427e-02,-1.307896279696985076e-02,-1.251031224057985725e-02,-1.194166168418986373e-02,-1.137301112779987022e-02,-1.080436057140987671e-02,-1.023571001501988320e-02,-9.667059458629889690e-03,-9.098408902239896179e-03,-8.529758345849902668e-03,-7.961107789459909156e-03,-7.392457233069915645e-03,-6.823806676679922134e-03,-6.255156120289928623e-03,-5.686505563899935112e-03,-5.117855007509941601e-03,-4.549204451119948089e-03,-3.980553894729954578e-03,-3.411903338339961067e-03,-2.843252781949967556e-03,-2.274602225559974045e-03,-1.705951669169980534e-03,-1.101760453005612428e-03,-5.331098966156189167e-04,0.000000000000000000e+00,0.000000000000000000e+00,-2.724783916035408704e-04,-4.632132657260156633e-03,-8.991786922916772395e-03,-1.335144118857338989e-02
-2.235507499808161991e-02,-2.178642444169162640e-02,-2.121777388530163289e-02,-2.064912332891163937e-02,-2.008047277252164586e-02,-1.951182221613165235e-02,-1.894317165974165884e-02,-1.837452110335166533e-02,-1.780587054696167182e-02,-1.723721999057167831e-02,-1.666856943418168480e-02,-1.609991887779169129e-02,-1.553126832140169777e-02,-1.496261776501170426e-02,-1.439396720862171075e-02,-1.382531665223171724e-02,-1.325666609584172373e-02,-1.268801553945173022e-02,-1.208382432328736211e-02,-1.151517376689736860e-02,-1.094652321050737509e-02,-1.037787265411738158e-02,-9.809222097727388068e-03,-9.240571541337394557e-03,-8.671920984947401045e-03,-8.103270428557407534e-03,-7.534619872167414023e-03,-6.965969315777420512e-03,-6.397318759387427001e-03,-5.828668202997433490e-03,-5.260017646607439978e-03,-4.691367090217446467e-03,-4.122716533827452956e-03,-3.554065977437459445e-03,-2.985415421047465934e-03,-2.416764864657472422e-03,-1.848114308267478911e-03,-1.279463751877485400e-03,-7.108131954874918890e-04,-1.421626390974983778e-04,0.000000000000000000e+00,0.000000000000000000e+00,-3.269740699242462689e-03,-7.629394964899081921e-03,-1.198904923055569768e-02,-1.634870349621231345e-02,-2.070835776186893268e-02
-2.135993652439913126e-02,-2.079128596800913775e-02,-2.022263541161914424e-02,-1.965398485522915073e-02,-1.908533429883915722e-02,-1.851668374244916371e-02,-1.794803318605917020e-02,-1.737938262966917669e-02,-1.681073207327918317e-02,-1.624208151688918966e-02,-1.567343096049919615e-02,-1.510478040410920264e-02,-1.453612984771920913e-02,-1.396747929132921562e-02,-1.339882873493922211e-02,-1.283017817854922860e-02,-1.226152762215923508e-02,-1.169287706576924157e-02,-1.112422650937924806e-02,-1.055557595298925455e-02,-9.986925396599261040e-03,-9.418274840209267529e-03,-8.849624283819274018e-03,-8.280973727429280506e-03,-7.712323171039286995e-03,-7.143672614649293484e-03,-6.575022058259299973e-03,-6.006371501869306462e-03,-5.402180285704938356e-03,-4.833529729314944845e-03,-4.264879172924951334e-03,-3.696228616534957823e-03,-3.127578060144964311e-03,-2.558927503754970800e-03,-1.990276947364977289e-03,-1.421626390974983778e-03,-8.529758345849902668e-04,-2.843252781949967556e-04,0.000000000000000000e+00,0.000000000000000000e+00,-2.179827132828309616e-03,-6.539481398484925379e-03,-1.089913566414154461e-02,-1.525878992979816037e-02,-1.961844419545477614e-02,-2.397809846111139190e-02,-2.615792559393970151e-02
-2.040033871049101721e-02,-1.983168815410102370e-02,-1.926303759771103019e-02,-1.869438704132103668e-02,-1.812573648493104317e-02,-1.755708592854104966e-02,-1.695289471237668155e-02,-1.638424415598668804e-02,-1.581559359959669453e-02,-1.524694304320670102e-02,-1.467829248681670751e-02,-1.410964193042671400e-02,-1.354099137403672048e-02,-1.297234081764672697e-02,-1.240369026125673346e-02,-1.183503970486673995e-02,-1.126638914847674644e-02,-1.069773859208675293e-02,-1.012908803569675942e-02,-9.560437479306765907e-03,-8.991786922916772395e-03,-8.423136366526778884e-03,-7.854485810136785373e-03,-7.285835253746791862e-03,-6.717184697356798351e-03,-6.148534140966804840e-03,-5.579883584576811328e-03,-5.011233028186817817e-03,-4.442582471796824306e-03,-3.873931915406830795e-03,-3.305281359016837284e-03,-2.736630802626843773e-03,-2.167980246236850261e-03,-1.599329689846856750e-03,-1.030679133456863239e-03,-4.620285770668697278e-04,0.000000000000000000e+00,0.000000000000000000e+00,-1.089913566414156543e-03,-5.449567832070772305e-03,-9.809222097727388068e-03,-1.416887636338400383e-02,-1.852853062904062306e-02,-2.288818489469723882e-02,-2.615792559393970151e-02,-2.615792559393970151e-02,-2.615792559393970151e-02
-1.940520023680852857e-02,-1.883654968041853506e-02,-1.826789912402854155e-02,-1.769924856763854804e-02,-1.713059801124855452e-02,-1.656194745485856101e-02,-1.599329689846856750e-02,-1.542464634207857399e-02,-1.485599578568858048e-02,-1.428734522929858697e-02,-1.371869467290859346e-02,-1.315004411651859995e-02,-1.258139356012860643e-02,-1.201274300373861292e-02,-1.144409244734861941e-02,-1.083990123118425131e-02,-1.027125067479425780e-02,-9.702600118404264284e-03,-9.133949562014270773e-03,-8.565299005624277262e-03,-7.996648449234283751e-03,-7.427997892844290240e-03,-6.859347336454296729e-03,-6.290696780064303217e-03,-5.722046223674309706e-03,-5.153395667284316195e-03,-4.584745110894322684e-03,-4.016094554504329173e-03,-3.447443998114335661e-03,-2.878793441724342150e-03,-2.310142885334348639e-03,-1.741492328944355128e-03,-1.172841772554361617e-03,-6.041912161643681056e-04,-3.554065977437459445e-05,0.000000000000000000e+00,0.000000000000000000e+00,-4.087175874053078362e-03,-8.446830139709694124e-03,-1.280648440536631162e-02,-1.716613867102292912e-02,-2.152579293667954835e-02,-2.588544720233616411e-02,-2.615792559393970151e-02,-2.615792559393970151e-02,-2.615792559393970151e-02,-2.615792559393970151e-02
-1.841006176312603992e-02,-1.784141120673604641e-02,-1.727276065034605290e-02,-1.670411009395605939e-02,-1.613545953756606588e-02,-1.556680898117607237e-02,-1.499815842478607886e-02,-1.442950786839608535e-02,-1.386085731200609183e-02,-1.329220675561609832e-02,-1.272355619922610481e-02,-1.215490564283611130e-02,-1.158625508644611779e-02,-1.101760453005612428e-02,-1.044895397366613077e-02,-9.880303417276137257e-03,-9.311652860886143745e-03,-8.743002304496150234e-03,-8.174351748106156723e-03,-7.605701191716163212e-03,-7.037050635326169701e-03,-6.468400078936176190e-03,-5.899749522546182678e-03,-5.331098966156189167e-03,-4.762448409766195656e-03,-4.158257193601827550e-03,-3.589606637211834039e-03,-3.020956080821840528e-03,-2.452305524431847017e-03,-1.883654968041853506e-03,-1.315004411651859995e-03,-7.463538552618664834e-04,-1.777032988718729722e-04,0.000000000000000000e+00,0.000000000000000000e+00,-2.997262307638925288e-03,-7.356916573295541051e-03,-1.171657083895215855e-02,-1.607622510460877258e-02,-2.043587937026539181e-02,-2.479553363592200757e-02,-2.615792559393970151e-02,-2.615792559393970151e-02,-2.615792559393970151e-02,-2.615792559393970151e-02,-2.615792559393970151e-02,-2.615792559393970151e-02
-1.745046394921792587e-02,-1.688181339282793236e-02,-1.631316283643793885e-02,-1.574451228004794534e-02,-1.514032106388357724e-02,-1.457167050749358372e-02,-1.400301995110359021e-02,-1.343436939471359670e-02,-1.286571883832360319e-02,-1.229706828193360968e-02,-1.172841772554361617e-02,-1.115976716915362266e-02,-1.059111661276362915e-02,-1.002246605637363563e-02,-9.453815499983642123e-03,-8.885164943593648612e-03,-8.316514387203655101e-03,-7.747863830813661590e-03,-7.179213274423668079e-03,-6.610562718033674567e-03,-6.041912161643681056e-03,-5.473261605253687545e-03,-4.904611048863694034e-03,-4.335960492473700523e-03,-3.767309936083707012e-03,-3.198659379693713500e-03,-1.353049153859192943e-01,-1.347362648295293008e-01,-1.341676142731393073e-01,-1.335989637167493138e-01,-3.554065977437459445e-04,0.000000000000000000e+00,0.000000000000000000e+00,-1.634870349621231345e-03,-5.994524615277850577e-03,-1.062665727253800374e-02,-1.498631153819462124e-02,-1.934596580385123873e-02,-2.370562006950785450e-02,-2.615792559393970151e-02,-2.615792559393970151e-02,-2.615792559393970151e-02,-2.615792559393970151e-02,-2.615792559393970151e-02,-2.615792559393970151e-02,-2.615792559393970151e-02,-2.615792559393970151e-02
-2.039700677363717046e-02,-1.588667491914544372e-02,-1.531802436275545021e-02,-1.474937380636545670e-02,-1.418072324997546318e-02,-1.361207269358546967e-02,-1.304342213719547616e-02,-1.247477158080548265e-02,-1.190612102441548914e-02,-1.133747046802549563e-02,-1.076881991163550212e-02,-1.020016935524550861e-02,-9.631518798855515096e-03,-9.027327582691146990e-03,-8.458677026301153479e-03,-7.890026469911159968e-03,-7.321375913521166456e-03,-6.752725357131172945e-03,-6.184074800741179434e-03,-5.615424244351185923e-03,-5.046773687961192412e-03,-4.478123131571198901e-03,-3.909472575181205389e-03,-3.340822018791211878e-03,-2.772171462401218367e-03,-2.203520906011224856e-03,-1.343097769122368057e-01,-1.337411263558468122e-01,-1.331724757994568187e-01,-1.326749065626155744e-01,0.000000000000000000e+00,-5.449567832070748019e-04,-4.904611048863694034e-03,-9.264265314520313266e-03,-1.362391958017692903e-02,-1.798357384583354479e-02,-2.234322811149016055e-02,-2.615792559393970151e-02,-2.615792559393970151e-02,-2.615792559393970151e-02,-2.615792559393970151e-02,-2.615792559393970151e-02,-2.615792559393970151e-02,-2.615792559393970151e-02,-2.615792559393970151e-02,-2.615792559393970151e-02,-2.615792559393970151e-02
-2.515501260093156929e-02,-1.559568576724275173e-02,-1.432288588907296156e-02,-1.375423533268296805e-02,-1.318558477629297454e-02,-1.261693421990298103e-02,-1.204828366351298752e-02,-1.147963310712299401e-02,-1.091098255073300050e-02,-1.034233199434300698e-02,-9.773681437953013473e-03,-9.205030881563019962e-03,-8.636380325173026451e-03,-8.067729768783032940e-03,-7.499079212393039429e-03,-6.930428656003045917e-03,-6.361778099613052406e-03,-5.793127543223058895e-03,-5.224476986833065384e-03,-4.655826430443071873e-03,-4.087175874053078362e-03,-3.518525317663084850e-03,-2.914334101498716745e-03,-2.345683545108723234e-03,-1.777032988718729722e-03,-1.208382432328736211e-03,-1.333146384385543171e-01,-1.327459878821643235e-01,-1.326749065626155744e-01,-1.326749065626155744e-01,-3.814697482449540961e-03,-8.174351748106156723e-03,-1.253400601376277596e-02,-1.689366027941938825e-02,-2.125331454507600748e-02,-2.561296881073262324e-02,-2.615792559393970151e-02,-2.615792559393970151e-02,-2.615792559393970151e-02,-2.615792559393970151e-02,-2.615792559393970151e-02,-2.615792559393970151e-02,-2.615792559393970151e-02,-2.615792559393970151e-02,-2.615792559393970151e-02,-2.615792559393970151e-02,-2.615792559393970151e-02
-2.615792559393970151e-02,-2.079350725924503790e-02,-1.332774741539047292e-02,-1.275909685900047941e-02,-1.219044630261048590e-02,-1.162179574622049238e-02,-1.105314518983049887e-02,-1.048449463344050536e-02,-9.915844077050511851e-03,-9.347193520660518340e-03,-8.778542964270524829e-03,-8.209892407880531318e-03,-7.641241851490537806e-03,-7.072591295100544295e-03,-6.503940738710550784e-03,-5.935290182320557273e-03,-5.366639625930563762e-03,-4.797989069540570251e-03,-4.229338513150576739e-03,-3.660687956760583228e-03,-3.092037400370589717e-03,-2.523386843980596206e-03,-1.954736287590602695e-03,-1.386085731200609183e-03,-8.174351748106156723e-04,-2.487846184206221611e-04,-1.326749065626155744e-01,-1.326749065626155744e-01,-1.351272120870474214e-01,-1.394868663527040475e-01,-1.117161405574508201e-02,-1.553126832140169777e-02,-2.016340097866185441e-02,-2.452305524431847017e-02,-2.615792559393970151e-02,-2.615792559393970151e-02,-2.615792559393970151e-02,-2.615792559393970151e-02,-2.615792559393970151e-02,-2.615792559393970151e-02,-2.615792559393970151e-02,-2.615792559393970151e-02,-2.615792559393970151e-02,-2.615792559393970151e-02,-2.615792559393970151e-02,-2.615792559393970151e-02,-2.615792559393970151e-02
-2.615792559393970151e-02,-2.615792559393970151e-02,-1.495373260006811061e-02,-1.179949904509236536e-02,-1.123084848870237185e-02,-1.066219793231237833e-02,-1.009354737592238482e-02,-9.524896819532391312e-03,-8.956246263142397801e-03,-8.387595706752404290e-03,-7.818945150362410779e-03,-7.214753934198042673e-03,-6.646103377808049162e-03,-6.077452821418055651e-03,-5.508802265028062140e-03,-4.940151708638068628e-03,-4.371501152248075117e-03,-3.802850595858081606e-03,-3.234200039468088095e-03,-2.665549483078094584e-03,-2.096898926688101072e-03,-1.528248370298107561e-03,-9.595978139081140501e-04,-3.909472575181205389e-04,0.000000000000000000e+00,0.000000000000000000e+00,-1.362391958017693944e-03,-5.722046223674309706e-03,-1.008170048933092894e-02,-1.444135475498754470e-02,-1.880100902064416046e-02,-2.316066328630077623e-02,-2.615792559393970151e-02,-2.615792559393970151e-02,-2.615792559393970151e-02,-2.615792559393970151e-02,-2.615792559393970151e-02,-2.615792559393970151e-02,-2.615792559393970151e-02,-2.615792559393970151e-02,-2.615792559393970151e-02,-2.615792559393970151e-02,-2.615792559393970151e-02,-2.615792559393970151e-02,-2.615792559393970151e-02,-2.615792559393970151e-02,-2.615792559393970151e-02
-2.615792559393970151e-02,-2.615792559393970151e-02,-2.153763982327100424e-02,-1.080436057140987671e-02,-1.023571001501988320e-02,-2.152270007460241885e-01,-2.146583501896341950e-01,-2.140896996332442015e-01,-2.135210490768542080e-01,-7.392457233069915645e-03,-6.823806676679922134e-03,-6.255156120289928623e-03,-5.686505563899935112e-03,-5.117855007509941601e-03,-4.549204451119948089e-03,-3.980553894729954578e-03,-3.411903338339961067e-03,-2.843252781949967556e-03,-2.274602225559974045e-03,-1.705951669169980534e-03,-1.101760453005612428e-03,-5.331098966156189167e-04,0.000000000000000000e+00,0.000000000000000000e+00,-2.724783916035408704e-04,-4.632132657260156633e-03,-8.991786922916772395e-03,-1.335144118857338989e-02,-1.771109545423000739e-02,-2.207074971988662315e-02,-2.615792559393970151e-02,-2.615792559393970151e-02,-2.615792559393970151e-02,-2.615792559393970151e-02,-2.615792559393970151e-02,-2.615792559393970151e-02,-2.615792559393970151e-02,-2.615792559393970151e-02,-2.615792559393970151e-02,-2.615792559393970151e-02,-2.615792559393970151e-02,-2.615792559393970151e-02,-2.615792559393970151e-02,-2.615792559393970151e-02,-2.615792559393970151e-02,-2.615792559393970151e-02,-2.615792559393970151e-02
-2.615792559393970151e-02,-2.615792559393970151e-02,-2.615792559393970151e-02,-1.491819194029373602e-02,-9.240571541337394557e-03,-2.142318622723416999e-01,-2.136632117159517064e-01,-2.130945611595617128e-01,-2.125259106031717193e-01,-6.397318759387427001e-03,-5.828668202997433490e-03,-5.260017646607439978e-03,-4.691367090217446467e-03,-4.122716533827452956e-03,-3.554065977437459445e-03,-2.985415421047465934e-03,-2.416764864657472422e-03,-1.848114308267478911e-03,-1.279463751877485400e-03,-7.108131954874918890e-04,-1.421626390974983778e-04,0.000000000000000000e+00,0.000000000000000000e+00,-3.269740699242462689e-03,-7.629394964899078452e-03,-1.198904923055569768e-02,-1.634870349621231345e-02,-2.070835776186893268e-02,-2.506801202752554844e-02,-2.615792559393970151e-02,-2.615792559393970151e-02,-2.615792559393970151e-02,-2.615792559393970151e-02,-2.615792559393970151e-02,-2.615792559393970151e-02,-2.615792559393970151e-02,-2.615792559393970151e-02,-2.615792559393970151e-02,-2.615792559393970151e-02,-2.615792559393970151e-02,-2.615792559393970151e-02,-2.615792559393970151e-02,-2.615792559393970151e-02,-2.615792559393970151e-02,-2.615792559393970151e-02,-2.615792559393970151e-02,-2.615792559393970151e-02
-2.615792559393970151e-02,-2.615792559393970151e-02,-2.615792559393970151e-02,-2.291261909829211962e-02,-8.280973727429280506e-03,-2.132722644584335858e-01,-2.127036139020435923e-01,-2.121349633456535988e-01,-2.115307721294892307e-01,-5.402180285704938356e-03,-4.833529729314944845e-03,-4.264879172924951334e-03,-3.696228616534957823e-03,-3.127578060144964311e-03,-2.558927503754970800e-03,-1.990276947364977289e-03,-1.421626390974983778e-03,-8.529758345849902668e-04,-2.843252781949967556e-04,0.000000000000000000e+00,0.000000000000000000e+00,-2.179827132828309616e-03,-6.539481398484925379e-03,-1.089913566414154288e-02,-1.525878992979815864e-02,-1.961844419545477614e-02,-2.397809846111139190e-02,-2.615792559393970151e-02,-2.615792559393970151e-02,-2.615792559393970151e-02,-2.615792559393970151e-02,-2.615792559393970151e-02,-2.615792559393970151e-02,-2.615792559393970151e-02,-2.615792559393970151e-02,-2.615792559393970151e-02,-2.615792559393970151e-02,-2.615792559393970151e-02,-2.615792559393970151e-02,-2.615792559393970151e-02,-2.615792559393970151e-02,-2.615792559393970151e-02,-2.615792559393970151e-02,-2.615792559393970151e-02,-2.615792559393970151e-02,-2.615792559393970151e-02,-2.615792559393970151e-02
-2.615792559393970151e-02,-2.615792559393970151e-02,-2.615792559393970151e-02,-2.615792559393970151e-02,-1.613212760071221913e-02,-2.122771259847510972e-01,-2.117084754283611037e-01,-2.111398248719711102e-01,-2.105711743155811166e-01,-4.442582471796824306e-03,-3.873931915406830795e-03,-3.305281359016837284e-03,-2.736630802626843773e-03,-2.167980246236850261e-03,-1.599329689846856750e-03,-1.030679133456863239e-03,-4.620285770668697278e-04,0.000000000000000000e+00,0.000000000000000000e+00,-1.089913566414156543e-03,-5.449567832070772305e-03,-9.809222097727388068e-03,-1.416887636338400557e-02,-1.852853062904062306e-02,-2.288818489469723882e-02,-2.615792559393970151e-02,-2.615792559393970151e-02,-2.615792559393970151e-02,-2.615792559393970151e-02,-2.615792559393970151e-02,-2.615792559393970151e-02,-2.615792559393970151e-02,-2.615792559393970151e-02,-2.615792559393970151e-02,-2.615792559393970151e-02,-2.615792559393970151e-02,-2.615792559393970151e-02,-2.615792559393970151e-02,-2.615792559393970151e-02,-2.615792559393970151e-02,-2.615792559393970151e-02,-2.615792559393970151e-02,-2.615792559393970151e-02,-2.615792559393970151e-02,-2.615792559393970151e-02,-2.615792559393970151e-02,-2.615792559393970151e-02
-2.615792559393970151e-02,-2.615792559393970151e-02,-2.615792559393970151e-02,-2.615792559393970151e-02,-2.553707469350609618e-02,-7.637909914636691056e-03,-5.153395667284316195e-03,-4.584745110894322684e-03,-4.016094554504329173e-03,-3.447443998114335661e-03,-2.878793441724342150e-03,-2.310142885334348639e-03,-1.741492328944355128e-03,-1.172841772554361617e-03,-6.041912161643681056e-04,-3.554065977437459445e-05,0.000000000000000000e+00,0.000000000000000000e+00,-4.087175874053078362e-03,-8.446830139709694124e-03,-1.280648440536631336e-02,-1.716613867102292912e-02,-2.152579293667954835e-02,-2.588544720233616411e-02,-2.615792559393970151e-02,-2.615792559393970151e-02,-2.615792559393970151e-02,-2.615792559393970151e-02,-2.615792559393970151e-02,-2.615792559393970151e-02,-2.615792559393970151e-02,-2.615792559393970151e-02,-2.615792559393970151e-02,-2.615792559393970151e-02,-2.615792559393970151e-02,-2.615792559393970151e-02,-2.615792559393970151e-02,-2.615792559393970151e-02,-2.615792559393970151e-02,-2.615792559393970151e-02,-2.615792559393970151e-02,-2.615792559393970151e-02,-2.615792559393970151e-02,-2.615792559393970151e-02,-2.615792559393970151e-02,-2.615792559393970151e-02,-2.615792559393970151e-02
-2.615792559393970151e-02,-2.615792559393970151e-02,-2.615792559393970151e-02,-2.615792559393970151e-02,-2.615792559393970151e-02,-1.746601298786921302e-02,-4.158257193601827550e-03,-3.589606637211834039e-03,-3.020956080821840528e-03,-2.452305524431847017e-03,-1.883654968041853506e-03,-1.315004411651859995e-03,-7.463538552618664834e-04,-1.777032988718729722e-04,0.000000000000000000e+00,0.000000000000000000e+00,-2.997262307638921819e-03,-7.356916573295541051e-03,-1.171657083895215855e-02,-1.607622510460877258e-02,-2.043587937026539181e-02,-2.479553363592200757e-02,-2.615792559393970151e-02,-2.615792559393970151e-02,-2.615792559393970151e-02,-2.615792559393970151e-02,-2.615792559393970151e-02,-2.615792559393970151e-02,-2.615792559393970151e-02,-2.615792559393970151e-02,-2.615792559393970151e-02,-2.615792559393970151e-02,-2.615792559393970151e-02,-2.615792559393970151e-02,-2.615792559393970151e-02,-2.615792559393970151e-02,-2.615792559393970151e-02,-2.615792559393970151e-02,-2.615792559393970151e-02,-2.615792559393970151e-02,-2.615792559393970151e-02,-2.615792559393970151e-02,-2.615792559393970151e-02,-2.615792559393970151e-02,-2.615792559393970151e-02,-2.615792559393970151e-02,-2.615792559393970151e-02
-2.615792559393970151e-02,-2.615792559393970151e-02,-2.615792559393970151e-02,-2.615792559393970151e-02,-2.615792559393970151e-02,-2.615792559393970151e-02,-8.220998864060025113e-03,-2.630008823303719989e-03,-2.061358266913726478e-03,-1.492707710523732967e-03,-9.240571541337394557e-04,-3.554065977437459445e-04,0.000000000000000000e+00,0.000000000000000000e+00,-1.907348741224772215e-03,-6.267003006881384508e-03,-1.062665727253800374e-02,-1.498631153819462124e-02,-1.934596580385123873e-02,-2.370562006950785450e-02,-2.615792559393970151e-02,-2.615792559393970151e-02,-2.615792559393970151e-02,-2.615792559393970151e-02,-2.615792559393970151e-02,-2.615792559393970151e-02,-2.615792559393970151e-02,-2.615792559393970151e-02,-2.615792559393970151e-02,-2.615792559393970151e-02,-2.615792559393970151e-02,-2.615792559393970151e-02,-2.615792559393970151e-02,-2.615792559393970151e-02,-2.615792559393970151e-02,-2.615792559393970151e-02,-2.615792559393970151e-02,-2.615792559393970151e-02,-2.615792559393970151e-02,-2.615792559393970151e-02,-2.615792559393970151e-02,-2.615792559393970151e-02,-2.615792559393970151e-02,-2.615792559393970151e-02,-2.615792559393970151e-02,-2.615792559393970151e-02,-2.615792559393970151e-02
-2.615792559393970151e-02,-2.615792559393970151e-02,-2.615792559393970151e-02,-2.615792559393970151e-02,-2.615792559393970151e-02,-2.615792559393970151e-02,-1.942074927545981572e-02,-1.634870349621231345e-03,-1.066219793231237833e-03,-4.975692368412443223e-04,0.000000000000000000e+00,0.000000000000000000e+00,-5.449567832070748019e-04,-4.904611048863694034e-03,-9.264265314520313266e-03,-1.362391958017692903e-02,-1.798357384583354479e-02,-2.234322811149016402e-02,-2.615792559393970151e-02,-2.615792559393970151e-02,-2.615792559393970151e-02,-2.615792559393970151e-02,-2.615792559393970151e-02,-2.615792559393970151e-02,-2.615792559393970151e-02,-2.615792559393970151e-02,-2.615792559393970151e-02,-2.615792559393970151e-02,-2.615792559393970151e-02,-2.615792559393970151e-02,-2.615792559393970151e-02,-2.615792559393970151e-02,-2.615792559393970151e-02,-2.615792559393970151e-02,-2.615792559393970151e-02,-2.615792559393970151e-02,-2.615792559393970151e-02,-2.615792559393970151e-02,-2.615792559393970151e-02,-2.615792559393970151e-02,-2.615792559393970151e-02,-2.615792559393970151e-02,-2.615792559393970151e-02,-2.615792559393970151e-02,-2.615792559393970151e-02,-2.615792559393970151e-02,-2.615792559393970151e-02
-2.615792559393970151e-02,-2.615792559393970151e-02,-2.615792559393970151e-02,-2.615792559393970151e-02,-2.615792559393970151e-02,-2.615792559393970151e-02,-2.615792559393970151e-02,-1.020905452018910226e-02,-7.108131954874918890e-05,0.000000000000000000e+00,0.000000000000000000e+00,-3.814697482449537491e-03,-8.174351748106156723e-03,-1.253400601376277422e-02,-1.689366027941939172e-02,-2.125331454507600748e-02,-2.561296881073262324e-02,-2.615792559393970151e-02,-2.615792559393970151e-02,-2.615792559393970151e-02,-2.615792559393970151e-02,-2.615792559393970151e-02,-2.615792559393970151e-02,-2.615792559393970151e-02,-2.615792559393970151e-02,-2.615792559393970151e-02,-2.615792559393970151e-02,-2.615792559393970151e-02,-2.615792559393970151e-02,-2.615792559393970151e-02,-2.615792559393970151e-02,-2.615792559393970151e-02,-2.615792559393970151e-02,-2.615792559393970151e-02,-2.615792559393970151e-02,-2.615792559393970151e-02,-2.615792559393970151e-02,-2.615792559393970151e-02,-2.615792559393970151e-02,-2.615792559393970151e-02,-2.615792559393970151e-02,-2.615792559393970151e-02,-2.615792559393970151e-02,-2.615792559393970151e-02,-2.615792559393970151e-02,-2.615792559393970151e-02,-2.615792559393970151e-02
-2.615792559393970151e-02,-2.615792559393970151e-02,-2.615792559393970151e-02,-2.615792559393970151e-02,-2.615792559393970151e-02,-2.615792559393970151e-02,-2.615792559393970151e-02,-2.288818489469723882e-02,0.000000000000000000e+00,-2.452305524431847017e-03,-6.811959790088462779e-03,-1.117161405574508201e-02,-1.580374671300523864e-02,-2.016340097866185441e-02,-2.452305524431847017e-02,-2.615792559393970151e-02,-2.615792559393970151e-02,-2.615792559393970151e-02,-2.615792559393970151e-02,-2.615792559393970151e-02,-2.615792559393970151e-02,-2.615792559393970151e-02,-2.615792559393970151e-02,-2.615792559393970151e-02,-2.615792559393970151e-02,-2.615792559393970151e-02,-2.615792559393970151e-02,-2.615792559393970151e-02,-2.615792559393970151e-02,-2.615792559393970151e-02,-2.615792559393970151e-02,-2.615792559393970151e-02,-2.615792559393970151e-02,-2.615792559393970151e-02,-2.615792559393970151e-02,-2.615792559393970151e-02,-2.615792559393970151e-02,-2.615792559393970151e-02,-2.615792559393970151e-02,-2.615792559393970151e-02,-2.615792559393970151e-02,-2.615792559393970151e-02,-2.615792559393970151e-02,-2.615792559393970151e-02,-2.615792559393970151e-02,-2.615792559393970151e-02,-2.615792559393970151e-02
-2.615792559393970151e-02,-2.615792559393970151e-02,-2.615792559393970151e-02,-2.615792559393970151e-02,-2.615792559393970151e-02,-2.615792559393970151e-02,-2.615792559393970151e-02,-2.615792559393970151e-02,-1.593998590880700561e-02,-1.008170048933092894e-02,-1.444135475498754470e-02,-1.880100902064416046e-02,-2.316066328630077623e-02,-2.615792559393970151e-02,-2.615792559393970151e-02,-2.615792559393970151e-02,-2.615792559393970151e-02,-2.615792559393970151e-02,-2.615792559393970151e-02,-2.615792559393970151e-02,-2.615792559393970151e-02,-2.615792559393970151e-02,-2.615792559393970151e-02,-2.615792559393970151e-02,-2.615792559393970151e-02,-2.615792559393970151e-02,-2.615792559393970151e-02,-2.615792559393970151e-02,-2.615792559393970151e-02,-2.615792559393970151e-02,-2.615792559393970151e-02,-2.615792559393970151e-02,-2.615792559393970151e-02,-2.615792559393970151e-02,-2.615792559393970151e-02,-2.615792559393970151e-02,-2.615792559393970151e-02,-2.615792559393970151e-02,-2.615792559393970151e-02,-2.615792559393970151e-02,-2.615792559393970151e-02,-2.615792559393970151e-02,-2.615792559393970151e-02,-2.615792559393970151e-02,-2.615792559393970151e-02,-2.615792559393970151e-02,-2.615792559393970151e-02
-2.615792559393970151e-02,-2.615792559393970151e-02,-2.615792559393970151e-02,-2.615792559393970151e-02,-2.615792559393970151e-02,-2.615792559393970151e-02,-2.615792559393970151e-02,-2.615792559393970151e-02,-2.615792559393970151e-02,-1.876694922169371699e-02,-2.207074971988662315e-02,-2.615792559393970151e-02,-2.615792559393970151e-02,-2.615792559393970151e-02,-2.615792559393970151e-02,-2.615792559393970151e-02,-2.615792559393970151e-02,-2.615792559393970151e-02,-2.615792559393970151e-02,-2.615792559393970151e-02,-2.615792559393970151e-02,-2.615792559393970151e-02,-2.615792559393970151e-02,-2.615792559393970151e-02,-2.615792559393970151e-02,-2.615792559393970151e-02,-2.615792559393970151e-02,-2.615792559393970151e-02,-2.615792559393970151e-02,-2.615792559393970151e-02,-2.615792559393970151e-02,-2.615792559393970151e-02,-2.615792559393970151e-02,-2.615792559393970151e-02,-2.615792559393970151e-02,-2.615792559393970151e-02,-2.615792559393970151e-02,-2.615792559393970151e-02,-2.615792559393970151e-02,-2.615792559393970151e-02,-2.615792559393970151e-02,-2.615792559393970151e-02,-2.615792559393970151e-02,-2.615792559393970151e-02,-2.615792559393970151e-02,-2.615792559393970151e-02,-2.615792559393970151e-02
-2.615792559393970151e-02,-2.615792559393970151e-02,-2.615792559393970151e-02,-2.615792559393970151e-02,-2.615792559393970151e-02,-2.615792559393970151e-02,-2.615792559393970151e-02,-2.615792559393970151e-02,-2.615792559393970151e-02,-2.574920800653439368e-02,-2.615792559393970151e-02,-2.615792559393970151e-02,-2.615792559393970151e-02,-2.615792559393970151e-02,-2.615792559393970151e-02,-2.615792559393970151e-02,-2.615792559393970151e-02,-2.615792559393970151e-02,-2.615792559393970151e-02,-2.615792559393970151e-02,-2.615792559393970151e-02,-2.615792559393970151e-02,-2.615792559393970151e-02,-2.615792559393970151e-02,-2.615792559393970151e-02,-2.615792559393970151e-02,-2.615792559393970151e-02,-2.615792559393970151e-02,-2.615792559393970151e-02,-2.615792559393970151e-02,-2.615792559393970151e-02,-2.615792559393970151e-02,-2.615792559393970151e-02,-2.615792559393970151e-02,-2.615792559393970151e-02,-2.615792559393970151e-02,-2.615792559393970151e-02,-2.615792559393970151e-02,-2.615792559393970151e-02,-2.615792559393970151e-02,-2.615792559393970151e-02,-2.615792559393970151e-02,-2.615792559393970151e-02,-2.615792559393970151e-02,-2.615792559393970151e-02,-2.615792559393970151e-02,-2.615792559393970151e-02
