-2.260706808310593841e-01,-2.260706808310593841e-01,-2.260706808310593841e-01,-2.260706808310593841e-01,-2.260706808310593841e-01,-2.260706808310593841e-01,-2.260706808310593841e-01,-2.260706808310593841e-01,-2.260706808310593841e-01,-2.260706808310593841e-01,-2.260706808310593841e-01,-2.260706808310593841e-01,-2.260706808310593841e-01,-2.260706808310593841e-01,-2.260706808310593841e-01,-1.978118457271769715e-01,-1.695530106232945311e-01,-1.342294667434415223e-01,-1.059706316395591097e-01,-7.771179653567669710e-02,-4.238825265582366053e-02,-1.412941755194122018e-02,0.000000000000000000e+00,-2.173756546452521032e-03,-1.902036978145932311e-02,-3.641042215307932484e-02,-5.380047452469927105e-02,-7.064708775970607313e-02,-8.803714013132601934e-02,-1.054271925029459794e-01,-1.222738057379527954e-01,-1.396638581095727694e-01,-1.570539104811927156e-01,-1.744439628528126618e-01,-1.912905760878194916e-01,-2.086806284594394378e-01,-2.260706808310593841e-01,-2.260706808310593841e-01,-2.260706808310593841e-01,-2.260706808310593841e-01,-2.260706808310593841e-01,-2.260706808310593841e-01,-2.260706808310593841e-01,-2.260706808310593841e-01,-2.260706808310593841e-01,-2.260706808310593841e-01,-2.260706808310593841e-01
-2.260706808310593841e-01,-2.260706808310593841e-01,-2.260706808310593841e-01,-2.260706808310593841e-01,-2.260706808310593841e-01,-2.260706808310593841e-01,-2.260706808310593841e-01,-2.205683595728515078e-01,-1.897961184621334008e-01,-1.603485102469097701e-01,-1.271647579674708983e-01,-9.184121408761788952e-02,-6.358237898373547692e-02,-3.532354387985303656e-02,-2.775557561562891351e-17,0.000000000000000000e+00,0.000000000000000000e+00,-2.775557561562891351e-17,0.000000000000000000e+00,-2.775557561562891351e-17,-2.775557561562891351e-17,-2.775557561562891351e-17,-2.775557561562891351e-17,-2.775557561562891351e-17,-1.684661323500682983e-02,-3.423666560662680380e-02,-5.108327884163363364e-02,-6.847333121325357985e-02,-8.586338358487352607e-02,-1.027099968198803698e-01,-1.201000491915003021e-01,-1.374901015631202761e-01,-1.548801539347402223e-01,-1.717267671697470521e-01,-1.891168195413669983e-01,-2.065068719129869446e-01,-2.233534851479937744e-01,-2.260706808310593841e-01,-2.260706808310593841e-01,-2.260706808310593841e-01,-2.260706808310593841e-01,-2.260706808310593841e-01,-2.260706808310593841e-01,-2.260706808310593841e-01,-2.260706808310593841e-01,-2.260706808310593841e-01,-2.260706808310593841e-01
-2.210778337634263235e-01,-2.107355076947577954e-01,-1.959947211141268297e-01,-1.736288041478929733e-01,-1.499892017052221194e-01,-1.217303666013396790e-01,-8.423306617503414917e-02,-5.217015711485989415e-02,-3.532354387985306432e-02,-1.793349150823306259e-02,-5.434391366131441359e-04,-2.775557561562891351e-17,-2.775557561562891351e-17,0.000000000000000000e+00,-2.775557561562891351e-17,-2.775557561562891351e-17,-2.775557561562891351e-17,-2.775557561562891351e-17,-2.775557561562891351e-17,-2.775557561562891351e-17,-2.775557561562891351e-17,-5.551115123125782702e-17,-2.775557561562891351e-17,-2.775557561562891351e-17,-1.467285668855436431e-02,-3.151946992356116639e-02,-4.890952229518116812e-02,-6.629957466680108658e-02,-8.314618790180791641e-02,-1.005362402734278626e-01,-1.179262926450478227e-01,-1.353163450166677828e-01,-1.521629582516745849e-01,-1.695530106232945311e-01,-1.869430629949145051e-01,-2.037896762299213349e-01,-2.211797286015412811e-01,-2.260706808310593841e-01,-2.260706808310593841e-01,-2.260706808310593841e-01,-2.260706808310593841e-01,-2.260706808310593841e-01,-2.260706808310593841e-01,-2.260706808310593841e-01,-2.260706808310593841e-01,-2.260706808310593841e-01,-2.260706808310593841e-01
-1.755308411260388946e-01,-1.581407887544189483e-01,-1.407507363827990021e-01,-1.239041231477921723e-01,-1.065140707761722261e-01,-8.912401840455227986e-02,-7.173396603293230589e-02,-5.488735279792553157e-02,-3.749730042630552984e-02,-2.010724805468558363e-02,-3.260634819678753793e-03,-2.775557561562891351e-17,-2.775557561562891351e-17,-2.775557561562891351e-17,-2.775557561562891351e-17,-2.775557561562891351e-17,-2.775557561562891351e-17,-2.775557561562891351e-17,-2.775557561562891351e-17,-2.775557561562891351e-17,-2.775557561562891351e-17,-2.775557561562891351e-17,-2.775557561562891351e-17,-2.775557561562891351e-17,-1.195566100548875466e-02,-2.934571337710870087e-02,-4.673576574872864708e-02,-6.358237898373547692e-02,-8.097243135535542313e-02,-9.836248372697536935e-02,-1.152090969619821992e-01,-1.325991493336021454e-01,-1.499892017052221194e-01,-1.673792540768420656e-01,-1.842258673118488677e-01,-2.016159196834688139e-01,-2.190059720550887878e-01,-2.260706808310593841e-01,-2.260706808310593841e-01,-2.260706808310593841e-01,-4.089294088655865966e-01,-4.089294088655865966e-01,-5.584985864419893531e-01,-3.756398584074621128e-01,-3.756398584074621128e-01,-3.756398584074621128e-01,-2.260706808310593841e-01
-1.777045976724913878e-01,-1.603145453008714416e-01,-1.434679320658646118e-01,-1.260778796942446656e-01,-1.086878273226247194e-01,-9.129777495100477314e-02,-7.445116171599794330e-02,-5.706110934437799709e-02,-3.967105697275805087e-02,-2.282444373775119328e-02,-5.434391366131274825e-03,-2.775557561562891351e-17,-2.775557561562891351e-17,-2.775557561562891351e-17,0.000000000000000000e+00,-2.775557561562891351e-17,-2.775557561562891351e-17,-2.775557561562891351e-17,-2.775557561562891351e-17,-2.775557561562891351e-17,-2.775557561562891351e-17,-2.775557561562891351e-17,-2.775557561562891351e-17,-2.775557561562891351e-17,-9.781904459036233623e-03,-2.717195683065617984e-02,-4.401857006566303743e-02,-6.140862243728298364e-02,-7.879867480890292986e-02,-9.564528804390975969e-02,-1.130353404155297059e-01,-1.304253927871496521e-01,-1.478154451587695983e-01,-1.646620583937764282e-01,-1.820521107653964021e-01,-1.994421631370163484e-01,-2.162887763720231504e-01,-2.260706808310593841e-01,-2.260706808310593841e-01,-2.260706808310593841e-01,-4.089294088655865966e-01,-4.089294088655865966e-01,-5.584985864419893531e-01,-3.756398584074621128e-01,-3.756398584074621128e-01,-3.756398584074621128e-01,-2.260706808310593841e-01
-1.798783542189438811e-01,-1.630317409839370790e-01,-1.456416886123171051e-01,-1.282516362406971588e-01,-1.114050230056903290e-01,-9.401497063407038279e-02,-7.662491826245040882e-02,-5.923486589083049036e-02,-4.238825265582366053e-02,-2.499820028420371432e-02,-7.608147912583768102e-03,0.000000000000000000e+00,-2.775557561562891351e-17,-2.775557561562891351e-17,-5.551115123125782702e-17,-2.775557561562891351e-17,-2.775557561562891351e-17,-2.775557561562891351e-17,-2.775557561562891351e-17,-5.551115123125782702e-17,0.000000000000000000e+00,-2.775557561562891351e-17,-2.775557561562891351e-17,-2.775557561562891351e-17,-7.608147912583740347e-03,-2.445476114759057018e-02,-4.184481351921054415e-02,-5.923486589083049036e-02,-7.608147912583729244e-02,-9.347153149745723866e-02,-1.108615838690772126e-01,-1.282516362406971588e-01,-1.450982494757039887e-01,-1.624883018473239349e-01,-1.798783542189438811e-01,-1.967249674539507109e-01,-2.141150198255706572e-01,-2.260706808310593841e-01,-2.260706808310593841e-01,-2.260706808310593841e-01,-4.089294088655865966e-01,-4.089294088655865966e-01,-5.584985864419893531e-01,-3.756398584074621128e-01,-3.756398584074621128e-01,-3.756398584074621128e-01,-2.260706808310593841e-01
-1.825955499020094908e-01,-1.652054975303895445e-01,-1.478154451587695983e-01,-1.309688319237627963e-01,-1.135787795521428223e-01,-9.618872718052287607e-02,-7.879867480890292986e-02,-6.195206157389610002e-02,-4.456200920227618156e-02,-2.717195683065620759e-02,-1.032534359564937776e-02,-2.775557561562891351e-17,-2.775557561562891351e-17,0.000000000000000000e+00,-2.775557561562891351e-17,-2.775557561562891351e-17,-2.775557561562891351e-17,-2.775557561562891351e-17,-2.775557561562891351e-17,-2.775557561562891351e-17,-2.775557561562891351e-17,-2.775557561562891351e-17,-2.775557561562891351e-17,-2.775557561562891351e-17,-4.890952229518130689e-03,-2.228100460113807690e-02,-3.967105697275802312e-02,-5.651767020776488071e-02,-7.390772257938479917e-02,-9.129777495100477314e-02,-1.086878273226247194e-01,-1.255344405576315214e-01,-1.429244929292514954e-01,-1.603145453008714416e-01,-1.771611585358782714e-01,-1.945512109074982177e-01,-2.119412632791181639e-01,-2.260706808310593841e-01,-2.260706808310593841e-01,-2.260706808310593841e-01,-2.260706808310593841e-01,-3.208205363691107870e-01,-4.703897139455135434e-01,-4.703897139455135434e-01,-3.756398584074621128e-01,-3.756398584074621128e-01,-2.260706808310593841e-01
-1.847693064484620118e-01,-1.673792540768420656e-01,-1.505326408418352080e-01,-1.331425884702152618e-01,-1.157525360985953294e-01,-9.836248372697536935e-02,-8.151587049196856727e-02,-6.412581812034859330e-02,-4.673576574872867484e-02,-2.988915251372178949e-02,-1.249910014210187104e-02,-2.775557561562891351e-17,-2.775557561562891351e-17,-2.775557561562891351e-17,-2.775557561562891351e-17,-2.775557561562891351e-17,-2.775557561562891351e-17,-2.775557561562891351e-17,-2.775557561562891351e-17,-2.775557561562891351e-17,-2.775557561562891351e-17,-2.775557561562891351e-17,-2.775557561562891351e-17,-5.551115123125782702e-17,-2.717195683065665168e-03,-2.010724805468561138e-02,-3.695386128969244122e-02,-5.434391366131235968e-02,-7.173396603293227813e-02,-8.858057926793916348e-02,-1.059706316395591097e-01,-1.233606840111790420e-01,-1.407507363827990021e-01,-1.575973496178058042e-01,-1.749874019894257782e-01,-1.923774543610457244e-01,-2.092240675960525542e-01,-2.260706808310593841e-01,-2.260706808310593841e-01,-2.260706808310593841e-01,-2.260706808310593841e-01,-3.208205363691107870e-01,-3.208205363691107870e-01,-3.208205363691107870e-01,-2.260706808310593841e-01,-2.260706808310593841e-01,-2.260706808310593841e-01
-1.869430629949145051e-01,-1.700964497599076752e-01,-1.527063973882877290e-01,-1.353163450166677828e-01,-1.184697317816609252e-01,-1.010796794100410068e-01,-8.368962703842103279e-02,-6.629957466680108658e-02,-4.945296143179425674e-02,-3.206290906017431053e-02,-1.467285668855439207e-02,0.000000000000000000e+00,-5.551115123125782702e-17,-2.775557561562891351e-17,-2.775557561562891351e-17,-2.775557561562891351e-17,-5.551115123125782702e-17,-2.775557561562891351e-17,-2.775557561562891351e-17,-2.775557561562891351e-17,-2.775557561562891351e-17,0.000000000000000000e+00,-2.775557561562891351e-17,-2.775557561562891351e-17,-5.434391366131441359e-04,-1.739005237161997397e-02,-3.478010474323992018e-02,-5.217015711485989415e-02,-6.901677034986666848e-02,-8.640682272148667020e-02,-1.037968750931066025e-01,-1.211869274647265626e-01,-1.380335406997333925e-01,-1.554235930713533387e-01,-1.728136454429732849e-01,-1.896602586779801147e-01,-2.070503110496000609e-01,-2.244403634212200072e-01,-2.260706808310593841e-01,-2.260706808310593841e-01,-2.260706808310593841e-01,-3.208205363691107870e-01,-3.208205363691107870e-01,-3.208205363691107870e-01,-2.260706808310593841e-01,-2.260706808310593841e-01,-2.260706808310593841e-01
-1.896602586779801147e-01,-1.722702063063601685e-01,-1.548801539347401945e-01,-1.380335406997333925e-01,-1.206434883281134324e-01,-1.032534359564934723e-01,-8.586338358487352607e-02,-6.901677034986666848e-02,-5.162671797824677777e-02,-3.423666560662680380e-02,-1.739005237161997397e-02,-2.775557561562891351e-17,-2.775557561562891351e-17,-2.775557561562891351e-17,-5.551115123125782702e-17,-2.775557561562891351e-17,-2.775557561562891351e-17,-2.775557561562891351e-17,-2.775557561562891351e-17,-2.775557561562891351e-17,-2.775557561562891351e-17,-2.775557561562891351e-17,-2.775557561562891351e-17,-2.775557561562891351e-17,-2.775557561562891351e-17,-1.521629582516745294e-02,-3.260634819678742691e-02,-4.945296143179425674e-02,-6.684301380341420296e-02,-8.423306617503414917e-02,-1.016231185466541231e-01,-1.184697317816609530e-01,-1.358597841532808992e-01,-1.532498365249008454e-01,-1.700964497599076752e-01,-1.874865021315276215e-01,-2.048765545031475677e-01,-2.217231677381543975e-01,-2.260706808310593841e-01,-2.260706808310593841e-01,-2.260706808310593841e-01,-2.260706808310593841e-01,-2.260706808310593841e-01,-2.260706808310593841e-01,-2.260706808310593841e-01,-2.260706808310593841e-01,-2.260706808310593841e-01
-1.918340152244326080e-01,-1.744439628528126618e-01,-1.575973496178058320e-01,-1.402072972461858857e-01,-1.228172448745659395e-01,-1.054271925029459794e-01,-8.858057926793913572e-02,-7.119052689631918951e-02,-5.380047452469927105e-02,-3.695386128969244122e-02,-1.956380891807249500e-02,-2.173756546452493277e-03,-2.775557561562891351e-17,-5.551115123125782702e-17,-5.551115123125782702e-17,-2.775557561562891351e-17,-2.775557561562891351e-17,-2.775557561562891351e-17,-2.775557561562891351e-17,-2.775557561562891351e-17,-2.775557561562891351e-17,-2.775557561562891351e-17,-2.775557561562891351e-17,-2.775557561562891351e-17,-2.775557561562891351e-17,-1.304253927871498742e-02,-2.988915251372178949e-02,-4.727920488534176346e-02,-6.466925725696170968e-02,-8.151587049196853951e-02,-9.890592286358848573e-02,-1.162959752352084597e-01,-1.336860276068284059e-01,-1.505326408418352357e-01,-1.679226932134551820e-01,-1.853127455850751282e-01,-2.021593588200819580e-01,-2.195494111917019042e-01,-2.260706808310593841e-01,-2.260706808310593841e-01,-2.260706808310593841e-01,-2.260706808310593841e-01,-2.260706808310593841e-01,-2.260706808310593841e-01,-2.260706808310593841e-01,-2.260706808310593841e-01,-2.260706808310593841e-01
-1.940077717708851013e-01,-1.771611585358782714e-01,-1.597711061642583252e-01,-1.423810537926383790e-01,-1.255344405576315214e-01,-1.081443881860115891e-01,-9.075433581439165676e-02,-7.336428344277168279e-02,-5.651767020776488071e-02,-3.912761783614490674e-02,-2.173756546452496052e-02,-4.890952229518158445e-03,-2.775557561562891351e-17,-2.775557561562891351e-17,-2.775557561562891351e-17,-2.775557561562891351e-17,-2.775557561562891351e-17,-2.775557561562891351e-17,-2.775557561562891351e-17,-2.775557561562891351e-17,-2.775557561562891351e-17,-5.551115123125782702e-17,-2.775557561562891351e-17,-2.775557561562891351e-17,-2.775557561562891351e-17,-1.032534359564937776e-02,-2.771539596726932397e-02,-4.510544833888929794e-02,-6.195206157389610002e-02,-7.934211394551604624e-02,-9.673216631713602021e-02,-1.141222186887559387e-01,-1.309688319237627963e-01,-1.483588842953827425e-01,-1.657489366670026887e-01,-1.825955499020095185e-01,-1.999856022736294647e-01,-2.173756546452494109e-01,-2.260706808310593841e-01,-2.260706808310593841e-01,-2.260706808310593841e-01,-2.260706808310593841e-01,-2.260706808310593841e-01,-2.260706808310593841e-01,-2.260706808310593841e-01,-2.260706808310593841e-01,-2.260706808310593841e-01
-1.967249674539507109e-01,-1.793349150823307647e-01,-1.619448627107108185e-01,-1.450982494757039887e-01,-1.277081971040840425e-01,-1.103181447324640685e-01,-9.292809236084415003e-02,-7.608147912583729244e-02,-5.869142675421737398e-02,-4.130137438259742777e-02,-2.445476114759057018e-02,-7.064708775970623966e-03,-2.775557561562891351e-17,-2.775557561562891351e-17,-2.775557561562891351e-17,-2.775557561562891351e-17,-2.775557561562891351e-17,0.000000000000000000e+00,-2.775557561562891351e-17,-2.775557561562891351e-17,-2.775557561562891351e-17,-2.775557561562891351e-17,-2.775557561562891351e-17,-2.775557561562891351e-17,-2.775557561562891351e-17,-8.151587049196884482e-03,-2.554163942081685845e-02,-4.238825265582366053e-02,-5.977830502744360675e-02,-7.716835739906355296e-02,-9.455840977068349917e-02,-1.114050230056903290e-01,-1.287950753773102752e-01,-1.461851277489302492e-01,-1.630317409839370790e-01,-1.804217933555570252e-01,-1.978118457271769715e-01,-2.146584589621838013e-01,-2.260706808310593841e-01,-2.260706808310593841e-01,-2.260706808310593841e-01,-2.260706808310593841e-01,-2.260706808310593841e-01,-2.260706808310593841e-01,-2.260706808310593841e-01,-2.260706808310593841e-01,-2.260706808310593841e-01
-1.988987240004032042e-01,-1.815086716287832580e-01,-1.646620583937764282e-01,-1.472720060221564820e-01,-1.298819536505365357e-01,-1.124919012789165756e-01,-9.564528804390975969e-02,-7.825523567228981348e-02,-6.086518330066983951e-02,-4.401857006566303743e-02,-2.662851769404303570e-02,-9.238465322423117243e-03,-2.775557561562891351e-17,-2.775557561562891351e-17,-2.775557561562891351e-17,-2.775557561562891351e-17,-2.775557561562891351e-17,-2.775557561562891351e-17,-2.775557561562891351e-17,-2.775557561562891351e-17,-2.775557561562891351e-17,-5.551115123125782702e-17,-2.775557561562891351e-17,-2.775557561562891351e-17,-5.551115123125782702e-17,-5.977830502744391206e-03,-2.282444373775122104e-02,-4.021449610937116725e-02,-5.760454848099111347e-02,-7.499460085261105968e-02,-9.184121408761791727e-02,-1.092312664592378357e-01,-1.266213188308578097e-01,-1.434679320658646395e-01,-1.608579844374845580e-01,-1.782480368091045042e-01,-1.950946500441113618e-01,-2.124847024157313080e-01,-2.260706808310593841e-01,-2.260706808310593841e-01,-2.260706808310593841e-01,-2.260706808310593841e-01,-2.260706808310593841e-01,-2.260706808310593841e-01,-2.260706808310593841e-01,-2.260706808310593841e-01,-2.260706808310593841e-01
-2.010724805468556975e-01,-1.842258673118488677e-01,-1.668358149402289214e-01,-1.494457625686089752e-01,-1.320557101969890290e-01,-1.152090969619821992e-01,-9.781904459036225297e-02,-8.042899221874227900e-02,-6.358237898373544916e-02,-4.619232661211555846e-02,-2.880227424049555673e-02,-1.195566100548872690e-02,-5.551115123125782702e-17,-2.775557561562891351e-17,-2.775557561562891351e-17,-2.775557561562891351e-17,0.000000000000000000e+00,-2.775557561562891351e-17,0.000000000000000000e+00,0.000000000000000000e+00,-2.775557561562891351e-17,-2.775557561562891351e-17,-2.775557561562891351e-17,-2.775557561562891351e-17,-2.775557561562891351e-17,-3.260634819678753793e-03,-2.065068719129867225e-02,-3.804073956291867398e-02,-5.488735279792550381e-02,-7.227740516954545003e-02,-8.966745754116539624e-02,-1.070575099127853425e-01,-1.239041231477921723e-01,-1.412941755194121185e-01,-1.586842278910320925e-01,-1.755308411260388946e-01,-1.929208934976588408e-01,-2.103109458692788147e-01,-2.260706808310593841e-01,-2.260706808310593841e-01,-2.260706808310593841e-01,-2.260706808310593841e-01,-2.260706808310593841e-01,-2.260706808310593841e-01,-2.260706808310593841e-01,-2.260706808310593841e-01,-2.260706808310593841e-01
-2.037896762299213349e-01,-1.863996238583013887e-01,-1.690095714866814425e-01,-1.516195191150614685e-01,-1.347729058800546387e-01,-1.173828535084346786e-01,-9.999280113681474624e-02,-8.314618790180791641e-02,-6.575613553018797020e-02,-4.836608315856802398e-02,-3.151946992356119415e-02,-1.412941755194122018e-02,-2.775557561562891351e-17,-2.775557561562891351e-17,-5.551115123125782702e-17,-2.775557561562891351e-17,-2.775557561562891351e-17,-2.775557561562891351e-17,-2.775557561562891351e-17,-2.775557561562891351e-17,-5.551115123125782702e-17,-5.551115123125782702e-17,-5.551115123125782702e-17,-2.775557561562891351e-17,-2.775557561562891351e-17,-1.086878273226260516e-03,-1.847693064484620673e-02,-3.532354387985306432e-02,-5.271359625147303829e-02,-7.010364862309292899e-02,-8.749370099471293072e-02,-1.043403142297197328e-01,-1.217303666013396790e-01,-1.391204189729596252e-01,-1.559670322079664551e-01,-1.733570845795864013e-01,-1.907471369512063752e-01,-2.081371893228263215e-01,-2.249838025578331235e-01,-2.260706808310593841e-01,-2.260706808310593841e-01,-2.260706808310593841e-01,-2.260706808310593841e-01,-2.260706808310593841e-01,-2.260706808310593841e-01,-2.260706808310593841e-01,-2.260706808310593841e-01
-2.059634327763738282e-01,-1.885733804047538542e-01,-1.717267671697470521e-01,-1.543367147981271059e-01,-1.369466624265071597e-01,-1.195566100548871857e-01,-1.027099968198803559e-01,-8.531994444826043744e-02,-6.792989207664043572e-02,-5.108327884163363364e-02,-3.369322647001368742e-02,-1.630317409839371345e-02,0.000000000000000000e+00,-2.775557561562891351e-17,-2.775557561562891351e-17,0.000000000000000000e+00,-2.775557561562891351e-17,-2.775557561562891351e-17,-2.775557561562891351e-17,-2.775557561562891351e-17,-2.775557561562891351e-17,-2.775557561562891351e-17,-2.775557561562891351e-17,-2.775557561562891351e-17,-2.775557561562891351e-17,-2.775557561562891351e-17,-1.575973496178059707e-02,-3.314978733340054329e-02,-5.053983970502051726e-02,-6.792989207664043572e-02,-8.477650531164729331e-02,-1.021665576832672395e-01,-1.195566100548871857e-01,-1.364032232898940156e-01,-1.537932756615139618e-01,-1.711833280331339080e-01,-1.880299412681407378e-01,-2.054199936397606840e-01,-2.228100460113806303e-01,-2.260706808310593841e-01,-2.260706808310593841e-01,-2.260706808310593841e-01,-2.260706808310593841e-01,-2.260706808310593841e-01,-2.260706808310593841e-01,-2.260706808310593841e-01,-2.260706808310593841e-01
-2.081371893228263215e-01,-1.912905760878194916e-01,-1.739005237161995177e-01,-1.565104713445795714e-01,-1.391204189729596252e-01,-1.222738057379527954e-01,-1.048837533663328631e-01,-8.749370099471290296e-02,-7.064708775970607313e-02,-5.325703538808615467e-02,-3.586698301646615294e-02,-1.847693064484623449e-02,-1.630317409839404652e-03,-2.775557561562891351e-17,-2.775557561562891351e-17,-2.775557561562891351e-17,-2.775557561562891351e-17,-2.775557561562891351e-17,-2.775557561562891351e-17,-5.551115123125782702e-17,-5.551115123125782702e-17,-5.551115123125782702e-17,-2.775557561562891351e-17,-2.775557561562891351e-17,-2.775557561562891351e-17,-2.775557561562891351e-17,-1.358597841532810380e-02,-3.097603078694807777e-02,-4.836608315856805174e-02,-6.521269639357482606e-02,-8.260274876519477227e-02,-9.999280113681474624e-02,-1.168394143718215622e-01,-1.342294667434415223e-01,-1.516195191150614685e-01,-1.684661323500682983e-01,-1.858561847216882446e-01,-2.032462370933081908e-01,-2.206362894649281370e-01,-2.260706808310593841e-01,-2.260706808310593841e-01,-2.260706808310593841e-01,-2.260706808310593841e-01,-2.260706808310593841e-01,-2.260706808310593841e-01,-2.260706808310593841e-01,-2.260706808310593841e-01
-2.108543850058919311e-01,-1.934643326342719849e-01,-1.760742802626520387e-01,-1.586842278910320925e-01,-1.418376146560252626e-01,-1.244475622844052887e-01,-1.070575099127853425e-01,-9.021089667777851262e-02,-7.282084430615856641e-02,-5.543079193453862019e-02,-3.858417869953179036e-02,-2.119412632791184414e-02,-3.804073956291870173e-03,-2.775557561562891351e-17,0.000000000000000000e+00,-2.775557561562891351e-17,-2.775557561562891351e-17,-2.775557561562891351e-17,-2.775557561562891351e-17,-2.775557561562891351e-17,-2.775557561562891351e-17,-2.775557561562891351e-17,-2.775557561562891351e-17,-2.775557561562891351e-17,-2.775557561562891351e-17,-2.775557561562891351e-17,-1.141222186887561052e-02,-2.825883510388241260e-02,-4.564888747550238657e-02,-6.303893984712233278e-02,-8.042899221874230675e-02,-9.727560545374913659e-02,-1.146656578253690828e-01,-1.320557101969890290e-01,-1.489023234319958588e-01,-1.662923758036158051e-01,-1.836824281752357513e-01,-2.010724805468556975e-01,-2.179190937818625273e-01,-2.260706808310593841e-01,-2.260706808310593841e-01,-2.260706808310593841e-01,-2.260706808310593841e-01,-2.260706808310593841e-01,-2.260706808310593841e-01,-2.260706808310593841e-01,-2.260706808310593841e-01
-2.130281415523444244e-01,-1.956380891807244782e-01,-1.787914759457176483e-01,-1.614014235740977021e-01,-1.440113712024777559e-01,-1.266213188308577819e-01,-1.097747055958509799e-01,-9.238465322423100590e-02,-7.499460085261105968e-02,-5.814798761760422985e-02,-4.075793524598428363e-02,-2.336788287436433742e-02,-5.977830502744391206e-03,-2.775557561562891351e-17,0.000000000000000000e+00,-2.775557561562891351e-17,-2.775557561562891351e-17,-2.775557561562891351e-17,-2.775557561562891351e-17,0.000000000000000000e+00,-2.775557561562891351e-17,-2.775557561562891351e-17,-2.775557561562891351e-17,-2.775557561562891351e-17,-2.775557561562891351e-17,-2.775557561562891351e-17,-8.695026185810000863e-03,-2.608507855742994708e-02,-4.347513092904992105e-02,-6.086518330066986726e-02,-7.771179653567666934e-02,-9.510184890729664331e-02,-1.124919012789165618e-01,-1.293385145139234194e-01,-1.467285668855433656e-01,-1.641186192571633118e-01,-1.815086716287832580e-01,-1.983552848637900878e-01,-2.157453372354100340e-01,-2.260706808310593841e-01,-2.260706808310593841e-01,-2.260706808310593841e-01,-2.260706808310593841e-01,-2.260706808310593841e-01,-2.260706808310593841e-01,-2.260706808310593841e-01,-2.260706808310593841e-01
-2.152018980987969177e-01,-1.983552848637900878e-01,-1.809652324921701416e-01,-1.635751801205501954e-01,-1.461851277489302214e-01,-1.293385145139234194e-01,-1.119484621423034454e-01,-9.455840977068349917e-02,-7.771179653567666934e-02,-6.032174416405675088e-02,-4.293169179243677691e-02,-2.554163942081680294e-02,-8.695026185810000863e-03,-2.775557561562891351e-17,-2.775557561562891351e-17,-2.775557561562891351e-17,-2.775557561562891351e-17,-2.775557561562891351e-17,-2.775557561562891351e-17,-2.775557561562891351e-17,-2.775557561562891351e-17,-2.775557561562891351e-17,-5.551115123125782702e-17,-2.775557561562891351e-17,-2.775557561562891351e-17,-2.775557561562891351e-17,-6.521269639357507586e-03,-2.391132201097745380e-02,-4.130137438259742777e-02,-5.814798761760425760e-02,-7.553803998922417606e-02,-9.292809236084415003e-02,-1.097747055958509660e-01,-1.271647579674709261e-01,-1.445548103390908723e-01,-1.614014235740977021e-01,-1.787914759457176483e-01,-1.961815283173375946e-01,-2.135715806889575408e-01,-2.260706808310593841e-01,-2.260706808310593841e-01,-2.260706808310593841e-01,-2.260706808310593841e-01,-2.260706808310593841e-01,-2.260706808310593841e-01,-2.260706808310593841e-01,-2.260706808310593841e-01
-2.179190937818625273e-01,-2.005290414102425811e-01,-1.831389890386226349e-01,-1.657489366670026887e-01,-1.489023234319958588e-01,-1.315122710603758849e-01,-1.141222186887559664e-01,-9.727560545374913659e-02,-7.988555308212916262e-02,-6.249550071050921640e-02,-4.564888747550241432e-02,-2.825883510388244035e-02,-1.086878273226249414e-02,-2.775557561562891351e-17,-2.775557561562891351e-17,0.000000000000000000e+00,0.000000000000000000e+00,-2.775557561562891351e-17,-2.775557561562891351e-17,-2.775557561562891351e-17,0.000000000000000000e+00,-5.551115123125782702e-17,0.000000000000000000e+00,-2.775557561562891351e-17,-2.775557561562891351e-17,-2.775557561562891351e-17,-4.347513092904986554e-03,-2.119412632791184414e-02,-3.858417869953181811e-02,-5.597423107115176433e-02,-7.336428344277168279e-02,-9.021089667777851262e-02,-1.076009490493984727e-01,-1.249910014210184189e-01,-1.418376146560252626e-01,-1.592276670276451811e-01,-1.766177193992651551e-01,-1.940077717708851013e-01,-2.108543850058919311e-01,-2.260706808310593841e-01,-2.260706808310593841e-01,-2.260706808310593841e-01,-2.260706808310593841e-01,-2.260706808310593841e-01,-2.260706808310593841e-01,-2.260706808310593841e-01,-2.260706808310593841e-01
-2.200928503283150206e-01,-2.027027979566950744e-01,-1.853127455850751282e-01,-1.684661323500682983e-01,-1.510760799784483521e-01,-1.336860276068284059e-01,-1.168394143718215622e-01,-9.944936200020160211e-02,-8.205930962858168365e-02,-6.521269639357482606e-02,-4.782264402195487984e-02,-3.043259165033496139e-02,-1.304253927871495966e-02,-2.775557561562891351e-17,-2.775557561562891351e-17,-2.775557561562891351e-17,-2.775557561562891351e-17,-2.775557561562891351e-17,-2.775557561562891351e-17,-2.775557561562891351e-17,-5.551115123125782702e-17,-2.775557561562891351e-17,-2.775557561562891351e-17,-2.775557561562891351e-17,-2.775557561562891351e-17,0.000000000000000000e+00,-1.630317409839376896e-03,-1.902036978145935087e-02,-3.641042215307929708e-02,-5.380047452469924329e-02,-7.064708775970607313e-02,-8.803714013132601934e-02,-1.054271925029459794e-01,-1.222738057379528093e-01,-1.396638581095727694e-01,-1.570539104811927156e-01,-1.744439628528126618e-01,-1.912905760878194916e-01,-2.086806284594394378e-01,-2.260706808310593841e-01,-2.260706808310593841e-01,-2.260706808310593841e-01,-2.260706808310593841e-01,-2.260706808310593841e-01,-2.260706808310593841e-01,-2.260706808310593841e-01,-2.260706808310593841e-01
-2.222666068747675139e-01,-2.054199936397606840e-01,-1.880299412681407378e-01,-1.706398888965207916e-01,-1.532498365249008454e-01,-1.364032232898940156e-01,-1.190131709182740694e-01,-1.016231185466541093e-01,-8.477650531164726555e-02,-6.738645294002731934e-02,-4.999640056840740088e-02,-3.260634819678742691e-02,-1.575973496178059707e-02,0.000000000000000000e+00,-2.775557561562891351e-17,-2.775557561562891351e-17,-5.551115123125782702e-17,-2.775557561562891351e-17,0.000000000000000000e+00,0.000000000000000000e+00,-2.775557561562891351e-17,-2.775557561562891351e-17,-2.775557561562891351e-17,-2.775557561562891351e-17,-2.775557561562891351e-17,-2.775557561562891351e-17,-2.775557561562891351e-17,-1.684661323500682983e-02,-3.423666560662677605e-02,-5.108327884163363364e-02,-6.847333121325357985e-02,-8.586338358487355382e-02,-1.027099968198803559e-01,-1.201000491915003021e-01,-1.374901015631202761e-01,-1.543367147981271059e-01,-1.717267671697470521e-01,-1.891168195413669983e-01,-2.065068719129869446e-01,-2.233534851479937744e-01,-2.260706808310593841e-01,-2.260706808310593841e-01,-2.260706808310593841e-01,-2.260706808310593841e-01,-2.260706808310593841e-01,-2.260706808310593841e-01,-2.260706808310593841e-01
-2.249838025578331235e-01,-2.075937501862131773e-01,-1.902036978145932311e-01,-1.728136454429732849e-01,-1.559670322079664828e-01,-1.385769798363465366e-01,-1.211869274647265488e-01,-1.043403142297197328e-01,-8.695026185809978658e-02,-6.956020948647981261e-02,-5.217015711485989415e-02,-3.532354387985303656e-02,-1.793349150823309035e-02,-5.434391366131441359e-04,-2.775557561562891351e-17,-2.775557561562891351e-17,-2.775557561562891351e-17,-2.775557561562891351e-17,-2.775557561562891351e-17,-2.775557561562891351e-17,-2.775557561562891351e-17,-2.775557561562891351e-17,-2.775557561562891351e-17,-2.775557561562891351e-17,-2.775557561562891351e-17,-2.775557561562891351e-17,-2.775557561562891351e-17,-1.467285668855436431e-02,-3.151946992356116639e-02,-4.890952229518114036e-02,-6.629957466680105882e-02,-8.314618790180791641e-02,-1.005362402734278626e-01,-1.179262926450478088e-01,-1.347729058800546387e-01,-1.521629582516745849e-01,-1.695530106232945311e-01,-1.869430629949145051e-01,-2.037896762299213349e-01,-2.211797286015412811e-01,-2.260706808310593841e-01,-2.260706808310593841e-01,-2.260706808310593841e-01,-2.260706808310593841e-01,-2.260706808310593841e-01,-2.260706808310593841e-01,-2.260706808310593841e-01
-2.260706808310593841e-01,-2.097675067326656706e-01,-1.923774543610457244e-01,-1.755308411260388946e-01,-1.581407887544189483e-01,-1.407507363827990021e-01,-1.239041231477921723e-01,-1.065140707761722261e-01,-8.912401840455227986e-02,-7.227740516954542227e-02,-5.488735279792550381e-02,-3.749730042630552984e-02,-2.010724805468558363e-02,-3.260634819678781549e-03,-2.775557561562891351e-17,-2.775557561562891351e-17,-2.775557561562891351e-17,-2.775557561562891351e-17,-2.775557561562891351e-17,-2.775557561562891351e-17,-2.775557561562891351e-17,-2.775557561562891351e-17,0.000000000000000000e+00,-2.775557561562891351e-17,-2.775557561562891351e-17,-2.775557561562891351e-17,-2.775557561562891351e-17,-1.195566100548872690e-02,-2.934571337710870087e-02,-4.673576574872864708e-02,-6.358237898373547692e-02,-8.097243135535542313e-02,-9.836248372697539710e-02,-1.152090969619821992e-01,-1.325991493336021454e-01,-1.499892017052221194e-01,-1.673792540768420656e-01,-1.842258673118488677e-01,-2.016159196834688139e-01,-2.190059720550887878e-01,-2.260706808310593841e-01,-2.260706808310593841e-01,-2.260706808310593841e-01,-2.260706808310593841e-01,-2.260706808310593841e-01,-2.260706808310593841e-01,-2.260706808310593841e-01
-2.260706808310593841e-01,-2.119412632791181639e-01,-1.950946500441113618e-01,-1.777045976724913878e-01,-1.603145453008714416e-01,-1.434679320658646118e-01,-1.260778796942446656e-01,-1.086878273226247332e-01,-9.184121408761791727e-02,-7.445116171599794330e-02,-5.706110934437799709e-02,-3.967105697275802312e-02,-2.282444373775119328e-02,-5.434391366131247070e-03,-2.775557561562891351e-17,0.000000000000000000e+00,-2.775557561562891351e-17,-2.775557561562891351e-17,-2.775557561562891351e-17,-2.295750666589244926e-01,-2.295750666589244926e-01,-2.295750666589244926e-01,-2.295750666589245204e-01,-2.295750666589244926e-01,-2.775557561562891351e-17,-2.775557561562891351e-17,-2.775557561562891351e-17,-9.781904459036233623e-03,-2.717195683065617984e-02,-4.401857006566303743e-02,-6.140862243728298364e-02,-7.879867480890292986e-02,-9.564528804390975969e-02,-1.130353404155297059e-01,-1.304253927871496521e-01,-1.478154451587695983e-01,-1.646620583937764282e-01,-1.820521107653963744e-01,-1.994421631370163484e-01,-2.162887763720231504e-01,-2.260706808310593841e-01,-2.260706808310593841e-01,-2.260706808310593841e-01,-2.260706808310593841e-01,-2.260706808310593841e-01,-2.260706808310593841e-01,-2.260706808310593841e-01
-2.260706808310593841e-01,-2.146584589621838013e-01,-1.972684065905638273e-01,-1.798783542189438811e-01,-1.630317409839370790e-01,-1.456416886123171328e-01,-1.282516362406971588e-01,-1.114050230056903429e-01,-9.401497063407038279e-02,-1.647408587701932325e-01,-1.473508063985732863e-01,-1.305041931635664842e-01,-1.131141407919465242e-01,-9.572408842032656406e-02,-2.775557561562891351e-17,0.000000000000000000e+00,-2.775557561562891351e-17,-2.775557561562891351e-17,-2.775557561562891351e-17,-2.295750666589244926e-01,-2.295750666589244926e-01,-2.295750666589244926e-01,-2.295750666589244926e-01,-2.295750666589244926e-01,-2.775557561562891351e-17,-2.775557561562891351e-17,-2.775557561562891351e-17,-7.608147912583712591e-03,-2.445476114759057018e-02,-4.184481351921051639e-02,-5.923486589083051812e-02,-7.608147912583729244e-02,-9.347153149745726641e-02,-1.108615838690772126e-01,-1.277081971040840425e-01,-1.450982494757039887e-01,-1.624883018473239349e-01,-1.798783542189438811e-01,-1.967249674539507109e-01,-2.141150198255706572e-01,-2.260706808310593841e-01,-2.260706808310593841e-01,-2.260706808310593841e-01,-2.260706808310593841e-01,-2.260706808310593841e-01,-2.260706808310593841e-01,-2.260706808310593841e-01
-2.260706808310593841e-01,-2.168322155086362946e-01,-1.994421631370163484e-01,-1.825955499020094908e-01,-1.652054975303895445e-01,-1.478154451587695983e-01,-1.309688319237627963e-01,-1.135787795521428362e-01,-9.618872718052290383e-02,-1.674580544532588422e-01,-1.500680020816388960e-01,-1.326779497100189498e-01,-1.152878973383989897e-01,-9.844128410339217372e-02,-2.775557561562891351e-17,-2.775557561562891351e-17,-2.775557561562891351e-17,-2.775557561562891351e-17,-2.775557561562891351e-17,-2.295750666589244926e-01,-2.295750666589245204e-01,-2.295750666589244648e-01,-2.295750666589244926e-01,-2.295750666589244926e-01,-2.775557561562891351e-17,-2.775557561562891351e-17,-2.775557561562891351e-17,-4.890952229518130689e-03,-2.228100460113810466e-02,-3.967105697275802312e-02,-5.651767020776485295e-02,-7.390772257938479917e-02,-9.129777495100477314e-02,-1.081443881860116030e-01,-1.255344405576315492e-01,-1.429244929292514954e-01,-1.603145453008714694e-01,-1.771611585358782714e-01,-1.945512109074982177e-01,-2.119412632791181639e-01,-2.260706808310593841e-01,-2.260706808310593841e-01,-2.260706808310593841e-01,-2.260706808310593841e-01,-2.260706808310593841e-01,-2.260706808310593841e-01,-2.260706808310593841e-01
-2.260706808310593841e-01,-2.190059720550887878e-01,-2.021593588200819580e-01,-1.847693064484620118e-01,-1.673792540768420656e-01,-1.505326408418352357e-01,-1.331425884702152618e-01,-1.157525360985953294e-01,-9.890592286358851348e-02,-1.696318109997113632e-01,-1.522417586280914170e-01,-1.348517062564714708e-01,-1.180050930214645993e-01,-1.006150406498446948e-01,-5.551115123125782702e-17,-2.775557561562891351e-17,-2.775557561562891351e-17,-2.775557561562891351e-17,-2.775557561562891351e-17,-2.295750666589244926e-01,-2.295750666589244926e-01,-2.295750666589244926e-01,-2.295750666589244926e-01,-2.295750666589244926e-01,-2.775557561562891351e-17,-2.775557561562891351e-17,-5.551115123125782702e-17,-2.717195683065637413e-03,-2.010724805468561138e-02,-3.695386128969238571e-02,-5.434391366131235968e-02,-7.173396603293230589e-02,-8.858057926793916348e-02,-1.059706316395591097e-01,-1.233606840111790559e-01,-1.407507363827990021e-01,-1.575973496178058320e-01,-1.749874019894257782e-01,-1.923774543610457244e-01,-2.092240675960525542e-01,-2.260706808310593841e-01,-2.260706808310593841e-01,-2.260706808310593841e-01,-2.260706808310593841e-01,-2.260706808310593841e-01,-2.260706808310593841e-01,-2.260706808310593841e-01
-2.260706808310593841e-01,-2.217231677381543975e-01,-2.043331153665344513e-01,-1.869430629949145051e-01,-1.700964497599076752e-01,-1.527063973882877290e-01,-1.353163450166677551e-01,-1.184697317816609391e-01,-1.010796794100409929e-01,-1.718055675461638843e-01,-1.544155151745438825e-01,-1.375689019395370805e-01,-1.201788495679171204e-01,-1.027887971962972019e-01,0.000000000000000000e+00,-2.775557561562891351e-17,-2.775557561562891351e-17,-2.775557561562891351e-17,-2.775557561562891351e-17,-2.295750666589244926e-01,-2.295750666589244926e-01,-2.295750666589244648e-01,-2.295750666589244926e-01,-2.295750666589245204e-01,-2.775557561562891351e-17,-2.775557561562891351e-17,-2.775557561562891351e-17,-5.434391366131441359e-04,-1.739005237161997397e-02,-3.478010474323992018e-02,-5.217015711485989415e-02,-6.901677034986666848e-02,-8.640682272148667020e-02,-1.037968750931066164e-01,-1.206434883281134463e-01,-1.380335406997333925e-01,-1.554235930713533387e-01,-1.728136454429732849e-01,-1.896602586779801147e-01,-2.070503110496000609e-01,-2.244403634212200072e-01,-2.260706808310593841e-01,-2.260706808310593841e-01,-2.260706808310593841e-01,-2.260706808310593841e-01,-2.260706808310593841e-01,-2.260706808310593841e-01
-2.260706808310593841e-01,-2.238969242846068908e-01,-2.065068719129869446e-01,-1.896602586779801147e-01,-1.722702063063601408e-01,-1.548801539347401945e-01,-1.380335406997333925e-01,-1.206434883281134324e-01,-1.032534359564934862e-01,-1.739793240926163498e-01,-1.571327108576094922e-01,-1.397426584859895460e-01,-1.223526061143696136e-01,-1.055059928793627838e-01,-2.775557561562891351e-17,-2.775557561562891351e-17,-2.775557561562891351e-17,-2.775557561562891351e-17,-2.775557561562891351e-17,-2.775557561562891351e-17,-2.775557561562891351e-17,0.000000000000000000e+00,-2.775557561562891351e-17,-2.775557561562891351e-17,-2.775557561562891351e-17,-2.775557561562891351e-17,-2.775557561562891351e-17,-2.775557561562891351e-17,-1.521629582516745294e-02,-3.260634819678742691e-02,-4.945296143179425674e-02,-6.684301380341420296e-02,-8.423306617503414917e-02,-1.010796794100409929e-01,-1.184697317816609391e-01,-1.358597841532808992e-01,-1.532498365249008454e-01,-1.700964497599076752e-01,-1.874865021315276215e-01,-2.048765545031475677e-01,-2.217231677381543975e-01,-2.260706808310593841e-01,-2.260706808310593841e-01,-2.260706808310593841e-01,-2.260706808310593841e-01,-2.260706808310593841e-01,-2.260706808310593841e-01
-2.260706808310593841e-01,-2.260706808310593841e-01,-2.092240675960525542e-01,-1.918340152244326080e-01,-1.744439628528126618e-01,-1.575973496178058320e-01,-1.402072972461858857e-01,-1.228172448745659256e-01,-1.059706316395591097e-01,-8.858057926793916348e-02,-7.119052689631918951e-02,-5.380047452469927105e-02,-3.695386128969244122e-02,-1.956380891807249500e-02,-2.173756546452521032e-03,-2.775557561562891351e-17,-2.775557561562891351e-17,-2.775557561562891351e-17,-2.775557561562891351e-17,-2.775557561562891351e-17,-2.775557561562891351e-17,-2.775557561562891351e-17,-2.775557561562891351e-17,-2.775557561562891351e-17,-2.775557561562891351e-17,-2.775557561562891351e-17,-2.775557561562891351e-17,-2.775557561562891351e-17,-1.304253927871498742e-02,-2.988915251372178949e-02,-4.727920488534179122e-02,-6.466925725696170968e-02,-8.151587049196853951e-02,-9.890592286358848573e-02,-1.162959752352084597e-01,-1.336860276068284059e-01,-1.505326408418352080e-01,-1.679226932134551542e-01,-1.853127455850751282e-01,-2.021593588200819580e-01,-2.195494111917019042e-01,-2.260706808310593841e-01,-2.260706808310593841e-01,-2.260706808310593841e-01,-2.260706808310593841e-01,-2.260706808310593841e-01,-2.260706808310593841e-01
-2.260706808310593841e-01,-2.260706808310593841e-01,-2.113978241425050475e-01,-1.940077717708851013e-01,-1.771611585358782714e-01,-1.597711061642583252e-01,-1.423810537926383790e-01,-1.255344405576315492e-01,-1.081443881860116030e-01,-9.075433581439165676e-02,-7.336428344277168279e-02,-5.651767020776488071e-02,-3.912761783614490674e-02,-2.173756546452496052e-02,-4.890952229518158445e-03,-2.775557561562891351e-17,-2.775557561562891351e-17,-2.775557561562891351e-17,-2.775557561562891351e-17,-2.775557561562891351e-17,-2.775557561562891351e-17,-2.775557561562891351e-17,-2.775557561562891351e-17,0.000000000000000000e+00,-2.775557561562891351e-17,-2.775557561562891351e-17,-2.775557561562891351e-17,-2.775557561562891351e-17,-1.032534359564937776e-02,-2.771539596726932397e-02,-4.510544833888927019e-02,-6.195206157389610002e-02,-7.934211394551604624e-02,-9.673216631713602021e-02,-1.141222186887559387e-01,-1.309688319237627963e-01,-1.483588842953827425e-01,-1.657489366670026887e-01,-1.825955499020094908e-01,-1.999856022736294647e-01,-2.173756546452494109e-01,-2.260706808310593841e-01,-2.260706808310593841e-01,-2.260706808310593841e-01,-2.260706808310593841e-01,-2.260706808310593841e-01,-2.260706808310593841e-01
-2.260706808310593841e-01,-2.260706808310593841e-01,-2.135715806889575408e-01,-1.967249674539507109e-01,-1.793349150823307647e-01,-1.619448627107108185e-01,-1.450982494757039887e-01,-1.277081971040840425e-01,-1.103181447324640962e-01,-9.292809236084415003e-02,-7.608147912583732020e-02,-5.869142675421737398e-02,-4.130137438259740001e-02,-2.445476114759057018e-02,-7.064708775970623966e-03,-5.551115123125782702e-17,0.000000000000000000e+00,-2.775557561562891351e-17,-2.775557561562891351e-17,-2.775557561562891351e-17,-2.775557561562891351e-17,-2.775557561562891351e-17,-2.775557561562891351e-17,-2.775557561562891351e-17,-2.775557561562891351e-17,-2.775557561562891351e-17,-2.775557561562891351e-17,-2.775557561562891351e-17,-8.151587049196912238e-03,-2.554163942081683070e-02,-4.238825265582366053e-02,-5.977830502744360675e-02,-7.716835739906355296e-02,-9.401497063407041055e-02,-1.114050230056903290e-01,-1.287950753773102752e-01,-1.461851277489302492e-01,-1.630317409839370790e-01,-1.804217933555570252e-01,-1.978118457271769715e-01,-2.146584589621838013e-01,-2.260706808310593841e-01,-2.260706808310593841e-01,-2.260706808310593841e-01,-2.260706808310593841e-01,-2.260706808310593841e-01,-2.260706808310593841e-01
-2.260706808310593841e-01,-2.260706808310593841e-01,-2.162887763720231504e-01,-1.988987240004032042e-01,-1.815086716287832580e-01,-1.646620583937764282e-01,-1.472720060221565097e-01,-1.298819536505365357e-01,-1.124919012789165756e-01,-9.564528804390975969e-02,-7.825523567228978572e-02,-6.086518330066983951e-02,-4.401857006566303743e-02,-2.662851769404306346e-02,-9.238465322423117243e-03,-2.775557561562891351e-17,-2.775557561562891351e-17,-2.775557561562891351e-17,-2.775557561562891351e-17,-2.775557561562891351e-17,-2.775557561562891351e-17,-2.775557561562891351e-17,-2.775557561562891351e-17,-2.775557561562891351e-17,-2.775557561562891351e-17,-2.775557561562891351e-17,0.000000000000000000e+00,-5.551115123125782702e-17,-5.977830502744391206e-03,-2.282444373775119328e-02,-4.021449610937113950e-02,-5.760454848099108571e-02,-7.445116171599794330e-02,-9.184121408761788952e-02,-1.092312664592378357e-01,-1.266213188308578097e-01,-1.434679320658646118e-01,-1.608579844374845580e-01,-1.782480368091045042e-01,-1.950946500441113618e-01,-2.124847024157313080e-01,-2.260706808310593841e-01,-2.260706808310593841e-01,-2.260706808310593841e-01,-2.260706808310593841e-01,-2.260706808310593841e-01,-2.260706808310593841e-01
-2.260706808310593841e-01,-2.260706808310593841e-01,-2.184625329184756437e-01,-2.010724805468556975e-01,-1.842258673118488677e-01,-1.668358149402289214e-01,-1.494457625686089752e-01,-1.325991493336021454e-01,-1.152090969619822131e-01,-9.781904459036225297e-02,-8.042899221874230675e-02,-6.358237898373544916e-02,-4.619232661211553070e-02,-2.880227424049555673e-02,-1.195566100548872690e-02,-5.551115123125782702e-17,-5.551115123125782702e-17,-2.775557561562891351e-17,-2.775557561562891351e-17,-2.775557561562891351e-17,-2.775557561562891351e-17,0.000000000000000000e+00,0.000000000000000000e+00,-2.775557561562891351e-17,-2.775557561562891351e-17,-2.775557561562891351e-17,-2.775557561562891351e-17,-2.775557561562891351e-17,-3.260634819678781549e-03,-2.065068719129870001e-02,-3.804073956291861847e-02,-5.488735279792550381e-02,-7.227740516954545003e-02,-8.966745754116539624e-02,-1.070575099127853563e-01,-1.239041231477921723e-01,-1.412941755194121463e-01,-1.586842278910320925e-01,-1.755308411260388946e-01,-1.929208934976588408e-01,-2.103109458692788147e-01,-2.260706808310593841e-01,-2.260706808310593841e-01,-2.260706808310593841e-01,-2.260706808310593841e-01,-2.260706808310593841e-01,-2.260706808310593841e-01
-2.260706808310593841e-01,-2.260706808310593841e-01,-2.206362894649281370e-01,-2.037896762299213349e-01,-1.863996238583013887e-01,-1.690095714866814425e-01,-1.521629582516745849e-01,-1.347729058800546664e-01,-1.173828535084346786e-01,-9.999280113681474624e-02,-8.314618790180791641e-02,-6.575613553018794244e-02,-4.836608315856799623e-02,-3.151946992356116639e-02,-1.412941755194122018e-02,-2.775557561562891351e-17,-2.775557561562891351e-17,0.000000000000000000e+00,-2.775557561562891351e-17,-5.551115123125782702e-17,-2.775557561562891351e-17,-2.775557561562891351e-17,-2.775557561562891351e-17,-2.775557561562891351e-17,-2.775557561562891351e-17,-2.775557561562891351e-17,-2.775557561562891351e-17,-2.775557561562891351e-17,-1.086878273226232761e-03,-1.847693064484623449e-02,-3.532354387985303656e-02,-5.271359625147303829e-02,-7.010364862309295675e-02,-8.749370099471290296e-02,-1.043403142297197328e-01,-1.217303666013396790e-01,-1.391204189729596252e-01,-1.559670322079664828e-01,-1.733570845795864290e-01,-1.907471369512063752e-01,-2.075937501862131773e-01,-2.249838025578331235e-01,-2.260706808310593841e-01,-2.260706808310593841e-01,-2.260706808310593841e-01,-2.260706808310593841e-01,-2.260706808310593841e-01
-2.260706808310593841e-01,-2.260706808310593841e-01,-2.233534851479937744e-01,-2.059634327763738282e-01,-1.885733804047538542e-01,-1.717267671697470521e-01,-1.543367147981271059e-01,-1.369466624265071597e-01,-1.195566100548871857e-01,-1.027099968198803559e-01,-8.531994444826043744e-02,-6.792989207664046347e-02,-5.108327884163363364e-02,-3.369322647001368742e-02,-1.630317409839371345e-02,-2.775557561562891351e-17,-2.775557561562891351e-17,-2.775557561562891351e-17,-2.775557561562891351e-17,-2.775557561562891351e-17,-2.775557561562891351e-17,-2.775557561562891351e-17,-2.775557561562891351e-17,-2.775557561562891351e-17,-2.775557561562891351e-17,-2.775557561562891351e-17,-2.775557561562891351e-17,-2.775557561562891351e-17,-2.775557561562891351e-17,-1.575973496178059707e-02,-3.314978733340057104e-02,-5.053983970502054501e-02,-6.738645294002731934e-02,-8.477650531164729331e-02,-1.021665576832672395e-01,-1.195566100548871857e-01,-1.364032232898940156e-01,-1.537932756615139618e-01,-1.711833280331339080e-01,-1.880299412681407378e-01,-2.054199936397606840e-01,-2.228100460113806303e-01,-2.260706808310593841e-01,-2.260706808310593841e-01,-2.260706808310593841e-01,-2.260706808310593841e-01,-2.260706808310593841e-01
-2.260706808310593841e-01,-2.260706808310593841e-01,-2.255272416944462677e-01,-2.081371893228263215e-01,-1.912905760878194916e-01,-1.739005237161995177e-01,-1.565104713445795714e-01,-1.396638581095727694e-01,-1.222738057379527954e-01,-1.048837533663328492e-01,-8.749370099471290296e-02,-7.064708775970607313e-02,-5.325703538808615467e-02,-3.586698301646618070e-02,-1.902036978145935087e-02,-1.630317409839404652e-03,-2.775557561562891351e-17,-2.775557561562891351e-17,-2.775557561562891351e-17,-2.775557561562891351e-17,-2.775557561562891351e-17,-2.775557561562891351e-17,-2.775557561562891351e-17,-2.775557561562891351e-17,-2.775557561562891351e-17,-2.775557561562891351e-17,-2.775557561562891351e-17,-2.775557561562891351e-17,-2.775557561562891351e-17,-1.358597841532810380e-02,-3.097603078694807777e-02,-4.782264402195490760e-02,-6.521269639357482606e-02,-8.260274876519480003e-02,-9.999280113681474624e-02,-1.168394143718215761e-01,-1.342294667434415223e-01,-1.516195191150614685e-01,-1.684661323500682983e-01,-1.858561847216882446e-01,-2.032462370933081908e-01,-2.206362894649281370e-01,-2.260706808310593841e-01,-2.260706808310593841e-01,-2.260706808310593841e-01,-2.260706808310593841e-01,-2.260706808310593841e-01
-2.260706808310593841e-01,-2.260706808310593841e-01,-2.260706808310593841e-01,-2.108543850058919311e-01,-1.934643326342719849e-01,-1.760742802626520387e-01,-1.592276670276452089e-01,-1.418376146560252626e-01,-1.244475622844052887e-01,-1.070575099127853563e-01,-9.021089667777851262e-02,-7.282084430615856641e-02,-5.543079193453862019e-02,-3.858417869953181811e-02,-2.119412632791184414e-02,-3.804073956291925684e-03,-2.775557561562891351e-17,-2.775557561562891351e-17,-2.775557561562891351e-17,-2.775557561562891351e-17,0.000000000000000000e+00,-2.775557561562891351e-17,-2.775557561562891351e-17,-2.775557561562891351e-17,-2.775557561562891351e-17,-2.775557561562891351e-17,-2.775557561562891351e-17,-2.775557561562891351e-17,-2.775557561562891351e-17,-1.141222186887561052e-02,-2.825883510388241260e-02,-4.564888747550238657e-02,-6.303893984712236054e-02,-8.042899221874230675e-02,-9.727560545374913659e-02,-1.146656578253690550e-01,-1.320557101969890290e-01,-1.489023234319958588e-01,-1.662923758036158051e-01,-1.836824281752357513e-01,-2.005290414102425811e-01,-2.179190937818625273e-01,-2.260706808310593841e-01,-2.260706808310593841e-01,-2.260706808310593841e-01,-2.260706808310593841e-01,-2.260706808310593841e-01
-2.260706808310593841e-01,-2.260706808310593841e-01,-2.260706808310593841e-01,-2.130281415523444244e-01,-1.956380891807244782e-01,-1.787914759457176483e-01,-1.614014235740977021e-01,-1.440113712024777559e-01,-1.266213188308577819e-01,-1.097747055958509660e-01,-9.238465322423103365e-02,-7.499460085261103193e-02,-5.814798761760422985e-02,-4.075793524598428363e-02,-2.336788287436433742e-02,-6.521269639357479830e-03,-2.775557561562891351e-17,-2.775557561562891351e-17,-2.775557561562891351e-17,-2.775557561562891351e-17,-2.775557561562891351e-17,-2.775557561562891351e-17,-2.775557561562891351e-17,-2.775557561562891351e-17,-2.775557561562891351e-17,-2.775557561562891351e-17,-2.775557561562891351e-17,-5.523442218249879909e-03,-5.523442218249879909e-03,-1.421846840405985302e-02,-2.608507855742997483e-02,-4.347513092904992105e-02,-6.032174416405675088e-02,-7.771179653567666934e-02,-9.510184890729664331e-02,-1.124919012789165895e-01,-1.293385145139234194e-01,-1.467285668855433656e-01,-1.641186192571633118e-01,-1.809652324921701416e-01,-1.983552848637900878e-01,-2.157453372354100340e-01,-2.260706808310593841e-01,-2.260706808310593841e-01,-2.260706808310593841e-01,-2.260706808310593841e-01,-2.260706808310593841e-01
-2.260706808310593841e-01,-2.260706808310593841e-01,-2.260706808310593841e-01,-2.152018980987969177e-01,-1.983552848637900878e-01,-1.809652324921701416e-01,-1.635751801205501677e-01,-1.461851277489302492e-01,-1.293385145139234194e-01,-1.119484621423034593e-01,-9.455840977068349917e-02,-7.771179653567666934e-02,-6.032174416405675088e-02,-4.293169179243677691e-02,-2.608507855742994708e-02,-8.695026185810000863e-03,0.000000000000000000e+00,-2.775557561562891351e-17,-2.775557561562891351e-17,-2.775557561562891351e-17,-2.775557561562891351e-17,-2.775557561562891351e-17,-2.775557561562891351e-17,-2.775557561562891351e-17,-2.775557561562891351e-17,-2.775557561562891351e-17,-2.775557561562891351e-17,-5.523442218249879909e-03,-5.523442218249879909e-03,-1.204471185760735974e-02,-2.391132201097745380e-02,-4.075793524598428363e-02,-5.814798761760422985e-02,-7.553803998922417606e-02,-9.292809236084412228e-02,-1.097747055958509660e-01,-1.271647579674708983e-01,-1.445548103390908723e-01,-1.614014235740977021e-01,-1.787914759457176483e-01,-1.961815283173375946e-01,-2.135715806889575408e-01,-2.260706808310593841e-01,-2.260706808310593841e-01,-2.260706808310593841e-01,-2.260706808310593841e-01,-2.260706808310593841e-01
-2.260706808310593841e-01,-2.260706808310593841e-01,-2.260706808310593841e-01,-2.179190937818625273e-01,-2.005290414102425811e-01,-1.831389890386226349e-01,-1.662923758036158051e-01,-1.489023234319958588e-01,-1.315122710603759126e-01,-1.141222186887559525e-01,-9.727560545374913659e-02,-7.988555308212916262e-02,-6.249550071050921640e-02,-4.564888747550238657e-02,-2.825883510388241260e-02,-1.086878273226249414e-02,-2.775557561562891351e-17,-2.775557561562891351e-17,-2.775557561562891351e-17,0.000000000000000000e+00,-5.551115123125782702e-17,-2.775557561562891351e-17,-2.775557561562891351e-17,-2.775557561562891351e-17,-2.775557561562891351e-17,-2.775557561562891351e-17,-2.775557561562891351e-17,-5.523442218249879909e-03,-5.523442218249879909e-03,-9.870955311154866463e-03,-2.119412632791181639e-02,-3.858417869953179036e-02,-5.597423107115176433e-02,-7.336428344277168279e-02,-9.021089667777851262e-02,-1.076009490493984588e-01,-1.249910014210184189e-01,-1.418376146560252349e-01,-1.592276670276451811e-01,-1.766177193992651551e-01,-1.934643326342719849e-01,-2.108543850058919311e-01,-2.260706808310593841e-01,-2.260706808310593841e-01,-2.260706808310593841e-01,-2.260706808310593841e-01,-2.260706808310593841e-01
-2.260706808310593841e-01,-2.260706808310593841e-01,-2.260706808310593841e-01,-2.200928503283150206e-01,-2.027027979566950744e-01,-1.858561847216882446e-01,-1.684661323500682983e-01,-1.510760799784483521e-01,-1.336860276068284059e-01,-1.168394143718215761e-01,-9.944936200020162986e-02,-8.205930962858165589e-02,-6.521269639357485381e-02,-4.782264402195490760e-02,-3.043259165033490588e-02,-1.304253927871498742e-02,-2.775557561562891351e-17,-2.775557561562891351e-17,-2.775557561562891351e-17,-2.775557561562891351e-17,-2.775557561562891351e-17,-2.775557561562891351e-17,-2.775557561562891351e-17,-2.775557561562891351e-17,0.000000000000000000e+00,0.000000000000000000e+00,-2.775557561562891351e-17,-5.551115123125782702e-17,-2.775557561562891351e-17,-1.630317409839404652e-03,-1.902036978145932311e-02,-3.641042215307929708e-02,-5.380047452469929881e-02,-7.064708775970607313e-02,-8.803714013132604710e-02,-1.054271925029459794e-01,-1.222738057379528093e-01,-1.396638581095727694e-01,-1.570539104811927156e-01,-1.739005237161995177e-01,-1.945512109074982177e-01,-2.130281415523444244e-01,-2.260706808310593841e-01,-2.260706808310593841e-01,-2.260706808310593841e-01,-2.260706808310593841e-01,-2.260706808310593841e-01
-2.260706808310593841e-01,-2.260706808310593841e-01,-2.260706808310593841e-01,-2.222666068747675139e-01,-2.054199936397606840e-01,-1.880299412681407378e-01,-1.706398888965207916e-01,-1.532498365249008454e-01,-1.364032232898940156e-01,-1.190131709182740555e-01,-1.016231185466541231e-01,-8.477650531164732106e-02,-6.738645294002731934e-02,-4.999640056840737312e-02,-3.314978733340054329e-02,-1.575973496178065258e-02,-2.775557561562891351e-17,-2.775557561562891351e-17,0.000000000000000000e+00,-2.775557561562891351e-17,-2.775557561562891351e-17,0.000000000000000000e+00,-2.775557561562891351e-17,-2.775557561562891351e-17,-2.775557561562891351e-17,-2.775557561562891351e-17,-2.775557561562891351e-17,-2.775557561562891351e-17,-2.775557561562891351e-17,-2.775557561562891351e-17,-1.684661323500685759e-02,-3.423666560662680380e-02,-5.108327884163363364e-02,-9.309791709103573676e-02,-1.252966859353633056e-01,-1.528252746994218370e-01,-1.797085294887522944e-01,-1.983892498098284163e-01,-2.126205621998845663e-01,-2.243724335291433780e-01,-2.260706808310593841e-01,-2.260706808310593841e-01,-2.260706808310593841e-01,-2.260706808310593841e-01,-2.260706808310593841e-01,-2.260706808310593841e-01,-2.260706808310593841e-01
-2.260706808310593841e-01,-2.260706808310593841e-01,-2.260706808310593841e-01,-2.249838025578331235e-01,-2.075937501862131773e-01,-1.902036978145932311e-01,-1.728136454429732849e-01,-1.559670322079664828e-01,-1.385769798363465366e-01,-1.211869274647265626e-01,-1.043403142297197328e-01,-8.695026185809978658e-02,-6.956020948647981261e-02,-5.271359625147301053e-02,-3.532354387985306432e-02,-1.793349150823311811e-02,-5.434391366131441359e-04,-2.775557561562891351e-17,-2.775557561562891351e-17,-2.775557561562891351e-17,-2.775557561562891351e-17,-2.775557561562891351e-17,-2.775557561562891351e-17,-2.775557561562891351e-17,-2.775557561562891351e-17,-1.412941755194122018e-02,-4.238825265582366053e-02,-7.771179653567669710e-02,-1.059706316395591097e-01,-1.342294667434415223e-01,-1.730853650112798570e-01,-2.017517794676220999e-01,-2.260706808310593841e-01,-2.260706808310593841e-01,-2.260706808310593841e-01,-2.260706808310593841e-01,-2.260706808310593841e-01,-2.260706808310593841e-01,-2.260706808310593841e-01,-2.260706808310593841e-01,-2.260706808310593841e-01,-2.260706808310593841e-01,-2.260706808310593841e-01,-2.260706808310593841e-01,-2.260706808310593841e-01,-2.260706808310593841e-01,-2.260706808310593841e-01
