1.130888599536582738e-02,1.130888599536582738e-02,1.130888599536582738e-02,1.130888599536582738e-02,1.130888599536582738e-02,1.130888599536582738e-02,1.130888599536582738e-02,1.130888599536582738e-02,1.130888599536582738e-02,1.130888599536582738e-02,1.130888599536582738e-02,1.130888599536582738e-02,1.130888599536582738e-02,1.130888599536582738e-02,2.844356174592010261e-03,-6.271291324702868777e-03,-1.538693882399774955e-02,-2.450258632329262859e-02,-3.361823382258750242e-02,-4.273388132188238320e-02,-5.152396998191673821e-02,-6.063961748121161205e-02,-6.975526498050650670e-02,-7.887091247980138053e-02,-8.798655997909625437e-02,-9.710220747839114208e-02,-1.058922961384255040e-01,-1.150079436377203362e-01,-1.241235911370152517e-01,-1.332392386363101255e-01,-7.032499294921243371e-02,1.542120817549884684e-03,1.130888599536582738e-02,1.130888599536582738e-02,1.130888599536582738e-02,1.130888599536582738e-02,1.130888599536582738e-02,1.130888599536582738e-02,1.130888599536582738e-02,1.130888599536582738e-02,1.130888599536582738e-02,1.130888599536582738e-02,1.130888599536582738e-02,1.130888599536582738e-02,1.130888599536582738e-02,1.130888599536582738e-02,1.130888599536582738e-02
1.130888599536582738e-02,1.130888599536582738e-02,1.130888599536582738e-02,1.130888599536582738e-02,1.130888599536582738e-02,1.130888599536582738e-02,1.130888599536582738e-02,1.130888599536582738e-02,1.130888599536582738e-02,1.130888599536582738e-02,1.130888599536582738e-02,1.130888599536582738e-02,1.130888599536582738e-02,6.751062245718386992e-03,-2.364585253576492047e-03,-1.148023275287137802e-02,-2.059588025216625012e-02,-2.971152775146113784e-02,-3.850161641149547204e-02,-4.761726391079035281e-02,-5.673291141008524746e-02,-6.584855890938012823e-02,-7.496420640867501595e-02,-8.407985390796987590e-02,-9.286994256800422398e-02,-1.019855900672991117e-01,-1.111012375665939855e-01,-1.202168850658888594e-01,-1.293325325651837332e-01,-1.384481800644786487e-01,-1.449593568496892471e-01,-1.296104355875130343e-01,-5.357263465134238373e-02,1.130888599536582738e-02,1.130888599536582738e-02,1.130888599536582738e-02,1.130888599536582738e-02,1.130888599536582738e-02,1.130888599536582738e-02,1.130888599536582738e-02,1.130888599536582738e-02,1.130888599536582738e-02,1.130888599536582738e-02,1.130888599536582738e-02,1.130888599536582738e-02,1.130888599536582738e-02,1.130888599536582738e-02
1.130888599536582738e-02,1.130888599536582738e-02,1.130888599536582738e-02,1.130888599536582738e-02,1.130888599536582738e-02,1.130888599536582738e-02,1.130888599536582738e-02,1.130888599536582738e-02,1.130888599536582738e-02,1.130888599536582738e-02,1.130888599536582738e-02,1.130888599536582738e-02,1.065776831684476372e-02,1.542120817549884684e-03,-7.573526681744999559e-03,-1.668917418103987166e-02,-2.580482168033475243e-02,-3.459491034036910051e-02,-4.371055783966397434e-02,-5.282620533895885512e-02,-6.194185283825374283e-02,-7.105750033754863748e-02,-8.017314783684349744e-02,-8.896323649687784552e-02,-9.807888399617273323e-02,-1.071945314954676209e-01,-1.163101789947624948e-01,-1.254258264940573686e-01,-1.345414739933522563e-01,-1.433315626533865905e-01,-1.449593568496892471e-01,-1.400759742607812497e-01,-1.328794104455484626e-01,-9.999689676300040075e-02,-2.925210425789939034e-02,1.130888599536582738e-02,1.130888599536582738e-02,1.130888599536582738e-02,1.130888599536582738e-02,1.130888599536582738e-02,1.130888599536582738e-02,1.130888599536582738e-02,1.130888599536582738e-02,1.130888599536582738e-02,1.130888599536582738e-02,1.130888599536582738e-02,1.130888599536582738e-02
1.130888599536582738e-02,1.130888599536582738e-02,1.130888599536582738e-02,1.130888599536582738e-02,1.130888599536582738e-02,1.130888599536582738e-02,1.130888599536582738e-02,1.130888599536582738e-02,1.130888599536582738e-02,1.130888599536582738e-02,1.130888599536582738e-02,1.130888599536582738e-02,5.448826888676261415e-03,-3.666820610618619358e-03,-1.278246810991349493e-02,-2.189811560920837397e-02,-3.068820426924272204e-02,-3.980385176853760282e-02,-4.891949926783247665e-02,-5.803514676712736436e-02,-6.715079426642225902e-02,-7.626644176571713285e-02,-8.505653042575146705e-02,-9.417217792504635476e-02,-1.032878254243412425e-01,-1.124034729236361024e-01,-1.215191204229310179e-01,-1.306347679222258917e-01,-1.394248565822602259e-01,-1.449593568496892471e-01,-1.431602158958810433e-01,-1.359636520806482562e-01,-1.287670882654154414e-01,-1.215705244501826404e-01,-1.146309807712081602e-01,-7.032713478368125826e-02,-9.606127592654499156e-03,1.130888599536582738e-02,1.130888599536582738e-02,1.130888599536582738e-02,1.130888599536582738e-02,1.130888599536582738e-02,1.130888599536582738e-02,1.130888599536582738e-02,1.130888599536582738e-02,1.130888599536582738e-02,1.130888599536582738e-02
1.130888599536582738e-02,1.130888599536582738e-02,1.130888599536582738e-02,1.130888599536582738e-02,1.130888599536582738e-02,1.130888599536582738e-02,1.130888599536582738e-02,1.130888599536582738e-02,1.130888599536582738e-02,1.130888599536582738e-02,1.130888599536582738e-02,9.355532959802638146e-03,2.398854605077591073e-04,-8.875762038787123401e-03,-1.799140953808199550e-02,-2.678149819811635052e-02,-3.589714569741122435e-02,-4.501279319670609819e-02,-5.412844069600098590e-02,-6.324408819529588055e-02,-7.235973569459075438e-02,-8.114982435462508858e-02,-9.026547185391996242e-02,-9.938111935321486401e-02,-1.084967668525097378e-01,-1.176124143518046256e-01,-1.267280618510994994e-01,-1.355181505111338336e-01,-1.446337980104287213e-01,-1.449593568496892471e-01,-1.390478937157480221e-01,-1.318513299005152073e-01,-1.246547660852824341e-01,-1.177152224063079539e-01,-1.105186585910751529e-01,-1.033220947758423519e-01,-9.612553096060955093e-02,-4.507490639630186424e-02,5.493805412521466681e-03,1.130888599536582738e-02,1.130888599536582738e-02,1.130888599536582738e-02,1.130888599536582738e-02,1.130888599536582738e-02,1.130888599536582738e-02,1.130888599536582738e-02,1.130888599536582738e-02
1.130888599536582738e-02,1.130888599536582738e-02,1.130888599536582738e-02,1.130888599536582738e-02,1.130888599536582738e-02,1.130888599536582738e-02,1.130888599536582738e-02,1.130888599536582738e-02,1.130888599536582738e-02,1.130888599536582738e-02,1.130888599536582738e-02,4.146591531634135838e-03,-4.969055967660744935e-03,-1.375914462769509301e-02,-2.287479212698996511e-02,-3.199043962628485283e-02,-4.110608712557972666e-02,-5.022173462487460743e-02,-5.933738212416949515e-02,-6.812747078420385016e-02,-7.724311828349872400e-02,-8.635876578279359783e-02,-9.547441328208847167e-02,-1.045900607813833733e-01,-1.137057082806782332e-01,-1.224957969407125952e-01,-1.316114444400074690e-01,-1.407270919393023290e-01,-1.449593568496892748e-01,-1.421321353508477880e-01,-1.349355715356149732e-01,-1.279960278566404930e-01,-1.207994640414076920e-01,-1.136029002261749188e-01,-1.064063364109421178e-01,-9.920977259570933071e-02,-9.201320878047652974e-02,-8.507366510150204952e-02,-7.230297708116704969e-02,-2.456148677118515783e-02,1.130888599536582738e-02,1.130888599536582738e-02,1.130888599536582738e-02,1.130888599536582738e-02,1.130888599536582738e-02,1.130888599536582738e-02,1.130888599536582738e-02
1.130888599536582738e-02,1.130888599536582738e-02,1.130888599536582738e-02,1.130888599536582738e-02,1.130888599536582738e-02,1.130888599536582738e-02,1.130888599536582738e-02,1.130888599536582738e-02,1.130888599536582738e-02,1.130888599536582738e-02,8.053297602760512569e-03,-1.062349896534366470e-03,-9.852438556568718017e-03,-1.896808605586359359e-02,-2.808373355515847436e-02,-3.719938105445335513e-02,-4.631502855374822897e-02,-5.543067605304311668e-02,-6.422076471307747170e-02,-7.333641221237234553e-02,-8.245205971166720549e-02,-9.156770721096209320e-02,-1.006833547102569809e-01,-1.097990022095518547e-01,-1.185890908695862028e-01,-1.277047383688811044e-01,-1.368203858681759921e-01,-1.449593568496892471e-01,-1.449593568496892471e-01,-1.380198131707147668e-01,-1.310802694917402589e-01,-1.238837056765074857e-01,-1.166871418612746708e-01,-1.094905780460418976e-01,-1.022940142308090966e-01,-9.509745041557629563e-02,-8.815790673660180155e-02,-8.096134292136901445e-02,-7.376477910613621347e-02,-6.656821529090339862e-02,-4.611905069985126199e-02,-1.051372994881666530e-02,1.130888599536582738e-02,1.130888599536582738e-02,1.130888599536582738e-02,1.130888599536582738e-02,1.130888599536582738e-02
1.130888599536582738e-02,1.130888599536582738e-02,1.130888599536582738e-02,1.130888599536582738e-02,1.130888599536582738e-02,1.130888599536582738e-02,1.130888599536582738e-02,1.130888599536582738e-02,1.130888599536582738e-02,1.130888599536582738e-02,2.844356174592010261e-03,-5.945732485442339552e-03,-1.506137998473721686e-02,-2.417702748403210283e-02,-3.329267498332697667e-02,-4.240832248262185050e-02,-5.152396998191672434e-02,-6.031405864195108629e-02,-6.942970614124598094e-02,-7.854535364054084090e-02,-8.766100113983572861e-02,-9.677664863913060245e-02,-1.058922961384254902e-01,-1.146823847984598382e-01,-1.237980322977547259e-01,-1.329136797970495998e-01,-1.420293272963444597e-01,-1.449593568496892471e-01,-1.411040548058145327e-01,-1.341645111268400248e-01,-1.269679473116072654e-01,-1.197713834963744367e-01,-1.125748196811416774e-01,-1.053782558659088625e-01,-9.818169205067604766e-02,-9.124214837170158132e-02,-8.404558455646876647e-02,-7.684902074123597937e-02,-6.965245692600317839e-02,-6.245589311077035660e-02,-5.525932929553756950e-02,-4.831978561656308929e-02,-2.637669148350950399e-02,1.413610749420727772e-03,1.130888599536582738e-02,1.130888599536582738e-02,1.130888599536582738e-02
1.130888599536582738e-02,1.130888599536582738e-02,1.130888599536582738e-02,-1.371917854765640488e-01,-1.371917854765640488e-01,-1.371917854765640488e-01,-1.371917854765640488e-01,1.130888599536582738e-02,1.130888599536582738e-02,6.751062245718386992e-03,-2.039026414315961086e-03,-1.115467391361084186e-02,-2.027032141290571049e-02,-2.938596891220059820e-02,-3.850161641149547204e-02,-4.761726391079034587e-02,-5.640735257082470783e-02,-6.552300007011960248e-02,-7.463864756941447631e-02,-8.375429506870933627e-02,-9.286994256800422398e-02,-1.019855900672991117e-01,-1.107756787273334459e-01,-1.198913262266283336e-01,-1.290069737259232074e-01,-1.381226212252180674e-01,-1.449593568496892471e-01,-1.441882964409142986e-01,-1.372487527619397907e-01,-1.300521889467070313e-01,-1.228556251314742304e-01,-1.156590613162414433e-01,-1.084624975010086284e-01,-1.012659336857758413e-01,-9.432639000680134722e-02,-8.712982619156854625e-02,-7.993326237633575915e-02,-7.273669856110294429e-02,-6.554013474587014332e-02,-5.834357093063733540e-02,-5.140402725166285519e-02,-4.420746343643005422e-02,-3.701089962119726018e-02,-2.981433580596445226e-02,-8.835067183879550742e-03,8.802939666847264116e-03,1.130888599536582738e-02
1.130888599536582738e-02,1.130888599536582738e-02,1.130888599536582738e-02,-1.371917854765640488e-01,-1.371917854765640488e-01,-1.371917854765640488e-01,-1.371917854765640488e-01,1.130888599536582738e-02,1.098332715610529642e-02,1.867679656810415645e-03,-7.247967842484466863e-03,-1.636361534177933896e-02,-2.547926284107421974e-02,-3.459491034036910051e-02,-4.338499900040344859e-02,-5.250064649969832936e-02,-6.161629399899321707e-02,-7.073194149828811172e-02,-7.984758899758297168e-02,-8.896323649687784552e-02,-9.775332515691219359e-02,-1.068689726562070813e-01,-1.159846201555019690e-01,-1.251002676547968429e-01,-1.342159151540917306e-01,-1.433315626533866183e-01,-1.449593568496892471e-01,-1.403329943970396121e-01,-1.331364305818067972e-01,-1.259398667665739824e-01,-1.187433029513411814e-01,-1.115467391361084082e-01,-1.046071954571339141e-01,-9.741063164190112700e-02,-9.021406782666831214e-02,-8.301750401143552505e-02,-7.582094019620272407e-02,-6.862437638096989534e-02,-6.168483270199542207e-02,-5.448826888676262109e-02,-4.729170507152982705e-02,-4.009514125629703302e-02,-3.289857744106422510e-02,-2.570201362583142413e-02,-1.876246994685694391e-02,-1.085106887765570523e-02,3.959716474229654087e-03
1.130888599536582738e-02,1.130888599536582738e-02,1.130888599536582738e-02,-1.371917854765640488e-01,-1.371917854765640488e-01,-1.371917854765640488e-01,-1.371917854765640488e-01,1.130888599536582738e-02,5.774385727936792376e-03,-3.341261771358088398e-03,-1.245690927065296570e-02,-2.157255676994784127e-02,-3.068820426924272898e-02,-3.947829292927706318e-02,-4.859394042857194396e-02,-5.770958792786682473e-02,-6.682523542716171938e-02,-7.594088292645659322e-02,-8.505653042575146705e-02,-9.384661908578581513e-02,-1.029622665850807028e-01,-1.120779140843755767e-01,-1.211935615836704644e-01,-1.303092090829653382e-01,-1.394248565822602259e-01,-1.449593568496892471e-01,-1.434172360321393502e-01,-1.362206722169065354e-01,-1.290241084016737760e-01,-1.218275445864409751e-01,-1.146309807712081602e-01,-1.076914370922336939e-01,-1.004948732770008929e-01,-9.329830946176809192e-02,-8.610174564653529095e-02,-7.890518183130248997e-02,-7.170861801606968899e-02,-6.476907433709520878e-02,-5.757251052186238699e-02,-5.037594670662959295e-02,-4.317938289139679892e-02,-3.598281907616399794e-02,-2.878625526093119696e-02,-2.184671158195670981e-02,-1.465014776672391751e-02,-7.453583951491116535e-03,-2.570201362583155597e-04
1.130888599536582738e-02,1.130888599536582738e-02,1.130888599536582738e-02,-1.371917854765640488e-01,-1.371917854765640488e-01,-1.371917854765640488e-01,-1.371917854765640488e-01,9.681091799063170841e-03,5.654442997682900679e-04,-8.550203199526590706e-03,-1.766585069882146974e-02,-2.678149819811635052e-02,-3.557158685815069860e-02,-4.468723435744556549e-02,-5.380288185674046014e-02,-6.291852935603535479e-02,-7.203417685533022863e-02,-8.114982435462508858e-02,-8.993991301465943666e-02,-9.905556051395432438e-02,-1.081712080132492121e-01,-1.172868555125440720e-01,-1.264025030118389736e-01,-1.355181505111338336e-01,-1.443082391711681678e-01,-1.449593568496892471e-01,-1.393049138520063290e-01,-1.321083500367735142e-01,-1.249117862215407410e-01,-1.177152224063079539e-01,-1.107756787273334598e-01,-1.035791149121006727e-01,-9.638255109686787170e-02,-8.918598728163507072e-02,-8.198942346640226975e-02,-7.479285965116945489e-02,-6.785331597219496080e-02,-6.065675215696216677e-02,-5.346018834172936579e-02,-4.626362452649657175e-02,-3.906706071126377772e-02,-3.187049689603096980e-02,-2.493095321705648265e-02,-1.773438940182368168e-02,-1.053782558659088937e-02,-3.341261771358086663e-03,3.855302043874713445e-03
1.130888599536582738e-02,1.130888599536582738e-02,1.130888599536582738e-02,1.130888599536582738e-02,1.130888599536582738e-02,1.130888599536582738e-02,1.130888599536582738e-02,4.472150370894666799e-03,-4.643497128400212240e-03,-1.375914462769509301e-02,-2.287479212698997205e-02,-3.166488078702432013e-02,-4.078052828631919396e-02,-4.989617578561406780e-02,-5.901182328490896939e-02,-6.812747078420385016e-02,-7.724311828349872400e-02,-8.603320694353307208e-02,-9.514885444282795979e-02,-1.042645019421228336e-01,-1.133801494414177075e-01,-1.224957969407125952e-01,-1.316114444400074690e-01,-1.404015331000418310e-01,-1.449593568496892748e-01,-1.423891554871060949e-01,-1.351925916718733078e-01,-1.279960278566404930e-01,-1.207994640414077198e-01,-1.138599203624332118e-01,-1.066633565472004386e-01,-9.946679273196763760e-02,-9.227022891673485050e-02,-8.507366510150203565e-02,-7.787710128626924855e-02,-7.093755760729474058e-02,-6.374099379206193960e-02,-5.654442997682913169e-02,-4.934786616159633765e-02,-4.215130234636354362e-02,-3.495473853113073570e-02,-2.801519485215625549e-02,-2.081863103692345451e-02,-1.362206722169065874e-02,-6.425503406457857766e-03,7.710604087749432095e-04,7.967624224007742451e-03
1.130888599536582738e-02,1.130888599536582738e-02,1.130888599536582738e-02,1.130888599536582738e-02,1.130888599536582738e-02,1.130888599536582738e-02,8.378856442021045264e-03,-7.367910572738372438e-04,-9.852438556568718017e-03,-1.864252721660306089e-02,-2.775817471589794166e-02,-3.687382221519282244e-02,-4.598946971448769627e-02,-5.510511721378259092e-02,-6.422076471307748557e-02,-7.301085337311181978e-02,-8.212650087240669361e-02,-9.124214837170156744e-02,-1.003577958709964552e-01,-1.094734433702913290e-01,-1.185890908695862028e-01,-1.273791795296205509e-01,-1.364948270289154664e-01,-1.449593568496892748e-01,-1.449593568496892471e-01,-1.382768333069730460e-01,-1.310802694917402589e-01,-1.241407258127658203e-01,-1.169441619975330054e-01,-1.097475981823002045e-01,-1.025510343670674035e-01,-9.535447055183458864e-02,-8.815790673660181542e-02,-8.121836305762732133e-02,-7.402179924239452036e-02,-6.682523542716171938e-02,-5.962867161192889759e-02,-5.243210779669611049e-02,-4.523554398146330952e-02,-3.829600030248882930e-02,-3.109943648725602833e-02,-2.390287267202322735e-02,-1.670630885679042638e-02,-9.509745041557630604e-03,-2.313181226324827894e-03,4.626362452649656655e-03,1.130888599536582738e-02
1.130888599536582738e-02,1.130888599536582738e-02,1.130888599536582738e-02,1.130888599536582738e-02,1.130888599536582738e-02,1.130888599536582738e-02,3.169915013852541222e-03,-5.945732485442339552e-03,-1.473582114547668416e-02,-2.385146864477156320e-02,-3.296711614406644397e-02,-4.208276364336132475e-02,-5.119841114265619858e-02,-6.031405864195108629e-02,-6.910414730198544131e-02,-7.821979480128031514e-02,-8.733544230057517510e-02,-9.645108979987006281e-02,-1.055667372991649505e-01,-1.146823847984598382e-01,-1.234724734584942002e-01,-1.325881209577890740e-01,-1.417037684570839340e-01,-1.449593568496892471e-01,-1.413610749420728396e-01,-1.341645111268400248e-01,-1.272249674478655723e-01,-1.200284036326327713e-01,-1.128318398173999704e-01,-1.056352760021671694e-01,-9.843871218693438230e-02,-9.124214837170158132e-02,-8.430260469272710111e-02,-7.710604087749430013e-02,-6.990947706226148528e-02,-6.271291324702868430e-02,-5.551634943179587639e-02,-4.831978561656308235e-02,-4.138024193758860214e-02,-3.418367812235579423e-02,-2.698711430712300019e-02,-1.979055049189019921e-02,-1.259398667665739997e-02,-5.397422861424598997e-03,1.542120817549884684e-03,8.738684632782683925e-03,1.130888599536582738e-02
1.130888599536582738e-02,1.130888599536582738e-02,1.130888599536582738e-02,1.130888599536582738e-02,1.130888599536582738e-02,7.076621084978918820e-03,-2.039026414315961086e-03,-1.082911507435030916e-02,-1.994476257364518473e-02,-2.906041007294007245e-02,-3.817605757223494628e-02,-4.729170507152982011e-02,-5.640735257082470783e-02,-6.519744123085906284e-02,-7.431308873015393668e-02,-8.342873622944881051e-02,-9.254438372874369823e-02,-1.016600312280385859e-01,-1.107756787273334459e-01,-1.195657673873678079e-01,-1.286814148866626817e-01,-1.377970623859575694e-01,-1.449593568496892471e-01,-1.444453165771726333e-01,-1.372487527619398184e-01,-1.303092090829653382e-01,-1.231126452677325372e-01,-1.159160814524997224e-01,-1.087195176372669492e-01,-1.015229538220341482e-01,-9.432639000680136110e-02,-8.738684632782686701e-02,-8.019028251259406603e-02,-7.299371869736125118e-02,-6.579715488212845020e-02,-5.860059106689564229e-02,-5.140402725166285519e-02,-4.446448357268837498e-02,-3.726791975745556706e-02,-3.007135594222277303e-02,-2.287479212698997205e-02,-1.567822831175717108e-02,-8.481664496524371835e-03,-1.542120817549884684e-03,5.654442997682913689e-03,1.130888599536582738e-02,1.130888599536582738e-02
1.130888599536582738e-02,1.130888599536582738e-02,1.130888599536582738e-02,1.130888599536582738e-02,1.098332715610529642e-02,2.193238496070946605e-03,-6.922409003223934168e-03,-1.603805650251880627e-02,-2.515370400181369398e-02,-3.426935150110856781e-02,-4.338499900040344859e-02,-5.250064649969832936e-02,-6.129073515973269132e-02,-7.040638265902757209e-02,-7.952203015832244593e-02,-8.863767765761731976e-02,-9.775332515691219359e-02,-1.068689726562070813e-01,-1.156590613162414155e-01,-1.247747088155363032e-01,-1.338903563148312048e-01,-1.430060038141260370e-01,-1.449593568496892471e-01,-1.403329943970395843e-01,-1.333934507180651041e-01,-1.261968869028322893e-01,-1.190003230875995160e-01,-1.118037592723667151e-01,-1.046071954571339141e-01,-9.741063164190111312e-02,-9.047108796292663291e-02,-8.327452414769383193e-02,-7.607796033246103096e-02,-6.888139651722822998e-02,-6.168483270199542207e-02,-5.448826888676262109e-02,-4.754872520778814782e-02,-4.035216139255533990e-02,-3.315559757732253893e-02,-2.595903376208973795e-02,-1.876246994685694391e-02,-1.156590613162414120e-02,-4.626362452649654053e-03,2.570201362583143453e-03,9.766765177815942695e-03,1.130888599536582738e-02,1.130888599536582738e-02
1.130888599536582738e-02,1.130888599536582738e-02,1.130888599536582738e-02,1.130888599536582738e-02,6.099944567197324204e-03,-3.015702932097555702e-03,-1.213135043139243648e-02,-2.124699793068730858e-02,-3.036264542998219629e-02,-3.947829292927706318e-02,-4.826838158931141820e-02,-5.738402908860629897e-02,-6.649967658790119363e-02,-7.561532408719606746e-02,-8.473097158649095517e-02,-9.384661908578582901e-02,-1.026367077458201910e-01,-1.117523552451150509e-01,-1.208680027444099386e-01,-1.299836502437048125e-01,-1.390992977429997002e-01,-1.449593568496892471e-01,-1.436742561683976849e-01,-1.364776923531648700e-01,-1.292811285379320829e-01,-1.220845647226992819e-01,-1.148880009074664948e-01,-1.076914370922336939e-01,-1.007518934132591998e-01,-9.355532959802641269e-02,-8.635876578279362559e-02,-7.916220196756081073e-02,-7.196563815232799588e-02,-6.476907433709519490e-02,-5.782953065812069388e-02,-5.063296684288790678e-02,-1.925702532107720077e-01,-1.853736893955391929e-01,-1.781771255803064058e-01,-1.709805617650735909e-01,-1.490716790298223134e-02,-7.710604087749430360e-03,-5.140402725166293846e-04,6.682523542716170724e-03,1.130888599536582738e-02,1.130888599536582738e-02,1.130888599536582738e-02
1.130888599536582738e-02,1.130888599536582738e-02,1.130888599536582738e-02,1.000665063832370180e-02,8.910031390288210285e-04,-8.224644360266058010e-03,-1.734029185956093705e-02,-2.645593935885581782e-02,-3.557158685815069860e-02,-4.436167551818503973e-02,-5.347732301747992051e-02,-6.259297051677481516e-02,-7.170861801606968899e-02,-8.082426551536456283e-02,-8.993991301465943666e-02,-9.873000167469379862e-02,-1.078456491739886863e-01,-1.169612966732835463e-01,-1.260769441725784201e-01,-1.351925916718733078e-01,-1.443082391711681955e-01,-1.449593568496892471e-01,-1.395619339882646359e-01,-1.323653701730318488e-01,-1.251688063577990340e-01,-1.179722425425662607e-01,-1.107756787273334598e-01,-1.038361350483589657e-01,-9.663957123312617858e-02,-8.944300741789337761e-02,-8.224644360266057663e-02,-7.504987978742777566e-02,-6.785331597219497468e-02,-6.091377229322047365e-02,-5.371720847798768655e-02,-4.652064466275488558e-02,-1.884579310306389588e-01,-1.812613672154061717e-01,-1.740648034001733846e-01,-1.671252597211988766e-01,-1.079484572284920320e-02,-3.598281907616400488e-03,3.598281907616400488e-03,1.079484572284919799e-02,1.130888599536582738e-02,1.130888599536582738e-02,1.130888599536582738e-02
1.130888599536582738e-02,1.130888599536582738e-02,1.130888599536582738e-02,4.797709210155198627e-03,-4.317938289139683014e-03,-1.343358578843456379e-02,-2.254923328772943242e-02,-3.166488078702432013e-02,-4.045496944705866127e-02,-4.957061694635354204e-02,-5.868626444564842976e-02,-6.780191194494332441e-02,-7.691755944423821212e-02,-8.603320694353307208e-02,-9.482329560356742015e-02,-1.039389431028623079e-01,-1.130545906021571678e-01,-1.221702381014520694e-01,-1.312858856007469432e-01,-1.404015331000418032e-01,-1.449593568496892471e-01,-1.426461756233644018e-01,-1.354496118081316147e-01,-1.282530479928988276e-01,-1.210564841776660266e-01,-1.138599203624332118e-01,-1.069203766834587455e-01,-9.972381286822594448e-02,-9.252724905299315739e-02,-8.533068523776037029e-02,-7.813412142252755543e-02,-7.093755760729474058e-02,-6.399801392832026037e-02,-5.680145011308745245e-02,-4.960488629785465148e-02,-4.240832248262185744e-02,-1.843456088505059376e-01,-1.771490450352731505e-01,-1.702095013562986425e-01,-1.630129375410658554e-01,-6.682523542716171591e-03,5.140402725166276499e-04,7.710604087749427758e-03,1.130888599536582738e-02,1.130888599536582738e-02,1.130888599536582738e-02,1.130888599536582738e-02
1.130888599536582738e-02,1.130888599536582738e-02,8.704415281281576225e-03,-4.112322180133062832e-04,-9.526879717308185322e-03,-1.864252721660306089e-02,-2.743261587663741591e-02,-3.654826337593228974e-02,-4.566391087522716358e-02,-5.477955837452205129e-02,-6.389520587381694594e-02,-7.301085337311181978e-02,-8.180094203314615398e-02,-9.091658953244104169e-02,-1.000322370317359155e-01,-1.091478845310308032e-01,-1.182635320303256771e-01,-1.273791795296205509e-01,-1.361692681896548851e-01,-1.449593568496892748e-01,-1.449593568496892471e-01,-1.385338534432313806e-01,-1.313372896279985658e-01,-1.241407258127657925e-01,-1.172011821337913123e-01,-1.100046183185585252e-01,-1.028080545033257104e-01,-9.561149068809292328e-02,-8.841492687286012231e-02,-8.121836305762732133e-02,-7.427881937865282724e-02,-6.708225556342002627e-02,-5.988569174818721835e-02,-5.268912793295441738e-02,-4.549256411772163028e-02,-3.829600030248882930e-02,-1.802332866703729164e-01,-1.732937429913984362e-01,-1.660971791761656213e-01,-1.589006153609328342e-01,-2.570201362583143453e-03,4.626362452649656655e-03,1.130888599536582738e-02,1.130888599536582738e-02,1.130888599536582738e-02,1.130888599536582738e-02,1.130888599536582738e-02
1.130888599536582738e-02,1.130888599536582738e-02,3.495473853113073917e-03,-5.620173646181810326e-03,-1.473582114547668763e-02,-2.352590980551103050e-02,-3.264155730480591822e-02,-4.175720480410079205e-02,-5.087285230339566588e-02,-5.998849980269056054e-02,-6.910414730198545519e-02,-7.789423596201978939e-02,-8.700988346131464934e-02,-9.612553096060953706e-02,-1.052411784599044248e-01,-1.143568259591992847e-01,-1.234724734584942002e-01,-1.322625621185285205e-01,-1.413782096178234082e-01,-1.449593568496892471e-01,-1.416180950783311465e-01,-1.344215312630983594e-01,-2.693491558979696499e-01,-2.624096122189951696e-01,-2.552130484037623548e-01,-2.480164845885295954e-01,-9.869573232319268918e-02,-9.149916850795990209e-02,-8.430260469272708723e-02,-7.736306101375260702e-02,-7.016649719851979217e-02,-6.296993338328700507e-02,-5.577336956805418328e-02,-4.857680575282139618e-02,-4.138024193758860214e-02,-3.444069825861411499e-02,-2.724413444338131401e-02,-2.004757062814851304e-02,-1.285100681291571380e-02,-5.654442997682912822e-03,1.542120817549884684e-03,8.481664496524370100e-03,1.130888599536582738e-02,1.130888599536582738e-02,1.130888599536582738e-02,1.130888599536582738e-02,1.130888599536582738e-02
1.130888599536582738e-02,7.402179924239449781e-03,-1.713467575055430125e-03,-1.082911507435031263e-02,-1.961920373438465204e-02,-2.873485123367953975e-02,-3.785049873297441358e-02,-4.696614623226929436e-02,-5.608179373156416819e-02,-6.519744123085906284e-02,-7.398752989089342480e-02,-8.310317739018828476e-02,-9.221882488948317247e-02,-1.013344723887780463e-01,-1.104501198880729201e-01,-1.195657673873678079e-01,-1.283558560474021559e-01,-1.374715035466970159e-01,-1.449593568496892471e-01,-1.447023367134309124e-01,-1.375057728981981253e-01,-1.303092090829653382e-01,-2.654938538540949633e-01,-2.582972900388621484e-01,-2.511007262236293336e-01,-2.439041624083965187e-01,-9.458341014305966798e-02,-8.738684632782686701e-02,-8.044730264885237292e-02,-7.325073883361957194e-02,-6.605417501838677097e-02,-5.885761120315396305e-02,-5.166104738792116208e-02,-4.446448357268836804e-02,-3.752493989371388783e-02,-3.032837607848107991e-02,-2.313181226324827894e-02,-1.593524844801548490e-02,-8.738684632782685660e-03,-1.542120817549884684e-03,5.397422861424598997e-03,1.130888599536582738e-02,1.130888599536582738e-02,1.130888599536582738e-02,1.130888599536582738e-02,1.130888599536582738e-02,1.130888599536582738e-02
1.130888599536582738e-02,2.193238496070946605e-03,-6.596850163963401473e-03,-1.571249766325828051e-02,-2.482814516255316128e-02,-3.394379266184804206e-02,-4.305944016114291589e-02,-5.217508766043778973e-02,-6.096517632047216556e-02,-7.008082381976704633e-02,-7.919647131906192017e-02,-8.831211881835678013e-02,-9.742776631765166784e-02,-1.065434138169465556e-01,-1.156590613162414433e-01,-1.244491499762757775e-01,-1.335647974755706513e-01,-1.426804449748655113e-01,-1.449593568496892471e-01,-1.405900145332978912e-01,-1.333934507180651041e-01,-1.264539070390906239e-01,-2.613815316739619421e-01,-2.541849678587291272e-01,-2.469884040434963124e-01,-2.397918402282634975e-01,-9.047108796292663291e-02,-8.353154428395216657e-02,-7.633498046871933784e-02,-6.913841665348653687e-02,-6.194185283825371507e-02,-5.474528902302092798e-02,-4.754872520778814088e-02,-4.060918152881366067e-02,-3.341261771358085275e-02,-2.621605389834805178e-02,-1.901949008311525774e-02,-1.182292626788245503e-02,-4.626362452649654053e-03,2.313181226324829629e-03,9.509745041557627135e-03,1.130888599536582738e-02,1.130888599536582738e-02,1.130888599536582738e-02,1.130888599536582738e-02,1.130888599536582738e-02,1.130888599536582738e-02
6.099944567197324204e-03,-2.690144092837024742e-03,-1.180579159213190378e-02,-2.092143909142677588e-02,-3.003708659072166359e-02,-3.915273409001653743e-02,-4.826838158931141126e-02,-5.705847024934577322e-02,-6.617411774864066787e-02,-7.528976524793554170e-02,-8.440541274723040166e-02,-9.352106024652528937e-02,-1.026367077458201910e-01,-1.114267964058545252e-01,-1.205424439051494129e-01,-1.296580914044442867e-01,-1.387737389037391744e-01,-1.449593568496892471e-01,-1.436742561683976849e-01,-1.367347124894231769e-01,-1.295381486741903898e-01,-1.223415848589575888e-01,-2.572692094938289209e-01,-2.500726456785961060e-01,-2.428760818633632912e-01,-2.359365381843888110e-01,-8.661578591905191860e-02,-7.941922210381911762e-02,-7.222265828858631664e-02,-6.502609447335351567e-02,-5.782953065812069388e-02,-5.088998697914622060e-02,-4.369342316391342657e-02,-3.649685934868061865e-02,-2.930029553344782461e-02,-2.210373171821502364e-02,-1.490716790298223134e-02,-7.967624224007740716e-03,-7.710604087749414748e-04,6.425503406457856899e-03,1.130888599536582738e-02,1.130888599536582738e-02,1.130888599536582738e-02,1.130888599536582738e-02,1.130888599536582738e-02,1.130888599536582738e-02,1.130888599536582738e-02
1.216561978289351989e-03,-7.899085521005525315e-03,-1.701473302030040435e-02,-2.613038051959528513e-02,-3.524602801889016590e-02,-4.436167551818503973e-02,-5.315176417821939475e-02,-6.226741167751426859e-02,-7.138305917680916324e-02,-8.049870667610403707e-02,-8.961435417539891091e-02,-9.873000167469381250e-02,-1.075200903347281467e-01,-1.166357378340230205e-01,-1.257513853333178944e-01,-1.348670328326127821e-01,-1.439826803319076420e-01,-1.449593568496892471e-01,-1.398189541245229428e-01,-1.326223903092901557e-01,-1.254258264940573686e-01,-1.182292626788245676e-01,-1.110326988635917805e-01,-1.038361350483589796e-01,-9.689659136938448547e-02,-8.970002755415169837e-02,-8.250346373891889740e-02,-7.530689992368609642e-02,-6.811033610845328157e-02,-6.091377229322047365e-02,-5.397422861424597956e-02,-4.677766479901319940e-02,-3.958110098378040537e-02,-3.238453716854759051e-02,-2.518797335331479648e-02,-1.799140953808200244e-02,-1.105186585910751702e-02,-3.855302043874714313e-03,3.341261771358084928e-03,1.053782558659088417e-02,1.130888599536582738e-02,1.130888599536582738e-02,1.130888599536582738e-02,1.130888599536582738e-02,1.130888599536582738e-02,1.130888599536582738e-02,1.130888599536582738e-02
-3.992379449879150319e-03,-1.310802694917402762e-02,-2.222367444846890666e-02,-3.133932194776379437e-02,-4.045496944705866127e-02,-4.924505810709301629e-02,-5.836070560638790400e-02,-6.747635310568278477e-02,-7.659200060497765861e-02,-8.570764810427251856e-02,-9.482329560356742015e-02,-1.036133842636017821e-01,-1.127290317628966421e-01,-1.218446792621915159e-01,-1.309603267614864175e-01,-1.400759742607812774e-01,-1.449593568496892471e-01,-1.429031957596227365e-01,-1.357066319443899216e-01,-1.285100681291571345e-01,-1.213135043139243335e-01,-1.141169404986915464e-01,-1.069203766834587593e-01,-9.998083300448426525e-02,-9.278426918925147815e-02,-8.558770537401866330e-02,-7.839114155878584844e-02,-7.119457774355306134e-02,-6.399801392832026037e-02,-5.705847024934575934e-02,-4.986190643411297224e-02,-4.266534261888016433e-02,-3.546877880364737029e-02,-2.827221498841456931e-02,-2.107565117318176834e-02,-1.413610749420728986e-02,-6.939543678974488886e-03,2.570201362583138249e-04,7.453583951491113066e-03,1.130888599536582738e-02,1.130888599536582738e-02,1.130888599536582738e-02,1.130888599536582738e-02,1.130888599536582738e-02,1.130888599536582738e-02,1.130888599536582738e-02,1.130888599536582738e-02
-9.201320878047656096e-03,-1.831696837734252820e-02,-2.743261587663740897e-02,-3.622270453667175705e-02,-4.533835203596663088e-02,-5.445399953526151166e-02,-6.356964703455640631e-02,-7.268529453385128014e-02,-8.180094203314615398e-02,-9.059103069318050205e-02,-9.970667819247537589e-02,-1.088223256917702636e-01,-1.179379731910651513e-01,-1.270536206903600251e-01,-1.361692681896549406e-01,-1.449593568496892471e-01,-1.449593568496892471e-01,-1.387908735794897153e-01,-1.315943097642569004e-01,-1.243977459490240994e-01,-1.172011821337913123e-01,-1.102616384548168321e-01,-1.030650746395840311e-01,-9.586851082435123017e-02,-8.867194700911844307e-02,-8.147538319388562822e-02,-7.427881937865284112e-02,-6.733927569967833315e-02,-6.014271188444553912e-02,-5.294614806921273814e-02,-4.574958425397994410e-02,-3.855302043874714313e-02,-3.135645662351434215e-02,-2.415989280828154118e-02,-1.722034912930705403e-02,-1.002378531407425825e-02,-2.827221498841455544e-03,4.369342316391341963e-03,1.130888599536582738e-02,1.130888599536582738e-02,1.130888599536582738e-02,1.130888599536582738e-02,1.130888599536582738e-02,1.130888599536582738e-02,1.130888599536582738e-02,1.130888599536582738e-02,1.130888599536582738e-02
-1.441026230621615146e-02,-2.352590980551103050e-02,-3.231599846554538552e-02,-4.143164596484025936e-02,-5.054729346413513319e-02,-5.966294096343002090e-02,-6.877858846272491555e-02,-7.789423596201978939e-02,-8.668432462205412359e-02,-9.579997212134901130e-02,-1.049156196206438990e-01,-1.140312671199387867e-01,-1.231469146192336467e-01,-1.322625621185285483e-01,-1.410526507785628825e-01,-1.449593568496892471e-01,-1.418751152145894534e-01,-1.346785513993566663e-01,-1.274819875841238792e-01,-1.202854237688910782e-01,-1.133458800899165980e-01,-1.061493162746838109e-01,-9.895275245945100995e-02,-9.175618864421820897e-02,-8.455962482898542187e-02,-7.736306101375260702e-02,-7.042351733477811293e-02,-6.322695351954531195e-02,-5.603038970431250404e-02,-4.883382588907971694e-02,-4.163726207384690903e-02,-3.444069825861411499e-02,-2.750115457963962090e-02,-2.030459076440682686e-02,-1.310802694917402762e-02,-5.911463133941226647e-03,1.285100681291570859e-03,8.481664496524370100e-03,1.130888599536582738e-02,1.130888599536582738e-02,1.130888599536582738e-02,1.130888599536582738e-02,1.130888599536582738e-02,1.130888599536582738e-02,1.130888599536582738e-02,1.130888599536582738e-02,1.130888599536582738e-02
-1.961920373438465204e-02,-2.840929239441900706e-02,-3.752493989371388089e-02,-4.664058739300876166e-02,-5.575623489230364244e-02,-6.487188239159853709e-02,-7.398752989089341092e-02,-8.277761855092774512e-02,-9.189326605022261896e-02,-1.010089135495175205e-01,-1.101245610488123944e-01,-1.192402085481072543e-01,-1.283558560474021559e-01,-1.371459447074365179e-01,-1.449593568496892748e-01,-1.449593568496892471e-01,-1.377627930344564322e-01,-1.305662292192236451e-01,-1.233696654039908719e-01,-1.164301217250163639e-01,-1.092335579097835768e-01,-1.020369940945507620e-01,-9.484043027931800263e-02,-8.764386646408517390e-02,-8.044730264885237292e-02,-7.350775896987789271e-02,-6.631119515464507785e-02,-5.911463133941228382e-02,-5.191806752417948284e-02,-4.472150370894668880e-02,-3.752493989371388783e-02,-3.058539621473939374e-02,-2.338883239950659276e-02,-1.619226858427379873e-02,-8.995704769040999485e-03,-1.799140953808200244e-03,5.397422861424598997e-03,1.130888599536582738e-02,1.130888599536582738e-02,1.130888599536582738e-02,1.130888599536582738e-02,1.130888599536582738e-02,1.130888599536582738e-02,1.130888599536582738e-02,1.130888599536582738e-02,1.130888599536582738e-02,1.130888599536582738e-02
-2.450258632329262859e-02,-3.361823382258750242e-02,-4.273388132188239014e-02,-5.184952882117725009e-02,-6.096517632047215168e-02,-7.008082381976704633e-02,-7.887091247980136666e-02,-8.798655997909626825e-02,-9.710220747839112820e-02,-1.062178549776860298e-01,-1.153335024769808898e-01,-1.244491499762757775e-01,-1.332392386363100978e-01,-1.423548861356049855e-01,-1.449593568496892471e-01,-1.408470346695562259e-01,-1.336504708543234110e-01,-1.264539070390906239e-01,-1.195143633601161298e-01,-1.123177995448833566e-01,-1.051212357296505556e-01,-9.792467191441775465e-02,-9.072810809918495367e-02,-8.353154428395215270e-02,-7.659200060497765861e-02,-6.939543678974484375e-02,-6.219887297451204972e-02,-5.500230915927924874e-02,-4.780574534404646164e-02,-4.060918152881366067e-02,-3.366963784983916658e-02,-2.647307403460636560e-02,-1.927651021937357156e-02,-1.207994640414077232e-02,-4.883382588907971347e-03,2.313181226324827894e-03,9.252724905299313310e-03,1.130888599536582738e-02,1.130888599536582738e-02,1.130888599536582738e-02,1.130888599536582738e-02,1.130888599536582738e-02,1.130888599536582738e-02,1.130888599536582738e-02,1.130888599536582738e-02,1.130888599536582738e-02,1.130888599536582738e-02
-2.971152775146113090e-02,-3.882717525075600473e-02,-4.794282275005088551e-02,-5.705847024934577322e-02,-6.584855890938012823e-02,-7.496420640867500207e-02,-8.407985390796988978e-02,-9.319550140726476362e-02,-1.023111489065596375e-01,-1.114267964058545252e-01,-1.202168850658888871e-01,-1.293325325651837332e-01,-1.384481800644786209e-01,-1.449593568496892471e-01,-1.439312763046559918e-01,-1.367347124894231769e-01,-1.297951688104486967e-01,-1.225986049952159235e-01,-1.154020411799831086e-01,-1.082054773647503215e-01,-1.010089135495175205e-01,-9.381234973428470569e-02,-8.687280605531022548e-02,-7.967624224007745226e-02,-7.247967842484463741e-02,-6.528311460961182255e-02,-5.808655079437902852e-02,-5.088998697914622754e-02,-4.395044330017174733e-02,-3.675387948493894635e-02,-2.955731566970613844e-02,-2.236075185447333746e-02,-1.516418803924054516e-02,-7.967624224007744185e-03,-1.028080545033257034e-03,6.168483270199542207e-03,1.130888599536582738e-02,1.130888599536582738e-02,1.130888599536582738e-02,1.130888599536582738e-02,1.130888599536582738e-02,1.130888599536582738e-02,1.130888599536582738e-02,1.130888599536582738e-02,1.130888599536582738e-02,1.130888599536582738e-02,1.130888599536582738e-02
-3.492046917962963321e-02,-4.403611667892450704e-02,-5.315176417821939475e-02,-6.194185283825374283e-02,-7.105750033754863748e-02,-8.017314783684351132e-02,-8.928879533613838515e-02,-9.840444283543327286e-02,-1.075200903347281467e-01,-1.163101789947624948e-01,-1.254258264940573686e-01,-1.345414739933522563e-01,-1.436571214926471440e-01,-1.449593568496892471e-01,-1.398189541245229428e-01,-1.328794104455484626e-01,-1.256828466303156477e-01,-1.184862828150828745e-01,-1.112897189998500874e-01,-1.040931551846172864e-01,-9.689659136938449935e-02,-8.995704769040999138e-02,-8.276048387517721816e-02,-7.556392005994440331e-02,-6.836735624471160233e-02,-6.117079242947879442e-02,-5.397422861424599344e-02,-4.703468493527150629e-02,-3.983812112003871225e-02,-3.264155730480591128e-02,-2.544499348957311030e-02,-1.824842967434030933e-02,-1.105186585910751355e-02,-4.112322180133028138e-03,3.084241635099771103e-03,1.028080545033257034e-02,1.130888599536582738e-02,1.130888599536582738e-02,1.130888599536582738e-02,1.130888599536582738e-02,1.130888599536582738e-02,1.130888599536582738e-02,1.130888599536582738e-02,1.130888599536582738e-02,1.130888599536582738e-02,1.130888599536582738e-02,1.130888599536582738e-02
-4.012941060779813551e-02,-4.924505810709301629e-02,-5.803514676712737824e-02,-6.715079426642225902e-02,-7.626644176571713285e-02,-8.538208926501200668e-02,-9.449773676430688052e-02,-1.036133842636017682e-01,-1.124034729236361163e-01,-1.215191204229309901e-01,-1.306347679222258917e-01,-1.397504154215207517e-01,-1.449593568496892471e-01,-1.429031957596227087e-01,-1.359636520806482562e-01,-1.287670882654154414e-01,-1.215705244501826404e-01,-1.143739606349498533e-01,-1.071773968197170662e-01,-9.998083300448427913e-02,-9.304128932550978504e-02,-8.584472551027697018e-02,-7.864816169504416921e-02,-7.145159787981136823e-02,-6.425503406457856725e-02,-5.705847024934575934e-02,-5.011892657037127913e-02,-4.292236275513848509e-02,-3.572579893990569105e-02,-2.852923512467287620e-02,-2.133267130944008216e-02,-1.413610749420728292e-02,-7.196563815232802711e-03,0.000000000000000000e+00,7.196563815232799241e-03,1.130888599536582738e-02,1.130888599536582738e-02,1.130888599536582738e-02,1.130888599536582738e-02,1.130888599536582738e-02,1.130888599536582738e-02,1.130888599536582738e-02,1.130888599536582738e-02,1.130888599536582738e-02,1.130888599536582738e-02,1.130888599536582738e-02,1.130888599536582738e-02
-4.533835203596663088e-02,-5.412844069600098590e-02,-6.324408819529588055e-02,-7.235973569459076826e-02,-8.147538319388562822e-02,-9.059103069318050205e-02,-9.970667819247537589e-02,-1.084967668525097378e-01,-1.176124143518045978e-01,-1.267280618510994994e-01,-1.358437093503943871e-01,-1.449593568496892471e-01,-1.449593568496892471e-01,-1.390478937157479944e-01,-1.318513299005152073e-01,-1.246547660852824341e-01,-1.174582022700496192e-01,-1.102616384548168321e-01,-1.030650746395840450e-01,-9.612553096060955093e-02,-8.892896714537674996e-02,-8.173240333014394898e-02,-7.453583951491114801e-02,-6.733927569967833315e-02,-6.014271188444553912e-02,-5.320316820547104503e-02,-4.600660439023826487e-02,-3.881004057500545695e-02,-3.161347675977265598e-02,-2.441691294453985500e-02,-1.722034912930705403e-02,-1.028080545033257208e-02,-3.084241635099771103e-03,4.112322180133028138e-03,1.130888599536582738e-02,1.130888599536582738e-02,1.130888599536582738e-02,1.130888599536582738e-02,1.130888599536582738e-02,1.130888599536582738e-02,1.130888599536582738e-02,1.130888599536582738e-02,1.130888599536582738e-02,1.130888599536582738e-02,1.130888599536582738e-02,1.130888599536582738e-02,1.130888599536582738e-02
-5.022173462487460743e-02,-5.933738212416949515e-02,-6.845302962346437592e-02,-7.756867712275926363e-02,-8.668432462205412359e-02,-9.547441328208848554e-02,-1.045900607813833733e-01,-1.137057082806782332e-01,-1.228213557799731209e-01,-1.319370032792679948e-01,-1.410526507785628825e-01,-1.449593568496892471e-01,-1.421321353508477603e-01,-1.349355715356150009e-01,-1.277390077203821861e-01,-1.205424439051494129e-01,-1.133458800899165980e-01,-1.064063364109421178e-01,-9.920977259570933071e-02,-9.201320878047652974e-02,-8.481664496524372876e-02,-7.762008115001090003e-02,-7.042351733477811293e-02,-6.348397365580361884e-02,-5.628740984057082480e-02,-4.909084602533802383e-02,-4.189428221010522979e-02,-3.469771839487242882e-02,-2.750115457963962090e-02,-2.056161090066514069e-02,-1.336504708543234492e-02,-6.168483270199540472e-03,1.028080545033257034e-03,8.224644360266056275e-03,1.130888599536582738e-02,1.130888599536582738e-02,1.130888599536582738e-02,1.130888599536582738e-02,1.130888599536582738e-02,1.130888599536582738e-02,1.130888599536582738e-02,1.130888599536582738e-02,1.130888599536582738e-02,1.130888599536582738e-02,1.130888599536582738e-02,1.130888599536582738e-02,1.130888599536582738e-02
-5.543067605304310280e-02,-6.454632355233801133e-02,-7.366197105163287129e-02,-8.277761855092775900e-02,-9.156770721096209320e-02,-1.006833547102569948e-01,-1.097990022095518686e-01,-1.189146497088467563e-01,-1.280302972081416024e-01,-1.371459447074364901e-01,-1.449593568496892471e-01,-1.449593568496892471e-01,-1.380198131707147668e-01,-1.308232493554819520e-01,-1.236266855402491788e-01,-1.164301217250163639e-01,-1.094905780460418976e-01,-1.022940142308090966e-01,-9.509745041557629563e-02,-8.790088660034349466e-02,-8.070432278511069368e-02,-7.350775896987789271e-02,-6.656821529090339862e-02,-5.937165147567059070e-02,-5.217508766043778973e-02,-4.497852384520498875e-02,-3.778196002997220859e-02,-3.058539621473939374e-02,-2.364585253576490659e-02,-1.644928872053211255e-02,-9.252724905299316779e-03,-2.056161090066514069e-03,5.140402725166285172e-03,1.130888599536582738e-02,1.130888599536582738e-02,1.130888599536582738e-02,1.130888599536582738e-02,1.130888599536582738e-02,1.130888599536582738e-02,1.130888599536582738e-02,1.130888599536582738e-02,1.130888599536582738e-02,1.130888599536582738e-02,1.130888599536582738e-02,1.130888599536582738e-02,1.130888599536582738e-02,1.130888599536582738e-02
-2.241697500927985337e-02,-6.722201026251049816e-02,-7.887091247980138053e-02,-8.766100113983572861e-02,-9.677664863913060245e-02,-1.058922961384254763e-01,-1.150079436377203640e-01,-1.241235911370152517e-01,-1.332392386363101255e-01,-1.420293272963444597e-01,-1.449593568496892471e-01,-1.411040548058145327e-01,-1.339074909905816901e-01,-1.267109271753489308e-01,-1.195143633601161298e-01,-1.125748196811416774e-01,-1.053782558659088625e-01,-9.818169205067607541e-02,-9.098512823544326056e-02,-8.378856442021047346e-02,-7.659200060497765861e-02,-6.965245692600316452e-02,-6.245589311077035660e-02,-5.525932929553756950e-02,-4.806276548030476853e-02,-4.086620166507197449e-02,-3.366963784983916658e-02,-2.673009417086467943e-02,-1.953353035563188539e-02,-1.233696654039908615e-02,-5.140402725166285172e-03,2.056161090066514069e-03,9.252724905299313310e-03,1.130888599536582738e-02,1.130888599536582738e-02,1.130888599536582738e-02,1.130888599536582738e-02,1.130888599536582738e-02,1.130888599536582738e-02,1.130888599536582738e-02,1.130888599536582738e-02,1.130888599536582738e-02,1.130888599536582738e-02,1.130888599536582738e-02,1.130888599536582738e-02,1.130888599536582738e-02,1.130888599536582738e-02
1.130888599536582738e-02,3.220783582486999239e-03,-4.513487776142879881e-02,-9.286994256800422398e-02,-1.019855900672991117e-01,-1.111012375665939855e-01,-1.202168850658888871e-01,-1.293325325651837610e-01,-1.381226212252180952e-01,-1.449593568496892471e-01,-1.441882964409143264e-01,-1.369917326256814838e-01,-1.297951688104487245e-01,-1.225986049952159235e-01,-1.156590613162414433e-01,-1.084624975010086284e-01,-1.012659336857758413e-01,-9.406936987054302646e-02,-8.687280605531023936e-02,-7.967624224007745226e-02,-7.273669856110294429e-02,-6.554013474587014332e-02,-5.834357093063733540e-02,-5.114700711540453443e-02,-4.395044330017174733e-02,-3.675387948493894635e-02,-2.981433580596445226e-02,-2.261777199073165129e-02,-1.542120817549885899e-02,-8.224644360266058010e-03,-1.028080545033257034e-03,6.168483270199542207e-03,1.130888599536582738e-02,1.130888599536582738e-02,1.130888599536582738e-02,1.130888599536582738e-02,1.130888599536582738e-02,1.130888599536582738e-02,1.130888599536582738e-02,1.130888599536582738e-02,1.130888599536582738e-02,1.130888599536582738e-02,1.130888599536582738e-02,1.130888599536582738e-02,1.130888599536582738e-02,1.130888599536582738e-02,1.130888599536582738e-02
1.130888599536582738e-02,1.130888599536582738e-02,1.130888599536582738e-02,-1.261968869028323205e-02,-7.386544532617071723e-02,-1.163101789947624948e-01,-1.251002676547968429e-01,-1.342159151540917306e-01,-1.433315626533865905e-01,-1.449593568496892471e-01,-1.400759742607812774e-01,-1.328794104455484626e-01,-1.259398667665739824e-01,-1.187433029513411814e-01,-1.115467391361084082e-01,-1.043501753208756072e-01,-9.715361150564280623e-02,-8.995704769041001914e-02,-8.301750401143552505e-02,-7.582094019620272407e-02,-6.862437638096990922e-02,-6.142781256573710130e-02,-5.423124875050430033e-02,-4.703468493527151323e-02,-4.009514125629703302e-02,-3.289857744106423204e-02,-2.570201362583142413e-02,-1.850544981059863009e-02,-1.130888599536583085e-02,-4.112322180133028138e-03,2.827221498841457278e-03,1.002378531407425652e-02,1.130888599536582738e-02,1.130888599536582738e-02,1.130888599536582738e-02,1.130888599536582738e-02,1.130888599536582738e-02,1.130888599536582738e-02,1.130888599536582738e-02,1.130888599536582738e-02,1.130888599536582738e-02,1.130888599536582738e-02,1.130888599536582738e-02,1.130888599536582738e-02,1.130888599536582738e-02,1.130888599536582738e-02,1.130888599536582738e-02
1.130888599536582738e-02,1.130888599536582738e-02,1.130888599536582738e-02,1.130888599536582738e-02,1.130888599536582738e-02,-3.423883035992789786e-02,-1.037558162557782743e-01,-1.394248565822602259e-01,-1.449593568496892471e-01,-1.431602158958810433e-01,-1.359636520806482562e-01,-1.290241084016737760e-01,-1.218275445864409751e-01,-1.146309807712081602e-01,-1.074344169559753870e-01,-1.002378531407425721e-01,-9.304128932550978504e-02,-8.610174564653530482e-02,-7.890518183130248997e-02,-7.170861801606968899e-02,-6.451205420083687414e-02,-5.731549038560408010e-02,-5.011892657037127913e-02,-4.317938289139679892e-02,-3.598281907616399794e-02,-2.878625526093119696e-02,-2.158969144569839599e-02,-1.439312763046560369e-02,-7.196563815232799241e-03,-2.570201362583155597e-04,6.939543678974484549e-03,1.130888599536582738e-02,1.130888599536582738e-02,1.130888599536582738e-02,1.130888599536582738e-02,1.130888599536582738e-02,1.130888599536582738e-02,1.130888599536582738e-02,1.130888599536582738e-02,1.130888599536582738e-02,1.130888599536582738e-02,1.130888599536582738e-02,1.130888599536582738e-02,1.130888599536582738e-02,1.130888599536582738e-02,1.130888599536582738e-02,1.130888599536582738e-02
1.130888599536582738e-02,1.130888599536582738e-02,1.130888599536582738e-02,1.130888599536582738e-02,1.130888599536582738e-02,1.130888599536582738e-02,1.130888599536582738e-02,-5.691603825716928106e-02,-1.351925916718733078e-01,-1.390478937157480221e-01,-1.321083500367735142e-01,-1.249117862215407410e-01,-1.177152224063079261e-01,-1.105186585910751390e-01,-1.033220947758423519e-01,-9.612553096060955093e-02,-8.918598728163505684e-02,-8.198942346640226975e-02,-7.479285965116945489e-02,-6.759629583593665392e-02,-6.039973202070384600e-02,-5.320316820547105890e-02,-4.626362452649657175e-02,-3.906706071126377078e-02,-3.187049689603096286e-02,-2.467393308079816189e-02,-1.747736926556536785e-02,-1.028080545033257208e-02,-3.341261771358086663e-03,3.855302043874714313e-03,1.105186585910751355e-02,1.130888599536582738e-02,1.130888599536582738e-02,1.130888599536582738e-02,1.130888599536582738e-02,1.130888599536582738e-02,1.130888599536582738e-02,1.130888599536582738e-02,1.130888599536582738e-02,1.130888599536582738e-02,1.130888599536582738e-02,1.130888599536582738e-02,1.130888599536582738e-02,1.130888599536582738e-02,1.130888599536582738e-02,1.130888599536582738e-02,1.130888599536582738e-02
1.130888599536582738e-02,1.130888599536582738e-02,1.130888599536582738e-02,1.130888599536582738e-02,1.130888599536582738e-02,1.130888599536582738e-02,1.130888599536582738e-02,1.130888599536582738e-02,1.702758402711331692e-03,-7.109819519245617891e-02,-1.279960278566405207e-01,-1.207994640414076920e-01,-1.136029002261749188e-01,-1.064063364109421178e-01,-9.920977259570933071e-02,-9.227022891673483662e-02,-8.507366510150203565e-02,-7.787710128626923467e-02,-7.068053747103643369e-02,-6.348397365580363272e-02,-5.628740984057082480e-02,-4.934786616159633071e-02,-4.215130234636354362e-02,-3.495473853113073570e-02,-2.775817471589794166e-02,-2.056161090066514069e-02,-1.336504708543234492e-02,-6.425503406457857766e-03,7.710604087749432095e-04,7.967624224007742451e-03,1.130888599536582738e-02,1.130888599536582738e-02,1.130888599536582738e-02,1.130888599536582738e-02,1.130888599536582738e-02,1.130888599536582738e-02,1.130888599536582738e-02,1.130888599536582738e-02,1.130888599536582738e-02,1.130888599536582738e-02,1.130888599536582738e-02,1.130888599536582738e-02,1.130888599536582738e-02,1.130888599536582738e-02,1.130888599536582738e-02,1.130888599536582738e-02,1.130888599536582738e-02
1.130888599536582738e-02,1.130888599536582738e-02,1.130888599536582738e-02,1.130888599536582738e-02,1.130888599536582738e-02,1.130888599536582738e-02,1.130888599536582738e-02,1.130888599536582738e-02,1.130888599536582738e-02,1.130888599536582738e-02,-1.403972494311041784e-02,-7.668838315607452716e-02,-1.094905780460418837e-01,-1.025510343670674174e-01,-9.535447055183461640e-02,-8.815790673660180155e-02,-8.096134292136900057e-02,-7.376477910613619959e-02,-6.656821529090339862e-02,-5.962867161192889759e-02,-5.243210779669611049e-02,-4.523554398146332339e-02,-3.803898016623051548e-02,-3.084241635099770756e-02,-2.364585253576491353e-02,-1.670630885679042638e-02,-9.509745041557627135e-03,-2.313181226324827894e-03,4.883382588907971347e-03,1.130888599536582738e-02,1.130888599536582738e-02,1.130888599536582738e-02,1.130888599536582738e-02,1.130888599536582738e-02,1.130888599536582738e-02,1.130888599536582738e-02,1.130888599536582738e-02,1.130888599536582738e-02,1.130888599536582738e-02,1.130888599536582738e-02,1.130888599536582738e-02,1.130888599536582738e-02,1.130888599536582738e-02,1.130888599536582738e-02,1.130888599536582738e-02,1.130888599536582738e-02,1.130888599536582738e-02
1.130888599536582738e-02,1.130888599536582738e-02,1.130888599536582738e-02,1.130888599536582738e-02,1.130888599536582738e-02,1.130888599536582738e-02,1.130888599536582738e-02,1.130888599536582738e-02,1.130888599536582738e-02,1.130888599536582738e-02,1.130888599536582738e-02,1.130888599536582738e-02,-2.523616462886323075e-02,-7.786103752775309916e-02,-9.124214837170156744e-02,-8.404558455646878035e-02,-7.684902074123597937e-02,-6.965245692600317839e-02,-6.271291324702868430e-02,-5.551634943179587639e-02,-4.831978561656308235e-02,-4.112322180133028832e-02,-3.392665798609748040e-02,-2.673009417086468636e-02,-1.979055049189019921e-02,-1.259398667665740344e-02,-5.397422861424598997e-03,1.799140953808200244e-03,8.995704769040999485e-03,1.130888599536582738e-02,1.130888599536582738e-02,1.130888599536582738e-02,1.130888599536582738e-02,1.130888599536582738e-02,1.130888599536582738e-02,1.130888599536582738e-02,1.130888599536582738e-02,1.130888599536582738e-02,1.130888599536582738e-02,1.130888599536582738e-02,1.130888599536582738e-02,1.130888599536582738e-02,1.130888599536582738e-02,1.130888599536582738e-02,1.130888599536582738e-02,1.130888599536582738e-02,1.130888599536582738e-02
1.130888599536582738e-02,1.130888599536582738e-02,1.130888599536582738e-02,1.130888599536582738e-02,1.130888599536582738e-02,1.130888599536582738e-02,1.130888599536582738e-02,1.130888599536582738e-02,1.130888599536582738e-02,1.130888599536582738e-02,1.130888599536582738e-02,1.130888599536582738e-02,1.130888599536582738e-02,1.130888599536582738e-02,-3.175805058641795880e-02,-7.137931096648873763e-02,-7.273669856110294429e-02,-6.579715488212846408e-02,-5.860059106689565617e-02,-5.140402725166285519e-02,-4.420746343643005422e-02,-3.701089962119726018e-02,-2.981433580596445226e-02,-2.287479212698997205e-02,-1.567822831175717108e-02,-8.481664496524371835e-03,-1.285100681291570859e-03,5.911463133941227514e-03,1.130888599536582738e-02,1.130888599536582738e-02,1.130888599536582738e-02,1.130888599536582738e-02,1.130888599536582738e-02,1.130888599536582738e-02,1.130888599536582738e-02,1.130888599536582738e-02,1.130888599536582738e-02,1.130888599536582738e-02,1.130888599536582738e-02,1.130888599536582738e-02,1.130888599536582738e-02,1.130888599536582738e-02,1.130888599536582738e-02,1.130888599536582738e-02,1.130888599536582738e-02,1.130888599536582738e-02,1.130888599536582738e-02
1.130888599536582738e-02,1.130888599536582738e-02,1.130888599536582738e-02,1.130888599536582738e-02,1.130888599536582738e-02,1.130888599536582738e-02,1.130888599536582738e-02,1.130888599536582738e-02,1.130888599536582738e-02,1.130888599536582738e-02,1.130888599536582738e-02,1.130888599536582738e-02,1.130888599536582738e-02,1.130888599536582738e-02,1.130888599536582738e-02,5.847208099876649058e-03,-3.129220158944975849e-02,-6.168483270199542207e-02,-5.448826888676262109e-02,-4.729170507152982705e-02,-4.009514125629703302e-02,-3.315559757732253893e-02,-2.595903376208973795e-02,-1.876246994685693698e-02,-1.156590613162414467e-02,-4.369342316391343697e-03,2.827221498841457278e-03,9.766765177815942695e-03,1.130888599536582738e-02,1.130888599536582738e-02,1.130888599536582738e-02,1.130888599536582738e-02,1.130888599536582738e-02,1.130888599536582738e-02,1.130888599536582738e-02,1.130888599536582738e-02,1.130888599536582738e-02,1.130888599536582738e-02,1.130888599536582738e-02,1.130888599536582738e-02,1.130888599536582738e-02,1.130888599536582738e-02,1.130888599536582738e-02,1.130888599536582738e-02,1.130888599536582738e-02,1.130888599536582738e-02,1.130888599536582738e-02
