-1.402207852496896445e-01,-1.402207852496896445e-01,-1.402207852496896445e-01,-1.402207852496896445e-01,-1.402207852496896445e-01,-1.402207852496896445e-01,-1.402207852496896445e-01,-1.402207852496896445e-01,-1.402207852496896445e-01,-1.402207852496896445e-01,-1.402207852496896445e-01,-1.402207852496896445e-01,-1.402207852496896445e-01,-1.402207852496896445e-01,-1.402207852496896445e-01,-1.402207852496896445e-01,-1.371840644294269607e-01,-1.008803489468700215e-01,-5.593365882202695760e-02,-2.010518612035994135e-02,-1.237242222791382074e-02,-4.639658335467700123e-03,-2.775557561562891351e-17,-2.775557561562891351e-17,-2.775557561562891351e-17,-2.775557561562891351e-17,-2.775557561562891351e-17,-2.775557561562891351e-17,-2.775557561562891351e-17,-2.775557561562891351e-17,-2.775557561562891351e-17,-2.775557561562891351e-17,-2.775557561562891351e-17,-1.251971296872231298e-02,-3.129928242180574083e-02,-5.007885187488918255e-02,-6.885842132797259652e-02,-8.701200513261991842e-02,-1.057915745857033463e-01,-1.245711440387867880e-01,-1.402207852496896445e-01,-1.402207852496896445e-01,-1.402207852496896445e-01,-1.402207852496896445e-01,-1.402207852496896445e-01,-1.402207852496896445e-01,-1.402207852496896445e-01
-1.402207852496896445e-01,-1.402207852496896445e-01,-1.402207852496896445e-01,-1.402207852496896445e-01,-1.402207852496896445e-01,-1.402207852496896445e-01,-1.402207852496896445e-01,-1.402207852496896445e-01,-1.402207852496896445e-01,-1.402207852496896445e-01,-1.402207852496896445e-01,-1.402207852496896445e-01,-1.402207852496896445e-01,-1.402207852496896445e-01,-1.229670558146692405e-01,-8.895094965029427814e-02,-4.907888582986898174e-02,-3.840606066581575551e-02,-3.067329677336963489e-02,-2.294053288092351428e-02,-1.520776898847739367e-02,-7.732763892446148368e-03,-2.775557561562891351e-17,-2.775557561562891351e-17,-2.775557561562891351e-17,-2.775557561562891351e-17,-2.775557561562891351e-17,-2.775557561562891351e-17,-2.775557561562891351e-17,-2.775557561562891351e-17,-2.775557561562891351e-17,-2.775557561562891351e-17,-2.775557561562891351e-17,-5.633870835925064435e-03,-2.378745464057237247e-02,-4.256702409365581419e-02,-6.134659354673922815e-02,-8.012616299982266987e-02,-9.890573245290609772e-02,-1.176853019059895256e-01,-1.358388857106368475e-01,-1.402207852496896445e-01,-1.402207852496896445e-01,-1.402207852496896445e-01,-1.402207852496896445e-01,-1.402207852496896445e-01,-1.402207852496896445e-01
-1.402207852496896445e-01,-1.402207852496896445e-01,-1.402207852496896445e-01,-1.402207852496896445e-01,-1.402207852496896445e-01,-1.402207852496896445e-01,-1.402207852496896445e-01,-1.402207852496896445e-01,-1.402207852496896445e-01,-1.402207852496896445e-01,-1.402207852496896445e-01,-1.352911482682552513e-01,-1.138327284667172701e-01,-8.493152341869990296e-02,-6.443969910371769028e-02,-5.670693521127155579e-02,-4.897417131882544905e-02,-4.124140742637932844e-02,-3.376640233034808314e-02,-2.603363843790196253e-02,-1.830087454545584191e-02,-1.056811065300974906e-02,-2.835346760563600688e-03,-2.775557561562891351e-17,-2.775557561562891351e-17,-2.775557561562891351e-17,-2.775557561562891351e-17,-2.775557561562891351e-17,-2.775557561562891351e-17,-2.775557561562891351e-17,0.000000000000000000e+00,-2.775557561562891351e-17,-2.775557561562891351e-17,-2.775557561562891351e-17,-1.690161250777511004e-02,-3.568118196085853788e-02,-5.446075141394196573e-02,-7.261433521858928763e-02,-9.139390467167271548e-02,-1.101734741247561572e-01,-1.289530435778395989e-01,-1.402207852496896445e-01,-1.402207852496896445e-01,-1.402207852496896445e-01,-1.402207852496896445e-01,-1.402207852496896445e-01,-1.402207852496896445e-01
-1.402207852496896445e-01,-1.402207852496896445e-01,-1.402207852496896445e-01,-1.402207852496896445e-01,-1.402207852496896445e-01,-1.402207852496896445e-01,-1.402207852496896445e-01,-1.402207852496896445e-01,-1.402207852496896445e-01,-1.305789952712959057e-01,-1.126486489956864540e-01,-9.047333754161962505e-02,-8.274057364917350443e-02,-7.500780975672738382e-02,-6.753280466069613852e-02,-5.980004076825001791e-02,-5.206727687580388342e-02,-4.433451298335777668e-02,-3.660174909091166995e-02,-2.886898519846554934e-02,-2.139398010243429016e-02,-1.366121620998816955e-02,-5.928452317542048933e-03,-2.775557561562891351e-17,-2.775557561562891351e-17,0.000000000000000000e+00,-2.775557561562891351e-17,-2.775557561562891351e-17,-2.775557561562891351e-17,-2.775557561562891351e-17,-5.551115123125782702e-17,-2.775557561562891351e-17,-2.775557561562891351e-17,-2.775557561562891351e-17,-9.389784726541727800e-03,-2.816935417962516952e-02,-4.694892363270859736e-02,-6.572849308579202521e-02,-8.450806253887546693e-02,-1.026616463435227888e-01,-1.214412157966062167e-01,-1.402207852496896445e-01,-1.402207852496896445e-01,-1.402207852496896445e-01,-1.402207852496896445e-01,-1.402207852496896445e-01,-1.402207852496896445e-01
-1.402207852496896445e-01,-1.402207852496896445e-01,-1.402207852496896445e-01,-1.402207852496896445e-01,-1.402207852496896445e-01,-1.402207852496896445e-01,-1.389319912676152957e-01,-1.322302625608286486e-01,-1.194712021382925704e-01,-1.087742120870754253e-01,-1.010414481946293186e-01,-9.356644309859805941e-02,-8.583367920615195268e-02,-7.810091531370583207e-02,-7.036815142125971145e-02,-6.263538752881359084e-02,-5.490262363636747023e-02,-4.742761854033622493e-02,-3.969485464789010432e-02,-3.196209075544398370e-02,-2.422932686299787697e-02,-1.649656297055174248e-02,-8.763799078105649620e-03,-1.288793982074376565e-03,-2.775557561562891351e-17,-2.775557561562891351e-17,-2.775557561562891351e-17,-2.775557561562891351e-17,-2.775557561562891351e-17,-2.775557561562891351e-17,-2.775557561562891351e-17,-2.775557561562891351e-17,-2.775557561562891351e-17,-2.775557561562891351e-17,-2.503942593744507006e-03,-2.128351204682790709e-02,-3.943709585147522900e-02,-5.821666530455865685e-02,-7.699623475764208469e-02,-9.577580421072552641e-02,-1.145553736638089543e-01,-1.333349431168923960e-01,-1.402207852496896445e-01,-1.402207852496896445e-01,-1.402207852496896445e-01,-1.402207852496896445e-01,-1.402207852496896445e-01
-1.402207852496896445e-01,-1.402207852496896445e-01,-1.402207852496896445e-01,-1.402207852496896445e-01,-1.402207852496896445e-01,-1.402207852496896445e-01,-1.348078505249773740e-01,-1.273328454289461287e-01,-1.196000815364999942e-01,-1.118673176440538736e-01,-1.041345537516077668e-01,-9.640178985916164622e-02,-8.866902596671552561e-02,-8.119402087068428031e-02,-7.346125697823815970e-02,-6.572849308579203909e-02,-5.799572919334591847e-02,-5.026296530089979786e-02,-4.253020140845367725e-02,-3.479743751600755663e-02,-2.732243241997631134e-02,-1.958966852753019072e-02,-1.185690463508409787e-02,-4.124140742637977253e-03,-2.775557561562891351e-17,-2.775557561562891351e-17,-2.775557561562891351e-17,-2.775557561562891351e-17,-2.775557561562891351e-17,-2.775557561562891351e-17,-2.775557561562891351e-17,-2.775557561562891351e-17,-2.775557561562891351e-17,-2.775557561562891351e-17,-2.775557561562891351e-17,-1.377168426559452485e-02,-3.255125371867798045e-02,-5.133082317176140830e-02,-7.011039262484483614e-02,-8.826397642949215805e-02,-1.070435458825755859e-01,-1.258231153356590137e-01,-1.402207852496896445e-01,-1.402207852496896445e-01,-1.402207852496896445e-01,-1.402207852496896445e-01,-1.402207852496896445e-01
-1.402207852496896445e-01,-1.402207852496896445e-01,-1.402207852496896445e-01,-1.402207852496896445e-01,-1.402207852496896445e-01,-1.402207852496896445e-01,-1.379009560819558222e-01,-1.301681921895097016e-01,-1.224354282970635810e-01,-1.147026644046174604e-01,-1.072276593085862151e-01,-9.949489541614008059e-02,-9.176213152369397386e-02,-8.402936763124785324e-02,-7.629660373880173263e-02,-6.856383984635561202e-02,-6.108883475032436672e-02,-5.335607085787824611e-02,-4.562330696543212549e-02,-3.789054307298600488e-02,-3.015777918053988427e-02,-2.242501528809377753e-02,-1.469225139564767080e-02,-7.217246299616425498e-03,-2.775557561562891351e-17,-2.775557561562891351e-17,-2.775557561562891351e-17,-2.775557561562891351e-17,-2.775557561562891351e-17,-2.775557561562891351e-17,-2.775557561562891351e-17,-2.775557561562891351e-17,-2.775557561562891351e-17,-2.775557561562891351e-17,-2.775557561562891351e-17,-6.259856484361142615e-03,-2.503942593744459821e-02,-4.381899539052803993e-02,-6.259856484361145390e-02,-8.137813429669488174e-02,-1.001577037497783235e-01,-1.189372732028617513e-01,-1.370908570075090593e-01,-1.402207852496896445e-01,-1.402207852496896445e-01,-1.402207852496896445e-01,-1.402207852496896445e-01
-1.402207852496896445e-01,-1.402207852496896445e-01,-1.402207852496896445e-01,-1.402207852496896445e-01,-1.402207852496896445e-01,-1.402207852496896445e-01,-1.402207852496896445e-01,-1.332612977464881499e-01,-1.255285338540420292e-01,-1.177957699615959086e-01,-1.100630060691497880e-01,-1.023302421767036674e-01,-9.459747828425754679e-02,-8.712247318822630149e-02,-7.938970929578018088e-02,-7.165694540333407414e-02,-6.392418151088795353e-02,-5.619141761844183292e-02,-4.845865372599571230e-02,-4.098364862996446700e-02,-3.325088473751834639e-02,-2.551812084507222578e-02,-1.778535695262610516e-02,-1.005259306017999843e-02,-2.319829167733877817e-03,-2.775557561562891351e-17,-2.775557561562891351e-17,-2.775557561562891351e-17,-2.775557561562891351e-17,-2.775557561562891351e-17,-2.775557561562891351e-17,-2.775557561562891351e-17,-2.775557561562891351e-17,0.000000000000000000e+00,0.000000000000000000e+00,-2.775557561562891351e-17,-1.815358380464733579e-02,-3.693315325773077751e-02,-5.508673706237808554e-02,-7.386630651546151338e-02,-9.264587596854495510e-02,-1.114254454216283829e-01,-1.302050148747118108e-01,-1.402207852496896445e-01,-1.402207852496896445e-01,-1.402207852496896445e-01,-1.402207852496896445e-01
-1.402207852496896445e-01,-1.402207852496896445e-01,-1.402207852496896445e-01,-1.402207852496896445e-01,-1.402207852496896445e-01,-1.402207852496896445e-01,-1.402207852496896445e-01,-1.360966445070517228e-01,-1.283638806146056022e-01,-1.208888755185743569e-01,-1.131561116261282363e-01,-1.054233477336821156e-01,-9.769058384123599503e-02,-8.995781994878987442e-02,-8.222505605634375381e-02,-7.449229216389763319e-02,-6.701728706786638790e-02,-5.928452317542026728e-02,-5.155175928297414667e-02,-4.381899539052803993e-02,-3.608623149808193320e-02,-2.835346760563581259e-02,-2.087846250960455341e-02,-1.314569861715841892e-02,-5.412934724712326062e-03,-2.775557561562891351e-17,-2.775557561562891351e-17,-2.775557561562891351e-17,-2.775557561562891351e-17,-2.775557561562891351e-17,-2.775557561562891351e-17,-2.775557561562891351e-17,-2.775557561562891351e-17,-2.775557561562891351e-17,-2.775557561562891351e-17,-2.775557561562891351e-17,-1.064175602341396742e-02,-2.942132547649739527e-02,-4.820089492958083699e-02,-6.698046438266426483e-02,-8.576003383574769268e-02,-1.039136176403950007e-01,-1.226931870934784424e-01,-1.402207852496896445e-01,-1.402207852496896445e-01,-1.402207852496896445e-01,-1.402207852496896445e-01
-1.402207852496896445e-01,-1.402207852496896445e-01,-1.402207852496896445e-01,-1.402207852496896445e-01,-1.402207852496896445e-01,-1.402207852496896445e-01,-1.402207852496896445e-01,-1.391897500640301710e-01,-1.314569861715840504e-01,-1.237242222791379298e-01,-1.159914583866918092e-01,-1.082586944942456886e-01,-1.007836893982144433e-01,-9.305092550576832267e-02,-8.531816161332220205e-02,-7.758539772087609532e-02,-6.985263382842997471e-02,-6.211986993598385409e-02,-5.438710604353771960e-02,-4.691210094750647430e-02,-3.917933705506035369e-02,-3.144657316261423308e-02,-2.371380927016812634e-02,-1.598104537772200573e-02,-8.248281485275898994e-03,-7.732763892446536946e-04,-2.775557561562891351e-17,-2.775557561562891351e-17,-2.775557561562891351e-17,-2.775557561562891351e-17,-2.775557561562891351e-17,-2.775557561562891351e-17,-2.775557561562891351e-17,-2.775557561562891351e-17,0.000000000000000000e+00,-2.775557561562891351e-17,-3.755913890616691120e-03,-2.253548334370014672e-02,-4.068906714834745475e-02,-5.946863660143089647e-02,-7.824820605451432431e-02,-9.702777550759775216e-02,-1.158073449606811800e-01,-1.345869144137646078e-01,-1.402207852496896445e-01,-1.402207852496896445e-01,-1.402207852496896445e-01
-1.402207852496896445e-01,-1.402207852496896445e-01,-1.402207852496896445e-01,-1.402207852496896445e-01,-1.402207852496896445e-01,-1.402207852496896445e-01,-1.402207852496896445e-01,-1.402207852496896445e-01,-1.342923329321476233e-01,-1.268173278361163780e-01,-1.190845639436702574e-01,-1.113518000512241368e-01,-1.036190361587780162e-01,-9.588627226633189560e-02,-8.815350837388578886e-02,-8.067850327785452968e-02,-7.294573938540840907e-02,-6.521297549296230234e-02,-5.748021160051618172e-02,-4.974744770807006111e-02,-4.201468381562394050e-02,-3.453967871959268132e-02,-2.680691482714657459e-02,-1.907415093470044010e-02,-1.134138704225434724e-02,-3.608623149808226627e-03,0.000000000000000000e+00,-2.775557561562891351e-17,-5.551115123125782702e-17,-2.775557561562891351e-17,-2.775557561562891351e-17,-2.775557561562891351e-17,-2.775557561562891351e-17,0.000000000000000000e+00,-2.775557561562891351e-17,-2.775557561562891351e-17,-2.775557561562891351e-17,-1.502365556246676448e-02,-3.380322501555020620e-02,-5.258279446863363404e-02,-7.073637827328094208e-02,-8.951594772636436992e-02,-1.082955171794478116e-01,-1.270750866325312534e-01,-1.402207852496896445e-01,-1.402207852496896445e-01,-1.402207852496896445e-01
-1.402207852496896445e-01,-1.402207852496896445e-01,-1.402207852496896445e-01,-1.402207852496896445e-01,-1.402207852496896445e-01,-1.402207852496896445e-01,-1.402207852496896445e-01,-1.402207852496896445e-01,-1.373854384891260716e-01,-1.296526745966799510e-01,-1.219199107042338304e-01,-1.141871468117877098e-01,-1.067121417157564645e-01,-9.897937782331034384e-02,-9.124661393086422323e-02,-8.351385003841811649e-02,-7.578108614597199588e-02,-6.804832225352587527e-02,-6.057331715749462997e-02,-5.284055326504849548e-02,-4.510778937260237487e-02,-3.737502548015626813e-02,-2.964226158771016140e-02,-2.190949769526404078e-02,-1.443449259923279548e-02,-6.701728706786674872e-03,-2.775557561562891351e-17,0.000000000000000000e+00,-2.775557561562891351e-17,-2.775557561562891351e-17,-2.775557561562891351e-17,-2.775557561562891351e-17,-2.775557561562891351e-17,-2.775557561562891351e-17,-2.775557561562891351e-17,-2.775557561562891351e-17,-2.775557561562891351e-17,-7.511827781233382240e-03,-2.629139723431683784e-02,-4.507096668740026568e-02,-6.385053614048369353e-02,-8.263010559356712137e-02,-1.014096750466505492e-01,-1.195632588512978711e-01,-1.383428283043812990e-01,-1.402207852496896445e-01,-1.402207852496896445e-01
-1.402207852496896445e-01,-1.402207852496896445e-01,-1.402207852496896445e-01,-1.402207852496896445e-01,-1.402207852496896445e-01,-1.402207852496896445e-01,-1.402207852496896445e-01,-1.402207852496896445e-01,-1.402207852496896445e-01,-1.327457801536583992e-01,-1.250130162612122786e-01,-1.172802523687661580e-01,-1.095474884763200374e-01,-1.018147245838739168e-01,-9.433971948784267147e-02,-8.660695559539655086e-02,-7.887419170295044413e-02,-7.114142781050432351e-02,-6.340866391805820290e-02,-5.567590002561206841e-02,-4.794313613316596168e-02,-4.046813103713471638e-02,-3.273536714468859576e-02,-2.500260325224247515e-02,-1.726983935979635454e-02,-9.537075467350247804e-03,-1.804311574904127191e-03,-2.775557561562891351e-17,-2.775557561562891351e-17,-2.775557561562891351e-17,-2.775557561562891351e-17,-2.775557561562891351e-17,-2.775557561562891351e-17,-2.775557561562891351e-17,-2.775557561562891351e-17,-2.775557561562891351e-17,-2.775557561562891351e-17,-6.259856484361336904e-04,-1.940555510151956153e-02,-3.818512455460300326e-02,-5.633870835925031129e-02,-7.511827781233373913e-02,-9.389784726541718085e-02,-1.126774167185006087e-01,-1.314569861715840504e-01,-1.402207852496896445e-01,-1.402207852496896445e-01
-1.402207852496896445e-01,-1.402207852496896445e-01,-1.402207852496896445e-01,-1.402207852496896445e-01,-1.402207852496896445e-01,-1.402207852496896445e-01,-1.402207852496896445e-01,-1.402207852496896445e-01,-1.402207852496896445e-01,-1.355811269142219722e-01,-1.278483630217758515e-01,-1.203733579257446062e-01,-1.126405940332984856e-01,-1.049078301408523650e-01,-9.717506624840624441e-02,-8.944230235596013767e-02,-8.170953846351403094e-02,-7.423453336748277176e-02,-6.650176947503666502e-02,-5.876900558259053053e-02,-5.103624169014440992e-02,-4.330347779769828931e-02,-3.557071390525218257e-02,-2.809570880922092340e-02,-2.036294491677481666e-02,-1.263018102432869605e-02,-4.897417131882575436e-03,-2.775557561562891351e-17,-2.775557561562891351e-17,-2.775557561562891351e-17,-2.775557561562891351e-17,-2.775557561562891351e-17,-2.775557561562891351e-17,-2.775557561562891351e-17,-2.775557561562891351e-17,-2.775557561562891351e-17,-2.775557561562891351e-17,-2.775557561562891351e-17,-1.189372732028617929e-02,-3.067329677336963489e-02,-4.945286622645306274e-02,-6.823243567953649058e-02,-8.701200513261991842e-02,-1.051655889372672403e-01,-1.239451583903506682e-01,-1.402207852496896445e-01,-1.402207852496896445e-01
-1.402207852496896445e-01,-1.402207852496896445e-01,-1.402207852496896445e-01,-1.402207852496896445e-01,-1.402207852496896445e-01,-1.402207852496896445e-01,-1.402207852496896445e-01,-1.402207852496896445e-01,-1.402207852496896445e-01,-1.386742324712004204e-01,-1.309414685787542998e-01,-1.232087046863081792e-01,-1.154759407938620586e-01,-1.077431769014159518e-01,-1.002681718053846927e-01,-9.253540791293858592e-02,-8.480264402049246530e-02,-7.706988012804634469e-02,-6.933711623560022408e-02,-6.160435234315411734e-02,-5.412934724712285817e-02,-4.639658335467673755e-02,-3.866381946223061694e-02,-3.093105556978451021e-02,-2.319829167733838959e-02,-1.546552778489226898e-02,-7.990522688861023681e-03,-2.577587964149030686e-04,-2.775557561562891351e-17,-2.775557561562891351e-17,-2.775557561562891351e-17,-2.775557561562891351e-17,-2.775557561562891351e-17,-2.775557561562891351e-17,-2.775557561562891351e-17,-2.775557561562891351e-17,-2.775557561562891351e-17,-5.551115123125782702e-17,-5.007885187488930745e-03,-2.316146899213626653e-02,-4.194103844521968050e-02,-6.072060789830312222e-02,-7.950017735138655006e-02,-9.827974680446997791e-02,-1.170593162575534196e-01,-1.358388857106368475e-01,-1.402207852496896445e-01
-1.402207852496896445e-01,-1.402207852496896445e-01,-1.402207852496896445e-01,-1.402207852496896445e-01,-1.402207852496896445e-01,-1.402207852496896445e-01,-1.402207852496896445e-01,-1.402207852496896445e-01,-1.402207852496896445e-01,-1.402207852496896445e-01,-1.340345741357327480e-01,-1.263018102432866274e-01,-1.185690463508405068e-01,-1.108362824583944001e-01,-1.031035185659482795e-01,-9.537075467350215885e-02,-8.763799078105603824e-02,-8.016298568502479294e-02,-7.243022179257867232e-02,-6.469745790013255171e-02,-5.696469400768643110e-02,-4.923193011524031049e-02,-4.149916622279418987e-02,-3.402416112676295845e-02,-2.629139723431685172e-02,-1.855863334187071723e-02,-1.082586944942462437e-02,-3.093105556978476001e-03,-2.775557561562891351e-17,-2.775557561562891351e-17,-2.775557561562891351e-17,-2.775557561562891351e-17,-2.775557561562891351e-17,-2.775557561562891351e-17,-2.775557561562891351e-17,-2.775557561562891351e-17,-2.775557561562891351e-17,-2.775557561562891351e-17,-2.775557561562891351e-17,-1.627562685933899023e-02,-3.505519631242243195e-02,-5.383476576550585979e-02,-7.198834957015318170e-02,-9.076791902323660954e-02,-1.095474884763200374e-01,-1.283270579294034652e-01,-1.402207852496896445e-01
-1.402207852496896445e-01,-1.402207852496896445e-01,-1.402207852496896445e-01,-1.402207852496896445e-01,-1.402207852496896445e-01,-1.402207852496896445e-01,-1.402207852496896445e-01,-1.402207852496896445e-01,-1.402207852496896445e-01,-1.402207852496896445e-01,-1.368699208962963210e-01,-1.291371570038502004e-01,-1.214043931114040936e-01,-1.139293880153728344e-01,-1.061966241229267277e-01,-9.846386023048059322e-02,-9.073109633803448648e-02,-8.299833244558836587e-02,-7.526556855314225913e-02,-6.753280466069613852e-02,-6.005779956466487934e-02,-5.232503567221877261e-02,-4.459227177977265200e-02,-3.685950788732653138e-02,-2.912674399488041077e-02,-2.139398010243429016e-02,-1.391897500640304486e-02,-6.186211113956924246e-03,-2.775557561562891351e-17,-2.775557561562891351e-17,-2.775557561562891351e-17,-2.775557561562891351e-17,-2.775557561562891351e-17,-2.775557561562891351e-17,-2.775557561562891351e-17,-2.775557561562891351e-17,-2.775557561562891351e-17,-2.775557561562891351e-17,-5.551115123125782702e-17,-8.763799078105621865e-03,-2.754336853118904971e-02,-4.632293798427249143e-02,-6.510250743735591927e-02,-8.388207689043934712e-02,-1.026616463435227888e-01,-1.208152301481700969e-01,-1.395947996012535386e-01
-1.402207852496896445e-01,-1.402207852496896445e-01,-1.402207852496896445e-01,-1.402207852496896445e-01,-1.402207852496896445e-01,-1.402207852496896445e-01,-1.402207852496896445e-01,-1.402207852496896445e-01,-1.402207852496896445e-01,-1.402207852496896445e-01,-1.399630264532747692e-01,-1.322302625608286486e-01,-1.244974986683825419e-01,-1.167647347759364213e-01,-1.090319708834903006e-01,-1.012992069910441800e-01,-9.382420189501293473e-02,-8.609143800256681411e-02,-7.835867411012070738e-02,-7.062591021767458677e-02,-6.289314632522845228e-02,-5.516038243278233166e-02,-4.768537733675110024e-02,-3.995261344430497963e-02,-3.221984955185887289e-02,-2.448708565941273840e-02,-1.675432176696661779e-02,-9.021557874520497178e-03,-1.288793982074376565e-03,-2.775557561562891351e-17,-2.775557561562891351e-17,-2.775557561562891351e-17,-2.775557561562891351e-17,-2.775557561562891351e-17,-2.775557561562891351e-17,-2.775557561562891351e-17,-2.775557561562891351e-17,-2.775557561562891351e-17,-2.775557561562891351e-17,-1.877956945308373315e-03,-2.065752639839178728e-02,-3.881111020303912307e-02,-5.759067965612255091e-02,-7.637024910920597875e-02,-9.514981856228940660e-02,-1.139293880153728344e-01,-1.327089574684562623e-01
-1.402207852496896445e-01,-1.402207852496896445e-01,-1.402207852496896445e-01,-1.402207852496896445e-01,-1.402207852496896445e-01,-1.402207852496896445e-01,-1.402207852496896445e-01,-1.402207852496896445e-01,-1.402207852496896445e-01,-1.402207852496896445e-01,-1.402207852496896445e-01,-1.350656093213922215e-01,-1.273328454289461287e-01,-1.198578403329148695e-01,-1.121250764404687489e-01,-1.043923125480226283e-01,-9.665954865557650766e-02,-8.892678476313040092e-02,-8.119402087068428031e-02,-7.371901577465303501e-02,-6.598625188220691440e-02,-5.825348798976079379e-02,-5.052072409731467317e-02,-4.278796020486855256e-02,-3.505519631242243195e-02,-2.758019121639120053e-02,-1.984742732394506604e-02,-1.211466343149894542e-02,-4.381899539052824810e-03,-2.775557561562891351e-17,-2.775557561562891351e-17,-2.775557561562891351e-17,-2.775557561562891351e-17,-2.775557561562891351e-17,0.000000000000000000e+00,-2.775557561562891351e-17,-2.775557561562891351e-17,-2.775557561562891351e-17,-2.775557561562891351e-17,-2.775557561562891351e-17,-1.314569861715841892e-02,-3.192526807024186064e-02,-5.070483752332528848e-02,-6.948440697640871633e-02,-8.763799078105603824e-02,-1.064175602341394661e-01,-1.251971296872229078e-01
-1.402207852496896445e-01,-1.402207852496896445e-01,-1.402207852496896445e-01,-1.402207852496896445e-01,-1.402207852496896445e-01,-1.402207852496896445e-01,-1.402207852496896445e-01,-1.402207852496896445e-01,-1.402207852496896445e-01,-1.402207852496896445e-01,-1.402207852496896445e-01,-1.381587148783706698e-01,-1.304259509859245492e-01,-1.226931870934784424e-01,-1.149604232010323218e-01,-1.074854181050010765e-01,-9.975265421255495590e-02,-9.201989032010883529e-02,-8.428712642766271468e-02,-7.655436253521660794e-02,-6.882159864277048733e-02,-6.108883475032436672e-02,-5.361382965429312142e-02,-4.588106576184700081e-02,-3.814830186940088019e-02,-3.041553797695475958e-02,-2.268277408450863897e-02,-1.495001019206254611e-02,-7.475005096031300811e-03,-2.775557561562891351e-17,-2.775557561562891351e-17,-2.775557561562891351e-17,-2.775557561562891351e-17,-2.775557561562891351e-17,-2.775557561562891351e-17,-2.775557561562891351e-17,-2.775557561562891351e-17,-2.775557561562891351e-17,-2.775557561562891351e-17,-2.775557561562891351e-17,-6.259856484361142615e-03,-2.441344028900847840e-02,-4.319300974209190624e-02,-6.197257919517533409e-02,-8.075214864825877581e-02,-9.953171810134220365e-02,-1.183112875544256315e-01
-1.402207852496896445e-01,-1.402207852496896445e-01,-1.402207852496896445e-01,-1.402207852496896445e-01,-1.402207852496896445e-01,-1.402207852496896445e-01,-1.402207852496896445e-01,-1.402207852496896445e-01,-1.402207852496896445e-01,-1.402207852496896445e-01,-1.402207852496896445e-01,-1.402207852496896445e-01,-1.335190565429029974e-01,-1.257862926504568768e-01,-1.180535287580107701e-01,-1.103207648655646633e-01,-1.025880009731185427e-01,-9.485523708067242210e-02,-8.738023198464117680e-02,-7.964746809219505619e-02,-7.191470419974893558e-02,-6.418194030730282884e-02,-5.644917641485669435e-02,-4.871641252241057374e-02,-4.124140742637932844e-02,-3.350864353393320783e-02,-2.577587964148710109e-02,-1.804311574904096660e-02,-1.031035185659484599e-02,-2.577587964148725375e-03,-2.775557561562891351e-17,-2.775557561562891351e-17,-2.775557561562891351e-17,-2.775557561562891351e-17,-2.775557561562891351e-17,-2.775557561562891351e-17,-2.775557561562891351e-17,-2.775557561562891351e-17,-2.775557561562891351e-17,-2.775557561562891351e-17,-2.775557561562891351e-17,-1.752759815621122985e-02,-3.630716760929465770e-02,-5.508673706237809942e-02,-7.324032086702539357e-02,-9.201989032010883529e-02,-1.107994597731922631e-01
-1.402207852496896445e-01,-1.402207852496896445e-01,-1.402207852496896445e-01,-1.402207852496896445e-01,-1.402207852496896445e-01,-1.402207852496896445e-01,-1.402207852496896445e-01,-1.402207852496896445e-01,-1.402207852496896445e-01,-1.402207852496896445e-01,-1.402207852496896445e-01,-1.402207852496896445e-01,-1.363544033034665981e-01,-1.286216394110204775e-01,-1.208888755185743569e-01,-1.134138704225431116e-01,-1.056811065300969910e-01,-9.794834263765087035e-02,-9.021557874520474973e-02,-8.248281485275862912e-02,-7.475005096031250851e-02,-6.727504586428126321e-02,-5.954228197183514260e-02,-5.180951807938902198e-02,-4.407675418694290137e-02,-3.634399029449679464e-02,-2.861122640205066014e-02,-2.113622130601942872e-02,-1.340345741357329423e-02,-5.670693521127201375e-03,-2.775557561562891351e-17,-2.775557561562891351e-17,-2.775557561562891351e-17,0.000000000000000000e+00,-2.775557561562891351e-17,-2.775557561562891351e-17,-2.775557561562891351e-17,-2.775557561562891351e-17,-2.775557561562891351e-17,-2.775557561562891351e-17,-2.775557561562891351e-17,-1.001577037497786149e-02,-2.879533982806128933e-02,-4.757490928114473105e-02,-6.635447873422814502e-02,-8.513404818731157286e-02,-1.039136176403950007e-01
-1.402207852496896445e-01,-1.402207852496896445e-01,-1.402207852496896445e-01,-1.402207852496896445e-01,-1.402207852496896445e-01,-1.402207852496896445e-01,-1.402207852496896445e-01,-1.402207852496896445e-01,-1.402207852496896445e-01,-1.402207852496896445e-01,-1.402207852496896445e-01,-1.402207852496896445e-01,-1.394475088604450463e-01,-1.317147449679989257e-01,-1.239819810755528051e-01,-1.162492171831066845e-01,-1.085164532906605639e-01,-1.007836893982144433e-01,-9.330868430218319798e-02,-8.557592040973707737e-02,-7.784315651729095675e-02,-7.011039262484485002e-02,-6.237762873239871553e-02,-5.464486483995259491e-02,-4.716985974392134962e-02,-3.943709585147524288e-02,-3.170433195902910839e-02,-2.397156806658301553e-02,-1.623880417413688104e-02,-8.506040281690774307e-03,-1.031035185659529008e-03,-2.775557561562891351e-17,-2.775557561562891351e-17,-2.775557561562891351e-17,-2.775557561562891351e-17,-2.775557561562891351e-17,-2.775557561562891351e-17,-2.775557561562891351e-17,-2.775557561562891351e-17,-2.775557561562891351e-17,-2.775557561562891351e-17,-3.129928242180612941e-03,-2.190949769526402691e-02,-4.006308149991134882e-02,-5.884265095299477666e-02,-7.762222040607820450e-02,-9.640178985916163235e-02
-1.402207852496896445e-01,-1.402207852496896445e-01,-1.402207852496896445e-01,-1.402207852496896445e-01,-1.402207852496896445e-01,-1.402207852496896445e-01,-1.402207852496896445e-01,-1.402207852496896445e-01,-1.402207852496896445e-01,-1.402207852496896445e-01,-1.402207852496896445e-01,-1.402207852496896445e-01,-1.402207852496896445e-01,-1.345500917285624987e-01,-1.270750866325312534e-01,-1.193423227400851327e-01,-1.116095588476390121e-01,-1.038767949551928915e-01,-9.614403106274677091e-02,-8.841126717030065030e-02,-8.067850327785454356e-02,-7.320349818182328439e-02,-6.547073428937717765e-02,-5.773797039693104316e-02,-5.000520650448492255e-02,-4.227244261203881581e-02,-3.453967871959268132e-02,-2.706467362356143602e-02,-1.933190973111531541e-02,-1.159914583866919480e-02,-3.866381946223101940e-03,-2.775557561562891351e-17,-2.775557561562891351e-17,-2.775557561562891351e-17,-2.775557561562891351e-17,-2.775557561562891351e-17,-5.551115123125782702e-17,-2.775557561562891351e-17,-2.775557561562891351e-17,-2.775557561562891351e-17,-2.775557561562891351e-17,-2.775557561562891351e-17,-1.439766991403065854e-02,-3.317723936711408639e-02,-5.195680882019751423e-02,-7.073637827328094208e-02,-8.888996207792826398e-02
-1.402207852496896445e-01,-1.402207852496896445e-01,-1.402207852496896445e-01,-1.402207852496896445e-01,-1.402207852496896445e-01,-1.402207852496896445e-01,-1.402207852496896445e-01,-1.402207852496896445e-01,-1.402207852496896445e-01,-1.402207852496896445e-01,-1.402207852496896445e-01,-1.402207852496896445e-01,-1.402207852496896445e-01,-1.376431972855409469e-01,-1.299104333930948263e-01,-1.221776695006487057e-01,-1.144449056082025851e-01,-1.069699005121713398e-01,-9.923713661972521916e-02,-9.150437272727909854e-02,-8.377160883483297793e-02,-7.603884494238685732e-02,-6.830608104994075058e-02,-6.083107595390949141e-02,-5.309831206146337079e-02,-4.536554816901725018e-02,-3.763278427657112957e-02,-2.990002038412503671e-02,-2.216725649167890222e-02,-1.443449259923276773e-02,-6.959487503201550185e-03,-2.775557561562891351e-17,-2.775557561562891351e-17,-2.775557561562891351e-17,-2.775557561562891351e-17,-2.775557561562891351e-17,-2.775557561562891351e-17,-2.775557561562891351e-17,-2.775557561562891351e-17,-2.775557561562891351e-17,-2.775557561562891351e-17,-2.775557561562891351e-17,-6.885842132797276305e-03,-2.566541158588071803e-02,-4.444498103896415975e-02,-6.322455049204757371e-02,-8.200411994513101543e-02
-1.402207852496896445e-01,-1.402207852496896445e-01,-1.402207852496896445e-01,-1.402207852496896445e-01,-1.402207852496896445e-01,-1.402207852496896445e-01,-1.402207852496896445e-01,-1.402207852496896445e-01,-1.402207852496896445e-01,-1.402207852496896445e-01,-1.402207852496896445e-01,-1.402207852496896445e-01,-1.402207852496896445e-01,-1.402207852496896445e-01,-1.330035389500732745e-01,-1.252707750576271539e-01,-1.175380111651810333e-01,-1.098052472727349127e-01,-1.020724833802887921e-01,-9.433971948784267147e-02,-8.686471439181142618e-02,-7.913195049936530556e-02,-7.139918660691919883e-02,-6.366642271447307821e-02,-5.593365882202694372e-02,-4.820089492958082311e-02,-4.072588983354959169e-02,-3.299312594110347108e-02,-2.526036204865736434e-02,-1.752759815621121597e-02,-9.794834263765123117e-03,-2.062070371319002504e-03,-2.775557561562891351e-17,-2.775557561562891351e-17,-2.775557561562891351e-17,-2.775557561562891351e-17,-2.775557561562891351e-17,-2.775557561562891351e-17,-2.775557561562891351e-17,-2.775557561562891351e-17,-2.775557561562891351e-17,-2.775557561562891351e-17,-2.775557561562891351e-17,-1.877956945308345560e-02,-3.755913890616689732e-02,-5.571272271081420535e-02,-7.449229216389763319e-02
-1.402207852496896445e-01,-1.402207852496896445e-01,-1.402207852496896445e-01,-1.402207852496896445e-01,-1.402207852496896445e-01,-1.402207852496896445e-01,-1.402207852496896445e-01,-1.402207852496896445e-01,-1.402207852496896445e-01,-1.402207852496896445e-01,-1.402207852496896445e-01,-1.402207852496896445e-01,-1.402207852496896445e-01,-1.402207852496896445e-01,-1.358388857106368475e-01,-1.281061218181907269e-01,-1.206311167221594816e-01,-1.128983528297133609e-01,-1.051655889372672403e-01,-9.743282504482111972e-02,-8.970006115237499911e-02,-8.196729725992889237e-02,-7.423453336748277176e-02,-6.675952827145152646e-02,-5.902676437900539197e-02,-5.129400048655927136e-02,-4.356123659411317850e-02,-3.582847270166705789e-02,-2.809570880922092340e-02,-2.062070371318967810e-02,-1.288793982074357136e-02,-5.155175928297450749e-03,-2.775557561562891351e-17,-2.775557561562891351e-17,-2.775557561562891351e-17,-2.775557561562891351e-17,0.000000000000000000e+00,-2.775557561562891351e-17,-2.775557561562891351e-17,-2.775557561562891351e-17,-2.775557561562891351e-17,-2.775557561562891351e-17,-2.775557561562891351e-17,-1.126774167185007336e-02,-3.004731112493350120e-02,-4.882688057801695680e-02,-6.760645003110037077e-02
-1.402207852496896445e-01,-1.402207852496896445e-01,-1.402207852496896445e-01,-1.402207852496896445e-01,-1.402207852496896445e-01,-1.402207852496896445e-01,-1.402207852496896445e-01,-1.402207852496896445e-01,-1.402207852496896445e-01,-1.402207852496896445e-01,-1.402207852496896445e-01,-1.402207852496896445e-01,-1.402207852496896445e-01,-1.402207852496896445e-01,-1.389319912676152957e-01,-1.311992273751691751e-01,-1.234664634827230545e-01,-1.157336995902769339e-01,-1.080009356978308133e-01,-1.005259306017995680e-01,-9.279316670935344735e-02,-8.506040281690732674e-02,-7.732763892446122000e-02,-6.959487503201509939e-02,-6.186211113956897878e-02,-5.438710604353773348e-02,-4.665434215109159899e-02,-3.892157825864550613e-02,-3.118881436619937164e-02,-2.345605047375326491e-02,-1.572328658130713042e-02,-7.990522688861023681e-03,-5.155175928297506260e-04,-2.775557561562891351e-17,-2.775557561562891351e-17,-2.775557561562891351e-17,-6.219050442152429525e-02,-6.219050442152429525e-02,-6.219050442152429525e-02,-6.219050442152429525e-02,-2.775557561562891351e-17,-2.775557561562891351e-17,-2.775557561562891351e-17,-4.381899539052852566e-03,-2.316146899213625265e-02,-4.131505279678357456e-02,-6.009462224986700241e-02
-1.402207852496896445e-01,-1.402207852496896445e-01,-1.402207852496896445e-01,-1.402207852496896445e-01,-1.402207852496896445e-01,-1.402207852496896445e-01,-1.402207852496896445e-01,-1.402207852496896445e-01,-1.402207852496896445e-01,-1.402207852496896445e-01,-1.402207852496896445e-01,-1.402207852496896445e-01,-1.402207852496896445e-01,-1.402207852496896445e-01,-1.402207852496896445e-01,-1.340345741357327480e-01,-1.265595690397015027e-01,-1.188268051472553821e-01,-1.110940412548092615e-01,-1.033612773623631409e-01,-9.562851346991702028e-02,-8.789574957747089967e-02,-8.042074448143966825e-02,-7.268798058899354764e-02,-6.495521669654742702e-02,-5.722245280410132029e-02,-4.948968891165518580e-02,-4.175692501920906519e-02,-3.428191992317781989e-02,-2.654915603073169927e-02,-1.881639213828557866e-02,-1.108362824583947193e-02,-3.350864353393351314e-03,-2.775557561562891351e-17,-2.775557561562891351e-17,-2.775557561562891351e-17,-6.219050442152429525e-02,-6.219050442152429525e-02,-6.219050442152429525e-02,-6.219050442152429525e-02,-2.775557561562891351e-17,-2.775557561562891351e-17,-2.775557561562891351e-17,-2.775557561562891351e-17,-1.564964121090287041e-02,-3.442921066398631214e-02,-5.320878011706973998e-02
-1.402207852496896445e-01,-1.402207852496896445e-01,-1.402207852496896445e-01,-1.402207852496896445e-01,-1.402207852496896445e-01,-1.402207852496896445e-01,-1.402207852496896445e-01,-1.402207852496896445e-01,-1.402207852496896445e-01,-1.402207852496896445e-01,-1.402207852496896445e-01,-1.402207852496896445e-01,-1.402207852496896445e-01,-1.402207852496896445e-01,-1.402207852496896445e-01,-1.371276796927111963e-01,-1.293949158002650757e-01,-1.216621519078189551e-01,-1.139293880153728483e-01,-1.064543829193415891e-01,-9.872161902689546853e-02,-9.098885513444934792e-02,-8.325609124200324118e-02,-7.552332734955712057e-02,-6.779056345711101383e-02,-6.031555836107975466e-02,-5.258279446863363404e-02,-4.485003057618752731e-02,-3.711726668374140670e-02,-2.938450279129529996e-02,-2.165173889884916547e-02,-1.417673380281789242e-02,-6.443969910371799559e-03,-2.775557561562891351e-17,-2.775557561562891351e-17,0.000000000000000000e+00,-6.219050442152429525e-02,-6.219050442152429525e-02,-6.219050442152429525e-02,-6.219050442152429525e-02,-2.775557561562891351e-17,-2.775557561562891351e-17,-2.775557561562891351e-17,-5.551115123125782702e-17,-8.137813429669515930e-03,-2.691738288275295765e-02,-4.569695233583637162e-02
-1.402207852496896445e-01,-1.402207852496896445e-01,-1.402207852496896445e-01,-1.402207852496896445e-01,-1.402207852496896445e-01,-1.402207852496896445e-01,-1.402207852496896445e-01,-1.402207852496896445e-01,-1.402207852496896445e-01,-1.402207852496896445e-01,-1.402207852496896445e-01,-1.402207852496896445e-01,-1.402207852496896445e-01,-1.402207852496896445e-01,-1.402207852496896445e-01,-1.402207852496896445e-01,-1.324880213572435239e-01,-1.247552574647974033e-01,-1.170224935723512827e-01,-1.092897296799051760e-01,-1.015569657874590553e-01,-9.408196069142779616e-02,-8.634919679898168943e-02,-7.861643290653556881e-02,-7.088366901408944820e-02,-6.315090512164332759e-02,-5.541814122919722085e-02,-4.768537733675110024e-02,-4.021037224071985494e-02,-3.247760834827372045e-02,-2.474484445582761372e-02,-1.701208056338149310e-02,-9.279316670935372491e-03,-1.546552778489251878e-03,-2.775557561562891351e-17,-2.775557561562891351e-17,-6.219050442152429525e-02,-6.219050442152429525e-02,-6.219050442152429525e-02,-6.219050442152429525e-02,-5.551115123125782702e-17,-2.775557561562891351e-17,-2.775557561562891351e-17,-2.775557561562891351e-17,-1.251971296872267381e-03,-2.003154074995568135e-02,-3.881111020303912307e-02
-1.402207852496896445e-01,-1.402207852496896445e-01,-1.402207852496896445e-01,-1.402207852496896445e-01,-1.402207852496896445e-01,-1.402207852496896445e-01,-1.402207852496896445e-01,-1.402207852496896445e-01,-1.402207852496896445e-01,-1.402207852496896445e-01,-1.402207852496896445e-01,-1.402207852496896445e-01,-1.402207852496896445e-01,-1.402207852496896445e-01,-1.402207852496896445e-01,-1.402207852496896445e-01,-1.353233681178070968e-01,-1.275906042253609762e-01,-1.201155991293297309e-01,-1.123828352368836103e-01,-1.046500713444375036e-01,-9.691730745199138297e-02,-8.918454355954527624e-02,-8.145177966709914175e-02,-7.397677457106789645e-02,-6.624401067862178971e-02,-5.851124678617565522e-02,-5.077848289372953461e-02,-4.304571900128342787e-02,-3.531295510883730726e-02,-2.758019121639118665e-02,-2.010518612035994135e-02,-1.237242222791382074e-02,-4.639658335467700123e-03,-2.775557561562891351e-17,-2.775557561562891351e-17,-2.775557561562891351e-17,-2.775557561562891351e-17,-2.775557561562891351e-17,-2.775557561562891351e-17,-2.775557561562891351e-17,-2.775557561562891351e-17,-2.775557561562891351e-17,-2.775557561562891351e-17,-2.775557561562891351e-17,-1.251971296872231298e-02,-3.129928242180574083e-02
-1.402207852496896445e-01,-1.402207852496896445e-01,-1.402207852496896445e-01,-1.402207852496896445e-01,-1.402207852496896445e-01,-1.402207852496896445e-01,-1.402207852496896445e-01,-1.402207852496896445e-01,-1.402207852496896445e-01,-1.402207852496896445e-01,-1.402207852496896445e-01,-1.402207852496896445e-01,-1.402207852496896445e-01,-1.402207852496896445e-01,-1.402207852496896445e-01,-1.402207852496896445e-01,-1.384164736747855451e-01,-1.306837097823394245e-01,-1.229509458898933177e-01,-1.152181819974471971e-01,-1.074854181050010765e-01,-1.000104130089698312e-01,-9.227764911652371060e-02,-8.454488522407758999e-02,-7.681212133163148326e-02,-6.907935743918536264e-02,-6.134659354673924203e-02,-5.387158845070799673e-02,-4.613882455826187612e-02,-3.840606066581575551e-02,-3.067329677336963489e-02,-2.294053288092351428e-02,-1.520776898847739367e-02,-7.732763892446148368e-03,-2.775557561562891351e-17,-2.775557561562891351e-17,-2.775557561562891351e-17,-2.775557561562891351e-17,-2.775557561562891351e-17,-2.775557561562891351e-17,-2.775557561562891351e-17,-5.551115123125782702e-17,-2.775557561562891351e-17,-2.775557561562891351e-17,-2.775557561562891351e-17,-5.633870835925064435e-03,-2.378745464057237247e-02
-1.402207852496896445e-01,-1.402207852496896445e-01,-1.402207852496896445e-01,-1.402207852496896445e-01,-1.402207852496896445e-01,-1.402207852496896445e-01,-1.402207852496896445e-01,-1.402207852496896445e-01,-1.402207852496896445e-01,-1.402207852496896445e-01,-1.402207852496896445e-01,-1.402207852496896445e-01,-1.402207852496896445e-01,-1.402207852496896445e-01,-1.402207852496896445e-01,-1.402207852496896445e-01,-1.402207852496896445e-01,-1.337768153393178727e-01,-1.260440514468717521e-01,-1.183112875544256454e-01,-1.105785236619795248e-01,-1.028457597695334041e-01,-9.511299587708729741e-02,-8.738023198464116292e-02,-7.990522688860993150e-02,-7.217246299616381089e-02,-6.443969910371769028e-02,-5.670693521127156966e-02,-4.897417131882544905e-02,-4.124140742637932844e-02,-3.376640233034808314e-02,-2.603363843790196253e-02,-1.830087454545584191e-02,-1.056811065300972130e-02,-2.835346760563600688e-03,-2.775557561562891351e-17,-2.775557561562891351e-17,-2.775557561562891351e-17,-5.551115123125782702e-17,-2.775557561562891351e-17,-2.775557561562891351e-17,-2.775557561562891351e-17,-2.775557561562891351e-17,-2.775557561562891351e-17,-2.775557561562891351e-17,-2.775557561562891351e-17,-1.690161250777511004e-02
-1.402207852496896445e-01,-1.402207852496896445e-01,-1.402207852496896445e-01,-1.402207852496896445e-01,-1.402207852496896445e-01,-1.402207852496896445e-01,-1.402207852496896445e-01,-1.402207852496896445e-01,-1.402207852496896445e-01,-1.402207852496896445e-01,-1.402207852496896445e-01,-1.402207852496896445e-01,-1.402207852496896445e-01,-1.402207852496896445e-01,-1.402207852496896445e-01,-1.402207852496896445e-01,-1.402207852496896445e-01,-1.366121620998814457e-01,-1.288793982074353250e-01,-1.211466343149892183e-01,-1.136716292189579730e-01,-1.059388653265118524e-01,-9.820610143406573178e-02,-9.047333754161962505e-02,-8.274057364917350443e-02,-7.500780975672738382e-02,-6.753280466069613852e-02,-5.980004076825000403e-02,-5.206727687580389730e-02,-4.433451298335777668e-02,-3.660174909091166995e-02,-2.886898519846553546e-02,-2.113622130601944260e-02,-1.366121620998816955e-02,-5.928452317542048933e-03,-2.775557561562891351e-17,-2.775557561562891351e-17,0.000000000000000000e+00,-2.775557561562891351e-17,-2.775557561562891351e-17,-2.775557561562891351e-17,-2.775557561562891351e-17,-2.775557561562891351e-17,-2.775557561562891351e-17,-2.775557561562891351e-17,-2.775557561562891351e-17,-9.389784726541755555e-03
-1.402207852496896445e-01,-1.402207852496896445e-01,-1.402207852496896445e-01,-1.402207852496896445e-01,-1.402207852496896445e-01,-1.402207852496896445e-01,-1.402207852496896445e-01,-1.402207852496896445e-01,-1.402207852496896445e-01,-1.402207852496896445e-01,-1.402207852496896445e-01,-1.402207852496896445e-01,-1.402207852496896445e-01,-1.402207852496896445e-01,-1.402207852496896445e-01,-1.402207852496896445e-01,-1.402207852496896445e-01,-1.397052676568598939e-01,-1.319725037644137733e-01,-1.242397398719676666e-01,-1.165069759795215459e-01,-1.087742120870754392e-01,-1.010414481946293186e-01,-9.356644309859805941e-02,-8.583367920615195268e-02,-7.810091531370583207e-02,-7.036815142125971145e-02,-6.263538752881359084e-02,-5.490262363636747023e-02,-4.742761854033621105e-02,-3.969485464789011819e-02,-3.196209075544399758e-02,-2.422932686299786309e-02,-1.649656297055174248e-02,-8.763799078105649620e-03,-1.031035185659529008e-03,-2.775557561562891351e-17,-2.775557561562891351e-17,-2.775557561562891351e-17,-2.775557561562891351e-17,-2.775557561562891351e-17,-2.775557561562891351e-17,-2.775557561562891351e-17,-2.775557561562891351e-17,-2.775557561562891351e-17,-2.775557561562891351e-17,-2.503942593744479250e-03
-1.402207852496896445e-01,-1.402207852496896445e-01,-1.402207852496896445e-01,-1.402207852496896445e-01,-1.402207852496896445e-01,-1.402207852496896445e-01,-1.402207852496896445e-01,-1.402207852496896445e-01,-1.402207852496896445e-01,-1.402207852496896445e-01,-1.402207852496896445e-01,-1.402207852496896445e-01,-1.402207852496896445e-01,-1.402207852496896445e-01,-1.402207852496896445e-01,-1.402207852496896445e-01,-1.402207852496896445e-01,-1.402207852496896445e-01,-1.348078505249773740e-01,-1.270750866325312534e-01,-1.196000815364999942e-01,-1.118673176440538736e-01,-1.041345537516077668e-01,-9.640178985916163235e-02,-8.866902596671552561e-02,-8.093626207426940500e-02,-7.346125697823815970e-02,-6.572849308579203909e-02,-5.799572919334591847e-02,-5.026296530089979786e-02,-4.253020140845369113e-02,-3.479743751600755663e-02,-2.732243241997631134e-02,-1.958966852753019072e-02,-1.185690463508407011e-02,-4.124140742637977253e-03,-2.775557561562891351e-17,-2.775557561562891351e-17,-2.775557561562891351e-17,-2.775557561562891351e-17,-2.775557561562891351e-17,-2.775557561562891351e-17,-2.775557561562891351e-17,-2.775557561562891351e-17,-2.775557561562891351e-17,-2.775557561562891351e-17,-2.775557561562891351e-17
-1.402207852496896445e-01,-1.402207852496896445e-01,-1.402207852496896445e-01,-1.402207852496896445e-01,-1.402207852496896445e-01,-1.402207852496896445e-01,-1.402207852496896445e-01,-1.402207852496896445e-01,-1.402207852496896445e-01,-1.402207852496896445e-01,-1.402207852496896445e-01,-1.402207852496896445e-01,-1.402207852496896445e-01,-1.402207852496896445e-01,-1.402207852496896445e-01,-1.402207852496896445e-01,-1.402207852496896445e-01,-1.402207852496896445e-01,-1.379009560819558222e-01,-1.301681921895097016e-01,-1.224354282970635810e-01,-1.147026644046174604e-01,-1.072276593085862151e-01,-9.949489541614009447e-02,-9.176213152369397386e-02,-8.402936763124785324e-02,-7.629660373880173263e-02,-6.856383984635562590e-02,-6.083107595390949141e-02,-5.335607085787824611e-02,-4.562330696543212549e-02,-3.789054307298600488e-02,-3.015777918053988427e-02,-2.242501528809377753e-02,-1.469225139564764304e-02,-7.217246299616425498e-03,0.000000000000000000e+00,-2.775557561562891351e-17,-2.775557561562891351e-17,-2.775557561562891351e-17,-2.775557561562891351e-17,-2.775557561562891351e-17,-2.775557561562891351e-17,-2.775557561562891351e-17,-2.775557561562891351e-17,-2.775557561562891351e-17,-2.775557561562891351e-17
-1.402207852496896445e-01,-1.402207852496896445e-01,-1.402207852496896445e-01,-1.402207852496896445e-01,-1.402207852496896445e-01,-1.402207852496896445e-01,-1.402207852496896445e-01,-1.402207852496896445e-01,-1.402207852496896445e-01,-1.402207852496896445e-01,-1.402207852496896445e-01,-1.402207852496896445e-01,-1.402207852496896445e-01,-1.402207852496896445e-01,-1.402207852496896445e-01,-1.402207852496896445e-01,-1.402207852496896445e-01,-1.402207852496896445e-01,-1.402207852496896445e-01,-1.332612977464881499e-01,-1.255285338540420292e-01,-1.177957699615959086e-01,-1.100630060691497880e-01,-1.023302421767036674e-01,-9.459747828425754679e-02,-8.712247318822630149e-02,-7.938970929578018088e-02,-7.165694540333407414e-02,-6.392418151088793965e-02,-5.619141761844181904e-02,-4.845865372599569842e-02,-4.072588983354959169e-02,-3.325088473751833251e-02,-2.551812084507223966e-02,-1.778535695262610516e-02,-1.005259306017999843e-02,-2.319829167733850062e-03,-2.775557561562891351e-17,-2.775557561562891351e-17,-2.775557561562891351e-17,-2.775557561562891351e-17,-2.775557561562891351e-17,-2.775557561562891351e-17,-2.775557561562891351e-17,-2.775557561562891351e-17,0.000000000000000000e+00,0.000000000000000000e+00
-1.402207852496896445e-01,-1.402207852496896445e-01,-1.402207852496896445e-01,-1.402207852496896445e-01,-1.402207852496896445e-01,-1.402207852496896445e-01,-1.402207852496896445e-01,-1.402207852496896445e-01,-1.402207852496896445e-01,-1.402207852496896445e-01,-1.402207852496896445e-01,-1.402207852496896445e-01,-1.402207852496896445e-01,-1.402207852496896445e-01,-1.402207852496896445e-01,-1.402207852496896445e-01,-1.402207852496896445e-01,-1.402207852496896445e-01,-1.402207852496896445e-01,-1.360966445070517228e-01,-1.283638806146056022e-01,-1.206311167221594816e-01,-1.131561116261282363e-01,-1.054233477336821156e-01,-9.769058384123599503e-02,-8.995781994878987442e-02,-8.222505605634375381e-02,-7.449229216389763319e-02,-6.701728706786638790e-02,-5.928452317542026728e-02,-5.155175928297414667e-02,-4.381899539052803993e-02,-3.608623149808190544e-02,-2.835346760563579871e-02,-2.087846250960455341e-02,-1.314569861715844667e-02,-5.412934724712298307e-03,-2.775557561562891351e-17,-2.775557561562891351e-17,-2.775557561562891351e-17,0.000000000000000000e+00,-2.775557561562891351e-17,-2.775557561562891351e-17,-2.775557561562891351e-17,-2.775557561562891351e-17,-5.551115123125782702e-17,-3.067329677336963489e-02
-1.402207852496896445e-01,-1.402207852496896445e-01,-1.402207852496896445e-01,-1.402207852496896445e-01,-1.402207852496896445e-01,-1.402207852496896445e-01,-1.402207852496896445e-01,-1.402207852496896445e-01,-1.402207852496896445e-01,-1.402207852496896445e-01,-1.402207852496896445e-01,-1.402207852496896445e-01,-1.402207852496896445e-01,-1.402207852496896445e-01,-1.402207852496896445e-01,-1.402207852496896445e-01,-1.402207852496896445e-01,-1.402207852496896445e-01,-1.402207852496896445e-01,-1.391897500640301710e-01,-1.314569861715840504e-01,-1.237242222791379298e-01,-1.159914583866918092e-01,-1.082586944942456886e-01,-1.005259306017995680e-01,-9.305092550576832267e-02,-8.531816161332220205e-02,-7.758539772087608144e-02,-6.985263382842997471e-02,-6.211986993598384021e-02,-5.438710604353771960e-02,-4.691210094750647430e-02,-3.917933705506035369e-02,-3.144657316261423308e-02,-2.371380927016814022e-02,-1.598104537772200573e-02,-8.248281485275898994e-03,-7.732763892446259391e-04,-2.775557561562891351e-17,-2.775557561562891351e-17,-2.775557561562891351e-17,-2.775557561562891351e-17,-2.775557561562891351e-17,-8.763799078105621865e-03,-6.134659354673924203e-02,-1.095474884763200374e-01,-1.402207852496896445e-01
-1.402207852496896445e-01,-1.402207852496896445e-01,-1.402207852496896445e-01,-1.402207852496896445e-01,-1.402207852496896445e-01,-1.402207852496896445e-01,-1.402207852496896445e-01,-1.402207852496896445e-01,-1.402207852496896445e-01,-1.402207852496896445e-01,-1.402207852496896445e-01,-1.402207852496896445e-01,-1.402207852496896445e-01,-1.402207852496896445e-01,-1.402207852496896445e-01,-1.402207852496896445e-01,-1.402207852496896445e-01,-1.402207852496896445e-01,-1.402207852496896445e-01,-1.402207852496896445e-01,-1.342923329321476233e-01,-1.268173278361163780e-01,-1.190845639436702574e-01,-1.113518000512241368e-01,-1.036190361587780162e-01,-9.588627226633189560e-02,-8.815350837388577498e-02,-8.067850327785452968e-02,-7.294573938540840907e-02,-6.521297549296231622e-02,-5.748021160051618172e-02,-4.974744770807004723e-02,-4.201468381562394050e-02,-3.428191992317781989e-02,-2.680691482714658846e-02,-1.907415093470044010e-02,-1.134138704225434724e-02,-3.608623149808226627e-03,-2.775557561562891351e-17,-2.775557561562891351e-17,-2.775557561562891351e-17,-3.943709585147522900e-02,-9.201989032010883529e-02,-1.402207852496896445e-01,-1.402207852496896445e-01,-1.402207852496896445e-01,-1.402207852496896445e-01
-1.402207852496896445e-01,-1.402207852496896445e-01,-1.402207852496896445e-01,-1.402207852496896445e-01,-1.402207852496896445e-01,-1.402207852496896445e-01,-1.402207852496896445e-01,-1.402207852496896445e-01,-1.402207852496896445e-01,-1.402207852496896445e-01,-1.402207852496896445e-01,-1.402207852496896445e-01,-1.402207852496896445e-01,-1.402207852496896445e-01,-1.402207852496896445e-01,-1.402207852496896445e-01,-1.402207852496896445e-01,-1.402207852496896445e-01,-1.402207852496896445e-01,-1.402207852496896445e-01,-1.373854384891260716e-01,-1.296526745966799510e-01,-1.219199107042338304e-01,-1.141871468117877098e-01,-1.067121417157564645e-01,-9.897937782331034384e-02,-9.124661393086422323e-02,-8.351385003841810262e-02,-7.578108614597199588e-02,-6.804832225352587527e-02,-6.057331715749461609e-02,-5.284055326504850936e-02,-4.510778937260238874e-02,-3.737502548015626813e-02,-2.964226158771016140e-02,-2.190949769526404078e-02,-1.417673380281789242e-02,-6.701728706786674872e-03,-1.752759815621122985e-02,-7.011039262484483614e-02,-1.183112875544256454e-01,-1.402207852496896445e-01,-1.402207852496896445e-01,-1.402207852496896445e-01,-1.402207852496896445e-01,-1.402207852496896445e-01,-1.402207852496896445e-01
-1.402207852496896445e-01,-1.402207852496896445e-01,-1.402207852496896445e-01,-1.402207852496896445e-01,-1.402207852496896445e-01,-1.402207852496896445e-01,-1.402207852496896445e-01,-1.402207852496896445e-01,-1.402207852496896445e-01,-1.402207852496896445e-01,-1.402207852496896445e-01,-1.402207852496896445e-01,-1.402207852496896445e-01,-1.402207852496896445e-01,-1.402207852496896445e-01,-1.402207852496896445e-01,-1.402207852496896445e-01,-1.402207852496896445e-01,-1.402207852496896445e-01,-1.402207852496896445e-01,-1.402207852496896445e-01,-1.327457801536583992e-01,-1.250130162612122786e-01,-1.172802523687661580e-01,-1.095474884763200374e-01,-1.018147245838739168e-01,-9.408196069142779616e-02,-8.660695559539655086e-02,-7.887419170295044413e-02,-7.114142781050432351e-02,-6.340866391805820290e-02,-5.567590002561208229e-02,-4.794313613316596168e-02,-4.046813103713471638e-02,-3.273536714468859576e-02,-2.500260325224247515e-02,-5.953422700944717427e-02,-1.034659918734066875e-01,-1.402207852496896445e-01,-1.402207852496896445e-01,-1.402207852496896445e-01,-1.402207852496896445e-01,-1.402207852496896445e-01,-1.402207852496896445e-01,-1.402207852496896445e-01,-1.402207852496896445e-01,-1.402207852496896445e-01
-1.402207852496896445e-01,-1.402207852496896445e-01,-1.402207852496896445e-01,-1.402207852496896445e-01,-1.402207852496896445e-01,-1.402207852496896445e-01,-1.402207852496896445e-01,-1.402207852496896445e-01,-1.402207852496896445e-01,-1.402207852496896445e-01,-1.402207852496896445e-01,-1.402207852496896445e-01,-1.402207852496896445e-01,-1.402207852496896445e-01,-1.402207852496896445e-01,-1.402207852496896445e-01,-1.402207852496896445e-01,-1.402207852496896445e-01,-1.402207852496896445e-01,-1.402207852496896445e-01,-1.402207852496896445e-01,-1.355811269142219722e-01,-1.278483630217758515e-01,-1.203733579257446062e-01,-1.126405940332984856e-01,-1.049078301408523650e-01,-9.717506624840624441e-02,-8.944230235596012379e-02,-8.170953846351401706e-02,-7.397677457106789645e-02,-6.650176947503666502e-02,-5.876900558259053053e-02,-5.103624169014440992e-02,-6.147547294494666581e-02,-9.443637903649824972e-02,-1.296848944462317965e-01,-1.402207852496896445e-01,-1.402207852496896445e-01,-1.402207852496896445e-01,-1.402207852496896445e-01,-1.402207852496896445e-01,-1.402207852496896445e-01,-1.402207852496896445e-01,-1.402207852496896445e-01,-1.402207852496896445e-01,-1.402207852496896445e-01,-1.402207852496896445e-01
-1.402207852496896445e-01,-1.402207852496896445e-01,-1.402207852496896445e-01,-1.402207852496896445e-01,-1.402207852496896445e-01,-1.402207852496896445e-01,-1.402207852496896445e-01,-1.402207852496896445e-01,-1.402207852496896445e-01,-1.402207852496896445e-01,-1.402207852496896445e-01,-1.402207852496896445e-01,-1.402207852496896445e-01,-1.402207852496896445e-01,-1.402207852496896445e-01,-1.402207852496896445e-01,-1.402207852496896445e-01,-1.402207852496896445e-01,-1.402207852496896445e-01,-1.402207852496896445e-01,-1.402207852496896445e-01,-1.386742324712004204e-01,-1.309414685787542998e-01,-1.232087046863081792e-01,-1.154759407938620586e-01,-1.077431769014159518e-01,-1.002681718053846927e-01,-9.253540791293857204e-02,-8.480264402049246530e-02,-7.706988012804634469e-02,-7.155223089229052758e-02,-9.354227821143416832e-02,-1.186334860499442256e-01,-1.402207852496896445e-01,-1.402207852496896445e-01,-1.402207852496896445e-01,-1.402207852496896445e-01,-1.402207852496896445e-01,-1.402207852496896445e-01,-1.402207852496896445e-01,-1.402207852496896445e-01,-1.402207852496896445e-01,-1.402207852496896445e-01,-1.402207852496896445e-01,-1.402207852496896445e-01,-1.402207852496896445e-01,-1.402207852496896445e-01
-1.402207852496896445e-01,-1.402207852496896445e-01,-1.402207852496896445e-01,-1.402207852496896445e-01,-1.402207852496896445e-01,-1.402207852496896445e-01,-1.402207852496896445e-01,-1.402207852496896445e-01,-1.402207852496896445e-01,-1.402207852496896445e-01,-1.402207852496896445e-01,-1.402207852496896445e-01,-1.402207852496896445e-01,-1.402207852496896445e-01,-1.402207852496896445e-01,-1.402207852496896445e-01,-1.402207852496896445e-01,-1.402207852496896445e-01,-1.402207852496896445e-01,-1.402207852496896445e-01,-1.402207852496896445e-01,-1.402207852496896445e-01,-1.337768153393178727e-01,-1.263018102432866274e-01,-1.185690463508405068e-01,-1.108362824583944001e-01,-1.031035185659482656e-01,-9.537075467350214497e-02,-1.007836893982144433e-01,-1.176991104129403304e-01,-1.381023301416549331e-01,-1.402207852496896445e-01,-1.402207852496896445e-01,-1.402207852496896445e-01,-1.402207852496896445e-01,-1.402207852496896445e-01,-1.402207852496896445e-01,-1.402207852496896445e-01,-1.402207852496896445e-01,-1.402207852496896445e-01,-1.402207852496896445e-01,-1.402207852496896445e-01,-1.402207852496896445e-01,-1.402207852496896445e-01,-1.402207852496896445e-01,-1.402207852496896445e-01,-1.402207852496896445e-01
