-2.303806822562693979e-01,-2.303806822562693979e-01,-2.303806822562693979e-01,-2.303806822562693979e-01,-2.303806822562693979e-01,-2.303806822562693979e-01,-2.303806822562693979e-01,-2.303806822562693979e-01,-2.303806822562693979e-01,-2.303806822562693979e-01,-2.303806822562693979e-01,-2.303806822562693979e-01,-2.303806822562693979e-01,-2.303806822562693979e-01,-2.303806822562693979e-01,-2.303806822562693979e-01,-2.303806822562693979e-01,-2.303806822562693979e-01,-2.303806822562693979e-01,-2.303806822562693979e-01,-2.303806822562693979e-01,-2.303806822562693979e-01,-2.303806822562693979e-01,-2.303806822562693979e-01,-2.303806822562693979e-01,-2.303806822562693979e-01,-2.303806822562693979e-01,-2.303806822562693979e-01,-2.303806822562693979e-01,-2.303806822562693979e-01,-2.303806822562693979e-01,-2.303806822562693979e-01,-2.303806822562693979e-01,-2.303806822562693979e-01,-2.303806822562693979e-01,-2.303806822562693979e-01,-2.303806822562693979e-01,-2.303806822562693979e-01,-2.303806822562693979e-01,-2.303806822562693979e-01,-2.303806822562693979e-01,-2.303806822562693979e-01,-2.303806822562693979e-01,-2.303806822562693979e-01,-2.303806822562693979e-01,-2.303806822562693979e-01,-2.303806822562693979e-01
-2.303806822562693979e-01,-2.303806822562693979e-01,-2.303806822562693979e-01,-2.303806822562693979e-01,-2.303806822562693979e-01,-2.303806822562693979e-01,-2.303806822562693979e-01,-2.303806822562693979e-01,-2.303806822562693979e-01,-2.303806822562693979e-01,-2.303806822562693979e-01,-2.303806822562693979e-01,-2.303806822562693979e-01,-2.303806822562693979e-01,-2.303806822562693979e-01,-2.303806822562693979e-01,-2.303806822562693979e-01,-2.303806822562693979e-01,-2.303806822562693979e-01,-2.303806822562693979e-01,-2.303806822562693979e-01,-2.303806822562693979e-01,-2.303806822562693979e-01,-2.303806822562693979e-01,-2.303806822562693979e-01,-2.303806822562693979e-01,-2.303806822562693979e-01,-2.303806822562693979e-01,-2.303806822562693979e-01,-2.303806822562693979e-01,-2.303806822562693979e-01,-2.303806822562693979e-01,-2.303806822562693979e-01,-2.303806822562693979e-01,-2.303806822562693979e-01,-2.303806822562693979e-01,-2.303806822562693979e-01,-2.303806822562693979e-01,-2.303806822562693979e-01,-2.303806822562693979e-01,-2.303806822562693979e-01,-2.303806822562693979e-01,-2.303806822562693979e-01,-2.303806822562693979e-01,-2.303806822562693979e-01,-2.303806822562693979e-01,-2.303806822562693979e-01
-2.303806822562693979e-01,-2.303806822562693979e-01,-2.303806822562693979e-01,-2.303806822562693979e-01,-2.303806822562693979e-01,-2.303806822562693979e-01,-2.303806822562693979e-01,-2.303806822562693979e-01,-2.303806822562693979e-01,-2.303806822562693979e-01,-2.303806822562693979e-01,-2.303806822562693979e-01,-2.303806822562693979e-01,-2.303806822562693979e-01,-2.303806822562693979e-01,-2.303806822562693979e-01,-2.303806822562693979e-01,-2.303806822562693979e-01,-2.303806822562693979e-01,-2.303806822562693979e-01,-2.303806822562693979e-01,-2.303806822562693979e-01,-2.303806822562693979e-01,-2.303806822562693979e-01,-2.303806822562693979e-01,-2.303806822562693979e-01,-2.303806822562693979e-01,-2.303806822562693979e-01,-2.303806822562693979e-01,-2.303806822562693979e-01,-2.303806822562693979e-01,-2.303806822562693979e-01,-2.303806822562693979e-01,-2.303806822562693979e-01,-2.303806822562693979e-01,-2.303806822562693979e-01,-2.303806822562693979e-01,-2.303806822562693979e-01,-2.303806822562693979e-01,-2.303806822562693979e-01,-2.303806822562693979e-01,-2.303806822562693979e-01,-2.303806822562693979e-01,-2.303806822562693979e-01,-2.303806822562693979e-01,-2.303806822562693979e-01,-2.303806822562693979e-01
-2.303806822562693979e-01,-2.303806822562693979e-01,-2.303806822562693979e-01,-2.303806822562693979e-01,-2.303806822562693979e-01,-2.303806822562693979e-01,-2.303806822562693979e-01,-2.303806822562693979e-01,-2.303806822562693979e-01,-2.303806822562693979e-01,-2.303806822562693979e-01,-2.303806822562693979e-01,-2.303806822562693979e-01,-2.303806822562693979e-01,-2.303806822562693979e-01,-2.303806822562693979e-01,-2.303806822562693979e-01,-2.303806822562693979e-01,-2.303806822562693979e-01,-2.303806822562693979e-01,-2.303806822562693979e-01,-2.303806822562693979e-01,-2.303806822562693979e-01,-2.303806822562693979e-01,-2.303806822562693979e-01,-2.303806822562693979e-01,-2.303806822562693979e-01,-2.303806822562693979e-01,-2.303806822562693979e-01,-2.303806822562693979e-01,-2.303806822562693979e-01,-2.303806822562693979e-01,-2.303806822562693979e-01,-2.303806822562693979e-01,-2.303806822562693979e-01,-2.303806822562693979e-01,-2.303806822562693979e-01,-2.303806822562693979e-01,-2.303806822562693979e-01,-2.303806822562693979e-01,-2.303806822562693979e-01,-2.303806822562693979e-01,-2.303806822562693979e-01,-2.303806822562693979e-01,-2.303806822562693979e-01,-2.303806822562693979e-01,-2.303806822562693979e-01
-2.303806822562693979e-01,-2.303806822562693979e-01,-2.303806822562693979e-01,-2.303806822562693979e-01,-2.303806822562693979e-01,-2.303806822562693979e-01,-2.303806822562693979e-01,-2.303806822562693979e-01,-2.303806822562693979e-01,-2.303806822562693979e-01,-2.303806822562693979e-01,-2.303806822562693979e-01,-2.303806822562693979e-01,-2.303806822562693979e-01,-3.795763945636657644e-01,-3.795763945636657644e-01,-3.795763945636657644e-01,-3.795763945636657644e-01,-3.795763945636657644e-01,-2.303806822562693979e-01,-2.303806822562693979e-01,-2.303806822562693979e-01,-2.303806822562693979e-01,-2.303806822562693979e-01,-2.303806822562693979e-01,-2.303806822562693979e-01,-2.303806822562693979e-01,-2.303806822562693979e-01,-2.303806822562693979e-01,-2.303806822562693979e-01,-2.303806822562693979e-01,-2.303806822562693979e-01,-2.303806822562693979e-01,-2.303806822562693979e-01,-2.303806822562693979e-01,-2.303806822562693979e-01,-2.303806822562693979e-01,-2.303806822562693979e-01,-2.303806822562693979e-01,-2.303806822562693979e-01,-2.303806822562693979e-01,-2.303806822562693979e-01,-2.303806822562693979e-01,-2.303806822562693979e-01,-2.303806822562693979e-01,-2.303806822562693979e-01,-2.303806822562693979e-01
-2.303806822562693979e-01,-2.303806822562693979e-01,-2.303806822562693979e-01,-2.303806822562693979e-01,-2.303806822562693979e-01,-2.303806822562693979e-01,-2.303806822562693979e-01,-2.303806822562693979e-01,-2.303806822562693979e-01,-2.303806822562693979e-01,-2.303806822562693979e-01,-2.303806822562693979e-01,-2.303806822562693979e-01,-2.303806822562693979e-01,-3.795763945636657644e-01,-3.795763945636657644e-01,-3.795763945636657644e-01,-3.795763945636657644e-01,-3.795763945636657644e-01,-2.303806822562693979e-01,-2.303806822562693979e-01,-2.303806822562693979e-01,-2.303806822562693979e-01,-2.303806822562693979e-01,-2.303806822562693979e-01,-2.303806822562693979e-01,-2.303806822562693979e-01,-2.303806822562693979e-01,-2.303806822562693979e-01,-2.303806822562693979e-01,-2.303806822562693979e-01,-2.303806822562693979e-01,-2.303806822562693979e-01,-2.303806822562693979e-01,-2.303806822562693979e-01,-2.303806822562693979e-01,-2.303806822562693979e-01,-2.303806822562693979e-01,-2.303806822562693979e-01,-2.303806822562693979e-01,-2.303806822562693979e-01,-2.303806822562693979e-01,-2.303806822562693979e-01,-2.303806822562693979e-01,-2.303806822562693979e-01,-2.303806822562693979e-01,-2.303806822562693979e-01
-2.303806822562693979e-01,-2.303806822562693979e-01,-2.303806822562693979e-01,-2.303806822562693979e-01,-2.303806822562693979e-01,-2.303806822562693979e-01,-2.303806822562693979e-01,-2.303806822562693979e-01,-2.303806822562693979e-01,-2.303806822562693979e-01,-2.303806822562693979e-01,-2.303806822562693979e-01,-2.303806822562693979e-01,-2.303806822562693979e-01,-3.795763945636657644e-01,-3.795763945636657644e-01,-3.795763945636657644e-01,-3.795763945636657644e-01,-3.795763945636657644e-01,-2.303806822562693979e-01,-2.303806822562693979e-01,-2.303806822562693979e-01,-2.303806822562693979e-01,-2.303806822562693979e-01,-2.303806822562693979e-01,-2.303806822562693979e-01,-2.303806822562693979e-01,-2.303806822562693979e-01,-2.303806822562693979e-01,-2.303806822562693979e-01,-2.303806822562693979e-01,-2.303806822562693979e-01,-2.303806822562693979e-01,-2.303806822562693979e-01,-2.303806822562693979e-01,-2.303806822562693979e-01,-2.303806822562693979e-01,-2.303806822562693979e-01,-2.303806822562693979e-01,-2.303806822562693979e-01,-2.303806822562693979e-01,-2.303806822562693979e-01,-2.303806822562693979e-01,-2.303806822562693979e-01,-2.303806822562693979e-01,-2.303806822562693979e-01,-2.303806822562693979e-01
-2.303806822562693979e-01,-2.303806822562693979e-01,-2.303806822562693979e-01,-2.303806822562693979e-01,-2.303806822562693979e-01,-2.303806822562693979e-01,-2.303806822562693979e-01,-2.303806822562693979e-01,-2.303806822562693979e-01,-2.303806822562693979e-01,-2.303806822562693979e-01,-4.469816345200847696e-01,-4.469816345200847696e-01,-4.469816345200847696e-01,-5.961773468274811361e-01,-5.961773468274811361e-01,-3.795763945636657644e-01,-3.795763945636657644e-01,-3.795763945636657644e-01,-2.303806822562693979e-01,-2.303806822562693979e-01,-2.303806822562693979e-01,-2.303806822562693979e-01,-2.303806822562693979e-01,-2.303806822562693979e-01,-2.303806822562693979e-01,-2.303806822562693979e-01,-2.303806822562693979e-01,-2.303806822562693979e-01,-2.303806822562693979e-01,-2.303806822562693979e-01,-2.303806822562693979e-01,-2.303806822562693979e-01,-2.303806822562693979e-01,-2.303806822562693979e-01,-2.303806822562693979e-01,-2.303806822562693979e-01,-2.303806822562693979e-01,-2.303806822562693979e-01,-2.303806822562693979e-01,-2.303806822562693979e-01,-2.303806822562693979e-01,-2.303806822562693979e-01,-2.303806822562693979e-01,-2.303806822562693979e-01,-2.303806822562693979e-01,-2.303806822562693979e-01
-2.303806822562693979e-01,-2.303806822562693979e-01,-2.303806822562693979e-01,-2.303806822562693979e-01,-2.303806822562693979e-01,-2.303806822562693979e-01,-2.303806822562693979e-01,-2.303806822562693979e-01,-2.303806822562693979e-01,-2.303806822562693979e-01,-2.303806822562693979e-01,-4.469816345200847696e-01,-4.469816345200847696e-01,-4.469816345200847696e-01,-5.961773468274811361e-01,-5.961773468274811361e-01,-3.795763945636657644e-01,-3.795763945636657644e-01,-3.795763945636657644e-01,-2.303806822562693979e-01,-2.303806822562693979e-01,-2.303806822562693979e-01,-2.303806822562693979e-01,-2.303806822562693979e-01,-2.303806822562693979e-01,-2.303806822562693979e-01,-2.303806822562693979e-01,-2.303806822562693979e-01,-2.303806822562693979e-01,-2.303806822562693979e-01,-2.303806822562693979e-01,-2.303806822562693979e-01,-2.303806822562693979e-01,-2.303806822562693979e-01,-2.303806822562693979e-01,-2.303806822562693979e-01,-2.303806822562693979e-01,-2.303806822562693979e-01,-2.303806822562693979e-01,-2.303806822562693979e-01,-2.303806822562693979e-01,-2.303806822562693979e-01,-2.303806822562693979e-01,-2.303806822562693979e-01,-2.303806822562693979e-01,-2.303806822562693979e-01,-2.303806822562693979e-01
-2.303806822562693979e-01,-2.303806822562693979e-01,-2.303806822562693979e-01,-2.303806822562693979e-01,-2.303806822562693979e-01,-2.303806822562693979e-01,-2.303806822562693979e-01,-2.303806822562693979e-01,-2.303806822562693979e-01,-2.303806822562693979e-01,-2.303806822562693979e-01,-4.469816345200847696e-01,-4.469816345200847696e-01,-4.469816345200847696e-01,-4.469816345200847696e-01,-4.469816345200847696e-01,-2.303806822562693979e-01,-2.303806822562693979e-01,-2.303806822562693979e-01,-2.303806822562693979e-01,-2.303806822562693979e-01,-2.303806822562693979e-01,-2.303806822562693979e-01,-2.303806822562693979e-01,-2.303806822562693979e-01,-2.303806822562693979e-01,-2.303806822562693979e-01,-2.303806822562693979e-01,-2.303806822562693979e-01,-2.303806822562693979e-01,-2.303806822562693979e-01,-2.303806822562693979e-01,-2.303806822562693979e-01,-2.303806822562693979e-01,-2.303806822562693979e-01,-2.303806822562693979e-01,-2.303806822562693979e-01,-2.303806822562693979e-01,-2.303806822562693979e-01,-2.303806822562693979e-01,-2.303806822562693979e-01,-2.303806822562693979e-01,-2.303806822562693979e-01,-2.303806822562693979e-01,-2.303806822562693979e-01,-2.303806822562693979e-01,-2.303806822562693979e-01
-2.303806822562693979e-01,-2.303806822562693979e-01,-2.303806822562693979e-01,-2.303806822562693979e-01,-2.303806822562693979e-01,-2.303806822562693979e-01,-2.303806822562693979e-01,-2.303806822562693979e-01,-2.303806822562693979e-01,-2.303806822562693979e-01,-2.303806822562693979e-01,-4.469816345200847696e-01,-4.469816345200847696e-01,-4.469816345200847696e-01,-4.469816345200847696e-01,-4.469816345200847696e-01,-2.303806822562693979e-01,-2.303806822562693979e-01,-2.303806822562693979e-01,-2.303806822562693979e-01,-2.303806822562693979e-01,-2.303806822562693979e-01,-2.303806822562693979e-01,-2.303806822562693979e-01,-2.303806822562693979e-01,-2.303806822562693979e-01,-2.303806822562693979e-01,-2.303806822562693979e-01,-2.303806822562693979e-01,-2.303806822562693979e-01,-2.303806822562693979e-01,-2.303806822562693979e-01,-4.741359410965351184e-01,-4.741359410965351184e-01,-4.741359410965351184e-01,-4.741359410965351184e-01,-2.303806822562693979e-01,-2.303806822562693979e-01,-2.303806822562693979e-01,-2.303806822562693979e-01,-2.303806822562693979e-01,-2.303806822562693979e-01,-2.303806822562693979e-01,-2.303806822562693979e-01,-2.303806822562693979e-01,-2.303806822562693979e-01,-2.303806822562693979e-01
-2.303806822562693979e-01,-2.303806822562693979e-01,-2.303806822562693979e-01,-2.303806822562693979e-01,-2.303806822562693979e-01,-2.303806822562693979e-01,-2.303806822562693979e-01,-2.303806822562693979e-01,-2.303806822562693979e-01,-2.303806822562693979e-01,-2.303806822562693979e-01,-4.469816345200847696e-01,-4.469816345200847696e-01,-4.469816345200847696e-01,-4.469816345200847696e-01,-4.469816345200847696e-01,-2.303806822562693979e-01,-2.303806822562693979e-01,-2.303806822562693979e-01,-2.303806822562693979e-01,-2.303806822562693979e-01,-2.303806822562693979e-01,-2.303806822562693979e-01,-2.303806822562693979e-01,-2.303806822562693979e-01,-2.303806822562693979e-01,-2.303806822562693979e-01,-2.303806822562693979e-01,-2.303806822562693979e-01,-2.303806822562693979e-01,-2.303806822562693979e-01,-2.303806822562693979e-01,-4.741359410965351184e-01,-4.741359410965351184e-01,-4.741359410965351184e-01,-4.741359410965351184e-01,-2.303806822562693979e-01,-2.303806822562693979e-01,-2.303806822562693979e-01,-2.303806822562693979e-01,-2.303806822562693979e-01,-2.303806822562693979e-01,-2.303806822562693979e-01,-2.303806822562693979e-01,-2.303806822562693979e-01,-2.303806822562693979e-01,-2.303806822562693979e-01
-2.303806822562693979e-01,-2.303806822562693979e-01,-2.303806822562693979e-01,-2.303806822562693979e-01,-2.303806822562693979e-01,-2.303806822562693979e-01,-2.303806822562693979e-01,-2.303806822562693979e-01,-2.303806822562693979e-01,-2.303806822562693979e-01,-2.303806822562693979e-01,-2.303806822562693979e-01,-2.303806822562693979e-01,-2.303806822562693979e-01,-2.303806822562693979e-01,-2.303806822562693979e-01,-2.303806822562693979e-01,-2.303806822562693979e-01,-2.303806822562693979e-01,-2.303806822562693979e-01,-2.303806822562693979e-01,-2.303806822562693979e-01,-2.303806822562693979e-01,-2.303806822562693979e-01,-2.303806822562693979e-01,-2.303806822562693979e-01,-2.303806822562693979e-01,-2.303806822562693979e-01,-2.303806822562693979e-01,-2.303806822562693979e-01,-2.303806822562693979e-01,-2.303806822562693979e-01,-4.741359410965351184e-01,-4.741359410965351184e-01,-4.741359410965351184e-01,-4.741359410965351184e-01,-2.303806822562693979e-01,-2.303806822562693979e-01,-2.303806822562693979e-01,-2.303806822562693979e-01,-2.303806822562693979e-01,-2.303806822562693979e-01,-2.303806822562693979e-01,-2.303806822562693979e-01,-2.303806822562693979e-01,-2.303806822562693979e-01,-2.303806822562693979e-01
-2.303806822562693979e-01,-2.303806822562693979e-01,-2.303806822562693979e-01,-2.303806822562693979e-01,-2.303806822562693979e-01,-2.303806822562693979e-01,-2.303806822562693979e-01,-2.303806822562693979e-01,-2.303806822562693979e-01,-2.303806822562693979e-01,-2.303806822562693979e-01,-2.303806822562693979e-01,-2.303806822562693979e-01,-2.303806822562693979e-01,-2.303806822562693979e-01,-2.303806822562693979e-01,-2.303806822562693979e-01,-2.303806822562693979e-01,-2.303806822562693979e-01,-2.303806822562693979e-01,-2.303806822562693979e-01,-2.303806822562693979e-01,-2.303806822562693979e-01,-2.303806822562693979e-01,-2.303806822562693979e-01,-2.303806822562693979e-01,-2.303806822562693979e-01,-2.303806822562693979e-01,-2.303806822562693979e-01,-2.303806822562693979e-01,-2.303806822562693979e-01,-2.303806822562693979e-01,-4.741359410965351184e-01,-4.741359410965351184e-01,-4.741359410965351184e-01,-4.741359410965351184e-01,-2.303806822562693979e-01,-2.303806822562693979e-01,-2.303806822562693979e-01,-2.303806822562693979e-01,-2.303806822562693979e-01,-2.303806822562693979e-01,-2.303806822562693979e-01,-2.303806822562693979e-01,-2.303806822562693979e-01,-2.303806822562693979e-01,-2.303806822562693979e-01
-2.303806822562693979e-01,-2.303806822562693979e-01,-2.303806822562693979e-01,-2.303806822562693979e-01,-2.303806822562693979e-01,-2.303806822562693979e-01,-2.303806822562693979e-01,-2.303806822562693979e-01,-2.303806822562693979e-01,-2.303806822562693979e-01,-2.303806822562693979e-01,-2.303806822562693979e-01,-2.303806822562693979e-01,-2.303806822562693979e-01,-2.303806822562693979e-01,-2.303806822562693979e-01,-2.303806822562693979e-01,-2.303806822562693979e-01,-2.303806822562693979e-01,-2.303806822562693979e-01,-2.303806822562693979e-01,-2.303806822562693979e-01,-2.303806822562693979e-01,-2.303806822562693979e-01,-2.303806822562693979e-01,-2.303806822562693979e-01,-2.303806822562693979e-01,-2.303806822562693979e-01,-2.303806822562693979e-01,-2.303806822562693979e-01,-2.303806822562693979e-01,-2.303806822562693979e-01,-2.303806822562693979e-01,-2.303806822562693979e-01,-2.303806822562693979e-01,-2.303806822562693979e-01,-2.303806822562693979e-01,-2.303806822562693979e-01,-2.303806822562693979e-01,-2.303806822562693979e-01,-2.303806822562693979e-01,-2.303806822562693979e-01,-2.303806822562693979e-01,-2.303806822562693979e-01,-2.303806822562693979e-01,-2.303806822562693979e-01,-2.303806822562693979e-01
-2.303806822562693979e-01,-2.303806822562693979e-01,-2.303806822562693979e-01,-2.303806822562693979e-01,-2.303806822562693979e-01,-2.303806822562693979e-01,-2.303806822562693979e-01,-2.303806822562693979e-01,-2.303806822562693979e-01,-2.303806822562693979e-01,-2.303806822562693979e-01,-2.303806822562693979e-01,-2.303806822562693979e-01,-2.303806822562693979e-01,-2.303806822562693979e-01,-2.303806822562693979e-01,-2.303806822562693979e-01,-2.303806822562693979e-01,-2.303806822562693979e-01,-2.303806822562693979e-01,-2.303806822562693979e-01,-2.303806822562693979e-01,-2.303806822562693979e-01,-2.303806822562693979e-01,-2.303806822562693979e-01,-2.303806822562693979e-01,-2.303806822562693979e-01,-2.303806822562693979e-01,-2.303806822562693979e-01,-2.303806822562693979e-01,-2.303806822562693979e-01,-2.303806822562693979e-01,-2.303806822562693979e-01,-2.303806822562693979e-01,-2.303806822562693979e-01,-2.303806822562693979e-01,-2.303806822562693979e-01,-2.303806822562693979e-01,-2.303806822562693979e-01,-2.303806822562693979e-01,-2.303806822562693979e-01,-2.303806822562693979e-01,-2.303806822562693979e-01,-2.303806822562693979e-01,-2.303806822562693979e-01,-2.303806822562693979e-01,-2.303806822562693979e-01
-2.303806822562693979e-01,-2.303806822562693979e-01,-2.303806822562693979e-01,-2.303806822562693979e-01,-2.303806822562693979e-01,-2.303806822562693979e-01,-2.303806822562693979e-01,-2.303806822562693979e-01,-2.303806822562693979e-01,-2.303806822562693979e-01,-2.303806822562693979e-01,-2.303806822562693979e-01,-2.303806822562693979e-01,-2.303806822562693979e-01,-2.303806822562693979e-01,-2.303806822562693979e-01,-2.303806822562693979e-01,-2.303806822562693979e-01,-2.303806822562693979e-01,-2.303806822562693979e-01,-2.303806822562693979e-01,-2.303806822562693979e-01,-2.303806822562693979e-01,-2.303806822562693979e-01,-2.303806822562693979e-01,-2.303806822562693979e-01,-2.303806822562693979e-01,-2.303806822562693979e-01,-2.303806822562693979e-01,-2.303806822562693979e-01,-2.303806822562693979e-01,-2.303806822562693979e-01,-2.303806822562693979e-01,-2.303806822562693979e-01,-2.303806822562693979e-01,-2.303806822562693979e-01,-2.303806822562693979e-01,-2.303806822562693979e-01,-2.303806822562693979e-01,-2.303806822562693979e-01,-2.303806822562693979e-01,-2.303806822562693979e-01,-2.303806822562693979e-01,-2.303806822562693979e-01,-2.303806822562693979e-01,-2.303806822562693979e-01,-2.303806822562693979e-01
-2.272885337281551621e-01,-2.233843057886169547e-01,-2.258830116699214186e-01,-2.283817175512258546e-01,-2.303806822562693979e-01,-2.303806822562693979e-01,-2.303806822562693979e-01,-3.425467080641035333e-01,-3.425467080641035333e-01,-3.425467080641035333e-01,-2.303806822562693979e-01,-2.303806822562693979e-01,-2.303806822562693979e-01,-2.303806822562693979e-01,-2.303806822562693979e-01,-2.303806822562693979e-01,-2.303806822562693979e-01,-2.303806822562693979e-01,-2.303806822562693979e-01,-2.303806822562693979e-01,-2.303806822562693979e-01,-2.303806822562693979e-01,-2.303806822562693979e-01,-2.303806822562693979e-01,-2.303806822562693979e-01,-2.303806822562693979e-01,-2.303806822562693979e-01,-2.303806822562693979e-01,-2.303806822562693979e-01,-2.303806822562693979e-01,-2.303806822562693979e-01,-2.303806822562693979e-01,-2.303806822562693979e-01,-2.303806822562693979e-01,-2.303806822562693979e-01,-2.303806822562693979e-01,-2.303806822562693979e-01,-2.303806822562693979e-01,-2.303806822562693979e-01,-2.303806822562693979e-01,-2.303806822562693979e-01,-2.303806822562693979e-01,-2.303806822562693979e-01,-2.303806822562693979e-01,-2.303806822562693979e-01,-2.303806822562693979e-01,-2.303806822562693979e-01
-2.178871528497471899e-01,-2.078923293245294457e-01,-2.103910352058338817e-01,-2.128897410871383178e-01,-2.148887057921818611e-01,-2.173874116734862971e-01,-2.198861175547907609e-01,-3.345508492439293047e-01,-3.370495551252337685e-01,-3.395482610065382323e-01,-2.298809410800085051e-01,-2.303806822562693979e-01,-2.303806822562693979e-01,-2.303806822562693979e-01,-2.303806822562693979e-01,-2.303806822562693979e-01,-2.303806822562693979e-01,-2.303806822562693979e-01,-2.303806822562693979e-01,-2.303806822562693979e-01,-2.303806822562693979e-01,-2.303806822562693979e-01,-2.303806822562693979e-01,-2.303806822562693979e-01,-2.303806822562693979e-01,-2.303806822562693979e-01,-2.303806822562693979e-01,-2.303806822562693979e-01,-2.303806822562693979e-01,-2.303806822562693979e-01,-2.303806822562693979e-01,-2.303806822562693979e-01,-2.303806822562693979e-01,-2.303806822562693979e-01,-2.303806822562693979e-01,-2.303806822562693979e-01,-2.303806822562693979e-01,-2.303806822562693979e-01,-2.303806822562693979e-01,-2.303806822562693979e-01,-2.303806822562693979e-01,-2.303806822562693979e-01,-2.303806822562693979e-01,-2.303806822562693979e-01,-2.303806822562693979e-01,-2.303806822562693979e-01,-2.303806822562693979e-01
-2.034883602087303733e-01,-1.919006116841810161e-01,-1.943993175654854522e-01,-1.968980234467899160e-01,-1.993967293280943520e-01,-2.018954352093987881e-01,-2.043941410907032241e-01,-3.185591316035809584e-01,-3.210578374848853667e-01,-3.235565433661897750e-01,-2.138892234396601033e-01,-2.163879293209645394e-01,-2.188866352022689754e-01,-2.213853410835734115e-01,-2.238840469648778475e-01,-2.258830116699214186e-01,-2.283817175512258546e-01,-2.303806822562693979e-01,-2.303806822562693979e-01,-2.303806822562693979e-01,-2.303806822562693979e-01,-2.303806822562693979e-01,-2.303806822562693979e-01,-2.303806822562693979e-01,-2.303806822562693979e-01,-2.303806822562693979e-01,-2.303806822562693979e-01,-2.303806822562693979e-01,-2.303806822562693979e-01,-2.303806822562693979e-01,-2.303806822562693979e-01,-2.303806822562693979e-01,-2.303806822562693979e-01,-2.303806822562693979e-01,-2.303806822562693979e-01,-2.303806822562693979e-01,-2.303806822562693979e-01,-2.303806822562693979e-01,-2.303806822562693979e-01,-2.303806822562693979e-01,-2.303806822562693979e-01,-2.303806822562693979e-01,-2.303806822562693979e-01,-2.303806822562693979e-01,-2.303806822562693979e-01,-2.303806822562693979e-01,-2.303806822562693979e-01
-1.844981955108166150e-01,-1.764086352200934793e-01,-1.784075999251370503e-01,-1.809063058064414864e-01,-1.834050116877459224e-01,-1.859037175690503585e-01,-1.884024234503547945e-01,-1.909011293316592583e-01,-1.933998352129636666e-01,-1.958985410942681304e-01,-1.978975057993116737e-01,-2.003962116806161098e-01,-2.028949175619205736e-01,-2.053936234432250096e-01,-2.078923293245294457e-01,-2.103910352058338817e-01,-2.128897410871383178e-01,-2.153884469684427538e-01,-2.173874116734862971e-01,-2.198861175547907609e-01,-2.223848234360951970e-01,-2.248835293173996330e-01,-2.273822351987040691e-01,-2.298809410800085051e-01,-2.303806822562693979e-01,-2.303806822562693979e-01,-2.303806822562693979e-01,-2.303806822562693979e-01,-2.303806822562693979e-01,-2.303806822562693979e-01,-2.303806822562693979e-01,-2.303806822562693979e-01,-2.303806822562693979e-01,-2.303806822562693979e-01,-2.303806822562693979e-01,-2.303806822562693979e-01,-2.303806822562693979e-01,-2.303806822562693979e-01,-2.303806822562693979e-01,-2.303806822562693979e-01,-2.303806822562693979e-01,-2.303806822562693979e-01,-2.303806822562693979e-01,-2.303806822562693979e-01,-2.303806822562693979e-01,-2.303806822562693979e-01,-2.303806822562693979e-01
-1.601826639033727684e-01,-1.604169175797450775e-01,-1.629156234610495135e-01,-1.654143293423539496e-01,-1.679130352236584134e-01,-1.699119999287019567e-01,-1.724107058100063927e-01,-1.749094116913108288e-01,-1.774081175726152648e-01,-1.799068234539197286e-01,-1.824055293352241369e-01,-1.849042352165286007e-01,-1.874029410978330368e-01,-1.894019058028765801e-01,-1.919006116841810161e-01,-1.943993175654854522e-01,-1.968980234467899160e-01,-1.993967293280943520e-01,-2.018954352093987881e-01,-2.043941410907032241e-01,-2.068928469720076602e-01,-2.088918116770512035e-01,-2.113905175583556395e-01,-2.138892234396601033e-01,-2.163879293209645394e-01,-2.188866352022689754e-01,-2.213853410835734115e-01,-2.238840469648778475e-01,-2.263827528461822836e-01,-2.283817175512258546e-01,-2.303806822562693979e-01,-2.303806822562693979e-01,-2.303806822562693979e-01,-2.303806822562693979e-01,-2.303806822562693979e-01,-2.303806822562693979e-01,-2.303806822562693979e-01,-2.303806822562693979e-01,-2.303806822562693979e-01,-2.303806822562693979e-01,-2.303806822562693979e-01,-2.303806822562693979e-01,-2.303806822562693979e-01,-2.303806822562693979e-01,-2.303806822562693979e-01,-2.303806822562693979e-01,-2.303806822562693979e-01
-1.419264940580922119e-01,-1.444251999393966479e-01,-1.469239058207010840e-01,-1.494226117020055200e-01,-1.519213175833099561e-01,-1.544200234646144199e-01,-1.569187293459188559e-01,-1.594174352272232920e-01,-1.614163999322668630e-01,-1.639151058135712991e-01,-1.664138116948757351e-01,-1.689125175761801712e-01,-1.714112234574846072e-01,-1.739099293387890433e-01,-1.764086352200934793e-01,-1.789073411013979431e-01,-1.809063058064414864e-01,-1.834050116877459224e-01,-1.859037175690503585e-01,-1.884024234503547945e-01,-1.909011293316592583e-01,-1.933998352129636666e-01,-1.958985410942681304e-01,-1.983972469755725665e-01,-2.003962116806161098e-01,-2.028949175619205458e-01,-2.053936234432250096e-01,-2.078923293245294457e-01,-2.103910352058338817e-01,-2.128897410871383178e-01,-2.153884469684427538e-01,-2.178871528497471899e-01,-2.198861175547907609e-01,-2.223848234360951970e-01,-2.248835293173996330e-01,-2.273822351987040691e-01,-2.298809410800085051e-01,-2.303806822562693979e-01,-2.303806822562693979e-01,-2.303806822562693979e-01,-2.303806822562693979e-01,-2.303806822562693979e-01,-2.303806822562693979e-01,-2.303806822562693979e-01,-2.303806822562693979e-01,-2.303806822562693979e-01,-2.303806822562693979e-01
-1.264345175940047028e-01,-1.289332234753091389e-01,-1.314319293566135749e-01,-1.334308940616571459e-01,-1.359295999429615542e-01,-1.384283058242660180e-01,-1.409270117055704541e-01,-1.434257175868748624e-01,-1.459244234681792984e-01,-1.484231293494837622e-01,-1.509218352307881705e-01,-1.529207999358317416e-01,-1.554195058171362054e-01,-1.579182116984406137e-01,-1.604169175797450775e-01,-1.629156234610495135e-01,-1.654143293423539496e-01,-1.679130352236584134e-01,-1.704117411049628217e-01,-1.724107058100063927e-01,-1.749094116913108288e-01,-1.774081175726152648e-01,-1.799068234539197286e-01,-1.824055293352241369e-01,-1.849042352165286007e-01,-1.874029410978330368e-01,-1.899016469791374728e-01,-1.919006116841810161e-01,-1.943993175654854522e-01,-1.968980234467899160e-01,-1.993967293280943520e-01,-2.018954352093987881e-01,-2.043941410907032241e-01,-2.068928469720076602e-01,-2.093915528533120962e-01,-2.118902587346165323e-01,-2.138892234396601033e-01,-2.163879293209645394e-01,-2.188866352022689754e-01,-2.213853410835734115e-01,-2.238840469648778475e-01,-2.263827528461822836e-01,-2.288814587274867474e-01,-2.303806822562693979e-01,-2.303806822562693979e-01,-2.303806822562693979e-01,-2.303806822562693979e-01
-1.104427999536562732e-01,-1.129415058349607093e-01,-1.154402117162651592e-01,-1.179389175975695953e-01,-1.204376234788740313e-01,-1.229363293601784674e-01,-1.249352940652220245e-01,-1.274339999465264883e-01,-1.299327058278308966e-01,-1.324314117091353604e-01,-1.349301175904397965e-01,-1.374288234717442325e-01,-1.399275293530486686e-01,-1.424262352343531046e-01,-1.444251999393966479e-01,-1.469239058207010840e-01,-1.494226117020055478e-01,-1.519213175833099561e-01,-1.544200234646144199e-01,-1.569187293459188837e-01,-1.594174352272232920e-01,-1.619161411085277558e-01,-1.639151058135712991e-01,-1.664138116948757351e-01,-1.689125175761801712e-01,-1.714112234574846072e-01,-1.739099293387890710e-01,-1.764086352200935071e-01,-1.789073411013979431e-01,-1.814060469827023792e-01,-1.834050116877459224e-01,-1.859037175690503862e-01,-1.884024234503547945e-01,-1.909011293316592583e-01,-1.933998352129636944e-01,-1.958985410942681304e-01,-1.983972469755725665e-01,-2.008959528568770025e-01,-2.033946587381814386e-01,-2.053936234432250096e-01,-2.078923293245294457e-01,-2.103910352058338817e-01,-2.128897410871383178e-01,-2.153884469684427538e-01,-2.178871528497471899e-01,-2.203858587310516259e-01,-2.228845646123560897e-01
-9.495082348956873641e-02,-9.694978819461230746e-02,-9.944849407591674351e-02,-1.019471999572211796e-01,-1.044459058385256434e-01,-1.069446117198300517e-01,-1.094433176011345016e-01,-1.119420234824389376e-01,-1.144407293637433737e-01,-1.164396940687869170e-01,-1.189383999500913669e-01,-1.214371058313958029e-01,-1.239358117127002390e-01,-1.264345175940046750e-01,-1.289332234753091389e-01,-1.314319293566135749e-01,-1.339306352379180109e-01,-1.359295999429615542e-01,-1.384283058242659903e-01,-1.409270117055704263e-01,-1.434257175868748901e-01,-1.459244234681793262e-01,-1.484231293494837622e-01,-1.509218352307881983e-01,-1.534205411120926343e-01,-1.554195058171362054e-01,-1.579182116984406414e-01,-1.604169175797450775e-01,-1.629156234610495135e-01,-1.654143293423539496e-01,-1.679130352236584134e-01,-1.704117411049628217e-01,-1.729104469862672855e-01,-1.754091528675717215e-01,-1.774081175726152648e-01,-1.799068234539197009e-01,-2.183903749884362200e-01,-2.208890808697406838e-01,-2.233877867510451198e-01,-2.258864926323495559e-01,-2.283851985136539919e-01,-1.948990587417463449e-01,-1.968980234467899160e-01,-1.993967293280943520e-01,-2.018954352093987881e-01,-2.043941410907032241e-01,-2.076268418246408343e-01
-7.895910584922033459e-02,-8.145781173052474289e-02,-8.395651761182920669e-02,-8.645522349313364274e-02,-8.845418819817718603e-02,-9.095289407948164984e-02,-9.345159996078608589e-02,-9.595030584209052194e-02,-9.844901172339495798e-02,-1.009477176046994218e-01,-1.034464234860038578e-01,-1.059451293673082939e-01,-1.079440940723518372e-01,-1.104427999536562732e-01,-1.129415058349607093e-01,-1.154402117162651453e-01,-1.179389175975695814e-01,-1.204376234788740313e-01,-1.229363293601784674e-01,-1.254350352414829173e-01,-1.274339999465264606e-01,-1.299327058278308966e-01,-1.324314117091353604e-01,-1.349301175904397687e-01,-1.374288234717442325e-01,-1.399275293530486686e-01,-1.424262352343531046e-01,-1.449249411156575407e-01,-1.469239058207010840e-01,-1.494226117020055478e-01,-1.519213175833099561e-01,-1.544200234646144199e-01,-1.569187293459188559e-01,-1.594174352272232920e-01,-1.619161411085277558e-01,-1.644148469898321641e-01,-2.028983985243487109e-01,-2.048973632293922542e-01,-2.073960691106966903e-01,-2.098947749920011541e-01,-2.123934808733055624e-01,-1.789073411013979431e-01,-1.814060469827023792e-01,-1.839047528640068152e-01,-1.864034587453112513e-01,-1.884024234503547945e-01,-1.983035455050236595e-01
-6.296738820887190502e-02,-6.546609409017634107e-02,-6.796479997148080487e-02,-7.046350585278521317e-02,-7.296221173408967697e-02,-7.546091761539408527e-02,-7.795962349669854907e-02,-7.995858820174209236e-02,-8.245729408304652841e-02,-8.495599996435096446e-02,-8.745470584565542826e-02,-8.995341172695986431e-02,-9.245211760826430036e-02,-9.495082348956873641e-02,-9.744952937087317246e-02,-9.944849407591671575e-02,-1.019471999572212073e-01,-1.044459058385256156e-01,-1.069446117198300517e-01,-1.094433176011344877e-01,-1.119420234824389238e-01,-1.144407293637433737e-01,-1.169394352450478236e-01,-1.189383999500913669e-01,-1.214371058313958029e-01,-1.239358117127002668e-01,-1.264345175940047028e-01,-1.289332234753091389e-01,-1.314319293566135749e-01,-1.339306352379180109e-01,-1.364293411192224470e-01,-1.384283058242660180e-01,-1.409270117055704263e-01,-1.434257175868748901e-01,-1.459244234681793262e-01,-1.484231293494837622e-01,-1.869066808840002814e-01,-1.894053867653047174e-01,-1.919040926466091812e-01,-1.944027985279135895e-01,-1.964017632329571605e-01,-1.629156234610495135e-01,-1.654143293423539496e-01,-1.679130352236584134e-01,-1.704117411049628494e-01,-1.729104469862672855e-01,-1.943056160949365452e-01
-4.747541174478436821e-02,-4.997411762608883201e-02,-5.197308233113237530e-02,-5.447178821243681135e-02,-5.697049409374124740e-02,-5.946919997504568345e-02,-6.196790585635014725e-02,-6.446661173765455555e-02,-6.696531761895901935e-02,-6.946402350026342765e-02,-7.146298820530699869e-02,-7.396169408661143474e-02,-7.646039996791587079e-02,-7.895910584922030684e-02,-8.145781173052474289e-02,-8.395651761182920669e-02,-8.645522349313364274e-02,-8.895392937443807879e-02,-9.095289407948162208e-02,-9.345159996078608589e-02,-9.595030584209052194e-02,-9.844901172339495798e-02,-1.009477176046993940e-01,-1.034464234860038578e-01,-1.059451293673082939e-01,-1.084438352486127161e-01,-1.104427999536562732e-01,-1.129415058349607093e-01,-1.154402117162651592e-01,-1.179389175975695953e-01,-1.204376234788740313e-01,-1.229363293601784674e-01,-1.254350352414829173e-01,-1.279337411227873533e-01,-1.304324470040917894e-01,-1.324314117091353604e-01,-1.709149632436518795e-01,-1.734136691249563156e-01,-1.759123750062607516e-01,-1.784110808875651877e-01,-1.809097867688696237e-01,-1.474236469969619767e-01,-1.499223528782664128e-01,-1.519213175833099561e-01,-1.544200234646144199e-01,-1.569187293459188559e-01,-1.948990587417463449e-01
-3.148369410443596639e-02,-3.398239998574043019e-02,-3.648110586704486624e-02,-3.897981174834930229e-02,-4.147851762965373834e-02,-4.347748233469728163e-02,-4.597618821600171768e-02,-4.847489409730612597e-02,-5.097359997861061753e-02,-5.347230585991502583e-02,-5.597101174121948963e-02,-5.846971762252389793e-02,-6.096842350382836173e-02,-6.296738820887190502e-02,-6.546609409017634107e-02,-6.796479997148077712e-02,-7.046350585278521317e-02,-7.296221173408967697e-02,-7.546091761539408527e-02,-7.795962349669854907e-02,-8.045832937800298512e-02,-8.245729408304655617e-02,-8.495599996435099222e-02,-8.745470584565542826e-02,-8.995341172695986431e-02,-9.245211760826430036e-02,-9.495082348956873641e-02,-9.744952937087320022e-02,-9.994823525217760851e-02,-1.019471999572211796e-01,-1.044459058385256156e-01,-1.069446117198300517e-01,-1.094433176011344877e-01,-1.119420234824389376e-01,-1.144407293637433876e-01,-1.169394352450477959e-01,-1.554229867795643427e-01,-1.579216926608687788e-01,-1.599206573659123221e-01,-1.624193632472167859e-01,-1.649180691285212219e-01,-1.314319293566135749e-01,-1.339306352379180109e-01,-1.364293411192224470e-01,-1.389280470005269108e-01,-1.414267528818313191e-01,-2.004899131511650445e-01
-1.549197646408753681e-02,-1.799068234539197286e-02,-2.048938822669643667e-02,-2.298809410800084496e-02,-2.548679998930530877e-02,-2.798550587060974482e-02,-3.048421175191420862e-02,-3.298291763321864467e-02,-3.498188233826218796e-02,-3.748058821956665176e-02,-3.997929410087108781e-02,-4.247799998217552386e-02,-4.497670586347995991e-02,-4.747541174478436821e-02,-4.997411762608880426e-02,-5.247282350739326806e-02,-5.447178821243681135e-02,-5.697049409374127515e-02,-5.946919997504571120e-02,-6.196790585635011950e-02,-6.446661173765455555e-02,-6.696531761895899160e-02,-6.946402350026339989e-02,-7.196272938156789145e-02,-7.396169408661143474e-02,-7.646039996791587079e-02,-7.895910584922030684e-02,-8.145781173052474289e-02,-8.395651761182920669e-02,-8.645522349313364274e-02,-8.895392937443807879e-02,-9.145263525574254260e-02,-9.345159996078608589e-02,-9.595030584209052194e-02,-9.844901172339498574e-02,-1.009477176046994218e-01,-1.034464234860038578e-01,-1.059451293673082800e-01,-1.084438352486127299e-01,-1.109425411299171660e-01,-1.134412470112215882e-01,-1.154402117162651592e-01,-1.179389175975695814e-01,-1.204376234788740313e-01,-1.229363293601784674e-01,-1.254350352414829173e-01,-2.111718807937415232e-01
-2.775557561562891351e-17,-2.498705881304436049e-03,-4.997411762608872099e-03,-6.996376467652443143e-03,-9.495082348956851437e-03,-1.199378823026131524e-02,-1.449249411156577905e-02,-1.699119999287018734e-02,-1.948990587417465115e-02,-2.198861175547905944e-02,-2.448731763678352324e-02,-2.648628234182709429e-02,-2.898498822313153034e-02,-3.148369410443596639e-02,-3.398239998574040244e-02,-3.648110586704486624e-02,-3.897981174834930229e-02,-4.147851762965371059e-02,-4.397722351095817439e-02,-4.597618821600171768e-02,-4.847489409730615373e-02,-5.097359997861061753e-02,-5.347230585991502583e-02,-5.597101174121948963e-02,-5.846971762252389793e-02,-6.096842350382833398e-02,-6.346712938513277003e-02,-6.546609409017634107e-02,-6.796479997148080487e-02,-7.046350585278521317e-02,-7.296221173408964922e-02,-7.546091761539411302e-02,-7.795962349669852132e-02,-8.045832937800295737e-02,-8.295703525930742117e-02,-8.545574114061188498e-02,-8.745470584565542826e-02,-8.995341172695986431e-02,-9.245211760826432812e-02,-9.495082348956873641e-02,-9.744952937087320022e-02,-9.994823525217763627e-02,-1.024469411334820723e-01,-1.049456470147865084e-01,-1.069446117198300517e-01,-1.094433176011345016e-01,-2.229782660829049967e-01
1.599171764034840182e-02,1.349301175904393801e-02,1.099430587773952972e-02,8.495599996435093670e-03,5.996894115130629865e-03,3.498188233826193816e-03,1.499223528782650527e-03,-9.994823525217855220e-04,-3.498188233826249327e-03,-5.996894115130685377e-03,-8.495599996435121426e-03,-1.099430587773958523e-02,-1.349301175904399352e-02,-1.599171764034845733e-02,-1.799068234539200062e-02,-2.048938822669643667e-02,-2.298809410800087272e-02,-2.548679998930530877e-02,-2.798550587060971706e-02,-3.048421175191418087e-02,-3.298291763321861692e-02,-3.548162351452308072e-02,-3.748058821956662401e-02,-3.997929410087108781e-02,-4.247799998217549611e-02,-4.497670586347995991e-02,-4.747541174478436821e-02,-4.997411762608880426e-02,-5.247282350739326806e-02,-5.497152938869770411e-02,-5.697049409374127515e-02,-5.946919997504568345e-02,-6.196790585635011950e-02,-6.446661173765458330e-02,-6.696531761895899160e-02,-6.946402350026345540e-02,-7.196272938156789145e-02,-7.446143526287232750e-02,-7.696014114417679131e-02,-7.895910584922033459e-02,-8.145781173052477064e-02,-8.395651761182920669e-02,-8.645522349313364274e-02,-8.895392937443807879e-02,-9.145263525574254260e-02,-1.110050087769497706e-01,-2.303806822562693979e-01
3.148369410443596639e-02,2.948472939939233983e-02,2.698602351808793154e-02,2.448731763678346773e-02,2.198861175547905944e-02,1.948990587417459563e-02,1.699119999287018734e-02,1.449249411156572354e-02,1.199378823026125973e-02,9.994823525217744198e-03,7.496117643913280393e-03,4.997411762608872099e-03,2.498705881304436049e-03,0.000000000000000000e+00,-2.498705881304463805e-03,-4.997411762608927610e-03,-7.496117643913335904e-03,-9.495082348956906948e-03,-1.199378823026131524e-02,-1.449249411156577905e-02,-1.699119999287018734e-02,-1.948990587417465115e-02,-2.198861175547908720e-02,-2.448731763678352324e-02,-2.698602351808798705e-02,-2.898498822313153034e-02,-3.148369410443596639e-02,-3.398239998574043019e-02,-3.648110586704483849e-02,-3.897981174834930229e-02,-4.147851762965371059e-02,-4.397722351095817439e-02,-4.647592939226263820e-02,-4.897463527356704649e-02,-5.097359997861061753e-02,-5.347230585991505358e-02,-5.597101174121946188e-02,-5.846971762252389793e-02,-6.096842350382836173e-02,-6.346712938513277003e-02,-6.596583526643723383e-02,-6.846454114774166988e-02,-7.046350585278521317e-02,-7.296221173408964922e-02,-7.546091761539411302e-02,-1.208280462728278382e-01,-2.303806822562693979e-01
4.747541174478436821e-02,4.497670586347990440e-02,4.247799998217549611e-02,3.997929410087108781e-02,3.798032939582751677e-02,3.548162351452305296e-02,3.298291763321858916e-02,3.048421175191418087e-02,2.798550587060971706e-02,2.548679998930525326e-02,2.298809410800084496e-02,2.048938822669638116e-02,1.849042352165283787e-02,1.599171764034840182e-02,1.349301175904393801e-02,1.099430587773952972e-02,8.495599996435065915e-03,5.996894115130629865e-03,3.498188233826193816e-03,9.994823525217855220e-04,-9.994823525217855220e-04,-3.498188233826249327e-03,-5.996894115130657621e-03,-8.495599996435121426e-03,-1.099430587773952972e-02,-1.349301175904399352e-02,-1.599171764034840182e-02,-1.849042352165289338e-02,-2.048938822669643667e-02,-2.298809410800087272e-02,-2.548679998930530877e-02,-2.798550587060977257e-02,-3.048421175191418087e-02,-3.298291763321864467e-02,-3.548162351452310848e-02,-3.798032939582751677e-02,-4.047903527713195282e-02,-4.247799998217552386e-02,-4.497670586347995991e-02,-4.747541174478436821e-02,-4.997411762608883201e-02,-5.247282350739324031e-02,-5.497152938869770411e-02,-5.747023527000214016e-02,-5.996894115130657621e-02,-1.303855962688173220e-01,-2.303806822562693979e-01
5.747023527000211240e-02,5.747023527000205689e-02,5.747023527000211240e-02,5.597101174121943412e-02,5.347230585991502583e-02,5.097359997861056202e-02,4.847489409730609822e-02,4.647592939226252717e-02,4.397722351095811888e-02,4.147851762965371059e-02,3.897981174834930229e-02,3.648110586704478298e-02,3.398239998574037468e-02,3.148369410443591088e-02,2.898498822313150258e-02,2.698602351808793154e-02,2.448731763678346773e-02,2.198861175547905944e-02,1.948990587417459563e-02,1.699119999287015959e-02,1.449249411156575129e-02,1.199378823026131524e-02,9.495082348956851437e-03,7.496117643913280393e-03,4.997411762608872099e-03,2.498705881304436049e-03,-2.775557561562891351e-17,-2.498705881304463805e-03,-4.997411762608872099e-03,-7.496117643913308148e-03,-9.994823525217771953e-03,-1.199378823026131524e-02,-1.449249411156577905e-02,-1.699119999287018734e-02,-1.948990587417465115e-02,-2.198861175547905944e-02,-2.448731763678352324e-02,-2.698602351808798705e-02,-2.948472939939242310e-02,-3.148369410443596639e-02,-3.398239998574040244e-02,-3.648110586704483849e-02,-3.897981174834930229e-02,-4.147851762965376610e-02,-4.397722351095817439e-02,-1.499223528782664405e-01,-2.303806822562693979e-01
5.747023527000211240e-02,5.747023527000211240e-02,5.747023527000211240e-02,5.747023527000211240e-02,5.747023527000216792e-02,5.747023527000211240e-02,5.747023527000211240e-02,5.747023527000211240e-02,5.747023527000211240e-02,5.697049409374121964e-02,5.497152938869770411e-02,5.247282350739324031e-02,4.997411762608877650e-02,4.747541174478436821e-02,4.497670586347990440e-02,4.247799998217549611e-02,3.997929410087103230e-02,3.748058821956656850e-02,3.548162351452305296e-02,3.298291763321864467e-02,3.048421175191412535e-02,2.798550587060971706e-02,2.548679998930525326e-02,2.298809410800084496e-02,2.048938822669638116e-02,1.799068234539194511e-02,1.599171764034840182e-02,1.349301175904393801e-02,1.099430587773950196e-02,8.495599996435065915e-03,5.996894115130629865e-03,3.498188233826193816e-03,9.994823525217577664e-04,-1.499223528782678283e-03,-3.498188233826221571e-03,-5.996894115130657621e-03,-8.495599996435121426e-03,-1.099430587773952972e-02,-1.349301175904399352e-02,-1.599171764034840182e-02,-1.849042352165286562e-02,-2.098912940295732943e-02,-2.298809410800087272e-02,-2.548679998930530877e-02,-2.798550587060977257e-02,-1.741597999269194896e-01,-2.303806822562693979e-01
5.747023527000211240e-02,5.747023527000211240e-02,5.747023527000205689e-02,5.747023527000211240e-02,5.747023527000211240e-02,5.747023527000211240e-02,5.747023527000211240e-02,5.747023527000211240e-02,5.747023527000211240e-02,5.747023527000211240e-02,5.747023527000216792e-02,5.747023527000211240e-02,5.747023527000211240e-02,5.747023527000211240e-02,5.747023527000211240e-02,5.747023527000211240e-02,5.597101174121943412e-02,5.347230585991502583e-02,5.097359997861056202e-02,4.847489409730609822e-02,4.597618821600174543e-02,4.397722351095811888e-02,4.147851762965371059e-02,3.897981174834924678e-02,3.648110586704483849e-02,3.398239998574037468e-02,3.148369410443596639e-02,2.898498822313150258e-02,2.648628234182703878e-02,2.448731763678346773e-02,2.198861175547905944e-02,1.948990587417459563e-02,1.699119999287018734e-02,1.449249411156575129e-02,1.199378823026128749e-02,9.495082348956851437e-03,6.996376467652415387e-03,4.997411762608872099e-03,2.498705881304408294e-03,0.000000000000000000e+00,-2.498705881304436049e-03,-4.997411762608899854e-03,-7.496117643913308148e-03,-9.994823525217771953e-03,-1.249352940652220800e-02,-2.033946587381814386e-01,-2.303806822562693979e-01
3.768048469007095891e-02,4.667582586276691758e-02,5.567116703546287626e-02,5.747023527000211240e-02,5.747023527000216792e-02,5.747023527000211240e-02,5.747023527000211240e-02,5.747023527000211240e-02,5.747023527000211240e-02,5.747023527000211240e-02,5.747023527000211240e-02,5.747023527000211240e-02,5.747023527000211240e-02,5.747023527000211240e-02,5.747023527000211240e-02,5.747023527000205689e-02,5.747023527000211240e-02,5.747023527000211240e-02,5.747023527000211240e-02,5.747023527000211240e-02,5.747023527000211240e-02,5.747023527000211240e-02,5.697049409374121964e-02,5.447178821243681135e-02,5.247282350739324031e-02,4.997411762608883201e-02,4.747541174478431270e-02,4.497670586347995991e-02,4.247799998217549611e-02,3.997929410087108781e-02,3.748058821956662401e-02,3.498188233826210469e-02,3.298291763321858916e-02,3.048421175191418087e-02,2.798550587060971706e-02,2.548679998930525326e-02,2.298809410800078945e-02,2.048938822669638116e-02,1.799068234539191735e-02,1.549197646408748130e-02,1.349301175904396577e-02,1.099430587773950196e-02,8.495599996435065915e-03,5.996894115130657621e-03,-3.810526468989272608e-03,-2.303806822562693979e-01,-2.303806822562693979e-01
-1.809063058064414031e-02,-9.095289407948181637e-03,-9.994823525216744997e-05,7.096324702904582837e-03,1.609166587560056927e-02,2.508700704829658346e-02,3.408234822099254213e-02,4.307768939368850081e-02,5.207303056638457051e-02,5.747023527000211240e-02,5.747023527000211240e-02,5.747023527000211240e-02,5.747023527000211240e-02,5.747023527000211240e-02,5.747023527000205689e-02,5.747023527000205689e-02,5.747023527000211240e-02,5.747023527000216792e-02,5.747023527000211240e-02,5.747023527000211240e-02,5.747023527000211240e-02,5.747023527000211240e-02,5.747023527000211240e-02,5.747023527000211240e-02,5.747023527000211240e-02,5.747023527000211240e-02,5.747023527000211240e-02,5.747023527000211240e-02,5.747023527000211240e-02,5.597101174121943412e-02,5.347230585991502583e-02,5.097359997861056202e-02,4.847489409730609822e-02,4.597618821600168992e-02,4.347748233469728163e-02,4.147851762965371059e-02,3.897981174834930229e-02,3.648110586704483849e-02,3.398239998574037468e-02,3.148369410443591088e-02,2.898498822313144707e-02,2.648628234182703878e-02,2.398757646052257497e-02,2.198861175547905944e-02,-2.736082940028367050e-02,-2.303806822562693979e-01,-2.303806822562693979e-01
-7.566081408589847568e-02,-6.666547291320248925e-02,-5.767013174050650282e-02,-4.867479056781048863e-02,-3.967944939511452995e-02,-3.068410822241854352e-02,-2.348783528426179323e-02,-1.449249411156577905e-02,-5.497152938869792616e-03,3.498188233826193816e-03,1.249352940652218025e-02,2.148887057921816668e-02,3.048421175191418087e-02,3.947955292461013954e-02,4.667582586276691758e-02,5.567116703546287626e-02,5.747023527000211240e-02,5.747023527000211240e-02,5.747023527000211240e-02,5.747023527000211240e-02,5.747023527000211240e-02,5.747023527000216792e-02,5.747023527000211240e-02,5.747023527000211240e-02,5.747023527000211240e-02,5.747023527000211240e-02,5.747023527000211240e-02,5.747023527000205689e-02,5.747023527000205689e-02,5.747023527000211240e-02,5.747023527000205689e-02,5.747023527000211240e-02,5.747023527000211240e-02,5.747023527000211240e-02,5.747023527000211240e-02,5.697049409374121964e-02,5.447178821243681135e-02,5.197308233113234754e-02,4.997411762608877650e-02,4.747541174478431270e-02,4.497670586347990440e-02,4.247799998217549611e-02,-8.365397624584647307e-02,-8.615268212715093687e-02,-1.798697695878255787e-01,-2.303806822562693979e-01,-2.303806822562693979e-01
-1.314319293566135749e-01,-1.242356564184567830e-01,-1.152403152457607965e-01,-1.062449740730648101e-01,-9.724963290036883756e-02,-8.825429172767285113e-02,-7.925895055497686470e-02,-7.026360938228087827e-02,-6.126826820958489184e-02,-5.407199527142811379e-02,-4.507665409873212736e-02,-3.608131292603614093e-02,-2.708597175334015450e-02,-1.809063058064414031e-02,-9.095289407948209393e-03,-9.994823525219520555e-05,8.895392937443791226e-03,1.609166587560056927e-02,2.508700704829658346e-02,3.408234822099254213e-02,4.307768939368855632e-02,5.207303056638457051e-02,5.747023527000211240e-02,5.747023527000211240e-02,5.747023527000205689e-02,5.747023527000211240e-02,5.747023527000211240e-02,5.747023527000211240e-02,5.747023527000205689e-02,5.747023527000211240e-02,5.747023527000211240e-02,5.747023527000211240e-02,5.747023527000211240e-02,5.747023527000211240e-02,5.747023527000211240e-02,5.747023527000211240e-02,5.747023527000211240e-02,5.747023527000211240e-02,5.747023527000211240e-02,5.747023527000211240e-02,5.747023527000205689e-02,5.747023527000205689e-02,-6.766225860549807125e-02,-7.016096448680247954e-02,-2.133368114855469233e-01,-2.303806822562693979e-01,-2.303806822562693979e-01
-1.890021128618678548e-01,-1.800067716891718961e-01,-1.710114305164758819e-01,-1.620160893437799232e-01,-1.548198164056231452e-01,-1.458244752329271310e-01,-1.368291340602311723e-01,-1.278337928875351581e-01,-1.188384517148391856e-01,-1.098431105421432130e-01,-1.008477693694472266e-01,-9.185242819675124015e-02,-8.465615525859443435e-02,-7.566081408589847568e-02,-6.666547291320248925e-02,-5.767013174050650282e-02,-4.867479056781051638e-02,-3.967944939511452995e-02,-3.068410822241851577e-02,-2.168876704972255709e-02,-1.449249411156577905e-02,-5.497152938869764860e-03,3.498188233826193816e-03,1.249352940652218025e-02,2.148887057921816668e-02,3.048421175191418087e-02,3.947955292461013954e-02,4.847489409730615373e-02,5.567116703546293177e-02,5.747023527000211240e-02,5.747023527000211240e-02,5.747023527000211240e-02,5.747023527000211240e-02,5.747023527000211240e-02,5.747023527000211240e-02,5.747023527000211240e-02,5.747023527000211240e-02,5.747023527000211240e-02,5.747023527000211240e-02,5.747023527000211240e-02,5.747023527000211240e-02,5.747023527000205689e-02,-6.616303507671539297e-02,-6.616303507671539297e-02,-2.550651997033310803e-01,-2.303806822562693979e-01,-2.303806822562693979e-01
-2.303806822562693979e-01,-2.303806822562693979e-01,-2.285816140217301895e-01,-2.195862728490342031e-01,-2.105909316763382444e-01,-2.015955905036422580e-01,-1.926002493309462715e-01,-1.854039763927894657e-01,-1.764086352200934793e-01,-1.674132940473975206e-01,-1.584179528747015064e-01,-1.494226117020055478e-01,-1.404272705293095336e-01,-1.314319293566135749e-01,-1.224365881839176023e-01,-1.152403152457607965e-01,-1.062449740730648101e-01,-9.724963290036883756e-02,-8.825429172767282338e-02,-7.925895055497686470e-02,-7.026360938228085051e-02,-6.126826820958489184e-02,-5.227292703688890541e-02,-4.507665409873209961e-02,-3.608131292603616869e-02,-2.708597175334015450e-02,-1.809063058064414031e-02,-9.095289407948181637e-03,-9.994823525219520555e-05,8.895392937443791226e-03,1.789073411013974990e-02,2.508700704829658346e-02,3.408234822099254213e-02,4.307768939368850081e-02,5.207303056638457051e-02,5.747023527000211240e-02,5.747023527000211240e-02,5.747023527000211240e-02,5.747023527000211240e-02,5.747023527000211240e-02,5.747023527000211240e-02,5.747023527000211240e-02,5.747023527000211240e-02,5.747023527000211240e-02,-1.764086352200934793e-01,-2.303806822562693979e-01,-2.303806822562693979e-01
-2.303806822562693979e-01,-2.303806822562693979e-01,-2.303806822562693979e-01,-2.303806822562693979e-01,-2.303806822562693979e-01,-2.303806822562693979e-01,-2.303806822562693979e-01,-2.303806822562693979e-01,-2.303806822562693979e-01,-2.231844093181126198e-01,-2.159881363799558140e-01,-2.069927952072598276e-01,-1.979974540345638689e-01,-1.890021128618678548e-01,-1.800067716891718961e-01,-1.710114305164758819e-01,-1.620160893437799232e-01,-1.530207481710839090e-01,-1.458244752329271310e-01,-1.368291340602311446e-01,-1.278337928875351581e-01,-1.188384517148391856e-01,-1.098431105421431991e-01,-1.008477693694472266e-01,-9.185242819675124015e-02,-8.285708702405525372e-02,-7.566081408589844792e-02,-6.666547291320248925e-02,-5.767013174050650282e-02,-4.867479056781048863e-02,-3.967944939511452995e-02,-3.068410822241857128e-02,-2.168876704972258485e-02,-1.269342587702657066e-02,-5.497152938869764860e-03,3.498188233826193816e-03,1.249352940652218025e-02,2.148887057921816668e-02,3.048421175191418087e-02,3.947955292461013954e-02,4.847489409730609822e-02,5.747023527000211240e-02,5.747023527000211240e-02,5.747023527000211240e-02,-2.213853410835734115e-01,-2.303806822562693979e-01,-2.303806822562693979e-01
-2.303806822562693979e-01,-2.303806822562693979e-01,-2.303806822562693979e-01,-2.303806822562693979e-01,-2.303806822562693979e-01,-2.303806822562693979e-01,-2.303806822562693979e-01,-2.303806822562693979e-01,-2.303806822562693979e-01,-2.303806822562693979e-01,-2.303806822562693979e-01,-2.303806822562693979e-01,-2.303806822562693979e-01,-2.303806822562693979e-01,-2.303806822562693979e-01,-2.285816140217301895e-01,-2.195862728490342031e-01,-2.105909316763382444e-01,-2.015955905036422302e-01,-1.926002493309462715e-01,-1.836049081582502851e-01,-1.764086352200934793e-01,-1.674132940473975206e-01,-1.584179528747015064e-01,-1.494226117020055478e-01,-1.404272705293095613e-01,-1.314319293566135749e-01,-1.224365881839175885e-01,-1.134412470112216020e-01,-1.062449740730648240e-01,-9.724963290036880981e-02,-8.825429172767285113e-02,-7.925895055497683694e-02,-7.026360938228087827e-02,-6.126826820958489184e-02,-5.227292703688890541e-02,-4.327758586419291897e-02,-3.608131292603614093e-02,-2.708597175334015450e-02,-1.809063058064414031e-02,-9.095289407948209393e-03,-9.994823525219520555e-05,8.895392937443763470e-03,-1.314319293566137969e-02,-2.303806822562693979e-01,-2.303806822562693979e-01,-2.303806822562693979e-01
-2.303806822562693979e-01,-2.303806822562693979e-01,-2.303806822562693979e-01,-2.303806822562693979e-01,-2.303806822562693979e-01,-2.303806822562693979e-01,-2.303806822562693979e-01,-2.303806822562693979e-01,-2.303806822562693979e-01,-2.303806822562693979e-01,-2.303806822562693979e-01,-2.303806822562693979e-01,-2.303806822562693979e-01,-2.303806822562693979e-01,-2.303806822562693979e-01,-2.303806822562693979e-01,-2.303806822562693979e-01,-2.303806822562693979e-01,-2.303806822562693979e-01,-2.303806822562693979e-01,-2.303806822562693979e-01,-2.303806822562693979e-01,-2.231844093181126198e-01,-2.141890681454166334e-01,-2.069927952072598276e-01,-1.979974540345638689e-01,-1.890021128618678548e-01,-1.800067716891718961e-01,-1.710114305164758819e-01,-1.620160893437799232e-01,-1.530207481710839368e-01,-1.440254069983879504e-01,-1.368291340602311723e-01,-1.278337928875351581e-01,-1.188384517148391994e-01,-1.098431105421432130e-01,-1.008477693694472266e-01,-9.185242819675124015e-02,-8.285708702405525372e-02,-7.386174585135926729e-02,-6.666547291320248925e-02,-5.767013174050650282e-02,-4.867479056781051638e-02,-9.331417113731432789e-02,-2.303806822562693979e-01,-2.303806822562693979e-01,-2.303806822562693979e-01
