-2.027597853397203609e-01,-2.027597853397203609e-01,-2.027597853397203609e-01,-2.027597853397203609e-01,-2.027597853397203609e-01,-2.027597853397203609e-01,-2.006382753089615556e-01,-1.967064100519552716e-01,-1.909641895687014812e-01,-1.858301352942652029e-01,-1.769197931650782762e-01,-3.261689731273450521e-01,-3.136379205456630848e-01,-2.992965127377336665e-01,-2.831447497035567418e-01,-2.651826314431322551e-01,-9.102692371975727725e-02,-6.989668381339972369e-02,-5.068994633493009716e-02,-3.801745975119757981e-02,-2.534497316746506246e-02,-1.267248658373254511e-02,-6.336243291866300309e-03,-5.551115123125782702e-17,-2.775557561562891351e-17,-4.224162194577524287e-03,-1.774148121722554650e-02,-3.125880023987356870e-02,-4.477611926252156316e-02,-5.829343828516961312e-02,-7.181075730781763533e-02,-8.532807633046568530e-02,-9.884539535311367975e-02,-1.123627143757617020e-01,-1.258800333984097242e-01,-1.393973524210577464e-01,-1.529146714437057686e-01,-1.664319904663537908e-01,-1.799493094890018130e-01,-1.934666285116498352e-01,-2.027597853397203609e-01,-2.027597853397203609e-01,-2.027597853397203609e-01,-2.027597853397203609e-01,-2.027597853397203609e-01,-2.027597853397203609e-01,-2.027597853397203609e-01
-2.027597853397203609e-01,-2.027597853397203609e-01,-2.027597853397203609e-01,-2.027597853397203609e-01,-1.985167652782027781e-01,-1.837510554641215710e-01,-1.697208024607034238e-01,-1.552379606507234000e-01,-1.407551188407433762e-01,-1.262722770307633524e-01,-1.117894352207833286e-01,-2.572764707285045138e-01,-2.427936289185245178e-01,-2.283107871085444662e-01,-2.138279452985644424e-01,-1.993451034885844186e-01,-2.489238436090315809e-02,-1.040954255092316205e-02,-2.775557561562891351e-17,-2.775557561562891351e-17,-2.775557561562891351e-17,-2.775557561562891351e-17,-2.775557561562891351e-17,-2.775557561562891351e-17,-2.775557561562891351e-17,-3.379329755662019430e-03,-1.689664877831004164e-02,-3.041396780095806385e-02,-4.393128682360608606e-02,-5.744860584625413602e-02,-7.096592486890215823e-02,-8.448324389155018044e-02,-9.800056291419818877e-02,-1.115178819368462110e-01,-1.250352009594942193e-01,-1.385525199821422415e-01,-1.520698390047902637e-01,-1.655871580274382859e-01,-1.791044770500863081e-01,-1.926217960727343304e-01,-2.027597853397203609e-01,-2.027597853397203609e-01,-2.027597853397203609e-01,-2.027597853397203609e-01,-2.027597853397203609e-01,-2.027597853397203609e-01,-2.027597853397203609e-01
-2.027597853397203609e-01,-2.027597853397203609e-01,-2.027597853397203609e-01,-2.027597853397203609e-01,-1.991390748872253480e-01,-1.846562330772453242e-01,-1.701733912672653004e-01,-1.556905494572852766e-01,-1.416602964538671294e-01,-1.271774546438871334e-01,-1.126946128339070818e-01,-2.581816483416282670e-01,-2.436988065316482432e-01,-2.292159647216682195e-01,-2.147331229116881957e-01,-2.002502811017081719e-01,-2.579756197402691131e-02,-1.131472016404691527e-02,-2.775557561562891351e-17,-2.775557561562891351e-17,-2.775557561562891351e-17,-2.775557561562891351e-17,-2.775557561562891351e-17,-2.775557561562891351e-17,-2.775557561562891351e-17,-2.956913536204280879e-03,-1.647423255885230309e-02,-2.956913536204255899e-02,-4.308645438469058120e-02,-5.660377340733863116e-02,-7.012109242998662562e-02,-8.363841145263467558e-02,-9.715573047528269779e-02,-1.106730494979307061e-01,-1.241903685205787145e-01,-1.377076875432267644e-01,-1.512250065658747866e-01,-1.647423255885228088e-01,-1.782596446111708310e-01,-1.917769636338188532e-01,-2.027597853397203609e-01,-2.027597853397203609e-01,-2.027597853397203609e-01,-2.027597853397203609e-01,-2.027597853397203609e-01,-2.027597853397203609e-01,-2.027597853397203609e-01
-2.027597853397203609e-01,-2.027597853397203609e-01,-2.027597853397203609e-01,-2.027597853397203609e-01,-2.000442525003491012e-01,-1.855614106903690774e-01,-1.710785688803890536e-01,-1.565957270704090298e-01,-1.421128852604290060e-01,-1.276300434504489822e-01,-1.131472016404689446e-01,-2.590868259547520203e-01,-2.446039841447719965e-01,-2.301211423347919727e-01,-2.156383005248119489e-01,-2.011554587148319251e-01,-2.670273958715066454e-02,-1.221989777717066850e-02,-2.775557561562891351e-17,-2.775557561562891351e-17,-2.775557561562891351e-17,-2.775557561562891351e-17,-2.775557561562891351e-17,-2.775557561562891351e-17,-2.775557561562891351e-17,-2.112081097288776022e-03,-1.562940011993682599e-02,-2.914671914258482044e-02,-4.266403816523281489e-02,-5.618135718788086486e-02,-6.927625999107114851e-02,-8.279357901371917072e-02,-9.631089803636719293e-02,-1.098282170590152151e-01,-1.233455360816632096e-01,-1.368628551043112318e-01,-1.503801741269592818e-01,-1.638974931496072762e-01,-1.774148121722553262e-01,-1.909321311949033484e-01,-2.027597853397203609e-01,-2.027597853397203609e-01,-2.027597853397203609e-01,-2.027597853397203609e-01,-2.027597853397203609e-01,-2.027597853397203609e-01,-2.027597853397203609e-01
-2.027597853397203609e-01,-2.027597853397203609e-01,-2.027597853397203609e-01,-2.027597853397203609e-01,-2.009494301134728544e-01,-1.864665883034928306e-01,-1.719837464935128069e-01,-1.575009046835327831e-01,-1.430180628735527593e-01,-1.285352210635727355e-01,-1.140523792535926978e-01,-2.595394147613139246e-01,-2.450565729513338731e-01,-2.305737311413538493e-01,-2.165434781379357021e-01,-2.020606363279556783e-01,-2.760791720027441776e-02,-1.312507539029442172e-02,-2.775557561562891351e-17,-2.775557561562891351e-17,-2.775557561562891351e-17,-2.775557561562891351e-17,-2.775557561562891351e-17,-2.775557561562891351e-17,-2.775557561562891351e-17,-1.267248658373271164e-03,-1.478456768102132113e-02,-2.830188670366931558e-02,-4.181920572631733779e-02,-5.533652474896536000e-02,-6.885384377161338221e-02,-8.237116279426141829e-02,-9.588848181690942662e-02,-1.089833846200997103e-01,-1.225007036427477186e-01,-1.360180226653957547e-01,-1.495353416880437769e-01,-1.630526607106917991e-01,-1.765699797333398213e-01,-1.900872987559878435e-01,-2.027597853397203609e-01,-2.027597853397203609e-01,-2.027597853397203609e-01,-2.027597853397203609e-01,-2.027597853397203609e-01,-2.027597853397203609e-01,-2.027597853397203609e-01
-2.027597853397203609e-01,-2.027597853397203609e-01,-2.027597853397203609e-01,-2.027597853397203609e-01,-2.018546077265966077e-01,-1.873717659166165839e-01,-1.728889241066365601e-01,-1.584060822966565363e-01,-1.439232404866765125e-01,-1.294403986766964887e-01,-1.149575568667164510e-01,-1.004747150567364411e-01,-8.599187324675641730e-02,-7.150903143677639351e-02,-5.702618962679636971e-02,-4.254334781681631816e-02,-2.806050600683629437e-02,-1.403025300341817494e-02,-2.775557561562891351e-17,-2.775557561562891351e-17,-2.775557561562891351e-17,-2.775557561562891351e-17,-2.161370450631600604e-01,-2.161370450631600604e-01,-2.161370450631600604e-01,-4.224162194577663065e-04,-1.393973524210578852e-02,-2.745705426475383848e-02,-4.097437328740180518e-02,-5.449169231004985514e-02,-6.800901133269790511e-02,-8.152633035534591344e-02,-9.504364937799393565e-02,-1.085609684006419440e-01,-1.220782874232899662e-01,-1.355956064459379884e-01,-1.486905092491282721e-01,-1.622078282717762943e-01,-1.757251472944243165e-01,-1.892424663170723387e-01,-2.027597853397203609e-01,-2.027597853397203609e-01,-2.027597853397203609e-01,-2.027597853397203609e-01,-2.027597853397203609e-01,-2.027597853397203609e-01,-2.027597853397203609e-01
-2.027597853397203609e-01,-2.027597853397203609e-01,-2.027597853397203609e-01,-2.027597853397203609e-01,-2.027597853397203609e-01,-1.882769435297403371e-01,-1.737941017197603133e-01,-1.593112599097802895e-01,-1.448284180998002657e-01,-1.303455762898202419e-01,-1.158627344798402042e-01,-1.013798926698601943e-01,-8.689705085988017053e-02,-7.241420904990014673e-02,-5.793136723992012294e-02,-4.344852542994009914e-02,-2.896568361996004759e-02,-1.448284180998005155e-02,-2.775557561562891351e-17,-2.775557561562891351e-17,-2.775557561562891351e-17,-5.551115123125782702e-17,-2.161370450631600881e-01,-2.161370450631600881e-01,-2.161370450631600881e-01,-2.775557561562891351e-17,-1.309490280319028366e-02,-2.661222182583833362e-02,-4.012954084848632808e-02,-5.364685987113437804e-02,-6.716417889378240025e-02,-8.068149791643042246e-02,-9.419881693907843079e-02,-1.077161359617264530e-01,-1.212334549843744613e-01,-1.347507740070225113e-01,-1.482680930296705335e-01,-1.617854120523185280e-01,-1.753027310749665779e-01,-1.883976338781568338e-01,-2.019149529008048560e-01,-2.027597853397203609e-01,-2.027597853397203609e-01,-2.027597853397203609e-01,-2.027597853397203609e-01,-2.027597853397203609e-01,-2.027597853397203609e-01
-2.027597853397203609e-01,-2.027597853397203609e-01,-2.027597853397203609e-01,-2.027597853397203609e-01,-2.027597853397203609e-01,-1.891821211428640903e-01,-1.746992793328840665e-01,-1.602164375229040427e-01,-1.457335957129240189e-01,-1.312507539029439951e-01,-1.167679120929639575e-01,-1.022850702829839475e-01,-8.780222847300392375e-02,-7.331938666302389995e-02,-5.883654485304384840e-02,-4.435370304306385236e-02,-2.987086123308380081e-02,-1.538801942310380477e-02,-9.051776131237809775e-04,-2.775557561562891351e-17,-2.775557561562891351e-17,0.000000000000000000e+00,-2.161370450631600604e-01,-2.161370450631600881e-01,-2.161370450631600604e-01,-2.775557561562891351e-17,-1.225007036427477880e-02,-2.576738938692282876e-02,-3.928470840957082322e-02,-5.280202743221890094e-02,-6.631934645486689539e-02,-7.983666547751491760e-02,-9.335398450016292593e-02,-1.068713035228109481e-01,-1.203886225454589703e-01,-1.339059415681069787e-01,-1.474232605907550286e-01,-1.609405796134030231e-01,-1.744578986360510731e-01,-1.879752176586990953e-01,-2.014925366813471175e-01,-2.027597853397203609e-01,-2.027597853397203609e-01,-2.027597853397203609e-01,-2.027597853397203609e-01,-2.027597853397203609e-01,-2.027597853397203609e-01
-2.027597853397203609e-01,-2.027597853397203609e-01,-2.027597853397203609e-01,-2.027597853397203609e-01,-2.027597853397203609e-01,-1.896347099494259669e-01,-1.751518681394459431e-01,-1.611216151360277959e-01,-1.466387733260477721e-01,-1.321559315160677484e-01,-1.176730897060877107e-01,-1.031902478961076869e-01,-8.870740608612767697e-02,-7.422456427614765317e-02,-5.974172246616765714e-02,-7.236597210608580744e-02,-5.788313029610575589e-02,-4.340028848612573209e-02,-1.810355226247506444e-03,-2.775557561562891351e-17,-5.551115123125782702e-17,-2.775557561562891351e-17,-2.775557561562891351e-17,-2.775557561562891351e-17,-2.775557561562891351e-17,0.000000000000000000e+00,-1.140523792535930170e-02,-2.492255694800732391e-02,-3.843987597065529060e-02,-5.195719499330336832e-02,-6.547451401595139053e-02,-7.899183303859939886e-02,-9.250915206124743495e-02,-1.060264710838954572e-01,-1.195437901065434794e-01,-1.330611091291915016e-01,-1.465784281518395238e-01,-1.600957471744875460e-01,-1.736130661971355682e-01,-1.871303852197835904e-01,-2.006477042424316126e-01,-2.027597853397203609e-01,-2.027597853397203609e-01,-2.027597853397203609e-01,-2.027597853397203609e-01,-2.027597853397203609e-01,-2.027597853397203609e-01
-2.027597853397203609e-01,-2.027597853397203609e-01,-2.027597853397203609e-01,-2.027597853397203609e-01,-2.027597853397203609e-01,-1.905398875625497201e-01,-1.760570457525696964e-01,-1.615742039425896726e-01,-1.470913621326096488e-01,-1.326085203226296250e-01,-1.185782673192114639e-01,-1.040954255092314401e-01,-8.961258369925143019e-02,-7.512974188927140640e-02,-6.064690007929138260e-02,-7.327114971920956066e-02,-5.878830790922950911e-02,-4.430546609924951307e-02,-2.715532839371259666e-03,-2.775557561562891351e-17,0.000000000000000000e+00,0.000000000000000000e+00,0.000000000000000000e+00,0.000000000000000000e+00,0.000000000000000000e+00,-2.775557561562891351e-17,-1.098282170590156315e-02,-2.450014072854958536e-02,-3.801745975119755205e-02,-5.111236255438786347e-02,-6.462968157703588568e-02,-7.814700059968392176e-02,-9.166431962233193009e-02,-1.051816386449799523e-01,-1.186989576676279606e-01,-1.322162766902759967e-01,-1.457335957129240189e-01,-1.592509147355720411e-01,-1.727682337582200633e-01,-1.862855527808680856e-01,-1.998028718035161078e-01,-2.027597853397203609e-01,-2.027597853397203609e-01,-2.027597853397203609e-01,-2.027597853397203609e-01,-2.027597853397203609e-01,-2.027597853397203609e-01
-2.027597853397203609e-01,-2.027597853397203609e-01,-2.027597853397203609e-01,-2.027597853397203609e-01,-2.027597853397203609e-01,-1.914450651756734734e-01,-1.769622233656934496e-01,-1.624793815557134258e-01,-1.479965397457334020e-01,-1.335136979357533782e-01,-1.190308561257733266e-01,-1.045480143157933306e-01,-9.006517250581329292e-02,-7.603491950239515962e-02,-6.155207769241513582e-02,-7.417632733233328612e-02,-5.969348552235326233e-02,-4.521064371237326629e-02,-3.620710452495040643e-03,0.000000000000000000e+00,-2.775557561562891351e-17,-2.775557561562891351e-17,-5.551115123125782702e-17,-5.551115123125782702e-17,-2.775557561562891351e-17,0.000000000000000000e+00,-1.013798926698605829e-02,-2.365530828963408050e-02,-3.717262731228207495e-02,-5.068994633493012492e-02,-6.420726535757814712e-02,-7.772458438022616933e-02,-9.081948718341642524e-02,-1.043368062060644474e-01,-1.178541252287124558e-01,-1.313714442513604919e-01,-1.448887632740085141e-01,-1.584060822966565363e-01,-1.719234013193045585e-01,-1.854407203419525807e-01,-1.989580393646006029e-01,-2.027597853397203609e-01,-2.027597853397203609e-01,-2.027597853397203609e-01,-2.027597853397203609e-01,-2.027597853397203609e-01,-2.027597853397203609e-01
-2.027597853397203609e-01,-2.027597853397203609e-01,-2.027597853397203609e-01,-2.027597853397203609e-01,-2.027597853397203609e-01,-1.923502427887972266e-01,-1.778674009788172028e-01,-1.633845591688371512e-01,-1.489017173588571552e-01,-1.344188755488771037e-01,-1.199360337388970799e-01,-1.054531919289170699e-01,-9.097035011893704615e-02,-7.648750830895703623e-02,-6.200466649897701243e-02,-4.752182468899698864e-02,-3.349157168557878594e-02,-1.900872987559881766e-02,-4.525888065618793865e-03,-2.775557561562891351e-17,-2.775557561562891351e-17,-2.775557561562891351e-17,-2.775557561562891351e-17,-2.775557561562891351e-17,-2.775557561562891351e-17,-2.775557561562891351e-17,-9.293156828070581188e-03,-2.281047585071857564e-02,-3.632779487336657009e-02,-4.984511389601459230e-02,-6.336243291866264227e-02,-7.687975194131063672e-02,-9.039707096395868668e-02,-1.039143899866067089e-01,-1.174317090092547172e-01,-1.305266118124449870e-01,-1.440439308350930092e-01,-1.575612498577410314e-01,-1.710785688803890536e-01,-1.845958879030370758e-01,-1.981132069256850980e-01,-2.027597853397203609e-01,-2.027597853397203609e-01,-2.027597853397203609e-01,-2.027597853397203609e-01,-2.027597853397203609e-01,-2.027597853397203609e-01
-2.027597853397203609e-01,-2.027597853397203609e-01,-2.027597853397203609e-01,-2.027597853397203609e-01,-2.027597853397203609e-01,-1.932554204019209798e-01,-1.787725785919409560e-01,-1.642897367819609045e-01,-1.498068949719809084e-01,-1.353240531620008569e-01,-1.208412113520208331e-01,-1.063583695420408232e-01,-9.187552773206079937e-02,-7.739268592208078945e-02,-6.290984411210073790e-02,-4.842700230212071411e-02,-3.394416049214069031e-02,-1.946131868216066652e-02,-4.978476872180698232e-03,-2.775557561562891351e-17,-2.775557561562891351e-17,-2.775557561562891351e-17,-2.775557561562891351e-17,-5.551115123125782702e-17,-2.775557561562891351e-17,-2.775557561562891351e-17,-8.448324389155020819e-03,-2.196564341180307078e-02,-3.548296243445106524e-02,-4.900028145709908745e-02,-6.251760047974713741e-02,-7.603491950239515962e-02,-8.955223852504316795e-02,-1.030695575476912040e-01,-1.165868765703391985e-01,-1.301041955929872485e-01,-1.436215146156352707e-01,-1.571388336382832929e-01,-1.702337364414735488e-01,-1.837510554641215710e-01,-1.972683744867695932e-01,-2.027597853397203609e-01,-2.027597853397203609e-01,-2.027597853397203609e-01,-2.027597853397203609e-01,-2.027597853397203609e-01,-2.027597853397203609e-01
-2.027597853397203609e-01,-2.027597853397203609e-01,-2.027597853397203609e-01,-2.027597853397203609e-01,-2.027597853397203609e-01,-1.941605980150447330e-01,-1.796777562050647092e-01,-1.651949143950846854e-01,-1.507120725851046616e-01,-1.362292307751246101e-01,-1.217463889651446002e-01,-1.072635471551645764e-01,-9.278070534518456647e-02,-7.829786353520452880e-02,-6.381502172522451888e-02,-4.933217991524449508e-02,-3.484933810526444353e-02,-2.036649629528444749e-02,-5.883654485304395942e-03,-2.775557561562891351e-17,0.000000000000000000e+00,-2.775557561562891351e-17,-2.775557561562891351e-17,-2.775557561562891351e-17,-2.775557561562891351e-17,-2.775557561562891351e-17,-7.603491950239515962e-03,-2.112081097288756593e-02,-3.463812999553556038e-02,-4.815544901818358259e-02,-6.167276804083163255e-02,-7.519008706347965476e-02,-8.870740608612767697e-02,-1.022247251087756992e-01,-1.157420441314237075e-01,-1.292593631540717158e-01,-1.427766821767197658e-01,-1.562940011993677880e-01,-1.698113202220158102e-01,-1.833286392446638324e-01,-1.968459582673118546e-01,-2.027597853397203609e-01,-2.027597853397203609e-01,-2.027597853397203609e-01,-2.027597853397203609e-01,-2.027597853397203609e-01,-2.027597853397203609e-01
-2.027597853397203609e-01,-2.027597853397203609e-01,-2.027597853397203609e-01,-2.027597853397203609e-01,-2.027597853397203609e-01,-1.946131868216066096e-01,-1.805829338181884625e-01,-1.661000920082084109e-01,-1.516172501982284149e-01,-1.371344083882483633e-01,-1.226515665782683534e-01,-1.081687247682883157e-01,-9.368588295830831969e-02,-7.920304114832828202e-02,-6.472019933834827210e-02,-5.023735752836824831e-02,-3.575451571838819675e-02,-2.127167390840817296e-02,-6.788832098428149164e-03,-2.775557561562891351e-17,-2.775557561562891351e-17,-2.775557561562891351e-17,-2.775557561562891351e-17,-1.041353612234297843e-01,-1.041353612234297843e-01,-1.041353612234297843e-01,-6.758659511324038860e-03,-2.027597853397208882e-02,-3.379329755662005552e-02,-4.731061657926807773e-02,-6.082793560191612769e-02,-7.434525462456414990e-02,-8.786257364721217211e-02,-1.013798926698601943e-01,-1.148972116925082165e-01,-1.284145307151562387e-01,-1.419318497378042609e-01,-1.554491687604522832e-01,-1.689664877831003054e-01,-1.824838068057483276e-01,-1.960011258283963498e-01,-2.027597853397203609e-01,-2.027597853397203609e-01,-2.027597853397203609e-01,-2.027597853397203609e-01,-2.027597853397203609e-01,-2.027597853397203609e-01
-2.027597853397203609e-01,-2.027597853397203609e-01,-2.027597853397203609e-01,-2.027597853397203609e-01,-2.027597853397203609e-01,-1.955183644347303629e-01,-1.810355226247503113e-01,-1.665526808147702875e-01,-1.520698390047902637e-01,-1.380395860013721165e-01,-1.235567441913921066e-01,-1.090739023814120690e-01,-9.459106057143204516e-02,-8.010821876145203524e-02,-6.562537695147199757e-02,-5.114253514149197377e-02,-3.665969333151194998e-02,-2.217685152153192618e-02,-7.694009711551930142e-03,-2.775557561562891351e-17,-2.775557561562891351e-17,-2.775557561562891351e-17,-2.775557561562891351e-17,-1.041353612234297843e-01,-1.041353612234298120e-01,-1.041353612234297843e-01,-6.336243291866272553e-03,-1.985356231451432252e-02,-3.294846511770457842e-02,-4.646578414035257287e-02,-5.998310316300062284e-02,-7.350042218564864505e-02,-8.701774120829666725e-02,-1.005350602309446895e-01,-1.140523792535927117e-01,-1.275696982762407339e-01,-1.410870172988887561e-01,-1.546043363215367783e-01,-1.681216553441848005e-01,-1.816389743668328227e-01,-1.951562933894808449e-01,-2.027597853397203609e-01,-2.027597853397203609e-01,-2.027597853397203609e-01,-2.027597853397203609e-01,-2.027597853397203609e-01,-2.027597853397203609e-01
-2.027597853397203609e-01,-2.027597853397203609e-01,-2.027597853397203609e-01,-2.027597853397203609e-01,-2.027597853397203609e-01,-1.964235420478540883e-01,-1.819407002378740645e-01,-1.674578584278940407e-01,-1.529750166179140169e-01,-1.384921748079340209e-01,-1.240093329979539694e-01,-1.095264911879739456e-01,-9.549623818455581226e-02,-8.101339637457578846e-02,-6.653055456459575079e-02,-5.204771275461575475e-02,-3.756487094463570320e-02,-2.308202913465565165e-02,-8.599187324675655608e-03,-2.775557561562891351e-17,-2.775557561562891351e-17,-2.775557561562891351e-17,-2.775557561562891351e-17,-1.041353612234297843e-01,-1.041353612234297843e-01,-1.041353612234297843e-01,-5.491410852950795451e-03,-1.900872987559878990e-02,-3.252604889824681211e-02,-4.604336792089483432e-02,-5.956068694354288429e-02,-7.265558974673314019e-02,-8.617290876938117627e-02,-9.969022779202919848e-02,-1.132075468146772068e-01,-1.267248658373252290e-01,-1.402421848599732512e-01,-1.537595038826212734e-01,-1.672768229052692956e-01,-1.807941419279173179e-01,-1.943114609505653401e-01,-2.027597853397203609e-01,-2.027597853397203609e-01,-2.027597853397203609e-01,-2.027597853397203609e-01,-2.027597853397203609e-01,-2.027597853397203609e-01
-2.027597853397203609e-01,-2.027597853397203609e-01,-2.027597853397203609e-01,-2.027597853397203609e-01,-2.027597853397203609e-01,-1.973287196609778416e-01,-1.828458778509978178e-01,-1.683630360410177940e-01,-1.538801942310377702e-01,-1.393973524210577741e-01,-1.249145106110777226e-01,-1.104316688010976849e-01,-9.594882699111767499e-02,-8.146598518113765119e-02,-6.698314337115762740e-02,-5.295289036773950797e-02,-3.847004855775945642e-02,-2.398720674777940487e-02,-9.504364937799408830e-03,-2.775557561562891351e-17,-2.775557561562891351e-17,-2.775557561562891351e-17,-2.775557561562891351e-17,-2.775557561562891351e-17,-2.775557561562891351e-17,-2.775557561562891351e-17,-4.646578414035318350e-03,-1.816389743668331280e-02,-3.168121645933130726e-02,-4.519853548197932946e-02,-5.871585450462737943e-02,-7.223317352727540164e-02,-8.575049254992342385e-02,-1.014228470032103868e-01,-1.145177498064006566e-01,-1.280350688290486927e-01,-1.415523878516967149e-01,-1.550697068743447371e-01,-1.664319904663537908e-01,-1.799493094890018408e-01,-1.934666285116498352e-01,-2.027597853397203609e-01,-2.027597853397203609e-01,-2.027597853397203609e-01,-2.027597853397203609e-01,-2.027597853397203609e-01,-2.027597853397203609e-01
-2.027597853397203609e-01,-2.027597853397203609e-01,-2.027597853397203609e-01,-2.027597853397203609e-01,-2.027597853397203609e-01,-1.982338972741015948e-01,-1.837510554641215710e-01,-1.692682136541415472e-01,-1.547853718441615234e-01,-1.403025300341814996e-01,-1.258196882242014758e-01,-1.113368464142214520e-01,-9.685400460424142821e-02,-8.237116279426141829e-02,-6.788832098428138062e-02,-5.340547917430135683e-02,-3.892263736432133303e-02,-2.443979555434130924e-02,-1.040954255092316205e-02,-2.775557561562891351e-17,-2.775557561562891351e-17,-2.775557561562891351e-17,-2.775557561562891351e-17,-2.775557561562891351e-17,-2.775557561562891351e-17,-2.775557561562891351e-17,-3.801745975119757981e-03,-1.731906499776780795e-02,-3.083638402041580240e-02,-4.435370304306382461e-02,-5.787102206571187457e-02,-7.138834108835986902e-02,-8.490566011100791899e-02,-1.005780145642948958e-01,-1.140953335869429180e-01,-1.276126526095909264e-01,-1.411299716322389486e-01,-1.542248744354292322e-01,-1.655871580274382859e-01,-1.791044770500863081e-01,-1.926217960727343304e-01,-2.027597853397203609e-01,-2.027597853397203609e-01,-2.027597853397203609e-01,-2.027597853397203609e-01,-2.027597853397203609e-01,-2.027597853397203609e-01
-2.027597853397203609e-01,-2.027597853397203609e-01,-2.027597853397203609e-01,-2.027597853397203609e-01,-2.027597853397203609e-01,-1.991390748872253480e-01,-1.846562330772453242e-01,-1.701733912672653004e-01,-1.556905494572852766e-01,-1.412077076473052528e-01,-1.267248658373252290e-01,-1.122420240273452052e-01,-9.775918221736518143e-02,-8.327634040738517152e-02,-6.879349859740516160e-02,-5.431065678742511005e-02,-3.982781497744508625e-02,-2.534497316746506246e-02,-1.086213135748506642e-02,-2.775557561562891351e-17,-2.775557561562891351e-17,-2.775557561562891351e-17,-2.775557561562891351e-17,-2.775557561562891351e-17,-2.775557561562891351e-17,-2.775557561562891351e-17,-2.956913536204280879e-03,-1.647423255885230309e-02,-2.999155158150029754e-02,-4.350887060414834751e-02,-5.702618962679636971e-02,-7.054350864944439192e-02,-8.406082767209241413e-02,-9.973318212537939098e-02,-1.132505011480274132e-01,-1.267678201706754493e-01,-1.402851391933234715e-01,-1.538024582159714937e-01,-1.651647418079805474e-01,-1.786820608306285696e-01,-1.917769636338188532e-01,-2.027597853397203609e-01,-2.027597853397203609e-01,-2.027597853397203609e-01,-2.027597853397203609e-01,-2.027597853397203609e-01,-2.027597853397203609e-01
-2.027597853397203609e-01,-2.027597853397203609e-01,-2.027597853397203609e-01,-2.027597853397203609e-01,-2.027597853397203609e-01,-2.000442525003491012e-01,-1.855614106903690774e-01,-1.710785688803890536e-01,-1.565957270704090298e-01,-1.421128852604290338e-01,-1.276300434504489822e-01,-1.131472016404689446e-01,-9.866435983048893466e-02,-8.418151802050891086e-02,-6.969867621052888707e-02,-5.521583440054886327e-02,-4.073299259056883947e-02,-2.625015078058878792e-02,-1.176730897060879188e-02,-2.775557561562891351e-17,-2.775557561562891351e-17,-2.775557561562891351e-17,-2.775557561562891351e-17,-2.775557561562891351e-17,-2.775557561562891351e-17,-2.775557561562891351e-17,-2.112081097288748266e-03,-1.562940011993679823e-02,-2.914671914258479268e-02,-4.266403816523281489e-02,-5.618135718788086486e-02,-6.969867621052888707e-02,-8.321599523317690927e-02,-9.888834968646388612e-02,-1.124056687091119083e-01,-1.259229877317599167e-01,-1.394403067544079389e-01,-1.529576257770559611e-01,-1.643199093690650425e-01,-1.778372283917130647e-01,-1.913545474143610869e-01,-2.027597853397203609e-01,-2.027597853397203609e-01,-2.027597853397203609e-01,-2.027597853397203609e-01,-2.027597853397203609e-01,-2.027597853397203609e-01
-2.027597853397203609e-01,-2.027597853397203609e-01,-2.027597853397203609e-01,-2.027597853397203609e-01,-2.027597853397203609e-01,-2.004968413069109778e-01,-1.860139994969309540e-01,-1.715311576869509302e-01,-1.575009046835327831e-01,-1.430180628735527593e-01,-1.285352210635727355e-01,-1.140523792535926978e-01,-9.956953744361268788e-02,-8.508669563363266408e-02,-7.060385382365264029e-02,-5.612101201367261649e-02,-4.163817020369259270e-02,-2.715532839371256890e-02,-1.267248658373254511e-02,-2.775557561562891351e-17,-2.775557561562891351e-17,-2.775557561562891351e-17,-2.775557561562891351e-17,-2.775557561562891351e-17,-2.775557561562891351e-17,-2.775557561562891351e-17,-1.689664877831009715e-03,-1.478456768102132113e-02,-2.830188670366931558e-02,-4.181920572631731003e-02,-5.533652474896536000e-02,-6.885384377161338221e-02,-8.237116279426141829e-02,-9.804351724754838127e-02,-1.115608362701964035e-01,-1.250781552928444396e-01,-1.385954743154924618e-01,-1.521127933381404840e-01,-1.634750769301495377e-01,-1.769923959527975599e-01,-1.905097149754455821e-01,-2.027597853397203609e-01,-2.027597853397203609e-01,-2.027597853397203609e-01,-2.027597853397203609e-01,-2.027597853397203609e-01,-2.027597853397203609e-01
-2.027597853397203609e-01,-2.027597853397203609e-01,-2.027597853397203609e-01,-2.027597853397203609e-01,-2.027597853397203609e-01,-2.014020189200347311e-01,-1.869191771100547073e-01,-1.724363353000746835e-01,-1.579534934900946597e-01,-1.434706516801146359e-01,-1.289878098701346121e-01,-1.149575568667164510e-01,-1.004747150567364411e-01,-8.599187324675641730e-02,-7.150903143677639351e-02,-5.702618962679636971e-02,-4.254334781681634592e-02,-2.806050600683629437e-02,-1.357766419685627057e-02,-2.775557561562891351e-17,-2.775557561562891351e-17,-2.775557561562891351e-17,-2.775557561562891351e-17,-2.775557561562891351e-17,-5.551115123125782702e-17,-2.775557561562891351e-17,-8.448324389155326131e-04,-1.436215146156355482e-02,-2.787947048421157703e-02,-4.139678950685957148e-02,-5.449169231004985514e-02,-6.800901133269790511e-02,-8.152633035534589956e-02,-9.504364937799393565e-02,-1.085609684006419440e-01,-1.220782874232899662e-01,-1.355956064459379884e-01,-1.491129254685860106e-01,-1.626302444912340328e-01,-1.761475635138820550e-01,-1.896648825365300772e-01,-2.027597853397203609e-01,-2.027597853397203609e-01,-2.027597853397203609e-01,-2.027597853397203609e-01,-2.027597853397203609e-01,-2.027597853397203609e-01
-2.027597853397203609e-01,-2.027597853397203609e-01,-2.027597853397203609e-01,-2.027597853397203609e-01,-2.027597853397203609e-01,-2.023071965331584843e-01,-1.878243547231784605e-01,-1.733415129131984367e-01,-1.588586711032184129e-01,-1.443758292932383891e-01,-1.298929874832583653e-01,-1.154101456732783276e-01,-1.009273038632983177e-01,-8.644446205331830779e-02,-7.241420904990014673e-02,-5.793136723992012294e-02,-4.344852542994009914e-02,-2.896568361996004759e-02,-1.448284180998005155e-02,-2.775557561562891351e-17,-2.775557561562891351e-17,-2.775557561562891351e-17,-2.775557561562891351e-17,-2.775557561562891351e-17,-2.775557561562891351e-17,-2.775557561562891351e-17,-2.775557561562891351e-17,-1.351731902264804996e-02,-2.703463804529607217e-02,-4.055195706794406663e-02,-5.406927609059211659e-02,-6.758659511324013880e-02,-8.110391413588816101e-02,-9.419881693907843079e-02,-1.077161359617264530e-01,-1.212334549843744613e-01,-1.347507740070225113e-01,-1.482680930296705335e-01,-1.617854120523185280e-01,-1.753027310749665779e-01,-1.888200500976146001e-01,-2.023373691202626223e-01,-2.027597853397203609e-01,-2.027597853397203609e-01,-2.027597853397203609e-01,-2.027597853397203609e-01,-2.027597853397203609e-01
-2.027597853397203609e-01,-2.027597853397203609e-01,-2.027597853397203609e-01,-2.027597853397203609e-01,-2.027597853397203609e-01,-2.027597853397203609e-01,-1.887295323363022137e-01,-1.742466905263221899e-01,-1.597638487163421661e-01,-1.452810069063621423e-01,-1.307981650963821185e-01,-1.163153232864020670e-01,-1.018324814764220848e-01,-8.734963966644204714e-02,-7.286679785646202334e-02,-5.838395604648199955e-02,-4.390111423650197575e-02,-2.987086123308380081e-02,-1.538801942310377702e-02,-9.051776131237532219e-04,-2.775557561562891351e-17,-2.775557561562891351e-17,-5.551115123125782702e-17,-2.775557561562891351e-17,-5.551115123125782702e-17,-2.775557561562891351e-17,-2.775557561562891351e-17,-1.267248658373254511e-02,-2.618980560638056732e-02,-3.970712462902858952e-02,-5.322444365167661173e-02,-6.674176267432466170e-02,-8.025908169697265615e-02,-9.377640071962067836e-02,-1.072937197422687006e-01,-1.208110387649167089e-01,-1.339059415681069787e-01,-1.474232605907550286e-01,-1.609405796134030231e-01,-1.744578986360510731e-01,-1.879752176586990953e-01,-2.014925366813471175e-01,-2.027597853397203609e-01,-2.027597853397203609e-01,-2.027597853397203609e-01,-2.027597853397203609e-01,-2.027597853397203609e-01
-2.027597853397203609e-01,-2.027597853397203609e-01,-2.027597853397203609e-01,-2.027597853397203609e-01,-2.027597853397203609e-01,-2.027597853397203609e-01,-1.896347099494259669e-01,-1.751518681394459431e-01,-1.606690263294659193e-01,-1.461861845194858955e-01,-1.317033427095058717e-01,-1.172205008995258341e-01,-1.027376590895458103e-01,-8.825481727956578648e-02,-7.377197546958577656e-02,-5.928913365960575277e-02,-4.480629184962572897e-02,-3.032345003964567742e-02,-1.584060822966568138e-02,-1.357766419685685344e-03,-2.775557561562891351e-17,-2.775557561562891351e-17,-2.775557561562891351e-17,-2.775557561562891351e-17,-2.775557561562891351e-17,0.000000000000000000e+00,-5.551115123125782702e-17,-1.182765414481706800e-02,-2.534497316746506246e-02,-3.886229219011305691e-02,-5.237961121276110688e-02,-6.589693023540910133e-02,-7.941424925805715129e-02,-9.293156828070518738e-02,-1.064488873033531957e-01,-1.199662063260012179e-01,-1.334835253486492401e-01,-1.470008443712972623e-01,-1.600957471744875460e-01,-1.736130661971355682e-01,-1.871303852197835904e-01,-2.006477042424316126e-01,-2.027597853397203609e-01,-2.027597853397203609e-01,-2.027597853397203609e-01,-2.027597853397203609e-01,-2.027597853397203609e-01
-2.027597853397203609e-01,-2.027597853397203609e-01,-2.027597853397203609e-01,-2.027597853397203609e-01,-2.027597853397203609e-01,-2.027597853397203609e-01,-1.905398875625497201e-01,-1.760570457525696964e-01,-1.615742039425896726e-01,-1.470913621326096488e-01,-1.326085203226295972e-01,-1.181256785126495873e-01,-1.036428367026695774e-01,-8.915999489268955358e-02,-7.467715308270952979e-02,-6.019431127272950599e-02,-4.571146946274945444e-02,-3.122862765276943064e-02,-1.674578584278943461e-02,-2.262944032809410810e-03,0.000000000000000000e+00,-5.551115123125782702e-17,-2.775557561562891351e-17,-2.775557561562891351e-17,-2.775557561562891351e-17,-2.775557561562891351e-17,0.000000000000000000e+00,-1.098282170590150764e-02,-2.450014072854955760e-02,-3.801745975119755205e-02,-5.153477877384560202e-02,-6.505209779649362423e-02,-7.856941681914166031e-02,-9.208673584178968252e-02,-1.056040548644377047e-01,-1.191213738870856992e-01,-1.326386929097337353e-01,-1.461560119323817575e-01,-1.596733309550297797e-01,-1.731906499776778019e-01,-1.867079690003258241e-01,-1.998028718035161078e-01,-2.027597853397203609e-01,-2.027597853397203609e-01,-2.027597853397203609e-01,-2.027597853397203609e-01,-2.027597853397203609e-01
-2.027597853397203609e-01,-2.027597853397203609e-01,-2.027597853397203609e-01,-2.027597853397203609e-01,-2.027597853397203609e-01,-2.027597853397203609e-01,-1.909924763691115968e-01,-1.769622233656934496e-01,-1.624793815557134258e-01,-1.479965397457334020e-01,-1.335136979357533504e-01,-1.190308561257733266e-01,-1.045480143157933167e-01,-9.006517250581329292e-02,-7.558233069583328301e-02,-6.109948888585325921e-02,-4.661664707587323542e-02,-3.213380526589318387e-02,-1.765096345591316007e-02,-3.168121645933164032e-03,-2.775557561562891351e-17,-2.775557561562891351e-17,-2.775557561562891351e-17,-2.775557561562891351e-17,-2.775557561562891351e-17,-2.775557561562891351e-17,0.000000000000000000e+00,-1.013798926698603053e-02,-2.365530828963405274e-02,-3.717262731228207495e-02,-5.068994633493009716e-02,-6.420726535757814712e-02,-7.772458438022614158e-02,-9.124190340287419154e-02,-1.047592224255221999e-01,-1.182765414481702082e-01,-1.317938604708182582e-01,-1.453111794934662804e-01,-1.588284985161142748e-01,-1.723458175387623248e-01,-1.858631365614103470e-01,-1.993804555840583692e-01,-2.027597853397203609e-01,-2.027597853397203609e-01,-2.027597853397203609e-01,-2.027597853397203609e-01,-2.027597853397203609e-01
-2.027597853397203609e-01,-2.027597853397203609e-01,-2.027597853397203609e-01,-2.027597853397203609e-01,-2.027597853397203609e-01,-2.027597853397203609e-01,-1.918976539822353500e-01,-1.774148121722553262e-01,-1.629319703622753024e-01,-1.484491285522952508e-01,-1.344188755488771314e-01,-1.199360337388970937e-01,-1.054531919289170699e-01,-9.097035011893706002e-02,-7.648750830895703623e-02,-6.200466649897698468e-02,-4.752182468899698864e-02,-3.303898287901693709e-02,-1.855614106903688554e-02,-4.073299259056917254e-03,-2.775557561562891351e-17,-2.775557561562891351e-17,-2.775557561562891351e-17,-2.775557561562891351e-17,-2.775557561562891351e-17,-5.551115123125782702e-17,-2.775557561562891351e-17,-9.715573047528291983e-03,-2.281047585071854789e-02,-3.632779487336657009e-02,-4.984511389601459230e-02,-6.336243291866264227e-02,-7.687975194131066448e-02,-9.039707096395868668e-02,-1.039143899866067089e-01,-1.174317090092547172e-01,-1.309490280319027533e-01,-1.444663470545507478e-01,-1.579836660771987700e-01,-1.715009850998467922e-01,-1.850183041224948421e-01,-1.985356231451428644e-01,-2.027597853397203609e-01,-2.027597853397203609e-01,-2.027597853397203609e-01,-2.027597853397203609e-01,-2.027597853397203609e-01
-2.027597853397203609e-01,-2.027597853397203609e-01,-2.027597853397203609e-01,-2.027597853397203609e-01,-2.027597853397203609e-01,-2.027597853397203609e-01,-1.928028315953591032e-01,-1.783199897853790794e-01,-1.638371479753990556e-01,-1.493543061654190041e-01,-1.348714643554390080e-01,-1.203886225454589565e-01,-1.059057807354789604e-01,-9.187552773206079937e-02,-7.739268592208078945e-02,-6.290984411210076566e-02,-4.842700230212074186e-02,-3.394416049214069031e-02,-1.946131868216066652e-02,-4.978476872180642721e-03,-2.775557561562891351e-17,-2.775557561562891351e-17,-2.775557561562891351e-17,-2.775557561562891351e-17,-2.775557561562891351e-17,-2.775557561562891351e-17,-2.775557561562891351e-17,-8.870740608612787126e-03,-2.238805963126080933e-02,-3.590537865390880379e-02,-4.942269767655685375e-02,-6.251760047974713741e-02,-7.603491950239515962e-02,-8.955223852504316795e-02,-1.030695575476912040e-01,-1.165868765703392124e-01,-1.301041955929872485e-01,-1.436215146156352707e-01,-1.571388336382832929e-01,-1.706561526609313151e-01,-1.841734716835793373e-01,-1.976907907062273595e-01,-2.027597853397203609e-01,-2.027597853397203609e-01,-2.027597853397203609e-01,-2.027597853397203609e-01,-2.027597853397203609e-01
-2.027597853397203609e-01,-2.027597853397203609e-01,-2.027597853397203609e-01,-2.027597853397203609e-01,-2.027597853397203609e-01,-2.027597853397203609e-01,-1.937080092084828564e-01,-1.792251673985028326e-01,-1.647423255885228088e-01,-1.502594837785427573e-01,-1.357766419685627612e-01,-1.212938001585827236e-01,-1.068109583486026998e-01,-9.232811653862267598e-02,-7.784527472864265218e-02,-6.336243291866261451e-02,-4.933217991524449508e-02,-3.484933810526441578e-02,-2.036649629528444749e-02,-5.883654485304395942e-03,-2.775557561562891351e-17,-2.775557561562891351e-17,-2.775557561562891351e-17,-2.775557561562891351e-17,-2.775557561562891351e-17,0.000000000000000000e+00,0.000000000000000000e+00,-8.025908169697282268e-03,-2.154322719234530448e-02,-3.506054621499332669e-02,-4.857786523764134889e-02,-6.209518426028939886e-02,-7.561250328293739331e-02,-8.912982230558542940e-02,-1.022247251087756992e-01,-1.157420441314237075e-01,-1.292593631540717158e-01,-1.427766821767197658e-01,-1.562940011993677880e-01,-1.698113202220158102e-01,-1.833286392446638324e-01,-1.968459582673118546e-01,-2.027597853397203609e-01,-2.027597853397203609e-01,-2.027597853397203609e-01,-2.027597853397203609e-01,-2.027597853397203609e-01
-2.027597853397203609e-01,-2.027597853397203609e-01,-2.027597853397203609e-01,-2.027597853397203609e-01,-2.027597853397203609e-01,-2.027597853397203609e-01,-1.946131868216066096e-01,-1.801303450116265581e-01,-1.656475032016465343e-01,-1.511646613916665105e-01,-1.366818195816865145e-01,-1.221989777717064629e-01,-1.077161359617264530e-01,-9.323329415174642920e-02,-7.875045234176640541e-02,-6.426761053178636773e-02,-4.978476872180634394e-02,-3.530192691182632014e-02,-2.127167390840817296e-02,-6.788832098428149164e-03,-2.775557561562891351e-17,-2.775557561562891351e-17,-2.775557561562891351e-17,-2.775557561562891351e-17,-2.775557561562891351e-17,-2.775557561562891351e-17,-2.775557561562891351e-17,-7.181075730781777411e-03,-2.069839475342982738e-02,-3.421571377607779407e-02,-4.773303279872584404e-02,-6.125035182137386625e-02,-7.476767084402188845e-02,-8.828498986666991066e-02,-1.018023088893179329e-01,-1.153196279119659551e-01,-1.288369469346139773e-01,-1.419318497378042609e-01,-1.554491687604522832e-01,-1.689664877831003054e-01,-1.824838068057483276e-01,-1.960011258283963498e-01,-2.027597853397203609e-01,-2.027597853397203609e-01,-2.027597853397203609e-01,-2.027597853397203609e-01,-2.027597853397203609e-01
-2.027597853397203609e-01,-2.027597853397203609e-01,-2.027597853397203609e-01,-2.027597853397203609e-01,-2.027597853397203609e-01,-2.027597853397203609e-01,-1.955183644347303629e-01,-1.810355226247503113e-01,-1.665526808147703153e-01,-1.520698390047902637e-01,-1.375869971948102677e-01,-1.231041553848302161e-01,-1.086213135748501923e-01,-9.413847176487018242e-02,-7.965562995489015863e-02,-6.517278814491014871e-02,-5.068994633493009716e-02,-3.620710452495007337e-02,-2.172426271497004957e-02,-7.241420904990053531e-03,-2.775557561562891351e-17,-2.775557561562891351e-17,-2.775557561562891351e-17,-2.775557561562891351e-17,-2.775557561562891351e-17,-2.775557561562891351e-17,-2.775557561562891351e-17,-6.336243291866300309e-03,-1.985356231451429476e-02,-3.337088133716231697e-02,-4.688820035981033918e-02,-6.040551938245838914e-02,-7.392283840510641135e-02,-8.744015742775443356e-02,-1.009574764504024558e-01,-1.144747954730504641e-01,-1.279921144956984724e-01,-1.415094335183464946e-01,-1.550267525409945168e-01,-1.685440715636425391e-01,-1.816389743668328227e-01,-1.951562933894808449e-01,-2.027597853397203609e-01,-2.027597853397203609e-01,-2.027597853397203609e-01,-2.027597853397203609e-01,-2.027597853397203609e-01
-2.027597853397203609e-01,-2.027597853397203609e-01,-2.027597853397203609e-01,-2.027597853397203609e-01,-2.027597853397203609e-01,-2.027597853397203609e-01,-1.964235420478540883e-01,-1.819407002378740645e-01,-1.674578584278940407e-01,-1.529750166179140169e-01,-1.384921748079340209e-01,-1.240093329979539832e-01,-1.095264911879739456e-01,-9.504364937799393565e-02,-8.056080756801391185e-02,-6.607796575803390193e-02,-5.159512394805385038e-02,-3.711228213807382659e-02,-2.262944032809380279e-02,-8.146598518113806753e-03,-2.775557561562891351e-17,-2.775557561562891351e-17,-2.775557561562891351e-17,-2.775557561562891351e-17,-2.775557561562891351e-17,-2.775557561562891351e-17,-2.775557561562891351e-17,-5.491410852950767696e-03,-1.900872987559878990e-02,-3.252604889824681211e-02,-4.604336792089483432e-02,-5.956068694354285653e-02,-7.307800596619087874e-02,-8.659532498883892870e-02,-1.001126440114869370e-01,-1.136299630341349454e-01,-1.271472820567829953e-01,-1.406646010794310175e-01,-1.541819201020790397e-01,-1.676992391247270620e-01,-1.812165581473750842e-01,-1.947338771700231064e-01,-2.027597853397203609e-01,-2.027597853397203609e-01,-2.027597853397203609e-01,-2.027597853397203609e-01,-2.027597853397203609e-01
-2.027597853397203609e-01,-2.027597853397203609e-01,-2.027597853397203609e-01,-2.027597853397203609e-01,-2.027597853397203609e-01,-2.027597853397203609e-01,-1.968761308544159649e-01,-1.823932890444359411e-01,-1.683630360410177940e-01,-1.538801942310377702e-01,-1.393973524210577741e-01,-1.249145106110777226e-01,-1.104316688010976988e-01,-9.594882699111768887e-02,-8.146598518113765119e-02,-6.698314337115762740e-02,-5.250030156117760360e-02,-3.801745975119757981e-02,-2.353461794121755601e-02,-9.051776131237532219e-03,-2.775557561562891351e-17,-2.775557561562891351e-17,-2.775557561562891351e-17,-2.775557561562891351e-17,-2.775557561562891351e-17,-2.775557561562891351e-17,-2.775557561562891351e-17,-4.646578414035290594e-03,-1.816389743668331280e-02,-3.168121645933130726e-02,-4.519853548197932946e-02,-5.871585450462737943e-02,-7.223317352727540164e-02,-8.575049254992342385e-02,-9.926781157257144605e-02,-1.127851305952194683e-01,-1.263024496178674627e-01,-1.398197686405155127e-01,-1.533370876631635071e-01,-1.668544066858115293e-01,-1.803717257084595793e-01,-1.938890447311076015e-01,-2.027597853397203609e-01,-2.027597853397203609e-01,-2.027597853397203609e-01,-2.027597853397203609e-01,-2.027597853397203609e-01
-2.027597853397203609e-01,-2.027597853397203609e-01,-2.027597853397203609e-01,-2.027597853397203609e-01,-2.027597853397203609e-01,-2.027597853397203609e-01,-1.977813084675397182e-01,-1.832984666575596944e-01,-1.688156248475796706e-01,-1.543327830375996468e-01,-1.398499412276196230e-01,-1.258196882242014758e-01,-1.113368464142214520e-01,-9.685400460424144209e-02,-8.237116279426140442e-02,-6.788832098428138062e-02,-5.340547917430135683e-02,-3.892263736432133303e-02,-2.443979555434130924e-02,-9.956953744361285441e-03,-2.775557561562891351e-17,-2.775557561562891351e-17,-2.775557561562891351e-17,-2.775557561562891351e-17,-5.551115123125782702e-17,-2.775557561562891351e-17,0.000000000000000000e+00,-4.224162194577552043e-03,-1.774148121722554650e-02,-3.125880023987356870e-02,-4.435370304306382461e-02,-5.787102206571187457e-02,-7.138834108835989678e-02,-8.490566011100791899e-02,-9.842297913365594120e-02,-1.119402981563039634e-01,-1.254576171789519856e-01,-1.389749362016000078e-01,-1.524922552242480300e-01,-1.660095742468960522e-01,-1.795268932695440744e-01,-1.930442122921920967e-01,-2.027597853397203609e-01,-2.027597853397203609e-01,-2.027597853397203609e-01,-2.027597853397203609e-01,-2.027597853397203609e-01
-2.027597853397203609e-01,-2.027597853397203609e-01,-2.027597853397203609e-01,-2.027597853397203609e-01,-2.027597853397203609e-01,-2.027597853397203609e-01,-1.986864860806634714e-01,-1.842036442706834476e-01,-1.697208024607034238e-01,-1.552379606507234000e-01,-1.407551188407433762e-01,-1.262722770307633524e-01,-1.117894352207833286e-01,-9.730659341080331870e-02,-8.327634040738515764e-02,-6.879349859740513384e-02,-5.431065678742511005e-02,-3.982781497744508625e-02,-2.534497316746506246e-02,-1.086213135748506642e-02,-2.775557561562891351e-17,-2.775557561562891351e-17,-2.775557561562891351e-17,-2.775557561562891351e-17,-2.775557561562891351e-17,-2.775557561562891351e-17,0.000000000000000000e+00,-3.379329755662019430e-03,-1.689664877831006939e-02,-3.041396780095806385e-02,-4.393128682360608606e-02,-5.744860584625413602e-02,-7.096592486890215823e-02,-8.406082767209241413e-02,-9.757814669474043634e-02,-1.110954657173884585e-01,-1.246127847400364808e-01,-1.381301037626845030e-01,-1.516474227853325252e-01,-1.651647418079805474e-01,-1.786820608306285696e-01,-1.921993798532765918e-01,-2.027597853397203609e-01,-2.027597853397203609e-01,-2.027597853397203609e-01,-2.027597853397203609e-01,-2.027597853397203609e-01
-2.027597853397203609e-01,-2.027597853397203609e-01,-2.027597853397203609e-01,-2.027597853397203609e-01,-2.027597853397203609e-01,-2.027597853397203609e-01,-1.995916636937872246e-01,-1.851088218838072008e-01,-1.706259800738271770e-01,-1.561431382638471532e-01,-1.416602964538671294e-01,-1.271774546438871056e-01,-1.126946128339070818e-01,-9.821177102392705804e-02,-8.372892921394703425e-02,-6.924608740396701045e-02,-5.476324559398701441e-02,-4.073299259056883947e-02,-2.625015078058881568e-02,-1.176730897060881964e-02,-2.775557561562891351e-17,-2.775557561562891351e-17,-2.775557561562891351e-17,-2.775557561562891351e-17,-2.775557561562891351e-17,0.000000000000000000e+00,0.000000000000000000e+00,-2.534497316746542328e-03,-1.605181633939456454e-02,-2.956913536204255899e-02,-4.308645438469058120e-02,-5.660377340733860341e-02,-7.012109242998662562e-02,-8.363841145263467558e-02,-9.715573047528268391e-02,-1.106730494979307061e-01,-1.237679523011209759e-01,-1.372852713237689981e-01,-1.508025903464170203e-01,-1.643199093690650425e-01,-1.778372283917130647e-01,-1.913545474143610869e-01,-2.027597853397203609e-01,-2.027597853397203609e-01,-2.027597853397203609e-01,-2.027597853397203609e-01,-2.027597853397203609e-01
-2.027597853397203609e-01,-2.027597853397203609e-01,-2.027597853397203609e-01,-2.027597853397203609e-01,-2.027597853397203609e-01,-2.027597853397203609e-01,-2.004968413069109778e-01,-1.860139994969309540e-01,-1.715311576869509302e-01,-1.570483158769709064e-01,-1.425654740669908827e-01,-1.280826322570108589e-01,-1.135997904470308351e-01,-9.911694863705081127e-02,-8.463410682707078747e-02,-7.015126501709076368e-02,-5.566842320711073988e-02,-4.118558139713071609e-02,-2.670273958715066454e-02,-1.221989777717066850e-02,-2.775557561562891351e-17,-2.775557561562891351e-17,-2.775557561562891351e-17,-2.775557561562891351e-17,-2.775557561562891351e-17,-2.775557561562891351e-17,-5.551115123125782702e-17,-1.689664877831009715e-03,-1.520698390047905968e-02,-2.872430292312708189e-02,-4.224162194577504859e-02,-5.575894096842312631e-02,-6.927625999107114851e-02,-8.279357901371917072e-02,-9.631089803636719293e-02,-1.098282170590152013e-01,-1.233455360816632096e-01,-1.368628551043112596e-01,-1.503801741269592818e-01,-1.634750769301495377e-01,-1.769923959527975599e-01,-1.905097149754455821e-01,-2.027597853397203609e-01,-2.027597853397203609e-01,-2.027597853397203609e-01,-2.027597853397203609e-01,-2.027597853397203609e-01
-2.027597853397203609e-01,-2.027597853397203609e-01,-2.027597853397203609e-01,-2.027597853397203609e-01,-2.027597853397203609e-01,-2.027597853397203609e-01,-2.014020189200347311e-01,-1.869191771100547073e-01,-1.724363353000746835e-01,-1.579534934900946597e-01,-1.434706516801146359e-01,-1.289878098701346121e-01,-1.145049680601545744e-01,-1.000221262501745645e-01,-8.553928444019454069e-02,-7.105644263021451690e-02,-5.657360082023449310e-02,-4.209075901025446931e-02,-2.760791720027441776e-02,-1.312507539029442172e-02,-2.775557561562891351e-17,-2.775557561562891351e-17,-2.775557561562891351e-17,-2.775557561562891351e-17,-2.775557561562891351e-17,-1.363004368071936423e-01,-1.363004368071936423e-01,-1.371452692461091472e-01,-1.436215146156355482e-02,-2.787947048421157703e-02,-4.139678950685957148e-02,-5.491410852950759369e-02,-6.843142755215564366e-02,-8.194874657480366587e-02,-9.546606559745168807e-02,-1.089833846200997103e-01,-1.225007036427477186e-01,-1.360180226653957547e-01,-1.495353416880437769e-01,-1.630526607106917991e-01,-1.765699797333398213e-01,-1.900872987559878435e-01,-2.027597853397203609e-01,-2.027597853397203609e-01,-2.027597853397203609e-01,-2.027597853397203609e-01,-2.027597853397203609e-01
-2.027597853397203609e-01,-2.027597853397203609e-01,-2.027597853397203609e-01,-2.027597853397203609e-01,-2.027597853397203609e-01,-2.027597853397203609e-01,-2.018546077265966077e-01,-1.873717659166165839e-01,-1.733415129131984367e-01,-1.588586711032184129e-01,-1.443758292932383891e-01,-1.298929874832583653e-01,-1.154101456732783276e-01,-1.009273038632983177e-01,-8.644446205331829391e-02,-7.196162024333827012e-02,-5.747877843335824632e-02,-4.299593662337822253e-02,-2.851309481339817098e-02,-1.403025300341817494e-02,-2.775557561562891351e-17,-2.775557561562891351e-17,-2.775557561562891351e-17,-2.775557561562891351e-17,-2.775557561562891351e-17,-1.363004368071936423e-01,-1.363004368071936145e-01,-1.363004368071936423e-01,-1.351731902264804996e-02,-2.703463804529607217e-02,-4.055195706794406663e-02,-5.406927609059211659e-02,-6.758659511324013880e-02,-8.110391413588816101e-02,-9.462123315853618322e-02,-1.081385521811842054e-01,-1.216558712038322138e-01,-1.351731902264802498e-01,-1.486905092491282721e-01,-1.622078282717762943e-01,-1.757251472944243165e-01,-1.892424663170723387e-01,-2.027597853397203609e-01,-2.027597853397203609e-01,-2.027597853397203609e-01,-2.027597853397203609e-01,-2.027597853397203609e-01
-2.027597853397203609e-01,-2.027597853397203609e-01,-2.027597853397203609e-01,-2.027597853397203609e-01,-2.027597853397203609e-01,-2.027597853397203609e-01,-2.027597853397203609e-01,-1.882769435297403371e-01,-1.737941017197603133e-01,-1.593112599097802895e-01,-1.448284180998002657e-01,-1.307981650963821185e-01,-1.163153232864020947e-01,-1.018324814764220709e-01,-8.734963966644204714e-02,-7.286679785646202334e-02,-5.838395604648199955e-02,-4.390111423650197575e-02,-2.941827242652192420e-02,-1.493543061654192816e-02,-4.525888065619043665e-04,-2.775557561562891351e-17,-5.551115123125782702e-17,-5.551115123125782702e-17,-5.551115123125782702e-17,-1.363004368071936701e-01,-1.363004368071936423e-01,-1.363004368071936145e-01,-1.309490280319031141e-02,-2.661222182583830587e-02,-3.970712462902858952e-02,-5.322444365167663949e-02,-6.674176267432463394e-02,-8.025908169697265615e-02,-9.377640071962067836e-02,-1.072937197422687006e-01,-1.208110387649167228e-01,-1.343283577875647450e-01,-1.478456768102127672e-01,-1.613629958328607894e-01,-1.748803148555088116e-01,-1.883976338781568338e-01,-2.019149529008048560e-01,-2.027597853397203609e-01,-2.027597853397203609e-01,-2.027597853397203609e-01,-2.027597853397203609e-01
-2.027597853397203609e-01,-2.027597853397203609e-01,-2.027597853397203609e-01,-2.027597853397203609e-01,-2.027597853397203609e-01,-2.027597853397203609e-01,-2.027597853397203609e-01,-1.891821211428640903e-01,-1.746992793328840665e-01,-1.602164375229040427e-01,-1.457335957129240189e-01,-1.312507539029439951e-01,-1.167679120929639436e-01,-1.022850702829839475e-01,-8.825481727956578648e-02,-7.377197546958577656e-02,-5.928913365960575277e-02,-4.480629184962572897e-02,-3.032345003964567742e-02,-1.584060822966568138e-02,-1.357766419685685344e-03,-2.775557561562891351e-17,-2.775557561562891351e-17,-5.551115123125782702e-17,-5.551115123125782702e-17,-2.775557561562891351e-17,-2.775557561562891351e-17,0.000000000000000000e+00,-1.225007036427480656e-02,-2.576738938692282876e-02,-3.928470840957082322e-02,-5.280202743221887318e-02,-6.631934645486686764e-02,-7.941424925805716517e-02,-9.293156828070517350e-02,-1.064488873033531957e-01,-1.199662063260012040e-01,-1.334835253486492401e-01,-1.470008443712972623e-01,-1.605181633939452845e-01,-1.740354824165933068e-01,-1.875528014392413290e-01,-2.010701204618893512e-01,-2.027597853397203609e-01,-2.027597853397203609e-01,-2.027597853397203609e-01,-2.027597853397203609e-01
-2.027597853397203609e-01,-2.027597853397203609e-01,-2.027597853397203609e-01,-2.027597853397203609e-01,-2.027597853397203609e-01,-2.027597853397203609e-01,-2.027597853397203609e-01,-1.900872987559878435e-01,-1.756044569460078197e-01,-1.611216151360277959e-01,-1.466387733260477721e-01,-1.321559315160677484e-01,-1.176730897060877246e-01,-1.031902478961076869e-01,-8.870740608612767697e-02,-7.422456427614765317e-02,-5.974172246616762938e-02,-4.571146946274948220e-02,-3.122862765276940289e-02,-1.674578584278940685e-02,-2.262944032809410810e-03,-2.775557561562891351e-17,-2.775557561562891351e-17,-2.775557561562891351e-17,-2.775557561562891351e-17,-2.775557561562891351e-17,-5.551115123125782702e-17,0.000000000000000000e+00,-1.140523792535930170e-02,-2.492255694800732391e-02,-3.843987597065534612e-02,-5.195719499330334057e-02,-6.547451401595136278e-02,-7.899183303859942662e-02,-9.250915206124743495e-02,-1.060264710838954572e-01,-1.191213738870857131e-01,-1.326386929097337353e-01,-1.461560119323817575e-01,-1.596733309550297797e-01,-1.731906499776778019e-01,-1.867079690003258241e-01,-2.002252880229738463e-01,-2.027597853397203609e-01,-2.027597853397203609e-01,-2.027597853397203609e-01,-2.027597853397203609e-01
-2.027597853397203609e-01,-2.027597853397203609e-01,-2.027597853397203609e-01,-2.027597853397203609e-01,-2.027597853397203609e-01,-2.027597853397203609e-01,-2.027597853397203609e-01,-1.909924763691115968e-01,-1.765096345591315730e-01,-1.620267927491515492e-01,-1.475439509391715254e-01,-1.330611091291915016e-01,-1.185782673192114639e-01,-1.040954255092314401e-01,-8.961258369925141631e-02,-7.512974188927140640e-02,-6.064690007929138260e-02,-4.616405826931135881e-02,-3.168121645933130726e-02,-1.719837464935133897e-02,-3.168121645933164032e-03,-2.775557561562891351e-17,-2.775557561562891351e-17,-2.775557561562891351e-17,-2.775557561562891351e-17,-2.775557561562891351e-17,-2.775557561562891351e-17,-2.775557561562891351e-17,-1.056040548644379684e-02,-2.407772450909181905e-02,-3.759504353173981350e-02,-5.111236255438783571e-02,-6.462968157703588568e-02,-7.814700059968392176e-02,-9.166431962233193009e-02,-1.051816386449799523e-01,-1.186989576676279606e-01,-1.322162766902759967e-01,-1.453111794934662804e-01,-1.588284985161142748e-01,-1.723458175387623248e-01,-1.858631365614103470e-01,-1.993804555840583692e-01,-2.027597853397203609e-01,-2.027597853397203609e-01,-2.027597853397203609e-01,-2.027597853397203609e-01
-2.027597853397203609e-01,-2.027597853397203609e-01,-2.027597853397203609e-01,-2.027597853397203609e-01,-2.027597853397203609e-01,-2.027597853397203609e-01,-2.027597853397203609e-01,-1.918976539822353500e-01,-1.774148121722553262e-01,-1.629319703622753024e-01,-1.484491285522952786e-01,-1.339662867423152548e-01,-1.194834449323352032e-01,-1.050006031223551933e-01,-9.051776131237518341e-02,-7.603491950239515962e-02,-6.155207769241513582e-02,-4.706923588243508427e-02,-3.258639407245503272e-02,-1.810355226247506444e-02,-3.620710452495012888e-03,-2.775557561562891351e-17,-2.775557561562891351e-17,-2.775557561562891351e-17,-2.775557561562891351e-17,-5.551115123125782702e-17,-2.775557561562891351e-17,-2.775557561562891351e-17,-9.715573047528319739e-03,-2.323289207017628644e-02,-3.675021109282430865e-02,-5.026753011547235861e-02,-6.378484913812035306e-02,-7.730216816076840303e-02,-9.081948718341642524e-02,-1.043368062060644474e-01,-1.178541252287124697e-01,-1.313714442513604919e-01,-1.448887632740085141e-01,-1.584060822966565363e-01,-1.719234013193045585e-01,-1.850183041224948421e-01,-1.987996332823039614e-01,-2.027597853397203609e-01,-2.027597853397203609e-01,-2.027597853397203609e-01,-2.027597853397203609e-01
-2.027597853397203609e-01,-2.027597853397203609e-01,-2.027597853397203609e-01,-2.027597853397203609e-01,-2.027597853397203609e-01,-2.027597853397203609e-01,-2.027597853397203609e-01,-1.928028315953591032e-01,-1.783199897853790794e-01,-1.638371479753990556e-01,-1.493543061654190041e-01,-1.348714643554390080e-01,-1.203886225454589565e-01,-1.059057807354789466e-01,-9.142293892549893664e-02,-7.694009711551888508e-02,-6.245725530553888905e-02,-4.797441349555883749e-02,-3.349157168557881370e-02,-1.900872987559878990e-02,-4.525888065618793865e-03,-2.775557561562891351e-17,-2.775557561562891351e-17,-2.775557561562891351e-17,-6.336243291866300309e-03,-1.267248658373254511e-02,-2.534497316746506246e-02,-3.801745975119757981e-02,-5.734300179138968057e-02,-7.875422391515440879e-02,-9.847578116108814117e-02,-1.165076735291908916e-01,-1.284805332494465269e-01,-1.435555120813449825e-01,-1.569408260354124562e-01,-1.686364751116489202e-01,-1.786424593100544023e-01,-1.869587786306288746e-01,-1.917505626201027324e-01,-1.971099684044729516e-01,-2.007797093110121611e-01,-2.027597853397203609e-01,-2.027597853397203609e-01,-2.027597853397203609e-01,-2.027597853397203609e-01,-2.027597853397203609e-01,-2.027597853397203609e-01
