-1.013282830886680537e-02,-1.013282830886680537e-02,-1.013282830886680537e-02,-1.013282830886680537e-02,-1.013282830886680537e-02,-1.013282830886680537e-02,-1.013282830886680537e-02,-1.013282830886680537e-02,-1.013282830886680537e-02,-1.013282830886680537e-02,-9.939087964967830563e-03,-9.565148268947765847e-03,-9.221415400739908438e-03,-8.664151508342319771e-03,-8.170426115825578026e-03,-7.610037379171555316e-03,-6.794973835618072291e-03,-6.085634189407310504e-03,-5.079955146211288450e-03,-4.220622975691643193e-03,-3.031619736118098055e-03,-2.022295041289567594e-03,-6.499676053384976365e-04,-1.166608522402447223e-04,-1.734723475976807094e-18,-1.734723475976807094e-18,-6.089440089463230010e-04,-1.364034580039762828e-03,-2.143482911491056617e-03,-2.922931242942348670e-03,-3.702379574393640724e-03,-4.481827905844934512e-03,-5.261276237296226566e-03,-6.040724568747518619e-03,-6.820172900198811540e-03,-7.599621231650104461e-03,-8.379069563101396514e-03,-9.134160134194836342e-03,-9.913608465646130130e-03,-1.013282830886680537e-02,-1.013282830886680537e-02,-1.013282830886680537e-02,-1.013282830886680537e-02,-1.013282830886680537e-02,-1.013282830886680537e-02,-1.013282830886680537e-02,-1.013282830886680537e-02
-1.013282830886680537e-02,-1.013282830886680537e-02,-1.013282830886680537e-02,-1.013282830886680537e-02,-1.013282830886680537e-02,-9.857842014300519443e-03,-9.432863195425349179e-03,-8.895389983318515228e-03,-8.320418640134462362e-03,-7.599621231650104461e-03,-7.066314478551851547e-03,-6.549673561487919307e-03,-6.016366808389666393e-03,-5.483060055291412611e-03,-4.949753302193161432e-03,-4.416446549094907650e-03,-3.883139795996654736e-03,-3.349833042898401822e-03,-2.816526289800148908e-03,-2.283219536701895994e-03,-1.749912783603643079e-03,-1.216606030505390165e-03,-6.999651134414596604e-04,-1.666583603432050115e-04,-1.734723475976807094e-18,-1.734723475976807094e-18,-5.358707278727645879e-04,-1.315319059324058376e-03,-2.094767390775350430e-03,-2.874215722226643351e-03,-3.653664053677935404e-03,-4.433112385129228325e-03,-5.188202956222668152e-03,-5.967651287673960206e-03,-6.747099619125253127e-03,-7.526547950576546048e-03,-8.305996282027838101e-03,-9.085444613479130155e-03,-9.864892944930423943e-03,-1.013282830886680537e-02,-1.013282830886680537e-02,-1.013282830886680537e-02,-1.013282830886680537e-02,-1.013282830886680537e-02,-1.013282830886680537e-02,-1.013282830886680537e-02,-1.013282830886680537e-02
-1.013282830886680537e-02,-1.013282830886680537e-02,-1.013282830886680537e-02,-1.013282830886680537e-02,-1.013282830886680537e-02,-9.766179916111755732e-03,-9.232873163013504553e-03,-8.716232245949570578e-03,-8.182925492851317664e-03,-7.649618739753065617e-03,-7.116311986654812703e-03,-6.583005233556560656e-03,-6.049698480458306875e-03,-5.516391727360054828e-03,-4.983084974261801046e-03,-4.449778221163549000e-03,-3.916471468065296085e-03,-3.399830551001362978e-03,-2.866523797903110064e-03,-2.333217044804858017e-03,-1.799910291706605103e-03,-1.266603538608352189e-03,-7.332967855100992749e-04,-1.999900324118463607e-04,-1.734723475976807094e-18,-1.734723475976807094e-18,-4.871552071570584008e-04,-1.242245778250499963e-03,-2.021694109701792016e-03,-2.801142441153084070e-03,-3.580590772604376991e-03,-4.360039104055669912e-03,-5.139487435506961965e-03,-5.918935766958254886e-03,-6.698384098409547807e-03,-7.477832429860839861e-03,-8.257280761312133649e-03,-9.036729092763425703e-03,-9.791819663856865530e-03,-1.013282830886680537e-02,-1.013282830886680537e-02,-1.013282830886680537e-02,-1.013282830886680537e-02,-1.013282830886680537e-02,-1.013282830886680537e-02,-1.013282830886680537e-02,-1.013282830886680537e-02
-1.013282830886680537e-02,-1.013282830886680537e-02,-1.013282830886680537e-02,-1.013282830886680537e-02,-1.013282830886680537e-02,-9.816177424214717756e-03,-9.282870671116464842e-03,-8.749563918018211928e-03,-8.216257164919959013e-03,-7.682950411821706099e-03,-7.149643658723453185e-03,-6.616336905625200271e-03,-6.099695988561268031e-03,-5.566389235463015117e-03,-5.033082482364763070e-03,-4.499775729266509289e-03,-3.966468976168257242e-03,-3.433162223070003460e-03,-2.899855469971750546e-03,-2.366548716873499367e-03,-1.833241963775246453e-03,-1.299935210676993538e-03,-7.666284575787406241e-04,-2.499875405148066498e-04,-1.734723475976807094e-18,-1.734723475976807094e-18,-4.140819260835017224e-04,-1.193530257534793776e-03,-1.972978588986087564e-03,-2.752426920437378750e-03,-3.531875251888670804e-03,-4.311323583339963725e-03,-5.090771914791256646e-03,-5.845862485884695606e-03,-6.625310817335988527e-03,-7.404759148787281448e-03,-8.184207480238573501e-03,-8.963655811689867289e-03,-9.743104143141159343e-03,-1.013282830886680537e-02,-1.013282830886680537e-02,-1.013282830886680537e-02,-1.013282830886680537e-02,-1.013282830886680537e-02,-1.013282830886680537e-02,-1.013282830886680537e-02,-1.013282830886680537e-02
-1.013282830886680537e-02,-1.013282830886680537e-02,-1.013282830886680537e-02,-1.013282830886680537e-02,-1.013282830886680537e-02,-9.849509096283359105e-03,-9.316202343185106191e-03,-8.799561426121173952e-03,-8.266254673022921037e-03,-7.732947919924668123e-03,-7.199641166826415209e-03,-6.666334413728162295e-03,-6.133027660629909381e-03,-5.599720907531655599e-03,-5.066414154433403552e-03,-4.533107401335150638e-03,-3.999800648236897724e-03,-3.466493895138644810e-03,-2.949852978074712570e-03,-2.416546224976459656e-03,-1.883239471878206742e-03,-1.349932718779955562e-03,-8.166259656817009133e-04,-2.833192125834479991e-04,-1.734723475976807094e-18,-1.734723475976807094e-18,-3.653664053677955353e-04,-1.144814736819087589e-03,-1.899905307912527416e-03,-2.679353639363819470e-03,-3.458801970815112391e-03,-4.238250302266405312e-03,-5.017698633717697365e-03,-5.797146965168990286e-03,-6.576595296620283207e-03,-7.356043628071575260e-03,-8.135491959522869049e-03,-8.914940290974161102e-03,-9.694388622425453156e-03,-1.013282830886680537e-02,-1.013282830886680537e-02,-1.013282830886680537e-02,-1.013282830886680537e-02,-1.013282830886680537e-02,-1.013282830886680537e-02,-1.013282830886680537e-02,-1.013282830886680537e-02
-1.013282830886680537e-02,-1.013282830886680537e-02,-1.013282830886680537e-02,-1.013282830886680537e-02,-1.013282830886680537e-02,-9.899506604386319394e-03,-9.366199851288066480e-03,-8.832893098189813566e-03,-8.299586345091560652e-03,-7.766279591993308605e-03,-7.232972838895056558e-03,-6.699666085796802777e-03,-6.166359332698549862e-03,-5.649718415634617623e-03,-5.116411662536364709e-03,-4.583104909438111794e-03,-4.049798156339858880e-03,-3.516491403241605966e-03,-2.983184650143353919e-03,-2.449877897045101005e-03,-1.916571143946848091e-03,-1.383264390848595177e-03,-8.499576377503422625e-04,-3.333167206864100229e-04,-1.734723475976807094e-18,0.000000000000000000e+00,-2.922931242942371222e-04,-1.071741455745529176e-03,-1.851189787196822964e-03,-2.630638118648115018e-03,-3.410086450099406204e-03,-4.189534781550699125e-03,-4.968983113001992045e-03,-5.748431444453284966e-03,-6.503522015546723926e-03,-7.282970346998016847e-03,-8.062418678449308901e-03,-8.841867009900602689e-03,-9.621315341351894743e-03,-1.013282830886680537e-02,-1.013282830886680537e-02,-1.013282830886680537e-02,-1.013282830886680537e-02,-1.013282830886680537e-02,-1.013282830886680537e-02,-1.013282830886680537e-02,-1.013282830886680537e-02
-1.013282830886680537e-02,-1.013282830886680537e-02,-1.013282830886680537e-02,-1.013282830886680537e-02,-1.013282830886680537e-02,-9.932838276454960744e-03,-9.399531523356707829e-03,-8.866224770258454915e-03,-8.349583853194522676e-03,-7.816277100096269762e-03,-7.282970346998016847e-03,-6.749663593899763933e-03,-6.216356840801511019e-03,-5.683050087703258105e-03,-5.149743334605005191e-03,-4.616436581506752276e-03,-4.083129828408499362e-03,-3.549823075310246448e-03,-3.033182158246314208e-03,-2.499875405148061294e-03,-1.966568652049808380e-03,-1.433261898951557201e-03,-8.999551458533042864e-04,-3.666483927550496374e-04,-1.734723475976807094e-18,0.000000000000000000e+00,-2.435776035785309351e-04,-1.023025935029822989e-03,-1.802474266481116777e-03,-2.557564837574554870e-03,-3.337013169025847791e-03,-4.116461500477140711e-03,-4.895909831928433632e-03,-5.675358163379725686e-03,-6.454806494831018607e-03,-7.234254826282310660e-03,-8.013703157733604449e-03,-8.793151489184896502e-03,-9.572599820636188556e-03,-1.013282830886680537e-02,-1.013282830886680537e-02,-1.013282830886680537e-02,-1.013282830886680537e-02,-1.013282830886680537e-02,-1.013282830886680537e-02,-1.013282830886680537e-02,-1.013282830886680537e-02
-1.013282830886680537e-02,-1.013282830886680537e-02,-1.013282830886680537e-02,-1.013282830886680537e-02,-1.013282830886680537e-02,-9.982835784557921033e-03,-9.449529031459669853e-03,-8.916222278361415204e-03,-8.382915525263164025e-03,-7.849608772164911111e-03,-7.316302019066658197e-03,-6.782995265968405282e-03,-6.249688512870151501e-03,-5.733047595806219261e-03,-5.199740842707967214e-03,-4.666434089609713433e-03,-4.133127336511461386e-03,-3.599820583413208472e-03,-3.066513830314955558e-03,-2.533207077216702643e-03,-1.999900324118451464e-03,-1.466593571020196815e-03,-9.332868179219439009e-04,-3.999800648236909867e-04,-1.734723475976807094e-18,-1.734723475976807094e-18,-1.705043225049707872e-04,-9.499526539562645755e-04,-1.729400985407558364e-03,-2.508849316858850417e-03,-3.288297648310142471e-03,-4.067745979761434524e-03,-4.847194311212727445e-03,-5.626642642664020366e-03,-6.381733213757460194e-03,-7.161181545208752247e-03,-7.940629876660044301e-03,-8.720078208111338089e-03,-9.499526539562630142e-03,-1.013282830886680537e-02,-1.013282830886680537e-02,-1.013282830886680537e-02,-1.013282830886680537e-02,-1.013282830886680537e-02,-1.013282830886680537e-02,-1.013282830886680537e-02,-1.013282830886680537e-02
-1.013282830886680537e-02,-1.013282830886680537e-02,-1.013282830886680537e-02,-1.013282830886680537e-02,-1.013282830886680537e-02,-1.001616745662656238e-02,-9.482860703528309468e-03,-8.949553950430056554e-03,-8.432913033366124314e-03,-7.899606280267871400e-03,-7.366299527169618486e-03,-6.832992774071365571e-03,-6.299686020973112657e-03,-5.766379267874860610e-03,-5.233072514776607696e-03,-4.699765761678354782e-03,-4.166459008580101868e-03,-3.633152255481848954e-03,-3.099845502383596040e-03,-2.583204585319662933e-03,-2.049897832221410018e-03,-1.516591079123158839e-03,-9.832843260249059247e-04,-4.499775729266530105e-04,-1.734723475976807094e-18,-1.734723475976807094e-18,-1.217888017892663349e-04,-9.012371332405583885e-04,-1.680685464691852177e-03,-2.435776035785292004e-03,-1.570385832185035579e-01,-1.578180315499548292e-01,-1.585974798814061282e-01,-1.593769282128574272e-01,-6.333017693041754007e-03,-7.112466024493046060e-03,-7.891914355944339848e-03,-8.671362687395631902e-03,-9.450811018846923955e-03,-1.013282830886680537e-02,-1.013282830886680537e-02,-1.013282830886680537e-02,-1.013282830886680537e-02,-1.013282830886680537e-02,-1.013282830886680537e-02,-1.013282830886680537e-02,-1.013282830886680537e-02
-1.013282830886680537e-02,-1.013282830886680537e-02,-1.013282830886680537e-02,-1.013282830886680537e-02,-1.013282830886680537e-02,-1.006616496472952441e-02,-9.532858211631271492e-03,-8.999551458533018578e-03,-8.466244705434765663e-03,-7.932937952336512749e-03,-7.399631199238259835e-03,-6.866324446140006921e-03,-6.333017693041754007e-03,-5.799710939943501092e-03,-5.283070022879568853e-03,-4.749763269781315939e-03,-4.216456516683063024e-03,-3.683149763584810110e-03,-3.149843010486557196e-03,-2.616536257388304282e-03,-2.083229504290051368e-03,-1.549922751191798453e-03,-1.016615998093547274e-03,-4.833092449952926251e-04,-1.734723475976807094e-18,-3.469446951953614189e-18,-4.871552071570792175e-05,-8.281638521669999753e-04,-1.607612183618293764e-03,-2.387060515069585817e-03,-1.569898676977878327e-01,-1.577693160292391317e-01,-1.585487643606904307e-01,-1.593282126921417297e-01,-6.284302172326047820e-03,-7.039392743419487647e-03,-7.818841074870779700e-03,-8.598289406322073489e-03,-9.377737737773365542e-03,-1.013282830886680537e-02,-1.013282830886680537e-02,-1.013282830886680537e-02,-1.013282830886680537e-02,-1.013282830886680537e-02,-1.013282830886680537e-02,-1.013282830886680537e-02,-1.013282830886680537e-02
-1.013282830886680537e-02,-1.013282830886680537e-02,-1.013282830886680537e-02,-1.013282830886680537e-02,-1.013282830886680537e-02,-1.009949663679816402e-02,-9.566189883699911106e-03,-9.032883130601658192e-03,-8.499576377503405278e-03,-7.982935460439474773e-03,-7.449628707341220991e-03,-6.916321954242968077e-03,-6.383015201144714296e-03,-5.849708448046463116e-03,-5.316401694948209335e-03,-4.783094941849957288e-03,-4.249788188751704374e-03,-3.716481435653451459e-03,-3.183174682555197678e-03,-2.666533765491264571e-03,-2.133227012393013391e-03,-1.599920259294760477e-03,-1.066613506196507563e-03,-5.333067530982546489e-04,-1.734723475976807094e-18,-1.734723475976807094e-18,-1.734723475976807094e-18,-7.794483314512937883e-04,-1.558896662902587577e-03,-2.338344994353879630e-03,-1.569167944167142725e-01,-1.576962427481655715e-01,-1.584756910796168705e-01,-1.592551394110681695e-01,-6.211228891252489406e-03,-6.990677222703782327e-03,-7.770125554155074381e-03,-8.549573885606367302e-03,-9.329022217057659355e-03,-1.010847054850895314e-02,-1.013282830886680537e-02,-1.013282830886680537e-02,-1.013282830886680537e-02,-1.013282830886680537e-02,-1.013282830886680537e-02,-1.013282830886680537e-02,-1.013282830886680537e-02
-1.013282830886680537e-02,-1.013282830886680537e-02,-1.013282830886680537e-02,-1.013282830886680537e-02,-1.013282830886680537e-02,-1.013282830886680537e-02,-9.616187391802873130e-03,-9.082880638704620216e-03,-8.549573885606367302e-03,-8.016267132508114387e-03,-7.482960379409861473e-03,-6.949653626311608559e-03,-6.416346873213355645e-03,-5.883040120115103598e-03,-5.366399203051170491e-03,-4.833092449952917577e-03,-4.299785696854664663e-03,-3.766478943756412616e-03,-3.233172190658158834e-03,-2.699865437559906788e-03,-2.166558684461654741e-03,-1.633251931363401827e-03,-1.099945178265147178e-03,-5.666384251668942634e-04,-3.333167206864308396e-05,-1.734723475976807094e-18,-1.734723475976807094e-18,-7.063750503777353751e-04,-1.485823381829029163e-03,-2.265271713280321217e-03,-1.568680788959985750e-01,-1.576475272274498740e-01,-1.584269755589011730e-01,-1.592064238903524442e-01,-6.162513370536784087e-03,-6.917603941630223047e-03,-7.697052273081515968e-03,-8.476500604532808889e-03,-9.255948935984100942e-03,-1.003539726743539300e-02,-1.013282830886680537e-02,-1.013282830886680537e-02,-1.013282830886680537e-02,-1.013282830886680537e-02,-1.013282830886680537e-02,-1.013282830886680537e-02,-1.013282830886680537e-02
-1.013282830886680537e-02,-1.013282830886680537e-02,-1.013282830886680537e-02,-1.013282830886680537e-02,-1.013282830886680537e-02,-1.013282830886680537e-02,-9.649519063871514479e-03,-9.116212310773261565e-03,-8.582905557675008651e-03,-8.066264640611076411e-03,-7.532957887512823497e-03,-6.999651134414569716e-03,-6.466344381316316801e-03,-5.933037628218064755e-03,-5.399730875119811840e-03,-4.866424122021558059e-03,-4.333117368923305145e-03,-3.799810615825053098e-03,-3.266503862726800184e-03,-2.733197109628547269e-03,-2.216556192564615030e-03,-1.683249439466362116e-03,-1.149942686368109201e-03,-6.166359332698580220e-04,-8.332918017160337310e-05,-1.734723475976807094e-18,-1.734723475976807094e-18,-6.576595296620291881e-04,-1.437107861113322976e-03,-2.216556192564615030e-03,-2.971646763658054857e-03,-3.751095095109346911e-03,-4.530543426560640699e-03,-5.309991758011931885e-03,-6.089440089463224806e-03,-6.868888420914517727e-03,-7.648336752365810648e-03,-8.427785083817102701e-03,-9.207233415268394755e-03,-9.986681746719688543e-03,-1.013282830886680537e-02,-1.013282830886680537e-02,-1.013282830886680537e-02,-1.013282830886680537e-02,-1.013282830886680537e-02,-1.013282830886680537e-02,-1.013282830886680537e-02
-1.013282830886680537e-02,-1.013282830886680537e-02,-1.013282830886680537e-02,-1.013282830886680537e-02,-1.013282830886680537e-02,-1.013282830886680537e-02,-9.699516571974474768e-03,-9.166209818876221854e-03,-8.632903065777968940e-03,-8.099596312679716026e-03,-7.566289559581463112e-03,-7.032982806483210197e-03,-6.499676053384957283e-03,-5.966369300286705236e-03,-5.433062547188452322e-03,-4.916421630124519215e-03,-4.383114877026267169e-03,-3.849808123928013387e-03,-3.316501370829761340e-03,-2.783194617731507559e-03,-2.249887864633254644e-03,-1.716581111535003465e-03,-1.183274358436750551e-03,-6.499676053384976365e-04,-1.166608522402429876e-04,-1.734723475976807094e-18,-1.734723475976807094e-18,-5.845862485884707749e-04,-1.364034580039764563e-03,-2.143482911491056617e-03,-2.922931242942348670e-03,-3.702379574393640724e-03,-4.481827905844934512e-03,-5.261276237296226566e-03,-6.040724568747519486e-03,-6.820172900198811540e-03,-7.575263471292251367e-03,-8.354711802743544288e-03,-9.134160134194836342e-03,-9.913608465646130130e-03,-1.013282830886680537e-02,-1.013282830886680537e-02,-1.013282830886680537e-02,-1.013282830886680537e-02,-1.013282830886680537e-02,-1.013282830886680537e-02,-1.013282830886680537e-02
-1.013282830886680537e-02,-1.013282830886680537e-02,-1.013282830886680537e-02,-1.013282830886680537e-02,-1.013282830886680537e-02,-1.013282830886680537e-02,-9.732848244043116118e-03,-9.199541490944863203e-03,-8.666234737846610289e-03,-8.132927984748357375e-03,-7.616287067684425136e-03,-7.082980314586172221e-03,-6.549673561487919307e-03,-6.016366808389666393e-03,-5.483060055291414346e-03,-4.949753302193161432e-03,-4.416446549094907650e-03,-3.883139795996654736e-03,-3.349833042898401822e-03,-2.816526289800148908e-03,-2.283219536701895994e-03,-1.766578619637963754e-03,-1.233271866539710840e-03,-6.999651134414579257e-04,-1.666583603432050115e-04,-1.734723475976807094e-18,-1.734723475976807094e-18,-5.358707278727645879e-04,-1.315319059324058376e-03,-2.094767390775350430e-03,-2.874215722226642483e-03,-3.629306293320082311e-03,-4.408754624771375231e-03,-5.188202956222668152e-03,-5.967651287673960206e-03,-6.747099619125253994e-03,-7.526547950576546048e-03,-8.305996282027838101e-03,-9.085444613479130155e-03,-9.864892944930423943e-03,-1.013282830886680537e-02,-1.013282830886680537e-02,-1.013282830886680537e-02,-1.013282830886680537e-02,-1.013282830886680537e-02,-1.013282830886680537e-02,-1.013282830886680537e-02
-1.013282830886680537e-02,-1.013282830886680537e-02,-1.013282830886680537e-02,-1.013282830886680537e-02,-1.013282830886680537e-02,-1.013282830886680537e-02,-9.782845752146076407e-03,-9.249538999047823493e-03,-8.716232245949570578e-03,-8.182925492851319399e-03,-7.649618739753065617e-03,-7.116311986654812703e-03,-6.583005233556560656e-03,-6.049698480458306875e-03,-5.516391727360054828e-03,-4.983084974261801914e-03,-4.466444057197868807e-03,-3.933137304099616760e-03,-3.399830551001362978e-03,-2.866523797903110064e-03,-2.333217044804858017e-03,-1.799910291706606838e-03,-1.266603538608352189e-03,-7.332967855101010096e-04,-1.999900324118463607e-04,-1.734723475976807094e-18,-1.734723475976807094e-18,-4.627974467992061747e-04,-1.242245778250499963e-03,-2.021694109701792016e-03,-2.801142441153084070e-03,-3.580590772604376124e-03,-4.360039104055669912e-03,-5.139487435506961965e-03,-5.918935766958254886e-03,-6.698384098409547807e-03,-7.477832429860839861e-03,-8.232923000954279688e-03,-9.012371332405571742e-03,-9.791819663856865530e-03,-1.013282830886680537e-02,-1.013282830886680537e-02,-1.013282830886680537e-02,-1.013282830886680537e-02,-1.013282830886680537e-02,-1.013282830886680537e-02,-1.013282830886680537e-02
-1.013282830886680537e-02,-1.013282830886680537e-02,-1.013282830886680537e-02,-1.013282830886680537e-02,-1.013282830886680537e-02,-1.013282830886680537e-02,-9.816177424214717756e-03,-9.282870671116464842e-03,-8.749563918018211928e-03,-8.216257164919959013e-03,-7.682950411821706099e-03,-7.166309494757773860e-03,-6.633002741659520946e-03,-6.099695988561268899e-03,-5.566389235463015117e-03,-5.033082482364763070e-03,-4.499775729266510156e-03,-3.966468976168257242e-03,-3.433162223070004328e-03,-2.899855469971750546e-03,-2.366548716873499367e-03,-1.849907799809565392e-03,-1.316601046711314213e-03,-7.832942936130595640e-04,-2.499875405148083846e-04,-1.734723475976807094e-18,-1.734723475976807094e-18,-4.140819260834999876e-04,-1.193530257534793776e-03,-1.972978588986085829e-03,-2.752426920437377883e-03,-3.531875251888671671e-03,-4.286965822982110631e-03,-5.066414154433403552e-03,-5.845862485884695606e-03,-6.625310817335988527e-03,-7.404759148787281448e-03,-8.184207480238573501e-03,-8.963655811689865555e-03,-9.743104143141159343e-03,-1.013282830886680537e-02,-1.013282830886680537e-02,-1.013282830886680537e-02,-1.013282830886680537e-02,-1.013282830886680537e-02,-1.013282830886680537e-02,-1.013282830886680537e-02
-1.013282830886680537e-02,-1.013282830886680537e-02,-1.013282830886680537e-02,-1.013282830886680537e-02,-1.013282830886680537e-02,-1.013282830886680537e-02,-9.866174932317679780e-03,-9.332868179219426866e-03,-8.799561426121173952e-03,-8.266254673022921037e-03,-7.732947919924668123e-03,-7.199641166826415209e-03,-6.666334413728162295e-03,-6.133027660629909381e-03,-5.599720907531656466e-03,-5.066414154433403552e-03,-4.549773237369471313e-03,-4.016466484271218398e-03,-3.483159731172965484e-03,-2.949852978074712570e-03,-2.416546224976459656e-03,-1.883239471878206742e-03,-1.349932718779955562e-03,-8.166259656816991785e-04,-2.833192125834497338e-04,-3.469446951953614189e-18,-1.734723475976807094e-18,-3.410086450099415745e-04,-1.120456976461235363e-03,-1.899905307912527416e-03,-2.679353639363820337e-03,-3.458801970815112391e-03,-4.238250302266405312e-03,-5.017698633717697365e-03,-5.797146965168990286e-03,-6.576595296620283207e-03,-7.356043628071575260e-03,-8.111134199165015088e-03,-8.890582530616307141e-03,-9.670030862067600930e-03,-1.013282830886680537e-02,-1.013282830886680537e-02,-1.013282830886680537e-02,-1.013282830886680537e-02,-1.013282830886680537e-02,-1.013282830886680537e-02,-1.013282830886680537e-02
-1.013282830886680537e-02,-1.013282830886680537e-02,-1.013282830886680537e-02,-1.013282830886680537e-02,-1.013282830886680537e-02,-1.013282830886680537e-02,-9.899506604386319394e-03,-9.366199851288066480e-03,-8.832893098189813566e-03,-8.299586345091560652e-03,-7.766279591993308605e-03,-7.249638674929375498e-03,-6.716331921831122584e-03,-6.183025168732870537e-03,-5.649718415634617623e-03,-5.116411662536364709e-03,-4.583104909438110927e-03,-4.049798156339859748e-03,-3.516491403241605966e-03,-2.983184650143353052e-03,-2.449877897045101005e-03,-1.916571143946848091e-03,-1.399930226882915851e-03,-8.666234737846629371e-04,-3.333167206864100229e-04,-1.734723475976807094e-18,-1.734723475976807094e-18,-2.922931242942353874e-04,-6.115476976573590295e-02,-6.193421809718720195e-02,-6.271366642863848706e-02,-3.410086450099407071e-03,-4.165177021192846898e-03,-4.944625352644138952e-03,-5.724073684095431006e-03,-6.503522015546724794e-03,-7.282970346998016847e-03,-8.062418678449308901e-03,-8.841867009900602689e-03,-9.621315341351894743e-03,-1.013282830886680537e-02,-1.013282830886680537e-02,-1.013282830886680537e-02,-1.013282830886680537e-02,-1.013282830886680537e-02,-1.013282830886680537e-02,-1.013282830886680537e-02
-1.013282830886680537e-02,-1.013282830886680537e-02,-1.013282830886680537e-02,-1.013282830886680537e-02,-1.013282830886680537e-02,-1.013282830886680537e-02,-9.932838276454960744e-03,-9.416197359391028504e-03,-8.882890606292775590e-03,-8.349583853194522676e-03,-7.816277100096269762e-03,-7.282970346998016847e-03,-6.749663593899763933e-03,-6.216356840801511886e-03,-5.683050087703258972e-03,-5.149743334605005191e-03,-4.616436581506752276e-03,-4.099795664442820037e-03,-3.566488911344567123e-03,-3.033182158246314208e-03,-2.499875405148061294e-03,-1.966568652049810115e-03,-1.433261898951555466e-03,-8.999551458533042864e-04,-3.666483927550496374e-04,-1.734723475976807094e-18,-1.734723475976807094e-18,-2.192198432206787090e-04,-6.108169648466234281e-02,-6.186114481611364180e-02,-6.264059314756494079e-02,-3.337013169025847791e-03,-4.116461500477140711e-03,-4.895909831928433632e-03,-5.675358163379725686e-03,-6.454806494831018607e-03,-7.234254826282310660e-03,-8.013703157733604449e-03,-8.768793728827042541e-03,-9.548242060278336329e-03,-1.013282830886680537e-02,-1.013282830886680537e-02,-1.013282830886680537e-02,-1.013282830886680537e-02,-1.013282830886680537e-02,-1.013282830886680537e-02,-1.013282830886680537e-02
-1.013282830886680537e-02,-1.013282830886680537e-02,-1.013282830886680537e-02,-1.013282830886680537e-02,-1.013282830886680537e-02,-1.013282830886680537e-02,-9.982835784557921033e-03,-9.449529031459669853e-03,-8.916222278361415204e-03,-8.382915525263164025e-03,-7.849608772164909376e-03,-7.316302019066658197e-03,-6.799661102002725090e-03,-6.266354348904472175e-03,-5.733047595806220129e-03,-5.199740842707967214e-03,-4.666434089609714300e-03,-4.133127336511460519e-03,-3.599820583413208472e-03,-3.066513830314955558e-03,-2.533207077216702643e-03,-1.999900324118449729e-03,-1.466593571020196815e-03,-9.499526539562645755e-04,-4.166459008580116613e-04,-1.734723475976807094e-18,-1.734723475976807094e-18,-1.705043225049707872e-04,-6.103298096394663835e-02,-6.181242929539793041e-02,-6.259187762684922940e-02,-3.288297648310142471e-03,-4.067745979761434524e-03,-4.822836550854874352e-03,-5.602284882306166405e-03,-6.381733213757460194e-03,-7.161181545208752247e-03,-7.940629876660044301e-03,-8.720078208111338089e-03,-9.499526539562630142e-03,-1.013282830886680537e-02,-1.013282830886680537e-02,-1.013282830886680537e-02,-1.013282830886680537e-02,-1.013282830886680537e-02,-1.013282830886680537e-02,-1.013282830886680537e-02
-1.013282830886680537e-02,-1.013282830886680537e-02,-1.013282830886680537e-02,-1.013282830886680537e-02,-1.013282830886680537e-02,-1.013282830886680537e-02,-1.001616745662656238e-02,-9.499526539562630142e-03,-8.966219786464377228e-03,-8.432913033366124314e-03,-7.899606280267871400e-03,-7.366299527169618486e-03,-6.832992774071365571e-03,-6.299686020973112657e-03,-5.766379267874859743e-03,-5.233072514776607696e-03,-4.699765761678354782e-03,-4.183124844614422543e-03,-3.649818091516169628e-03,-3.116511338417915847e-03,-2.583204585319662933e-03,-2.049897832221411753e-03,-1.516591079123158839e-03,-9.832843260249059247e-04,-4.499775729266530105e-04,-1.734723475976807094e-18,-1.734723475976807094e-18,-1.217888017892663349e-04,-8.768793728827061623e-04,-1.656327704333998216e-03,-2.435776035785291137e-03,-3.215224367236583190e-03,-3.994672698687876111e-03,-4.774121030139169032e-03,-5.553569361590461086e-03,-6.333017693041754007e-03,-7.112466024493046927e-03,-7.891914355944339848e-03,-8.647004927037779676e-03,-9.426453258489071729e-03,-1.013282830886680537e-02,-1.013282830886680537e-02,-1.013282830886680537e-02,-1.013282830886680537e-02,-1.013282830886680537e-02,-1.013282830886680537e-02,-1.013282830886680537e-02
-1.013282830886680537e-02,-1.013282830886680537e-02,-1.013282830886680537e-02,-1.013282830886680537e-02,-1.013282830886680537e-02,-1.013282830886680537e-02,-1.006616496472952441e-02,-9.532858211631271492e-03,-8.999551458533018578e-03,-8.466244705434765663e-03,-7.932937952336512749e-03,-7.399631199238259835e-03,-6.882990282174327595e-03,-6.349683529076074681e-03,-5.816376775977821767e-03,-5.283070022879568853e-03,-4.749763269781315939e-03,-4.216456516683063024e-03,-3.683149763584810110e-03,-3.149843010486557196e-03,-2.616536257388304282e-03,-2.083229504290051368e-03,-1.549922751191800188e-03,-1.033281834127867949e-03,-4.999750810296132997e-04,-1.734723475976807094e-18,-1.734723475976807094e-18,-4.871552071570618703e-05,-8.281638521669999753e-04,-1.607612183618293764e-03,-2.387060515069585817e-03,-3.166508846520877871e-03,-3.945957177972169924e-03,-4.701047749065609752e-03,-5.480496080516902672e-03,-6.259944411968195593e-03,-7.039392743419487647e-03,-7.818841074870779700e-03,-8.598289406322073489e-03,-9.377737737773365542e-03,-1.013282830886680537e-02,-1.013282830886680537e-02,-1.013282830886680537e-02,-1.013282830886680537e-02,-1.013282830886680537e-02,-1.013282830886680537e-02,-1.013282830886680537e-02
-1.013282830886680537e-02,-1.013282830886680537e-02,-1.013282830886680537e-02,-1.013282830886680537e-02,-1.013282830886680537e-02,-1.013282830886680537e-02,-1.009949663679816402e-02,-9.566189883699911106e-03,-9.049548966635978867e-03,-8.516242213537725952e-03,-7.982935460439473038e-03,-7.449628707341220991e-03,-6.916321954242967210e-03,-6.383015201144715163e-03,-5.849708448046463116e-03,-5.316401694948209335e-03,-4.783094941849956420e-03,-4.249788188751704374e-03,-3.733147271687772134e-03,-3.199840518589518353e-03,-2.666533765491265438e-03,-2.133227012393013391e-03,-1.599920259294760477e-03,-1.066613506196507563e-03,-5.333067530982546489e-04,-1.734723475976807094e-18,-1.734723475976807094e-18,-1.734723475976807094e-18,-7.550905710934415621e-04,-1.534538902544735350e-03,-2.313987233996027404e-03,-3.093435565447318590e-03,-3.872883896898611511e-03,-4.652332228349904432e-03,-5.431780559801196485e-03,-6.211228891252489406e-03,-6.990677222703781460e-03,-7.770125554155074381e-03,-8.549573885606367302e-03,-9.304664456699807129e-03,-1.008411278815109918e-02,-1.013282830886680537e-02,-1.013282830886680537e-02,-1.013282830886680537e-02,-1.013282830886680537e-02,-1.013282830886680537e-02,-1.013282830886680537e-02
-1.013282830886680537e-02,-1.013282830886680537e-02,-1.013282830886680537e-02,-1.013282830886680537e-02,-1.013282830886680537e-02,-1.013282830886680537e-02,-1.013282830886680537e-02,-9.616187391802873130e-03,-9.082880638704620216e-03,-8.549573885606367302e-03,-8.016267132508114387e-03,-7.482960379409861473e-03,-6.949653626311608559e-03,-6.433012709247676320e-03,-5.899705956149424273e-03,-5.366399203051171359e-03,-4.833092449952917577e-03,-4.299785696854664663e-03,-3.766478943756412616e-03,-3.233172190658158834e-03,-2.699865437559905920e-03,-2.166558684461653006e-03,-1.633251931363401827e-03,-1.099945178265148912e-03,-5.833042612012149380e-04,-4.999750810296202386e-05,-1.734723475976807094e-18,-1.734723475976807094e-18,-7.063750503777353751e-04,-1.485823381829029163e-03,-2.265271713280321217e-03,-3.044720044731613270e-03,-3.824168376182906191e-03,-4.603616707634199112e-03,-5.358707278727637205e-03,-6.138155610178930993e-03,-6.917603941630223047e-03,-7.697052273081515968e-03,-8.476500604532808889e-03,-9.255948935984100942e-03,-1.003539726743539300e-02,-1.013282830886680537e-02,-1.013282830886680537e-02,-1.013282830886680537e-02,-1.013282830886680537e-02,-1.013282830886680537e-02,-1.013282830886680537e-02
-1.013282830886680537e-02,-1.013282830886680537e-02,-1.013282830886680537e-02,-1.013282830886680537e-02,-1.013282830886680537e-02,-1.013282830886680537e-02,-1.013282830886680537e-02,-9.649519063871514479e-03,-9.132878146807580505e-03,-8.599571393709329326e-03,-8.066264640611076411e-03,-7.532957887512823497e-03,-6.999651134414570583e-03,-6.466344381316316801e-03,-5.933037628218064755e-03,-5.399730875119811840e-03,-4.866424122021558926e-03,-4.333117368923306012e-03,-3.799810615825053098e-03,-3.283169698761119991e-03,-2.749862945662867077e-03,-2.216556192564615030e-03,-1.683249439466362116e-03,-1.149942686368109201e-03,-6.166359332698562873e-04,-8.332918017160337310e-05,-1.734723475976807094e-18,-1.734723475976807094e-18,-6.576595296620291881e-04,-1.412750100755469015e-03,-2.192198432206762804e-03,-2.971646763658054857e-03,-3.751095095109347778e-03,-4.530543426560639832e-03,-5.309991758011932753e-03,-6.089440089463224806e-03,-6.868888420914517727e-03,-7.648336752365810648e-03,-8.427785083817102701e-03,-9.207233415268394755e-03,-9.962323986361834582e-03,-1.013282830886680537e-02,-1.013282830886680537e-02,-1.013282830886680537e-02,-1.013282830886680537e-02,-1.013282830886680537e-02,-1.013282830886680537e-02
-1.013282830886680537e-02,-1.013282830886680537e-02,-1.013282830886680537e-02,-1.013282830886680537e-02,-1.013282830886680537e-02,-1.013282830886680537e-02,-1.013282830886680537e-02,-9.699516571974474768e-03,-9.166209818876221854e-03,-8.632903065777968940e-03,-8.099596312679716026e-03,-7.566289559581463112e-03,-7.032982806483210197e-03,-6.499676053384957283e-03,-5.983035136321025044e-03,-5.449728383222772997e-03,-4.916421630124520083e-03,-4.383114877026268036e-03,-3.849808123928013387e-03,-3.316501370829760473e-03,-2.783194617731507559e-03,-2.249887864633256379e-03,-1.716581111535003465e-03,-1.183274358436750551e-03,-6.666334413728165764e-04,-1.333266882745653970e-04,-1.734723475976807094e-18,-1.734723475976807094e-18,-5.845862485884707749e-04,-1.364034580039764563e-03,-2.143482911491056617e-03,-2.922931242942348670e-03,-3.702379574393641591e-03,-4.481827905844934512e-03,-5.261276237296226566e-03,-6.016366808389666393e-03,-6.795815139840958446e-03,-7.575263471292252235e-03,-8.354711802743544288e-03,-9.134160134194836342e-03,-9.913608465646130130e-03,-1.013282830886680537e-02,-1.013282830886680537e-02,-1.013282830886680537e-02,-1.013282830886680537e-02,-1.013282830886680537e-02,-1.013282830886680537e-02
-1.013282830886680537e-02,-1.013282830886680537e-02,-1.013282830886680537e-02,-1.013282830886680537e-02,-1.013282830886680537e-02,-1.013282830886680537e-02,-1.013282830886680537e-02,-9.732848244043116118e-03,-9.199541490944863203e-03,-8.682900573880930964e-03,-8.149593820782678050e-03,-7.616287067684425136e-03,-7.082980314586172221e-03,-6.549673561487919307e-03,-6.016366808389666393e-03,-5.483060055291414346e-03,-4.949753302193161432e-03,-4.416446549094907650e-03,-3.883139795996654736e-03,-3.366498878932722497e-03,-2.833192125834469582e-03,-2.299885372736216668e-03,-1.766578619637965489e-03,-1.233271866539710840e-03,-6.999651134414579257e-04,-1.666583603432067462e-04,-1.734723475976807094e-18,-1.734723475976807094e-18,-5.358707278727645879e-04,-1.315319059324058376e-03,-2.070409630417496469e-03,-2.849857961868790257e-03,-3.629306293320081443e-03,-4.408754624771375231e-03,-5.188202956222668152e-03,-5.967651287673960206e-03,-6.747099619125253127e-03,-7.526547950576546048e-03,-8.305996282027838101e-03,-9.085444613479130155e-03,-9.840535184572569982e-03,-1.013282830886680537e-02,-1.013282830886680537e-02,-1.013282830886680537e-02,-1.013282830886680537e-02,-1.013282830886680537e-02,-1.013282830886680537e-02
-1.013282830886680537e-02,-1.013282830886680537e-02,-1.013282830886680537e-02,-1.013282830886680537e-02,-1.013282830886680537e-02,-1.013282830886680537e-02,-1.013282830886680537e-02,-9.782845752146076407e-03,-9.249538999047823493e-03,-8.716232245949570578e-03,-8.182925492851319399e-03,-7.649618739753065617e-03,-7.116311986654811836e-03,-6.583005233556559789e-03,-6.066364316492627549e-03,-5.533057563394374635e-03,-4.999750810296121721e-03,-4.466444057197868807e-03,-3.933137304099615893e-03,-3.399830551001362978e-03,-2.866523797903110064e-03,-2.333217044804858017e-03,-1.799910291706606838e-03,-1.266603538608352189e-03,-7.332967855101010096e-04,-2.166558684461670353e-04,-3.469446951953614189e-18,-1.734723475976807094e-18,-4.627974467992061747e-04,-1.242245778250499963e-03,-2.021694109701792016e-03,-2.801142441153084070e-03,-3.580590772604376991e-03,-4.360039104055669912e-03,-5.139487435506961965e-03,-5.894578006600401793e-03,-6.674026338051694714e-03,-7.453474669502987635e-03,-8.232923000954279688e-03,-9.012371332405571742e-03,-9.791819663856865530e-03,-1.013282830886680537e-02,-1.013282830886680537e-02,-1.013282830886680537e-02,-1.013282830886680537e-02,-1.013282830886680537e-02,-1.013282830886680537e-02
-1.013282830886680537e-02,-1.013282830886680537e-02,-1.013282830886680537e-02,-1.013282830886680537e-02,-1.013282830886680537e-02,-1.013282830886680537e-02,-1.013282830886680537e-02,-9.816177424214717756e-03,-9.282870671116464842e-03,-8.766229754052532602e-03,-8.232923000954279688e-03,-7.699616247856026774e-03,-7.166309494757773860e-03,-6.633002741659520946e-03,-6.099695988561268031e-03,-5.566389235463015117e-03,-5.033082482364763070e-03,-4.499775729266510156e-03,-3.966468976168256375e-03,-3.433162223070003460e-03,-2.916521306006071221e-03,-2.383214552907819174e-03,-1.849907799809565392e-03,-1.316601046711312478e-03,-7.832942936130595640e-04,-2.499875405148083846e-04,-1.734723475976807094e-18,-1.734723475976807094e-18,-4.140819260835017224e-04,-1.193530257534793776e-03,-1.948620828628233603e-03,-2.728069160079525657e-03,-3.507517491530817710e-03,-4.286965822982111499e-03,-5.066414154433403552e-03,-5.845862485884695606e-03,-6.625310817335988527e-03,-7.404759148787281448e-03,-8.184207480238573501e-03,-8.963655811689865555e-03,-9.743104143141159343e-03,-1.013282830886680537e-02,-1.013282830886680537e-02,-1.013282830886680537e-02,-1.013282830886680537e-02,-1.013282830886680537e-02,-1.013282830886680537e-02
-1.013282830886680537e-02,-1.013282830886680537e-02,-1.013282830886680537e-02,-1.013282830886680537e-02,-1.013282830886680537e-02,-1.013282830886680537e-02,-1.013282830886680537e-02,-9.866174932317679780e-03,-9.332868179219426866e-03,-8.799561426121173952e-03,-8.266254673022921037e-03,-7.732947919924668123e-03,-7.199641166826414342e-03,-6.666334413728162295e-03,-6.133027660629909381e-03,-5.616386743565977141e-03,-5.083079990467724227e-03,-4.549773237369471313e-03,-4.016466484271218398e-03,-3.483159731172965484e-03,-2.949852978074711703e-03,-2.416546224976459656e-03,-1.883239471878206742e-03,-1.349932718779953827e-03,-8.166259656817009133e-04,-2.833192125834497338e-04,-1.734723475976807094e-18,-1.734723475976807094e-18,-3.410086450099415745e-04,-1.120456976461235363e-03,-1.899905307912527416e-03,-2.679353639363819470e-03,-3.458801970815111523e-03,-4.238250302266405312e-03,-5.017698633717697365e-03,-5.797146965168990286e-03,-6.552237536262430113e-03,-7.331685867713723034e-03,-8.111134199165015088e-03,-8.890582530616307141e-03,-9.670030862067600930e-03,-1.013282830886680537e-02,-1.013282830886680537e-02,-1.013282830886680537e-02,-1.013282830886680537e-02,-1.013282830886680537e-02,-1.013282830886680537e-02
-1.013282830886680537e-02,-1.013282830886680537e-02,-1.013282830886680537e-02,-1.013282830886680537e-02,-1.013282830886680537e-02,-1.013282830886680537e-02,-1.013282830886680537e-02,-9.899506604386319394e-03,-9.366199851288066480e-03,-8.832893098189813566e-03,-8.316252181125881326e-03,-7.782945428027628412e-03,-7.249638674929375498e-03,-6.716331921831122584e-03,-6.183025168732870537e-03,-5.649718415634617623e-03,-5.116411662536364709e-03,-4.583104909438111794e-03,-4.049798156339859748e-03,-3.516491403241605099e-03,-2.983184650143353919e-03,-2.466543733079420812e-03,-1.933236979981168766e-03,-1.399930226882915851e-03,-8.666234737846629371e-04,-3.333167206864100229e-04,0.000000000000000000e+00,-3.469446951953614189e-18,-2.922931242942353874e-04,-1.071741455745529176e-03,-1.851189787196822964e-03,-2.606280358290261057e-03,-3.385728689741553110e-03,-4.165177021192846898e-03,-4.944625352644138952e-03,-5.724073684095431006e-03,-6.503522015546724794e-03,-7.282970346998016847e-03,-8.062418678449308901e-03,-8.841867009900602689e-03,-9.621315341351894743e-03,-1.013282830886680537e-02,-1.013282830886680537e-02,-1.013282830886680537e-02,-1.013282830886680537e-02,-1.013282830886680537e-02,-1.013282830886680537e-02
-1.013282830886680537e-02,-1.013282830886680537e-02,-1.013282830886680537e-02,-1.013282830886680537e-02,-1.013282830886680537e-02,-1.013282830886680537e-02,-1.013282830886680537e-02,-9.949504112489281418e-03,-9.416197359391028504e-03,-8.882890606292775590e-03,-8.349583853194522676e-03,-7.816277100096269762e-03,-7.282970346998016847e-03,-6.749663593899763933e-03,-6.216356840801511019e-03,-5.683050087703258972e-03,-5.166409170639325865e-03,-4.633102417541072951e-03,-4.099795664442820037e-03,-3.566488911344567123e-03,-3.033182158246314208e-03,-2.499875405148061294e-03,-1.966568652049810115e-03,-1.433261898951557201e-03,-8.999551458533025516e-04,-3.666483927550513722e-04,-1.734723475976807094e-18,-1.734723475976807094e-18,-2.192198432206787090e-04,-9.986681746719707625e-04,-1.778116506123262816e-03,-2.557564837574555737e-03,-3.337013169025848658e-03,-4.116461500477140711e-03,-4.895909831928433632e-03,-5.675358163379725686e-03,-6.454806494831018607e-03,-7.209897065924458434e-03,-7.989345397375750488e-03,-8.768793728827044276e-03,-9.548242060278336329e-03,-1.013282830886680537e-02,-1.013282830886680537e-02,-1.013282830886680537e-02,-1.013282830886680537e-02,-1.013282830886680537e-02,-1.013282830886680537e-02
-1.013282830886680537e-02,-1.013282830886680537e-02,-1.013282830886680537e-02,-1.013282830886680537e-02,-1.013282830886680537e-02,-1.013282830886680537e-02,-1.013282830886680537e-02,-9.982835784557921033e-03,-9.449529031459669853e-03,-8.916222278361415204e-03,-8.382915525263164025e-03,-7.866274608199230051e-03,-7.332967855100978004e-03,-6.799661102002725090e-03,-6.266354348904472175e-03,-5.733047595806220129e-03,-5.199740842707967214e-03,-4.666434089609714300e-03,-4.133127336511461386e-03,-3.599820583413208472e-03,-3.066513830314955558e-03,-2.549872913251023318e-03,-2.016566160152770404e-03,-1.483259407054517490e-03,-9.499526539562645755e-04,-4.166459008580099266e-04,-1.734723475976807094e-18,-1.734723475976807094e-18,-1.705043225049707872e-04,-9.499526539562645755e-04,-1.729400985407558364e-03,-2.508849316858849550e-03,-3.263939887952288510e-03,-4.043388219403582298e-03,-4.822836550854874352e-03,-5.602284882306167273e-03,-6.381733213757460194e-03,-7.161181545208752247e-03,-7.940629876660044301e-03,-8.720078208111338089e-03,-9.499526539562630142e-03,-1.013282830886680537e-02,-1.013282830886680537e-02,-1.013282830886680537e-02,-1.013282830886680537e-02,-1.013282830886680537e-02,-1.013282830886680537e-02
-1.013282830886680537e-02,-1.013282830886680537e-02,-1.013282830886680537e-02,-1.013282830886680537e-02,-1.013282830886680537e-02,-1.013282830886680537e-02,-1.013282830886680537e-02,-1.003283329266088306e-02,-9.499526539562630142e-03,-8.966219786464377228e-03,-8.432913033366124314e-03,-7.899606280267871400e-03,-7.366299527169618486e-03,-6.832992774071365571e-03,-6.299686020973112657e-03,-5.766379267874859743e-03,-5.249738350810928371e-03,-4.716431597712674589e-03,-4.183124844614421675e-03,-3.649818091516168761e-03,-3.116511338417916714e-03,-2.583204585319662933e-03,-2.049897832221411753e-03,-1.516591079123158839e-03,-9.832843260249059247e-04,-4.499775729266512758e-04,-1.734723475976807094e-18,-1.734723475976807094e-18,-9.743104143141410878e-05,-8.768793728827044276e-04,-1.656327704333998216e-03,-2.435776035785291137e-03,-3.215224367236583190e-03,-3.994672698687876111e-03,-4.774121030139169032e-03,-5.553569361590461086e-03,-6.333017693041754007e-03,-7.088108264135193834e-03,-7.867556595586485887e-03,-8.647004927037779676e-03,-9.426453258489071729e-03,-1.013282830886680537e-02,-1.013282830886680537e-02,-1.013282830886680537e-02,-1.013282830886680537e-02,-1.013282830886680537e-02,-1.013282830886680537e-02
-1.013282830886680537e-02,-1.013282830886680537e-02,-1.013282830886680537e-02,-1.013282830886680537e-02,-1.013282830886680537e-02,-1.013282830886680537e-02,-1.013282830886680537e-02,-1.006616496472952441e-02,-9.532858211631271492e-03,-8.999551458533018578e-03,-8.466244705434765663e-03,-7.949603788370833424e-03,-7.416297035272579642e-03,-6.882990282174326728e-03,-6.349683529076074681e-03,-5.816376775977821767e-03,-5.283070022879568853e-03,-4.749763269781315939e-03,-4.216456516683063024e-03,-3.683149763584810110e-03,-3.149843010486557196e-03,-2.616536257388304282e-03,-2.099895340324372042e-03,-1.566588587226119128e-03,-1.033281834127866214e-03,-4.999750810296150344e-04,-3.469446951953614189e-18,-1.734723475976807094e-18,-4.871552071570792175e-05,-8.281638521669999753e-04,-1.607612183618293764e-03,-2.387060515069585817e-03,-3.142151086163024777e-03,-3.921599417614317698e-03,-4.701047749065609752e-03,-5.480496080516902672e-03,-6.259944411968195593e-03,-7.039392743419487647e-03,-7.818841074870779700e-03,-8.598289406322073489e-03,-9.377737737773365542e-03,-1.013282830886680537e-02,-1.013282830886680537e-02,-1.013282830886680537e-02,-1.013282830886680537e-02,-1.013282830886680537e-02,-1.013282830886680537e-02
-1.013282830886680537e-02,-1.013282830886680537e-02,-1.013282830886680537e-02,-1.013282830886680537e-02,-1.013282830886680537e-02,-1.013282830886680537e-02,-1.013282830886680537e-02,-1.011616247283248470e-02,-9.582855719734231781e-03,-9.049548966635978867e-03,-8.516242213537725952e-03,-7.982935460439473038e-03,-7.449628707341220991e-03,-6.916321954242967210e-03,-6.383015201144715163e-03,-5.849708448046463116e-03,-5.316401694948209335e-03,-4.799760777884277095e-03,-4.266454024786024181e-03,-3.733147271687770399e-03,-3.199840518589518353e-03,-2.666533765491266306e-03,-2.133227012393013391e-03,-1.599920259294760477e-03,-1.066613506196507563e-03,-5.333067530982546489e-04,-1.734723475976807094e-18,-1.734723475976807094e-18,-1.734723475976807094e-18,-7.550905710934415621e-04,-1.534538902544735350e-03,-2.313987233996027404e-03,-3.093435565447319457e-03,-3.872883896898611511e-03,-4.652332228349904432e-03,-5.431780559801197353e-03,-6.211228891252489406e-03,-6.990677222703782327e-03,-7.745767793797221287e-03,-8.525216125248515076e-03,-9.304664456699807129e-03,-1.008411278815109918e-02,-1.013282830886680537e-02,-1.013282830886680537e-02,-1.013282830886680537e-02,-1.013282830886680537e-02,-1.013282830886680537e-02
-1.013282830886680537e-02,-1.013282830886680537e-02,-1.013282830886680537e-02,-1.013282830886680537e-02,-1.013282830886680537e-02,-1.013282830886680537e-02,-1.013282830886680537e-02,-1.013282830886680537e-02,-9.616187391802873130e-03,-9.082880638704620216e-03,-8.549573885606367302e-03,-8.016267132508114387e-03,-7.499626215444182148e-03,-6.966319462345929234e-03,-6.433012709247676320e-03,-5.899705956149424273e-03,-5.366399203051171359e-03,-4.833092449952918444e-03,-4.299785696854665530e-03,-3.766478943756411749e-03,-3.233172190658158834e-03,-2.699865437559905920e-03,-2.183224520495975415e-03,-1.649917767397722501e-03,-1.116611014299467852e-03,-5.833042612012149380e-04,-4.999750810296375858e-05,-1.734723475976807094e-18,-1.734723475976807094e-18,-7.063750503777353751e-04,-1.485823381829029163e-03,-2.265271713280321217e-03,-3.044720044731612403e-03,-3.799810615825053098e-03,-4.579258947276345151e-03,-5.358707278727637205e-03,-6.138155610178930993e-03,-6.917603941630223047e-03,-7.697052273081515100e-03,-8.476500604532808889e-03,-9.255948935984100942e-03,-1.003539726743539300e-02,-1.013282830886680537e-02,-1.013282830886680537e-02,-1.013282830886680537e-02,-1.013282830886680537e-02,-1.013282830886680537e-02
-1.013282830886680537e-02,-1.013282830886680537e-02,-1.013282830886680537e-02,-1.013282830886680537e-02,-1.013282830886680537e-02,-1.013282830886680537e-02,-1.013282830886680537e-02,-1.013282830886680537e-02,-9.666184899905833419e-03,-9.132878146807580505e-03,-8.599571393709329326e-03,-8.066264640611074677e-03,-7.532957887512822630e-03,-6.999651134414569716e-03,-6.466344381316317669e-03,-5.933037628218064755e-03,-5.399730875119811840e-03,-4.883089958055878733e-03,-4.349783204957625819e-03,-3.816476451859373772e-03,-3.283169698761120858e-03,-2.749862945662867944e-03,-2.216556192564615030e-03,-1.683249439466362116e-03,-1.149942686368109201e-03,-6.166359332698580220e-04,-8.332918017160337310e-05,-1.734723475976807094e-18,-3.469446951953614189e-18,-6.333017693041769619e-04,-1.412750100755470750e-03,-2.192198432206761069e-03,-2.971646763658054857e-03,-3.751095095109347778e-03,-4.530543426560639832e-03,-5.309991758011932753e-03,-6.089440089463224806e-03,-6.868888420914517727e-03,-7.623978992007957554e-03,-8.403427323459250475e-03,-9.182875654910542529e-03,-9.962323986361834582e-03,-1.013282830886680537e-02,-1.013282830886680537e-02,-1.013282830886680537e-02,-1.013282830886680537e-02,-1.013282830886680537e-02
-1.013282830886680537e-02,-1.013282830886680537e-02,-1.013282830886680537e-02,-1.013282830886680537e-02,-1.013282830886680537e-02,-1.013282830886680537e-02,-1.013282830886680537e-02,-1.013282830886680537e-02,-9.699516571974474768e-03,-9.166209818876221854e-03,-8.632903065777968940e-03,-8.099596312679716026e-03,-7.582955395615783786e-03,-7.049648642517530872e-03,-6.516341889419277958e-03,-5.983035136321025911e-03,-5.449728383222772130e-03,-4.916421630124520083e-03,-4.383114877026266301e-03,-3.849808123928013387e-03,-3.316501370829760473e-03,-2.783194617731508426e-03,-2.249887864633254644e-03,-1.733246947569324140e-03,-1.199940194471071225e-03,-6.666334413728183111e-04,-1.333266882745636622e-04,-1.734723475976807094e-18,-1.734723475976807094e-18,-5.845862485884707749e-04,-1.364034580039764563e-03,-2.143482911491056617e-03,-2.922931242942348670e-03,-3.678021814035788498e-03,-4.457470145487082286e-03,-5.236918476938373472e-03,-6.016366808389666393e-03,-6.795815139840959314e-03,-7.575263471292251367e-03,-8.354711802743544288e-03,-9.134160134194836342e-03,-9.913608465646130130e-03,-1.013282830886680537e-02,-1.013282830886680537e-02,-1.013282830886680537e-02,-1.013282830886680537e-02,-1.013282830886680537e-02
-1.013282830886680537e-02,-1.013282830886680537e-02,-1.013282830886680537e-02,-1.013282830886680537e-02,-1.013282830886680537e-02,-1.013282830886680537e-02,-1.013282830886680537e-02,-1.013282830886680537e-02,-9.749514080077436792e-03,-9.216207326979183878e-03,-8.682900573880930964e-03,-8.149593820782678050e-03,-7.616287067684425136e-03,-7.082980314586172221e-03,-6.549673561487918440e-03,-6.016366808389666393e-03,-5.483060055291413479e-03,-4.949753302193160565e-03,-4.433112385129228325e-03,-3.899805632030975411e-03,-3.366498878932722497e-03,-2.833192125834469582e-03,-2.299885372736216668e-03,-1.766578619637963754e-03,-1.233271866539712575e-03,-6.999651134414579257e-04,-1.666583603432067462e-04,-1.734723475976807094e-18,-1.734723475976807094e-18,-5.115129675149123617e-04,-1.290961298966204415e-03,-2.070409630417498204e-03,-2.849857961868790257e-03,-3.629306293320083178e-03,-4.408754624771375231e-03,-5.188202956222668152e-03,-5.967651287673960206e-03,-6.747099619125253994e-03,-7.526547950576546048e-03,-8.281638521669985875e-03,-9.061086853121277929e-03,-9.840535184572569982e-03,-1.013282830886680537e-02,-1.013282830886680537e-02,-1.013282830886680537e-02,-1.013282830886680537e-02,-1.013282830886680537e-02
-1.013282830886680537e-02,-1.013282830886680537e-02,-1.013282830886680537e-02,-1.013282830886680537e-02,-1.013282830886680537e-02,-1.013282830886680537e-02,-1.013282830886680537e-02,-1.013282830886680537e-02,-9.782845752146076407e-03,-9.249538999047823493e-03,-8.716232245949570578e-03,-8.182925492851319399e-03,-7.649618739753066485e-03,-7.132977822689133378e-03,-6.599671069590879596e-03,-6.066364316492627549e-03,-5.533057563394374635e-03,-4.999750810296122588e-03,-4.466444057197868807e-03,-3.933137304099616760e-03,-3.399830551001363846e-03,-2.866523797903110064e-03,-2.333217044804858017e-03,-1.799910291706605103e-03,-1.283269374642672864e-03,-7.499626215444199495e-04,-2.166558684461670353e-04,-1.734723475976807094e-18,-1.734723475976807094e-18,-4.627974467992044399e-04,-1.242245778250499963e-03,-2.021694109701792016e-03,-2.801142441153084070e-03,-3.580590772604376124e-03,-4.335681343697815951e-03,-5.115129675149108872e-03,-5.894578006600401793e-03,-6.674026338051693846e-03,-7.453474669502986767e-03,-8.232923000954279688e-03,-9.012371332405571742e-03,-9.791819663856865530e-03,-1.013282830886680537e-02,-1.013282830886680537e-02,-1.013282830886680537e-02,-1.013282830886680537e-02,-1.013282830886680537e-02
-1.013282830886680537e-02,-1.013282830886680537e-02,-1.013282830886680537e-02,-1.013282830886680537e-02,-1.013282830886680537e-02,-1.013282830886680537e-02,-1.013282830886680537e-02,-1.013282830886680537e-02,-9.832843260249038431e-03,-9.299536507150785516e-03,-8.766229754052532602e-03,-8.232923000954279688e-03,-7.699616247856026774e-03,-7.166309494757773860e-03,-6.633002741659520946e-03,-6.099695988561268031e-03,-5.566389235463015117e-03,-5.033082482364763070e-03,-4.499775729266509289e-03,-3.983134812202577049e-03,-3.449828059104324135e-03,-2.916521306006071221e-03,-2.383214552907819174e-03,-1.849907799809567127e-03,-1.316601046711312478e-03,-7.832942936130612988e-04,-2.499875405148066498e-04,-1.734723475976807094e-18,0.000000000000000000e+00,-3.897241657256477615e-04,-1.169172497176939815e-03,-1.948620828628233603e-03,-2.728069160079525657e-03,-3.507517491530817710e-03,-4.286965822982111499e-03,-5.066414154433403552e-03,-5.845862485884695606e-03,-6.625310817335988527e-03,-7.404759148787281448e-03,-8.184207480238573501e-03,-8.939298051332013328e-03,-9.718746382783305382e-03,-1.013282830886680537e-02,-1.013282830886680537e-02,-1.013282830886680537e-02,-1.013282830886680537e-02,-1.013282830886680537e-02
-1.013282830886680537e-02,-1.013282830886680537e-02,-1.013282830886680537e-02,-1.013282830886680537e-02,-1.013282830886680537e-02,-1.013282830886680537e-02,-1.013282830886680537e-02,-1.013282830886680537e-02,-9.866174932317679780e-03,-9.332868179219426866e-03,-8.799561426121173952e-03,-8.266254673022921037e-03,-7.732947919924668123e-03,-7.199641166826415209e-03,-6.683000249762482102e-03,-6.149693496664230055e-03,-5.616386743565977141e-03,-5.083079990467724227e-03,-4.549773237369471313e-03,-4.016466484271218398e-03,-3.483159731172965484e-03,-2.949852978074712570e-03,-2.416546224976459656e-03,-1.883239471878206742e-03,-1.366598554814274502e-03,-8.332918017160215879e-04,-2.999850486177686737e-04,-1.734723475976807094e-18,-3.469446951953614189e-18,-3.410086450099415745e-04,-1.120456976461235363e-03,-1.899905307912527416e-03,-2.679353639363819470e-03,-3.458801970815113258e-03,-4.238250302266405312e-03,-4.993340873359845139e-03,-5.772789204811137193e-03,-6.552237536262430113e-03,-7.331685867713723034e-03,-8.111134199165015088e-03,-8.890582530616307141e-03,-9.670030862067600930e-03,-1.013282830886680537e-02,-1.013282830886680537e-02,-1.013282830886680537e-02,-1.013282830886680537e-02,-1.013282830886680537e-02
-1.013282830886680537e-02,-1.013282830886680537e-02,-1.013282830886680537e-02,-1.013282830886680537e-02,-1.013282830886680537e-02,-1.013282830886680537e-02,-1.013282830886680537e-02,-1.013282830886680537e-02,-9.899506604386319394e-03,-9.382865687322387155e-03,-8.849558934224134241e-03,-8.316252181125881326e-03,-7.782945428027629280e-03,-7.249638674929375498e-03,-6.716331921831123451e-03,-6.183025168732869670e-03,-5.649718415634617623e-03,-5.116411662536364709e-03,-4.583104909438111794e-03,-4.066463992374178688e-03,-3.533157239275925773e-03,-2.999850486177673727e-03,-2.466543733079420812e-03,-1.933236979981168766e-03,-1.399930226882915851e-03,-8.666234737846629371e-04,-3.333167206864100229e-04,-1.734723475976807094e-18,-1.734723475976807094e-18,-2.922931242942353874e-04,-1.047383695387675215e-03,-1.826832026838969003e-03,-2.606280358290261057e-03,-3.385728689741553110e-03,-4.165177021192846898e-03,-4.944625352644138952e-03,-5.724073684095431006e-03,-6.503522015546724794e-03,-7.282970346998016847e-03,-8.062418678449308901e-03,-8.817509249542748728e-03,-9.596957580994042517e-03,-1.013282830886680537e-02,-1.013282830886680537e-02,-1.013282830886680537e-02,-1.013282830886680537e-02,-1.013282830886680537e-02
-1.013282830886680537e-02,-1.013282830886680537e-02,-1.013282830886680537e-02,-1.013282830886680537e-02,-1.013282830886680537e-02,-1.013282830886680537e-02,-1.013282830886680537e-02,-1.013282830886680537e-02,-9.949504112489281418e-03,-9.416197359391028504e-03,-8.882890606292775590e-03,-8.349583853194522676e-03,-7.816277100096269762e-03,-7.282970346998016847e-03,-6.766329429934084608e-03,-6.233022676835831694e-03,-5.699715923737578779e-03,-5.166409170639325865e-03,-4.633102417541072951e-03,-4.099795664442820037e-03,-3.566488911344567123e-03,-3.033182158246314208e-03,-2.499875405148061294e-03,-1.966568652049808380e-03,-1.433261898951555466e-03,-9.166209818876232263e-04,-3.833142287893720468e-04,-1.734723475976807094e-18,-3.469446951953614189e-18,-2.192198432206787090e-04,-9.986681746719707625e-04,-1.778116506123262816e-03,-2.557564837574554870e-03,-3.337013169025846923e-03,-4.116461500477140711e-03,-4.871552071570580539e-03,-5.651000403021872592e-03,-6.546148096172967057e-03,-7.483921869950302917e-03,-8.324264602296228138e-03,-9.109802373836984116e-03,-9.730925262962233230e-03,-1.013282830886680537e-02,-1.013282830886680537e-02,-1.013282830886680537e-02,-1.013282830886680537e-02,-1.013282830886680537e-02
-1.013282830886680537e-02,-1.013282830886680537e-02,-1.013282830886680537e-02,-1.013282830886680537e-02,-1.013282830886680537e-02,-1.013282830886680537e-02,-1.013282830886680537e-02,-1.013282830886680537e-02,-9.982835784557921033e-03,-9.466194867493988793e-03,-8.932888114395735879e-03,-8.399581361297484700e-03,-7.866274608199230051e-03,-7.332967855100978004e-03,-6.799661102002725090e-03,-6.266354348904472175e-03,-5.733047595806220129e-03,-5.199740842707967214e-03,-4.666434089609713433e-03,-4.133127336511461386e-03,-3.616486419447528279e-03,-3.083179666349276232e-03,-2.549872913251022451e-03,-2.016566160152770404e-03,-1.483259407054517490e-03,-1.810847246604126853e-03,-1.934799402109386654e-03,-2.533207077216702643e-03,-3.166508846520877871e-03,-4.217698441964466520e-03,-5.241485557005470981e-03,-6.445672334696823588e-03,-7.264702026729626810e-03,-8.200953440484597123e-03,-8.800763289296725106e-03,-9.303142096677440714e-03,-9.849669344706765001e-03,-1.013282830886680537e-02,-1.013282830886680537e-02,-1.013282830886680537e-02,-1.013282830886680537e-02,-1.013282830886680537e-02,-1.013282830886680537e-02,-1.013282830886680537e-02,-1.013282830886680537e-02,-1.013282830886680537e-02,-1.013282830886680537e-02
