-4.618890811609550201e-02,-4.618890811609550201e-02,-4.618890811609550201e-02,-4.618890811609550201e-02,-4.618890811609550201e-02,-4.618890811609550201e-02,-4.618890811609550201e-02,-4.618890811609550201e-02,-4.618890811609550201e-02,-4.618890811609550201e-02,-4.618890811609550201e-02,-4.618890811609550201e-02,-4.618890811609550201e-02,-4.618890811609550201e-02,-4.618890811609550201e-02,-4.618890811609550201e-02,-4.618890811609550201e-02,-4.618890811609550201e-02,-4.618890811609550201e-02,-4.618890811609550201e-02,-4.618890811609550201e-02,-4.618890811609550201e-02,-4.618890811609550201e-02,-4.618890811609550201e-02,-4.618890811609550201e-02,-4.618890811609550201e-02,-4.618890811609550201e-02,-4.618890811609550201e-02,-4.618890811609550201e-02,-4.618890811609550201e-02,-4.618890811609550201e-02,-4.618890811609550201e-02,-4.618890811609550201e-02,-4.618890811609550201e-02,-4.618890811609550201e-02,-4.618890811609550201e-02,-4.618890811609550201e-02,-4.618890811609550201e-02,-4.618890811609550201e-02,-4.618890811609550201e-02,-4.618890811609550201e-02,-4.618890811609550201e-02,-4.618890811609550201e-02,-4.618890811609550201e-02,-4.618890811609550201e-02,-4.618890811609550201e-02,-4.618890811609550201e-02
-4.618890811609550201e-02,-4.618890811609550201e-02,-4.618890811609550201e-02,-4.618890811609550201e-02,-4.618890811609550201e-02,-4.618890811609550201e-02,-4.618890811609550201e-02,-4.618890811609550201e-02,-4.618890811609550201e-02,-4.618890811609550201e-02,-4.168954914677858170e-02,-4.582805727143850899e-02,-4.618890811609550201e-02,-4.618890811609550201e-02,-4.618890811609550201e-02,-4.618890811609550201e-02,-4.618890811609550201e-02,-4.618890811609550201e-02,-4.618890811609550201e-02,-4.618890811609550201e-02,-4.618890811609550201e-02,-4.618890811609550201e-02,-4.618890811609550201e-02,-4.618890811609550201e-02,-4.618890811609550201e-02,-4.618890811609550201e-02,-4.618890811609550201e-02,-4.618890811609550201e-02,-4.618890811609550201e-02,-4.618890811609550201e-02,-4.618890811609550201e-02,-4.618890811609550201e-02,-4.618890811609550201e-02,-4.618890811609550201e-02,-4.618890811609550201e-02,-4.618890811609550201e-02,-4.618890811609550201e-02,-4.618890811609550201e-02,-4.618890811609550201e-02,-4.618890811609550201e-02,-4.618890811609550201e-02,-4.618890811609550201e-02,-4.618890811609550201e-02,-4.618890811609550201e-02,-4.618890811609550201e-02,-4.618890811609550201e-02,-4.618890811609550201e-02
-4.618890811609550201e-02,-4.618890811609550201e-02,-4.618890811609550201e-02,-4.618890811609550201e-02,-4.618890811609550201e-02,-4.618890811609550201e-02,-4.618890811609550201e-02,-4.618890811609550201e-02,-4.618890811609550201e-02,-3.680678615501360718e-02,-2.995062010653067736e-02,-3.644593531035660722e-02,-4.330210135883953704e-02,-4.618890811609550201e-02,-4.618890811609550201e-02,-4.618890811609550201e-02,-4.618890811609550201e-02,-4.618890811609550201e-02,-4.618890811609550201e-02,-4.618890811609550201e-02,-4.618890811609550201e-02,-4.618890811609550201e-02,-4.618890811609550201e-02,-4.618890811609550201e-02,-4.618890811609550201e-02,-4.618890811609550201e-02,-4.618890811609550201e-02,-4.618890811609550201e-02,-4.618890811609550201e-02,-4.618890811609550201e-02,-4.618890811609550201e-02,-4.618890811609550201e-02,-4.618890811609550201e-02,-4.618890811609550201e-02,-4.618890811609550201e-02,-4.618890811609550201e-02,-4.618890811609550201e-02,-4.618890811609550201e-02,-4.618890811609550201e-02,-4.618890811609550201e-02,-4.618890811609550201e-02,-4.618890811609550201e-02,-4.618890811609550201e-02,-4.618890811609550201e-02,-4.618890811609550201e-02,-4.618890811609550201e-02,-4.618890811609550201e-02
-4.618890811609550201e-02,-4.618890811609550201e-02,-4.618890811609550201e-02,-4.618890811609550201e-02,-4.618890811609550201e-02,-4.618890811609550201e-02,-4.618890811609550201e-02,-4.618890811609550201e-02,-3.881401897841814386e-02,-1.371233209696585964e-02,-2.056849814544878252e-02,-2.706381334927471238e-02,-3.391997939775763526e-02,-4.041529460158356513e-02,-4.618890811609550201e-02,-4.618890811609550201e-02,-4.618890811609550201e-02,-4.618890811609550201e-02,-4.618890811609550201e-02,-4.618890811609550201e-02,-4.618890811609550201e-02,-4.618890811609550201e-02,-4.618890811609550201e-02,-4.618890811609550201e-02,-4.618890811609550201e-02,-4.618890811609550201e-02,-4.618890811609550201e-02,-4.618890811609550201e-02,-4.618890811609550201e-02,-4.618890811609550201e-02,-4.618890811609550201e-02,-4.618890811609550201e-02,-4.618890811609550201e-02,-4.618890811609550201e-02,-4.618890811609550201e-02,-4.618890811609550201e-02,-4.618890811609550201e-02,-4.618890811609550201e-02,-4.618890811609550201e-02,-4.618890811609550201e-02,-4.618890811609550201e-02,-4.618890811609550201e-02,-4.618890811609550201e-02,-4.618890811609550201e-02,-4.618890811609550201e-02,-4.618890811609550201e-02,-4.618890811609550201e-02
-4.618890811609550201e-02,-4.618890811609550201e-02,-4.618890811609550201e-02,-4.618890811609550201e-02,-4.618890811609550201e-02,-4.618890811609550201e-02,-4.618890811609550201e-02,-4.618890811609550201e-02,-1.154722702902388071e-02,-4.330210135883957867e-03,-1.082552533970988773e-02,-1.768169138819281061e-02,-2.453785743667573696e-02,-3.103317264050166682e-02,-3.788933868898459317e-02,-4.438465389281052303e-02,-4.618890811609550201e-02,-4.618890811609550201e-02,-4.618890811609550201e-02,-3.406327545920950217e-01,-3.406327545920950217e-01,-3.406327545920950217e-01,-4.618890811609550201e-02,-4.618890811609550201e-02,-4.618890811609550201e-02,-4.618890811609550201e-02,-4.618890811609550201e-02,-4.618890811609550201e-02,-4.618890811609550201e-02,-4.618890811609550201e-02,-4.618890811609550201e-02,-4.618890811609550201e-02,-4.618890811609550201e-02,-4.618890811609550201e-02,-4.618890811609550201e-02,-4.618890811609550201e-02,-4.618890811609550201e-02,-4.618890811609550201e-02,-4.618890811609550201e-02,-4.618890811609550201e-02,-4.618890811609550201e-02,-4.618890811609550201e-02,-4.618890811609550201e-02,-4.618890811609550201e-02,-4.618890811609550201e-02,-4.618890811609550201e-02,-4.618890811609550201e-02
-4.618890811609550201e-02,-4.618890811609550201e-02,-4.618890811609550201e-02,-4.618890811609550201e-02,-4.618890811609550201e-02,-4.618890811609550201e-02,-4.618890811609550201e-02,-2.165105067941976852e-02,-6.938893903907228378e-18,-6.938893903907228378e-18,-1.443403378627992895e-03,-8.299569427110915776e-03,-1.479488463093684564e-02,-2.165105067941976852e-02,-2.850721672790269487e-02,-3.500253193172862820e-02,-4.185869798021155108e-02,-4.618890811609550201e-02,-4.618890811609550201e-02,-3.406327545920950217e-01,-3.406327545920950217e-01,-3.406327545920950217e-01,-4.618890811609550201e-02,-4.618890811609550201e-02,-4.618890811609550201e-02,-4.618890811609550201e-02,-4.618890811609550201e-02,-4.618890811609550201e-02,-4.618890811609550201e-02,-4.618890811609550201e-02,-4.618890811609550201e-02,-4.618890811609550201e-02,-4.618890811609550201e-02,-4.618890811609550201e-02,-4.618890811609550201e-02,-4.618890811609550201e-02,-4.618890811609550201e-02,-4.618890811609550201e-02,-4.618890811609550201e-02,-4.618890811609550201e-02,-4.618890811609550201e-02,-4.618890811609550201e-02,-4.618890811609550201e-02,-4.618890811609550201e-02,-4.618890811609550201e-02,-4.618890811609550201e-02,-4.618890811609550201e-02
-4.618890811609550201e-02,-4.618890811609550201e-02,-4.618890811609550201e-02,-4.618890811609550201e-02,-4.618890811609550201e-02,-4.618890811609550201e-02,-3.319827770844364229e-02,-6.938893903907228378e-18,-6.938893903907228378e-18,-6.938893903907228378e-18,-6.938893903907228378e-18,-6.938893903907228378e-18,-5.412762669854950803e-03,-1.226892871833787368e-02,-1.876424392216380355e-02,-2.562040997064672643e-02,-3.247657601912964931e-02,-3.897189122295557917e-02,-2.845877582177578358e-01,-5.793924555384144526e-01,-5.793924555384144526e-01,-5.793924555384144526e-01,-4.618890811609550201e-02,-4.618890811609550201e-02,-4.618890811609550201e-02,-4.618890811609550201e-02,-4.618890811609550201e-02,-4.618890811609550201e-02,-4.618890811609550201e-02,-4.618890811609550201e-02,-4.618890811609550201e-02,-4.618890811609550201e-02,-4.618890811609550201e-02,-4.618890811609550201e-02,-4.618890811609550201e-02,-4.618890811609550201e-02,-4.618890811609550201e-02,-4.618890811609550201e-02,-4.618890811609550201e-02,-4.618890811609550201e-02,-4.618890811609550201e-02,-4.618890811609550201e-02,-4.618890811609550201e-02,-4.618890811609550201e-02,-4.618890811609550201e-02,-4.618890811609550201e-02,-4.618890811609550201e-02
-4.618890811609550201e-02,-4.618890811609550201e-02,-4.618890811609550201e-02,-4.618890811609550201e-02,-4.618890811609550201e-02,-4.330210135883953704e-02,-5.773613514511943823e-03,-6.938893903907228378e-18,-6.938893903907228378e-18,-6.938893903907228378e-18,-6.938893903907228378e-18,-6.938893903907228378e-18,-1.387778780781445676e-17,-2.886806757255971911e-03,-9.382121961081901773e-03,-1.623828800956482812e-02,-2.273360321339075799e-02,-2.958976926187368434e-02,-2.752056362566759340e-01,-2.817009514605018916e-01,-2.849486090624148149e-01,-2.849486090624148149e-01,-4.618890811609550201e-02,-4.618890811609550201e-02,-4.618890811609550201e-02,-4.618890811609550201e-02,-4.618890811609550201e-02,-4.618890811609550201e-02,-4.618890811609550201e-02,-4.618890811609550201e-02,-4.618890811609550201e-02,-4.618890811609550201e-02,-4.618890811609550201e-02,-4.618890811609550201e-02,-4.618890811609550201e-02,-4.618890811609550201e-02,-4.618890811609550201e-02,-4.618890811609550201e-02,-4.618890811609550201e-02,-4.618890811609550201e-02,-4.618890811609550201e-02,-4.618890811609550201e-02,-4.618890811609550201e-02,-4.618890811609550201e-02,-4.618890811609550201e-02,-4.618890811609550201e-02,-4.618890811609550201e-02
-4.618890811609550201e-02,-4.618890811609550201e-02,-4.618890811609550201e-02,-4.618890811609550201e-02,-4.618890811609550201e-02,-1.732084054353581759e-02,-6.938893903907228378e-18,-6.938893903907228378e-18,-6.938893903907228378e-18,-6.938893903907228378e-18,-6.938893903907228378e-18,-6.938893903907228378e-18,-6.938893903907228378e-18,-6.938893903907228378e-18,-6.938893903907228378e-18,-6.856166048482929820e-03,-1.335148125230886662e-02,-2.020764730079178603e-02,-2.654626634509370531e-01,-2.723188294994199898e-01,-2.791749955479028711e-01,-2.849486090624148149e-01,-4.618890811609550201e-02,-4.618890811609550201e-02,-4.618890811609550201e-02,-4.618890811609550201e-02,-4.618890811609550201e-02,-4.618890811609550201e-02,-4.618890811609550201e-02,-4.618890811609550201e-02,-4.618890811609550201e-02,-4.618890811609550201e-02,-4.618890811609550201e-02,-4.618890811609550201e-02,-4.618890811609550201e-02,-4.618890811609550201e-02,-4.618890811609550201e-02,-4.618890811609550201e-02,-4.618890811609550201e-02,-4.618890811609550201e-02,-4.618890811609550201e-02,-4.618890811609550201e-02,-4.618890811609550201e-02,-4.618890811609550201e-02,-4.618890811609550201e-02,-4.618890811609550201e-02,-4.618890811609550201e-02
-4.618890811609550201e-02,-4.618890811609550201e-02,-4.618890811609550201e-02,-4.618890811609550201e-02,-2.742466419393170540e-02,-6.938893903907228378e-18,-6.938893903907228378e-18,-6.938893903907228378e-18,-1.387778780781445676e-17,-6.938893903907228378e-18,-6.938893903907228378e-18,-6.938893903907228378e-18,-6.938893903907228378e-18,-6.938893903907228378e-18,0.000000000000000000e+00,-6.938893903907228378e-18,-3.969359291226964848e-03,-1.082552533970989467e-02,-2.560805414898551513e-01,-2.629367075383380881e-01,-2.694320227421639902e-01,-2.762881887906469269e-01,-4.438465389281052303e-02,-4.618890811609550201e-02,-4.618890811609550201e-02,-4.618890811609550201e-02,-4.618890811609550201e-02,-4.618890811609550201e-02,-4.618890811609550201e-02,-4.618890811609550201e-02,-4.618890811609550201e-02,-4.618890811609550201e-02,-4.618890811609550201e-02,-4.618890811609550201e-02,-4.618890811609550201e-02,-4.618890811609550201e-02,-4.618890811609550201e-02,-4.618890811609550201e-02,-4.618890811609550201e-02,-4.618890811609550201e-02,-4.618890811609550201e-02,-4.618890811609550201e-02,-4.618890811609550201e-02,-4.618890811609550201e-02,-4.618890811609550201e-02,-4.618890811609550201e-02,-4.618890811609550201e-02
-4.618890811609550201e-02,-4.618890811609550201e-02,-4.618890811609550201e-02,-3.897189122295557917e-02,-1.443403378627992895e-03,-6.938893903907228378e-18,-6.938893903907228378e-18,-6.938893903907228378e-18,-6.938893903907228378e-18,-6.938893903907228378e-18,-1.387778780781445676e-17,-6.938893903907228378e-18,-6.938893903907228378e-18,-6.938893903907228378e-18,-6.938893903907228378e-18,-6.938893903907228378e-18,-6.938893903907228378e-18,-1.443403378627992895e-03,-7.938718582453922756e-03,-1.479488463093684564e-02,-2.129019983476277550e-02,-2.814636588324569838e-02,-3.500253193172862820e-02,-4.149784713555455112e-02,-4.618890811609550201e-02,-4.618890811609550201e-02,-4.618890811609550201e-02,-4.618890811609550201e-02,-4.618890811609550201e-02,-4.618890811609550201e-02,-4.618890811609550201e-02,-4.618890811609550201e-02,-4.618890811609550201e-02,-4.618890811609550201e-02,-4.618890811609550201e-02,-4.618890811609550201e-02,-4.618890811609550201e-02,-4.618890811609550201e-02,-4.618890811609550201e-02,-4.618890811609550201e-02,-4.618890811609550201e-02,-4.618890811609550201e-02,-4.618890811609550201e-02,-4.618890811609550201e-02,-4.618890811609550201e-02,-4.618890811609550201e-02,-4.618890811609550201e-02
-4.618890811609550201e-02,-4.618890811609550201e-02,-4.618890811609550201e-02,-1.154722702902388071e-02,-6.938893903907228378e-18,-6.938893903907228378e-18,-6.938893903907228378e-18,-6.938893903907228378e-18,-6.938893903907228378e-18,-6.938893903907228378e-18,-6.938893903907228378e-18,-6.938893903907228378e-18,-6.938893903907228378e-18,-6.938893903907228378e-18,-1.387778780781445676e-17,0.000000000000000000e+00,-6.938893903907228378e-18,-1.387778780781445676e-17,-6.938893903907228378e-18,-5.412762669854943864e-03,-1.190807787368088067e-02,-1.876424392216380008e-02,-2.525955912598972994e-02,-3.211572517447265629e-02,-3.897189122295557917e-02,-4.546720642678150903e-02,-4.618890811609550201e-02,-4.618890811609550201e-02,-4.618890811609550201e-02,-4.618890811609550201e-02,-4.618890811609550201e-02,-4.618890811609550201e-02,-4.618890811609550201e-02,-4.618890811609550201e-02,-4.618890811609550201e-02,-4.618890811609550201e-02,-4.618890811609550201e-02,-4.618890811609550201e-02,-4.618890811609550201e-02,-4.618890811609550201e-02,-4.618890811609550201e-02,-4.618890811609550201e-02,-4.618890811609550201e-02,-4.618890811609550201e-02,-4.618890811609550201e-02,-4.618890811609550201e-02,-4.618890811609550201e-02
-4.618890811609550201e-02,-4.618890811609550201e-02,-2.309445405804775447e-02,-6.938893903907228378e-18,-6.938893903907228378e-18,-1.387778780781445676e-17,0.000000000000000000e+00,-6.938893903907228378e-18,-6.938893903907228378e-18,-6.938893903907228378e-18,-6.938893903907228378e-18,-6.938893903907228378e-18,-6.938893903907228378e-18,0.000000000000000000e+00,-6.938893903907228378e-18,-6.938893903907228378e-18,-6.938893903907228378e-18,-6.938893903907228378e-18,-6.938893903907228378e-18,-6.938893903907228378e-18,-2.525955912598971953e-03,-9.382121961081908712e-03,-1.587743716490783163e-02,-2.273360321339075799e-02,-2.922891841721668785e-02,-3.608508446569961420e-02,-4.294125051418253708e-02,-4.618890811609550201e-02,-4.618890811609550201e-02,-4.618890811609550201e-02,-4.618890811609550201e-02,-4.618890811609550201e-02,-4.618890811609550201e-02,-4.618890811609550201e-02,-4.618890811609550201e-02,-4.618890811609550201e-02,-4.618890811609550201e-02,-4.618890811609550201e-02,-4.618890811609550201e-02,-4.618890811609550201e-02,-4.618890811609550201e-02,-4.618890811609550201e-02,-4.618890811609550201e-02,-4.618890811609550201e-02,-4.618890811609550201e-02,-4.618890811609550201e-02,-4.618890811609550201e-02
-4.618890811609550201e-02,-3.319827770844364229e-02,-6.938893903907228378e-18,-6.938893903907228378e-18,-6.938893903907228378e-18,-6.938893903907228378e-18,-6.938893903907228378e-18,-6.938893903907228378e-18,-6.938893903907228378e-18,-6.938893903907228378e-18,-6.938893903907228378e-18,0.000000000000000000e+00,-6.938893903907228378e-18,-6.938893903907228378e-18,-6.938893903907228378e-18,-6.938893903907228378e-18,0.000000000000000000e+00,-6.938893903907228378e-18,-6.938893903907228378e-18,-6.938893903907228378e-18,-6.938893903907228378e-18,-6.938893903907228378e-18,-6.495315203825936801e-03,-1.335148125230885968e-02,-1.984679645613478954e-02,-2.670296250461771589e-02,-3.319827770844364229e-02,-4.005444375692657211e-02,-4.618890811609550201e-02,-4.618890811609550201e-02,-4.618890811609550201e-02,-4.618890811609550201e-02,-4.618890811609550201e-02,-4.618890811609550201e-02,-4.618890811609550201e-02,-4.618890811609550201e-02,-4.618890811609550201e-02,-4.618890811609550201e-02,-4.618890811609550201e-02,-4.618890811609550201e-02,-4.618890811609550201e-02,-4.618890811609550201e-02,-4.618890811609550201e-02,-4.618890811609550201e-02,-4.618890811609550201e-02,-4.618890811609550201e-02,-4.618890811609550201e-02
-4.474550473746751605e-02,-7.217016893139922840e-03,0.000000000000000000e+00,-6.938893903907228378e-18,-1.387778780781445676e-17,-6.938893903907228378e-18,-6.938893903907228378e-18,-6.938893903907228378e-18,-6.938893903907228378e-18,0.000000000000000000e+00,-6.938893903907228378e-18,-6.938893903907228378e-18,0.000000000000000000e+00,-6.938893903907228378e-18,-6.938893903907228378e-18,-6.938893903907228378e-18,-6.938893903907228378e-18,0.000000000000000000e+00,-6.938893903907228378e-18,-6.938893903907228378e-18,-6.938893903907228378e-18,-6.938893903907228378e-18,-6.938893903907228378e-18,-3.969359291226964848e-03,-1.046467449505288777e-02,-1.732084054353581759e-02,-2.381615574736174398e-02,-3.067232179584467033e-02,-3.716763699967060020e-02,-4.402380304815352308e-02,-4.618890811609550201e-02,-4.618890811609550201e-02,-4.618890811609550201e-02,-4.618890811609550201e-02,-4.618890811609550201e-02,-4.618890811609550201e-02,-4.618890811609550201e-02,-4.618890811609550201e-02,-4.618890811609550201e-02,-4.618890811609550201e-02,-4.618890811609550201e-02,-4.618890811609550201e-02,-4.618890811609550201e-02,-4.618890811609550201e-02,-4.618890811609550201e-02,-4.618890811609550201e-02,-4.618890811609550201e-02
-1.732084054353581759e-02,-6.938893903907228378e-18,-6.938893903907228378e-18,-6.938893903907228378e-18,-6.938893903907228378e-18,-6.938893903907228378e-18,-6.938893903907228378e-18,-6.938893903907228378e-18,-6.938893903907228378e-18,-6.938893903907228378e-18,-6.938893903907228378e-18,-6.938893903907228378e-18,0.000000000000000000e+00,-6.938893903907228378e-18,-6.938893903907228378e-18,-6.938893903907228378e-18,-6.938893903907228378e-18,-6.938893903907228378e-18,-6.938893903907228378e-18,-6.938893903907228378e-18,-6.938893903907228378e-18,-6.938893903907228378e-18,-6.938893903907228378e-18,-6.938893903907228378e-18,-1.082552533970992936e-03,-7.938718582453922756e-03,-1.443403378627985262e-02,-2.129019983476277203e-02,-2.778551503858870189e-02,-3.464168108707162824e-02,-4.113699629089755810e-02,-4.618890811609550201e-02,-4.618890811609550201e-02,-4.618890811609550201e-02,-4.618890811609550201e-02,-4.618890811609550201e-02,-4.618890811609550201e-02,-4.618890811609550201e-02,-4.618890811609550201e-02,-4.618890811609550201e-02,-4.618890811609550201e-02,-4.618890811609550201e-02,-4.618890811609550201e-02,-4.618890811609550201e-02,-4.618890811609550201e-02,-4.618890811609550201e-02,-4.618890811609550201e-02
-6.938893903907228378e-18,-6.938893903907228378e-18,-6.938893903907228378e-18,-6.938893903907228378e-18,-6.938893903907228378e-18,-6.938893903907228378e-18,-6.938893903907228378e-18,-6.938893903907228378e-18,-6.938893903907228378e-18,0.000000000000000000e+00,0.000000000000000000e+00,-6.938893903907228378e-18,-6.938893903907228378e-18,-6.938893903907228378e-18,-6.938893903907228378e-18,-6.938893903907228378e-18,-6.938893903907228378e-18,-6.938893903907228378e-18,-6.938893903907228378e-18,-6.938893903907228378e-18,-6.938893903907228378e-18,-6.938893903907228378e-18,-6.938893903907228378e-18,-6.938893903907228378e-18,-6.938893903907228378e-18,-6.938893903907228378e-18,-5.051911825197957784e-03,-1.190807787368088067e-02,-1.840339307750680359e-02,-2.525955912598972647e-02,-3.175487432981566327e-02,-3.861104037829858615e-02,-4.510635558212451601e-02,-4.618890811609550201e-02,-4.618890811609550201e-02,-4.618890811609550201e-02,-4.618890811609550201e-02,-4.618890811609550201e-02,-4.618890811609550201e-02,-4.618890811609550201e-02,-4.618890811609550201e-02,-4.618890811609550201e-02,-4.618890811609550201e-02,-4.618890811609550201e-02,-4.618890811609550201e-02,-4.618890811609550201e-02,-4.618890811609550201e-02
-6.938893903907228378e-18,0.000000000000000000e+00,-6.938893903907228378e-18,-1.387778780781445676e-17,-6.938893903907228378e-18,0.000000000000000000e+00,-1.387778780781445676e-17,-6.938893903907228378e-18,-6.938893903907228378e-18,-6.938893903907228378e-18,0.000000000000000000e+00,-1.387778780781445676e-17,-6.938893903907228378e-18,-1.387778780781445676e-17,-6.938893903907228378e-18,-6.938893903907228378e-18,-6.938893903907228378e-18,-6.938893903907228378e-18,-6.938893903907228378e-18,-6.938893903907228378e-18,-6.938893903907228378e-18,-6.938893903907228378e-18,-1.387778780781445676e-17,-6.938893903907228378e-18,-6.938893903907228378e-18,-6.938893903907228378e-18,-6.938893903907228378e-18,-2.525955912598971953e-03,-9.021271116424908754e-03,-1.587743716490783163e-02,-2.237275236873376150e-02,-2.922891841721668785e-02,-3.572423362104261424e-02,-4.258039966952554406e-02,-4.618890811609550201e-02,-4.618890811609550201e-02,-4.618890811609550201e-02,-4.618890811609550201e-02,-4.618890811609550201e-02,-4.618890811609550201e-02,-4.618890811609550201e-02,-4.618890811609550201e-02,-4.618890811609550201e-02,-4.618890811609550201e-02,-4.618890811609550201e-02,-4.618890811609550201e-02,-4.618890811609550201e-02
-6.938893903907228378e-18,-6.938893903907228378e-18,-6.938893903907228378e-18,-6.938893903907228378e-18,-1.387778780781445676e-17,-6.938893903907228378e-18,-6.938893903907228378e-18,-6.938893903907228378e-18,0.000000000000000000e+00,-6.938893903907228378e-18,-6.938893903907228378e-18,-6.938893903907228378e-18,-6.938893903907228378e-18,-1.387778780781445676e-17,-6.938893903907228378e-18,-6.938893903907228378e-18,-6.938893903907228378e-18,-6.938893903907228378e-18,0.000000000000000000e+00,-6.938893903907228378e-18,0.000000000000000000e+00,-6.938893903907228378e-18,-6.938893903907228378e-18,-6.938893903907228378e-18,-6.938893903907228378e-18,-6.938893903907228378e-18,-6.938893903907228378e-18,-6.938893903907228378e-18,-6.938893903907228378e-18,-6.495315203825936801e-03,-1.299063040765185972e-02,-1.984679645613478954e-02,-2.634211165996071941e-02,-3.319827770844364229e-02,-3.969359291226957215e-02,-4.618890811609550201e-02,-4.618890811609550201e-02,-4.618890811609550201e-02,-4.618890811609550201e-02,-4.618890811609550201e-02,-4.618890811609550201e-02,-4.618890811609550201e-02,-4.618890811609550201e-02,-4.618890811609550201e-02,-4.618890811609550201e-02,-4.618890811609550201e-02,-4.618890811609550201e-02
-2.220620582504689855e-04,-6.938893903907228378e-18,-1.387778780781445676e-17,-6.938893903907228378e-18,-6.938893903907228378e-18,-6.938893903907228378e-18,-6.938893903907228378e-18,-6.938893903907228378e-18,-6.938893903907228378e-18,-6.938893903907228378e-18,-6.938893903907228378e-18,-6.938893903907228378e-18,-6.938893903907228378e-18,-6.938893903907228378e-18,-1.387778780781445676e-17,-6.938893903907228378e-18,-6.938893903907228378e-18,-6.938893903907228378e-18,-6.938893903907228378e-18,-6.938893903907228378e-18,-6.938893903907228378e-18,-6.938893903907228378e-18,-6.938893903907228378e-18,-6.938893903907228378e-18,-6.938893903907228378e-18,-6.938893903907228378e-18,-6.938893903907228378e-18,-6.938893903907228378e-18,-6.938893903907228378e-18,-6.938893903907228378e-18,-3.608508446569971828e-03,-1.046467449505288777e-02,-1.695998969887881763e-02,-2.381615574736174398e-02,-3.031147095118767731e-02,-3.716763699967060020e-02,-4.366295220349653006e-02,-4.618890811609550201e-02,-4.618890811609550201e-02,-4.618890811609550201e-02,-4.618890811609550201e-02,-4.618890811609550201e-02,-4.618890811609550201e-02,-4.618890811609550201e-02,-4.618890811609550201e-02,-4.618890811609550201e-02,-4.618890811609550201e-02
-3.108868815506433958e-03,-1.110310291252303294e-03,-6.938893903907228378e-18,-6.938893903907228378e-18,-6.938893903907228378e-18,-6.938893903907228378e-18,-6.938893903907228378e-18,0.000000000000000000e+00,-6.938893903907228378e-18,0.000000000000000000e+00,-6.938893903907228378e-18,-6.938893903907228378e-18,-1.387778780781445676e-17,-6.938893903907228378e-18,-6.938893903907228378e-18,-6.938893903907228378e-18,-6.938893903907228378e-18,-6.938893903907228378e-18,-6.938893903907228378e-18,-6.938893903907228378e-18,-6.938893903907228378e-18,-6.938893903907228378e-18,-6.938893903907228378e-18,-6.938893903907228378e-18,-6.938893903907228378e-18,-6.938893903907228378e-18,-1.387778780781445676e-17,-6.938893903907228378e-18,-6.938893903907228378e-18,-6.938893903907228378e-18,-6.938893903907228378e-18,-1.082552533970992936e-03,-7.577867737796922798e-03,-1.443403378627984568e-02,-2.092934899010577901e-02,-2.778551503858870189e-02,-3.428083024241463522e-02,-4.113699629089755810e-02,-4.618890811609550201e-02,-4.618890811609550201e-02,-4.618890811609550201e-02,-4.618890811609550201e-02,-4.618890811609550201e-02,-4.618890811609550201e-02,-4.618890811609550201e-02,-4.618890811609550201e-02,-4.618890811609550201e-02
-5.995675572762405869e-03,-3.997117048508268267e-03,-1.887527495128910049e-03,-6.938893903907228378e-18,-6.938893903907228378e-18,-6.938893903907228378e-18,-6.938893903907228378e-18,-6.938893903907228378e-18,-6.938893903907228378e-18,-1.387778780781445676e-17,-6.938893903907228378e-18,-6.938893903907228378e-18,-6.938893903907228378e-18,-6.938893903907228378e-18,-6.938893903907228378e-18,-6.938893903907228378e-18,-6.938893903907228378e-18,-6.938893903907228378e-18,-6.938893903907228378e-18,0.000000000000000000e+00,-6.938893903907228378e-18,-6.938893903907228378e-18,-6.938893903907228378e-18,-6.938893903907228378e-18,-6.938893903907228378e-18,-6.938893903907228378e-18,-6.938893903907228378e-18,-6.938893903907228378e-18,-6.938893903907228378e-18,-1.387778780781445676e-17,-6.938893903907228378e-18,-6.938893903907228378e-18,-6.938893903907228378e-18,-5.051911825197950845e-03,-1.154722702902388071e-02,-1.840339307750680359e-02,-2.489870828133273345e-02,-3.175487432981566327e-02,-3.825018953364159313e-02,-4.510635558212451601e-02,-4.618890811609550201e-02,-4.618890811609550201e-02,-4.618890811609550201e-02,-4.618890811609550201e-02,-4.618890811609550201e-02,-4.618890811609550201e-02,-4.618890811609550201e-02
-8.882482330018370842e-03,-6.883923805764247117e-03,-4.774334252384875021e-03,-2.775775728130737419e-03,-6.661861747513792009e-04,-6.938893903907228378e-18,-6.938893903907228378e-18,-6.938893903907228378e-18,-6.938893903907228378e-18,-6.938893903907228378e-18,-1.387778780781445676e-17,-6.938893903907228378e-18,-6.938893903907228378e-18,-6.938893903907228378e-18,-6.938893903907228378e-18,-6.938893903907228378e-18,-6.938893903907228378e-18,-6.938893903907228378e-18,-6.938893903907228378e-18,-6.938893903907228378e-18,-6.938893903907228378e-18,-6.938893903907228378e-18,-6.938893903907228378e-18,-6.938893903907228378e-18,-6.938893903907228378e-18,-6.938893903907228378e-18,-6.938893903907228378e-18,-6.938893903907228378e-18,-6.938893903907228378e-18,-1.387778780781445676e-17,-6.938893903907228378e-18,0.000000000000000000e+00,-1.387778780781445676e-17,-1.387778780781445676e-17,-2.165105067941985872e-03,-9.021271116424908754e-03,-1.551658632025083862e-02,-2.237275236873376150e-02,-2.886806757255969136e-02,-3.572423362104261424e-02,-4.221954882486854410e-02,-4.618890811609550201e-02,-4.618890811609550201e-02,-4.618890811609550201e-02,-4.618890811609550201e-02,-4.618890811609550201e-02,-4.618890811609550201e-02
-1.176928908727433581e-02,-9.770730563020212089e-03,-7.661141009640853872e-03,-5.662582485386716269e-03,-3.552992932007351112e-03,-1.554434407753220448e-03,-6.938893903907228378e-18,-6.938893903907228378e-18,-1.387778780781445676e-17,-6.938893903907228378e-18,0.000000000000000000e+00,-6.938893903907228378e-18,-6.938893903907228378e-18,0.000000000000000000e+00,-6.938893903907228378e-18,-6.938893903907228378e-18,-6.938893903907228378e-18,-6.938893903907228378e-18,-6.938893903907228378e-18,-6.938893903907228378e-18,-6.938893903907228378e-18,-6.938893903907228378e-18,-6.938893903907228378e-18,-6.938893903907228378e-18,0.000000000000000000e+00,-6.938893903907228378e-18,-6.938893903907228378e-18,-1.387778780781445676e-17,-6.938893903907228378e-18,-6.938893903907228378e-18,-1.387778780781445676e-17,-6.938893903907228378e-18,-6.938893903907228378e-18,-6.938893903907228378e-18,-6.938893903907228378e-18,-6.938893903907228378e-18,-6.134464359168943781e-03,-1.299063040765185972e-02,-1.948594561147779305e-02,-2.634211165996071941e-02,-3.283742686378664927e-02,-3.969359291226957215e-02,-4.618890811609550201e-02,-4.618890811609550201e-02,-4.618890811609550201e-02,-4.618890811609550201e-02,-4.618890811609550201e-02
-1.476712687365553528e-02,-1.265753732027617706e-02,-1.054794776689681884e-02,-8.549389242642681241e-03,-6.439799689263329963e-03,-4.441241165009185421e-03,-2.331651611629827203e-03,-3.330930873756965394e-04,-6.938893903907228378e-18,-6.938893903907228378e-18,-6.938893903907228378e-18,0.000000000000000000e+00,-6.938893903907228378e-18,-6.938893903907228378e-18,-6.938893903907228378e-18,-6.938893903907228378e-18,-6.938893903907228378e-18,-6.938893903907228378e-18,-6.938893903907228378e-18,-6.938893903907228378e-18,-6.938893903907228378e-18,-6.938893903907228378e-18,-6.938893903907228378e-18,0.000000000000000000e+00,-6.938893903907228378e-18,-6.938893903907228378e-18,-6.938893903907228378e-18,-6.938893903907228378e-18,-6.938893903907228378e-18,-6.938893903907228378e-18,-6.938893903907228378e-18,-6.938893903907228378e-18,-6.938893903907228378e-18,-6.938893903907228378e-18,-6.938893903907228378e-18,-6.938893903907228378e-18,-6.938893903907228378e-18,-3.608508446569971828e-03,-1.010382365039589475e-02,-1.695998969887882110e-02,-2.345530490270475096e-02,-3.031147095118767731e-02,-3.680678615501360718e-02,-4.366295220349653006e-02,-4.618890811609550201e-02,-4.618890811609550201e-02,-4.618890811609550201e-02
-1.765393363091150719e-02,-1.554434407753214203e-02,-1.354578555327801137e-02,-1.143619599989865315e-02,-9.326606446519294935e-03,-7.328047922265164271e-03,-5.218458368885799115e-03,-3.219899844631654573e-03,-1.110310291252303294e-03,-6.938893903907228378e-18,-6.938893903907228378e-18,-6.938893903907228378e-18,-6.938893903907228378e-18,-6.938893903907228378e-18,-6.938893903907228378e-18,-6.938893903907228378e-18,-6.938893903907228378e-18,-6.938893903907228378e-18,-6.938893903907228378e-18,-6.938893903907228378e-18,-6.938893903907228378e-18,-6.938893903907228378e-18,-6.938893903907228378e-18,-6.938893903907228378e-18,-1.387778780781445676e-17,-6.938893903907228378e-18,-6.938893903907228378e-18,-6.938893903907228378e-18,-6.938893903907228378e-18,-6.938893903907228378e-18,-6.938893903907228378e-18,-6.938893903907228378e-18,-6.938893903907228378e-18,-6.938893903907228378e-18,-6.938893903907228378e-18,-6.938893903907228378e-18,-6.938893903907228378e-18,-6.938893903907228378e-18,-7.217016893140068556e-04,-7.577867737796922798e-03,-1.407318294162285266e-02,-2.092934899010577554e-02,-2.742466419393170887e-02,-3.428083024241462828e-02,-4.077614544624055815e-02,-4.618890811609550201e-02,-4.618890811609550201e-02
-2.054074038816747216e-02,-1.843115083478811395e-02,-1.643259231053397981e-02,-1.432300275715461813e-02,-1.232444423290048746e-02,-1.021485467952112924e-02,-8.105265126141764087e-03,-6.106706601887633423e-03,-3.997117048508268267e-03,-1.998558524254137603e-03,-6.938893903907228378e-18,-6.938893903907228378e-18,0.000000000000000000e+00,-6.938893903907228378e-18,0.000000000000000000e+00,-6.938893903907228378e-18,-6.938893903907228378e-18,0.000000000000000000e+00,-6.938893903907228378e-18,-6.938893903907228378e-18,-6.938893903907228378e-18,-6.938893903907228378e-18,-6.938893903907228378e-18,-6.938893903907228378e-18,-6.938893903907228378e-18,-6.938893903907228378e-18,-1.387778780781445676e-17,-6.938893903907228378e-18,-6.938893903907228378e-18,-6.938893903907228378e-18,-6.938893903907228378e-18,0.000000000000000000e+00,-6.938893903907228378e-18,-1.387778780781445676e-17,-6.938893903907228378e-18,-6.938893903907228378e-18,-6.938893903907228378e-18,-6.938893903907228378e-18,-6.938893903907228378e-18,-6.938893903907228378e-18,-4.691060980540957825e-03,-1.154722702902388071e-02,-1.804254223284981057e-02,-2.489870828133273345e-02,-3.139402348515866331e-02,-3.825018953364158619e-02,-4.474550473746751605e-02
-2.342754714542344061e-02,-2.131795759204408239e-02,-1.931939906778994825e-02,-1.720980951441058657e-02,-1.521125099015645590e-02,-1.310166143677709422e-02,-1.110310291252296355e-02,-8.993513359143605335e-03,-6.883923805764240178e-03,-4.885365281510102575e-03,-2.775775728130744358e-03,-7.772172038766136937e-04,-6.938893903907228378e-18,-6.938893903907228378e-18,-1.387778780781445676e-17,-6.938893903907228378e-18,-6.938893903907228378e-18,-6.938893903907228378e-18,-6.938893903907228378e-18,-6.938893903907228378e-18,-6.938893903907228378e-18,-6.938893903907228378e-18,-1.387778780781445676e-17,-6.938893903907228378e-18,-1.387778780781445676e-17,-6.938893903907228378e-18,-6.938893903907228378e-18,-6.938893903907228378e-18,-6.938893903907228378e-18,-6.938893903907228378e-18,-6.938893903907228378e-18,-6.938893903907228378e-18,-6.938893903907228378e-18,-6.938893903907228378e-18,-6.938893903907228378e-18,-6.938893903907228378e-18,-6.938893903907228378e-18,-6.938893903907228378e-18,-6.938893903907228378e-18,-6.938893903907228378e-18,-6.938893903907228378e-18,-2.165105067941978934e-03,-8.660420271767915734e-03,-1.551658632025083862e-02,-2.201190152407676848e-02,-2.886806757255969136e-02,-3.536338277638562122e-02
-2.631435390267940905e-02,-2.420476434930004736e-02,-2.220620582504592017e-02,-2.009661627166655848e-02,-1.809805774741242435e-02,-1.598846819403306266e-02,-1.398990966977892852e-02,-1.188032011639957031e-02,-9.881761592145439643e-03,-7.772172038766081426e-03,-5.662582485386716269e-03,-3.664023961132578666e-03,-1.554434407753220448e-03,-6.938893903907228378e-18,-6.938893903907228378e-18,-6.938893903907228378e-18,-6.938893903907228378e-18,-6.938893903907228378e-18,0.000000000000000000e+00,-6.938893903907228378e-18,0.000000000000000000e+00,-6.938893903907228378e-18,-6.938893903907228378e-18,-1.387778780781445676e-17,-6.938893903907228378e-18,-6.938893903907228378e-18,-6.938893903907228378e-18,-6.938893903907228378e-18,-6.938893903907228378e-18,-6.938893903907228378e-18,-6.938893903907228378e-18,-6.938893903907228378e-18,-6.938893903907228378e-18,-6.938893903907228378e-18,-1.387778780781445676e-17,-1.387778780781445676e-17,-6.938893903907228378e-18,-6.938893903907228378e-18,-6.938893903907228378e-18,0.000000000000000000e+00,-6.938893903907228378e-18,-6.938893903907228378e-18,-6.938893903907228378e-18,-5.773613514511943823e-03,-1.262977956299486670e-02,-1.948594561147779305e-02,-2.598126081530372292e-02
-2.920116065993537749e-02,-2.709157110655601927e-02,-2.509301258230188514e-02,-2.298342302892252692e-02,-2.098486450466839279e-02,-1.887527495128903110e-02,-1.687671642703490044e-02,-1.476712687365553528e-02,-1.276856834940140462e-02,-1.065897879602204640e-02,-8.660420271767915734e-03,-6.550830718388557516e-03,-4.441241165009192360e-03,-2.442682640755061696e-03,-3.330930873756896005e-04,-6.938893903907228378e-18,-6.938893903907228378e-18,-6.938893903907228378e-18,-6.938893903907228378e-18,-6.938893903907228378e-18,-6.938893903907228378e-18,-6.938893903907228378e-18,-6.938893903907228378e-18,-6.938893903907228378e-18,-6.938893903907228378e-18,-6.938893903907228378e-18,0.000000000000000000e+00,-6.938893903907228378e-18,-6.938893903907228378e-18,-6.938893903907228378e-18,-6.938893903907228378e-18,-6.938893903907228378e-18,-6.938893903907228378e-18,-6.938893903907228378e-18,-6.938893903907228378e-18,-6.938893903907228378e-18,-6.938893903907228378e-18,0.000000000000000000e+00,-6.938893903907228378e-18,-6.938893903907228378e-18,-6.938893903907228378e-18,-6.938893903907228378e-18,-6.938893903907228378e-18,-6.938893903907228378e-18,-3.247657601912971870e-03,-9.742972805738901731e-03,-1.659913885422182461e-02
-3.208796741719134593e-02,-3.008940889293721527e-02,-2.797981933955785358e-02,-2.587022978617849189e-02,-2.387167126192435776e-02,-2.176208170854499954e-02,-1.976352318429086541e-02,-1.765393363091150719e-02,-1.565537510665737653e-02,-1.354578555327801831e-02,-1.154722702902388071e-02,-9.437637475644522489e-03,-7.439078951390391825e-03,-5.329489398011019730e-03,-3.219899844631668451e-03,-1.221341320377530848e-03,-6.938893903907228378e-18,-6.938893903907228378e-18,-6.938893903907228378e-18,-6.938893903907228378e-18,-6.938893903907228378e-18,-6.938893903907228378e-18,-6.938893903907228378e-18,-1.387778780781445676e-17,-6.938893903907228378e-18,-6.938893903907228378e-18,-6.938893903907228378e-18,-6.938893903907228378e-18,-6.938893903907228378e-18,-6.938893903907228378e-18,0.000000000000000000e+00,-6.938893903907228378e-18,-6.938893903907228378e-18,-6.938893903907228378e-18,-6.938893903907228378e-18,-6.938893903907228378e-18,-6.938893903907228378e-18,-1.387778780781445676e-17,-6.938893903907228378e-18,-6.938893903907228378e-18,0.000000000000000000e+00,-6.938893903907228378e-18,-6.938893903907228378e-18,-6.938893903907228378e-18,-6.938893903907228378e-18,-3.608508446570068973e-04,-7.217016893139929778e-03
-3.497477417444731784e-02,-3.297621565019318024e-02,-3.086662609681382202e-02,-2.886806757255969136e-02,-2.675847801918032967e-02,-2.464888846580096451e-02,-2.265032994154683732e-02,-2.054074038816747910e-02,-1.854218186391334150e-02,-1.643259231053397981e-02,-1.443403378627984568e-02,-1.232444423290048746e-02,-1.032588570864635680e-02,-8.216296155266998580e-03,-6.217737631012860977e-03,-4.108148077633495820e-03,-1.998558524254137603e-03,-2.850175355150840750e-01,-2.850175355150840750e-01,-2.850175355150840750e-01,-6.938893903907228378e-18,-6.938893903907228378e-18,-6.938893903907228378e-18,0.000000000000000000e+00,-6.938893903907228378e-18,-6.938893903907228378e-18,-6.938893903907228378e-18,-6.938893903907228378e-18,-6.938893903907228378e-18,-6.938893903907228378e-18,-6.938893903907228378e-18,-6.938893903907228378e-18,0.000000000000000000e+00,-1.387778780781445676e-17,-6.938893903907228378e-18,-6.938893903907228378e-18,-6.938893903907228378e-18,-6.938893903907228378e-18,-6.938893903907228378e-18,-6.938893903907228378e-18,-6.938893903907228378e-18,-6.938893903907228378e-18,-6.938893903907228378e-18,-1.387778780781445676e-17,-1.387778780781445676e-17,-6.938893903907228378e-18,-1.732084054353581759e-02
-3.786158093170328975e-02,-3.586302240744915215e-02,-3.375343285406978699e-02,-3.175487432981565633e-02,-2.964528477643629811e-02,-2.753569522305693643e-02,-2.553713669880280229e-02,-2.342754714542344407e-02,-2.142898862116931341e-02,-1.931939906778994825e-02,-1.732084054353581412e-02,-1.521125099015645243e-02,-1.321269246590232871e-02,-1.110310291252296355e-02,-9.104544388268832888e-03,-6.994954834889467732e-03,-4.885365281510102575e-03,-2.879043422723400747e-01,-2.857947527189607095e-01,-2.850175355150840750e-01,-6.938893903907228378e-18,-6.938893903907228378e-18,-6.938893903907228378e-18,-6.938893903907228378e-18,-6.938893903907228378e-18,-6.938893903907228378e-18,-6.938893903907228378e-18,-6.938893903907228378e-18,-6.938893903907228378e-18,0.000000000000000000e+00,-6.938893903907228378e-18,-1.387778780781445676e-17,-6.938893903907228378e-18,-6.938893903907228378e-18,0.000000000000000000e+00,-6.938893903907228378e-18,0.000000000000000000e+00,-6.938893903907228378e-18,-1.387778780781445676e-17,-6.938893903907228378e-18,-6.938893903907228378e-18,-6.938893903907228378e-18,-6.938893903907228378e-18,-6.938893903907228378e-18,-6.938893903907228378e-18,-7.217016893139922840e-03,-4.474550473746751605e-02
-4.074838768895925473e-02,-3.874982916470512406e-02,-3.664023961132575891e-02,-3.464168108707162824e-02,-3.253209153369227002e-02,-3.053353300943813589e-02,-2.842394345605877420e-02,-2.631435390267940905e-02,-2.431579537842527491e-02,-2.220620582504592017e-02,-2.020764730079178256e-02,-1.809805774741242435e-02,-1.609949922315829021e-02,-1.398990966977893546e-02,-1.199135114552480480e-02,-9.881761592145439643e-03,-7.883203067891308979e-03,-2.907911490295960188e-01,-2.887925905053418951e-01,-2.866830009519625300e-01,-6.938893903907228378e-18,-6.938893903907228378e-18,-6.938893903907228378e-18,-6.938893903907228378e-18,-1.387778780781445676e-17,-6.938893903907228378e-18,-6.938893903907228378e-18,-6.938893903907228378e-18,-6.938893903907228378e-18,-6.938893903907228378e-18,-6.938893903907228378e-18,-6.938893903907228378e-18,-1.387778780781445676e-17,-6.938893903907228378e-18,-6.938893903907228378e-18,-6.938893903907228378e-18,-6.938893903907228378e-18,-6.938893903907228378e-18,-6.938893903907228378e-18,-6.938893903907228378e-18,-6.938893903907228378e-18,-6.938893903907228378e-18,-6.938893903907228378e-18,-6.938893903907228378e-18,-6.938893903907228378e-18,-3.319827770844364229e-02,-4.618890811609550201e-02
-4.363519444621521970e-02,-4.163663592196108904e-02,-3.952704636858173082e-02,-3.752848784432759321e-02,-3.541889829094823500e-02,-3.342033976669410433e-02,-3.131075021331473918e-02,-2.931219168906060851e-02,-2.720260213568125029e-02,-2.509301258230188514e-02,-2.309445405804775447e-02,-2.098486450466839279e-02,-1.898630598041425865e-02,-1.687671642703490044e-02,-1.487815790278076977e-02,-1.276856834940141155e-02,-1.077000982514727395e-02,-8.660420271767915734e-03,-6.661861747513785070e-03,-4.552272194134419914e-03,-2.442682640755054757e-03,-4.441241165009240932e-04,-6.938893903907228378e-18,-6.938893903907228378e-18,-6.938893903907228378e-18,-6.938893903907228378e-18,-6.938893903907228378e-18,-6.938893903907228378e-18,-6.938893903907228378e-18,-6.938893903907228378e-18,-6.938893903907228378e-18,-6.938893903907228378e-18,-6.938893903907228378e-18,-6.938893903907228378e-18,-6.938893903907228378e-18,-6.938893903907228378e-18,-1.387778780781445676e-17,-6.938893903907228378e-18,-6.938893903907228378e-18,0.000000000000000000e+00,-6.938893903907228378e-18,-6.938893903907228378e-18,-6.938893903907228378e-18,-6.938893903907228378e-18,-2.309445405804775447e-02,-4.618890811609550201e-02,-4.618890811609550201e-02
-4.618890811609550201e-02,-4.452344267921706095e-02,-4.241385312583769579e-02,-4.041529460158356513e-02,-3.830570504820419997e-02,-3.630714652395006931e-02,-3.419755697057071109e-02,-3.219899844631657349e-02,-3.008940889293721527e-02,-2.809085036868308807e-02,-2.598126081530372292e-02,-2.387167126192435776e-02,-2.187311273767023057e-02,-1.976352318429086888e-02,-1.776496466003673474e-02,-1.565537510665737653e-02,-1.365681658240324586e-02,-1.154722702902388071e-02,-9.548668504769756982e-03,-7.439078951390391825e-03,-5.440520427136254222e-03,-3.330930873756896005e-03,-1.221341320377530848e-03,-6.938893903907228378e-18,-6.938893903907228378e-18,-6.938893903907228378e-18,-6.938893903907228378e-18,-6.938893903907228378e-18,-6.938893903907228378e-18,-6.938893903907228378e-18,-6.938893903907228378e-18,-6.938893903907228378e-18,-6.938893903907228378e-18,-6.938893903907228378e-18,-6.938893903907228378e-18,-1.387778780781445676e-17,-6.938893903907228378e-18,-6.938893903907228378e-18,-6.938893903907228378e-18,-6.938893903907228378e-18,0.000000000000000000e+00,-6.938893903907228378e-18,-6.938893903907228378e-18,-1.154722702902388071e-02,-4.618890811609550201e-02,-4.618890811609550201e-02,-4.618890811609550201e-02
-4.618890811609550201e-02,-4.618890811609550201e-02,-4.530065988309366770e-02,-4.330210135883953704e-02,-4.119251180546017188e-02,-3.919395328120604122e-02,-3.708436372782667606e-02,-3.508580520357254540e-02,-3.297621565019318024e-02,-3.097765712593905305e-02,-2.886806757255969136e-02,-2.686950904830556069e-02,-2.475991949492619207e-02,-2.265032994154683732e-02,-2.065177141729270666e-02,-1.854218186391334150e-02,-1.654362333965921084e-02,-1.443403378627985262e-02,-1.243547526202571502e-02,-1.032588570864636374e-02,-8.327327184392226134e-03,-6.217737631012860977e-03,-4.219179106758723374e-03,-2.109589553379372096e-03,-6.938893903907228378e-18,-6.938893903907228378e-18,-6.938893903907228378e-18,-6.938893903907228378e-18,0.000000000000000000e+00,-6.938893903907228378e-18,-6.938893903907228378e-18,-6.938893903907228378e-18,-6.938893903907228378e-18,-6.938893903907228378e-18,-6.938893903907228378e-18,-6.938893903907228378e-18,-6.938893903907228378e-18,-6.938893903907228378e-18,-6.938893903907228378e-18,-6.938893903907228378e-18,-6.938893903907228378e-18,-6.938893903907228378e-18,-1.443403378627992895e-03,-3.897189122295557917e-02,-4.618890811609550201e-02,-4.618890811609550201e-02,-4.618890811609550201e-02
-4.618890811609550201e-02,-4.618890811609550201e-02,-4.618890811609550201e-02,-4.618890811609550201e-02,-4.407931856271614379e-02,-4.208076003846200619e-02,-3.997117048508264797e-02,-3.797261196082851731e-02,-3.586302240744915215e-02,-3.386446388319502149e-02,-3.175487432981566327e-02,-2.975631580556152914e-02,-2.764672625218216745e-02,-2.564816772792803332e-02,-2.353857817454867510e-02,-2.142898862116931341e-02,-1.943043009691517581e-02,-1.732084054353581759e-02,-1.532228201928168693e-02,-1.321269246590232177e-02,-1.121413394164819805e-02,-9.104544388268832888e-03,-7.105985864014702225e-03,-4.996396310635344007e-03,-2.997837786381206404e-03,-8.882482330018412475e-04,-6.938893903907228378e-18,-6.938893903907228378e-18,-6.938893903907228378e-18,-6.938893903907228378e-18,-6.938893903907228378e-18,0.000000000000000000e+00,-6.938893903907228378e-18,-6.938893903907228378e-18,-6.938893903907228378e-18,-6.938893903907228378e-18,-6.938893903907228378e-18,-6.938893903907228378e-18,-6.938893903907228378e-18,-6.938893903907228378e-18,-6.938893903907228378e-18,-6.938893903907228378e-18,-2.742466419393170540e-02,-4.618890811609550201e-02,-4.618890811609550201e-02,-4.618890811609550201e-02,-4.618890811609550201e-02
-4.618890811609550201e-02,-4.618890811609550201e-02,-4.618890811609550201e-02,-4.618890811609550201e-02,-4.618890811609550201e-02,-4.496756679571797810e-02,-4.285797724233861294e-02,-4.085941871808448228e-02,-3.874982916470512406e-02,-3.675127064045098646e-02,-3.464168108707162824e-02,-3.264312256281749758e-02,-3.053353300943813589e-02,-2.853497448518400176e-02,-2.642538493180464007e-02,-2.442682640755050941e-02,-2.231723685417114772e-02,-2.020764730079178603e-02,-1.820908877653765190e-02,-1.609949922315829368e-02,-1.410094069890416302e-02,-1.199135114552479786e-02,-9.992792621270667197e-03,-7.883203067891308979e-03,-5.884644543637171377e-03,-3.775054990257813159e-03,-1.776496466003675556e-03,-6.938893903907228378e-18,-6.938893903907228378e-18,-6.938893903907228378e-18,-6.938893903907228378e-18,-6.938893903907228378e-18,-6.938893903907228378e-18,-1.387778780781445676e-17,0.000000000000000000e+00,-6.938893903907228378e-18,-1.387778780781445676e-17,-6.938893903907228378e-18,-6.938893903907228378e-18,-1.387778780781445676e-17,-6.938893903907228378e-18,-1.732084054353581759e-02,-4.618890811609550201e-02,-4.618890811609550201e-02,-4.618890811609550201e-02,-4.618890811609550201e-02,-4.618890811609550201e-02
-4.618890811609550201e-02,-4.618890811609550201e-02,-4.618890811609550201e-02,-4.618890811609550201e-02,-4.618890811609550201e-02,-4.618890811609550201e-02,-4.585581502871981241e-02,-4.374622547534045419e-02,-4.163663592196108904e-02,-3.963807739770695837e-02,-3.752848784432759321e-02,-3.552992932007346255e-02,-3.342033976669410433e-02,-3.142178124243996673e-02,-2.931219168906061198e-02,-2.731363316480647785e-02,-2.520404361142711616e-02,-2.320548508717298550e-02,-2.109589553379362381e-02,-1.898630598041425865e-02,-1.698774745616012452e-02,-1.487815790278076977e-02,-1.287959937852663911e-02,-1.077000982514727395e-02,-8.771451300893150227e-03,-6.661861747513778131e-03,-4.663303223259647468e-03,-2.553713669880282311e-03,-5.551551456261516471e-04,-6.938893903907228378e-18,-1.387778780781445676e-17,-6.938893903907228378e-18,0.000000000000000000e+00,-6.938893903907228378e-18,-6.938893903907228378e-18,-6.938893903907228378e-18,-6.938893903907228378e-18,-1.387778780781445676e-17,-6.938893903907228378e-18,-6.938893903907228378e-18,-5.773613514511943823e-03,-4.330210135883953704e-02,-4.618890811609550201e-02,-4.618890811609550201e-02,-4.618890811609550201e-02,-4.618890811609550201e-02,-4.618890811609550201e-02
-4.618890811609550201e-02,-4.618890811609550201e-02,-4.618890811609550201e-02,-4.618890811609550201e-02,-4.618890811609550201e-02,-4.618890811609550201e-02,-4.618890811609550201e-02,-4.618890811609550201e-02,-4.452344267921706095e-02,-4.252488415496293028e-02,-4.041529460158356513e-02,-3.841673607732943446e-02,-3.630714652395006931e-02,-3.430858799969593864e-02,-3.219899844631657349e-02,-3.020043992206244629e-02,-2.809085036868308807e-02,-2.609229184442895047e-02,-2.398270229104959225e-02,-2.187311273767023057e-02,-1.987455421341609643e-02,-1.776496466003673474e-02,-1.576640613578260408e-02,-1.365681658240323892e-02,-1.165825805814910826e-02,-9.548668504769756982e-03,-7.550109980515619379e-03,-5.440520427136254222e-03,-3.441961902882123558e-03,-1.332372349502758402e-03,0.000000000000000000e+00,-6.938893903907228378e-18,-6.938893903907228378e-18,-6.938893903907228378e-18,-6.938893903907228378e-18,-1.387778780781445676e-17,-6.938893903907228378e-18,-6.938893903907228378e-18,-6.938893903907228378e-18,-6.938893903907228378e-18,-3.319827770844364229e-02,-4.618890811609550201e-02,-4.618890811609550201e-02,-4.618890811609550201e-02,-4.618890811609550201e-02,-4.618890811609550201e-02,-4.618890811609550201e-02
-4.618890811609550201e-02,-4.618890811609550201e-02,-4.618890811609550201e-02,-4.618890811609550201e-02,-4.618890811609550201e-02,-4.618890811609550201e-02,-4.618890811609550201e-02,-4.618890811609550201e-02,-4.618890811609550201e-02,-4.541169091221889526e-02,-4.330210135883953704e-02,-4.130354283458539943e-02,-3.919395328120604122e-02,-3.719539475695191055e-02,-3.508580520357254540e-02,-3.308724667931841473e-02,-3.097765712593905651e-02,-2.897909860168492238e-02,-2.686950904830556069e-02,-2.487095052405142656e-02,-2.276136097067206487e-02,-2.065177141729270319e-02,-1.865321289303856905e-02,-1.654362333965921084e-02,-1.454506481540508017e-02,-1.243547526202571502e-02,-1.043691673777159129e-02,-8.327327184392226134e-03,-6.328768660138095470e-03,-4.219179106758730313e-03,-2.220620582504599649e-03,-1.110310291252414316e-04,-6.938893903907228378e-18,-6.938893903907228378e-18,-6.938893903907228378e-18,-6.938893903907228378e-18,-6.938893903907228378e-18,-1.387778780781445676e-17,-1.387778780781445676e-17,-2.165105067941976852e-02,-4.618890811609550201e-02,-4.618890811609550201e-02,-4.618890811609550201e-02,-4.618890811609550201e-02,-4.618890811609550201e-02,-4.618890811609550201e-02,-4.618890811609550201e-02
-4.618890811609550201e-02,-4.618890811609550201e-02,-4.618890811609550201e-02,-4.618890811609550201e-02,-4.618890811609550201e-02,-4.618890811609550201e-02,-4.618890811609550201e-02,-4.618890811609550201e-02,-4.618890811609550201e-02,-4.618890811609550201e-02,-4.618890811609550201e-02,-4.419034959184137135e-02,-4.208076003846200619e-02,-4.008220151420787553e-02,-3.797261196082851731e-02,-3.597405343657437971e-02,-3.386446388319502149e-02,-3.186590535894089082e-02,-2.975631580556152567e-02,-2.775775728130739500e-02,-2.564816772792802985e-02,-2.364960920367390265e-02,-2.154001965029454096e-02,-1.943043009691517928e-02,-1.743187157266104514e-02,-1.532228201928168346e-02,-1.332372349502755626e-02,-1.121413394164819805e-02,-9.215575417394060442e-03,-7.105985864014695286e-03,-5.107427339760571561e-03,-2.997837786381199465e-03,-9.992792621270757403e-04,-1.387778780781445676e-17,-6.938893903907228378e-18,-6.938893903907228378e-18,-6.938893903907228378e-18,-6.938893903907228378e-18,-1.010382365039589475e-02,-4.618890811609550201e-02,-4.618890811609550201e-02,-4.618890811609550201e-02,-4.618890811609550201e-02,-4.618890811609550201e-02,-4.618890811609550201e-02,-4.618890811609550201e-02,-4.618890811609550201e-02
-4.618890811609550201e-02,-4.618890811609550201e-02,-4.618890811609550201e-02,-4.618890811609550201e-02,-4.618890811609550201e-02,-4.618890811609550201e-02,-4.618890811609550201e-02,-4.618890811609550201e-02,-4.618890811609550201e-02,-4.618890811609550201e-02,-4.618890811609550201e-02,-4.618890811609550201e-02,-4.507859782484320565e-02,-4.296900827146384744e-02,-4.085941871808448228e-02,-3.886086019383035162e-02,-3.675127064045098646e-02,-3.475271211619686273e-02,-3.264312256281749758e-02,-3.064456403856336345e-02,-2.853497448518400523e-02,-2.653641596092987109e-02,-2.442682640755050941e-02,-2.242826788329637527e-02,-2.031867832991701706e-02,-1.820908877653765190e-02,-1.621053025228352124e-02,-1.410094069890416302e-02,-1.210238217465003235e-02,-9.992792621270667197e-03,-7.994234097016536533e-03,-5.884644543637178316e-03,-3.886086019383033774e-03,-1.776496466003682495e-03,-6.938893903907228378e-18,-6.938893903907228378e-18,-6.938893903907228378e-18,-6.938893903907228378e-18,-3.752848784432759321e-02,-4.618890811609550201e-02,-4.618890811609550201e-02,-4.618890811609550201e-02,-4.618890811609550201e-02,-4.618890811609550201e-02,-4.618890811609550201e-02,-4.618890811609550201e-02,-4.618890811609550201e-02
-4.618890811609550201e-02,-4.618890811609550201e-02,-4.618890811609550201e-02,-4.618890811609550201e-02,-4.618890811609550201e-02,-4.618890811609550201e-02,-4.618890811609550201e-02,-4.618890811609550201e-02,-4.618890811609550201e-02,-4.618890811609550201e-02,-4.618890811609550201e-02,-4.618890811609550201e-02,-4.618890811609550201e-02,-4.585581502871981241e-02,-4.385725650446568175e-02,-4.174766695108631659e-02,-3.963807739770695837e-02,-3.763951887345282771e-02,-3.552992932007346255e-02,-3.353137079581933189e-02,-3.142178124243996673e-02,-2.942322271818583954e-02,-2.731363316480647785e-02,-2.531507464055234718e-02,-2.320548508717298550e-02,-2.120692656291885136e-02,-1.909733700953948968e-02,-1.698774745616012452e-02,-1.498918893190599733e-02,-1.287959937852663911e-02,-1.088104085427250844e-02,-8.771451300893143288e-03,-6.772892776639012624e-03,-4.663303223259647468e-03,-2.664744699005516804e-03,-5.551551456261585860e-04,-6.938893903907228378e-18,-2.742466419393170540e-02,-4.618890811609550201e-02,-4.618890811609550201e-02,-4.618890811609550201e-02,-4.618890811609550201e-02,-4.618890811609550201e-02,-4.618890811609550201e-02,-4.618890811609550201e-02,-4.618890811609550201e-02,-4.618890811609550201e-02
-4.618890811609550201e-02,-4.618890811609550201e-02,-4.618890811609550201e-02,-4.618890811609550201e-02,-4.618890811609550201e-02,-4.618890811609550201e-02,-4.618890811609550201e-02,-4.618890811609550201e-02,-4.618890811609550201e-02,-4.618890811609550201e-02,-4.618890811609550201e-02,-4.618890811609550201e-02,-4.618890811609550201e-02,-4.618890811609550201e-02,-4.618890811609550201e-02,-4.463447370834228850e-02,-4.263591518408815784e-02,-4.052632563070879268e-02,-3.841673607732943446e-02,-3.641817755307530380e-02,-3.430858799969593864e-02,-3.231002947544180798e-02,-3.020043992206244629e-02,-2.820188139780831563e-02,-2.609229184442895394e-02,-2.409373332017482328e-02,-2.198414376679545812e-02,-1.998558524254132746e-02,-1.787599568916196577e-02,-1.576640613578260408e-02,-1.376784761152847342e-02,-1.165825805814910826e-02,-9.659699533894984536e-03,-7.550109980515612440e-03,-5.551551456261488715e-03,-3.441961902882116620e-03,-1.682467063213245045e-02,-4.618890811609550201e-02,-4.618890811609550201e-02,-4.618890811609550201e-02,-4.618890811609550201e-02,-4.618890811609550201e-02,-4.618890811609550201e-02,-4.618890811609550201e-02,-4.618890811609550201e-02,-4.618890811609550201e-02,-4.618890811609550201e-02
-4.618890811609550201e-02,-4.618890811609550201e-02,-4.618890811609550201e-02,-4.618890811609550201e-02,-4.618890811609550201e-02,-4.618890811609550201e-02,-4.618890811609550201e-02,-4.618890811609550201e-02,-4.618890811609550201e-02,-4.618890811609550201e-02,-4.618890811609550201e-02,-4.618890811609550201e-02,-4.618890811609550201e-02,-4.618890811609550201e-02,-4.618890811609550201e-02,-4.618890811609550201e-02,-4.552272194134412281e-02,-4.341313238796476459e-02,-4.141457386371063393e-02,-3.930498431033126877e-02,-3.719539475695191055e-02,-3.519683623269777295e-02,-3.308724667931841473e-02,-3.108868815506428407e-02,-2.897909860168492238e-02,-2.698054007743078825e-02,-2.487095052405142656e-02,-2.287239199979729590e-02,-2.076280244641793421e-02,-1.876424392216380355e-02,-1.665465436878443839e-02,-1.454506481540508017e-02,-1.254650629115094951e-02,-1.043691673777159129e-02,-8.438358213517453688e-03,-1.006565673413409995e-02,-4.357273949233227833e-02,-4.618890811609550201e-02,-4.618890811609550201e-02,-4.618890811609550201e-02,-4.618890811609550201e-02,-4.618890811609550201e-02,-4.618890811609550201e-02,-4.618890811609550201e-02,-4.618890811609550201e-02,-4.618890811609550201e-02,-4.618890811609550201e-02
