5.525032523072232610e-02,5.525032523072232610e-02,5.525032523072232610e-02,5.525032523072232610e-02,5.089255309984844905e-02,4.591224209313544968e-02,4.093193108642245032e-02,3.595162007970945095e-02,3.112694379195623737e-02,2.614663278524323453e-02,2.116632177853024210e-02,1.618601077181724274e-02,1.120569976510423643e-02,6.225388758391244004e-03,1.245077751678244637e-03,-3.579598536074972415e-03,-8.559909542787978720e-03,-1.354022054950095727e-02,-1.852053155621397745e-02,-2.350084256292698376e-02,-2.848115356963997619e-02,-3.346146457635296861e-02,-3.828614086410619261e-02,-4.326645187081917115e-02,-4.824676287753219134e-02,-4.305731771721698492e-02,-3.693406424314309849e-02,-2.987700245531051818e-02,-2.188613235371923010e-02,-1.287877299392189284e-02,-3.034877019715741253e-03,7.742827268249111161e-03,1.945433986997265052e-02,3.209966078545486989e-02,4.567879001469578315e-02,5.525032523072232610e-02,5.525032523072232610e-02,5.525032523072232610e-02,5.525032523072232610e-02,5.525032523072232610e-02,5.525032523072232610e-02,5.525032523072232610e-02,5.525032523072232610e-02,5.525032523072232610e-02,5.525032523072232610e-02,5.525032523072232610e-02,5.525032523072232610e-02
5.525032523072232610e-02,5.525032523072232610e-02,5.525032523072232610e-02,5.525032523072232610e-02,5.042564894296910905e-02,4.544533793625610968e-02,4.046502692954311031e-02,3.548471592283011095e-02,3.050440491611711158e-02,2.567972862836389453e-02,2.069941762165090210e-02,1.571910661493789579e-02,1.073879560822489643e-02,5.758484601511897061e-03,7.781735947989046331e-04,-4.202137411914108611e-03,-9.026813699667311786e-03,-1.400712470638031809e-02,-1.898743571309331052e-02,-2.396774671980633070e-02,-2.894805772651930925e-02,-3.392836873323231556e-02,-3.875304502098552567e-02,-4.373335602769853198e-02,-4.871366703441153828e-02,-5.369397804112451683e-02,-5.867428904783753701e-02,-6.365460005455053638e-02,-6.863491106126351493e-02,-7.345958734901675280e-02,-7.843989835572973135e-02,-8.342020936244273766e-02,-8.840052036915574396e-02,-9.338083137586872251e-02,-9.836114238258170106e-02,-9.342946722554368311e-02,-8.263230859770887005e-02,-7.104724920514016162e-02,-5.587286410656146923e-02,-3.999812277266377031e-02,-2.412338143876608526e-02,-8.248640104868414091e-03,7.626101229029277895e-03,2.350084256292695600e-02,4.185601223024615347e-02,5.525032523072232610e-02,5.525032523072232610e-02
5.525032523072232610e-02,5.525032523072232610e-02,5.525032523072232610e-02,5.493905579280276147e-02,4.995874478608976210e-02,4.497843377937676967e-02,3.999812277266376337e-02,3.501781176595077094e-02,3.003750075923777157e-02,2.521282447148454758e-02,2.023251346477155516e-02,1.525220245805855579e-02,1.027189145134554948e-02,5.291580444632563995e-03,3.112694379195576899e-04,-4.669041568793441677e-03,-9.493717856546658729e-03,-1.447402886325965116e-02,-1.945433986997265746e-02,-2.443465087668566377e-02,-2.941496188339865619e-02,-3.439527289011166250e-02,-3.937558389682465493e-02,-4.420026018457786504e-02,-4.918057119129087135e-02,-5.416088219800386377e-02,-5.914119320471685620e-02,-6.412150421142986945e-02,-6.910181521814284800e-02,-7.408212622485588206e-02,-7.890680251260909217e-02,-8.388711351932207072e-02,-8.886742452603507703e-02,-9.384773553274808333e-02,-9.882804653946108964e-02,-1.038083575461741237e-01,-1.086330338339273338e-01,-1.136133448406403124e-01,-1.140802489975196454e-01,-1.140802489975196454e-01,-1.140802489975196454e-01,-1.140802489975196454e-01,-1.140802489975196454e-01,-1.140802489975196454e-01,-8.444739850757732036e-02,-4.727404588403356228e-02,-7.719482060405159773e-03
5.525032523072232610e-02,5.525032523072232610e-02,5.525032523072232610e-02,5.447215163592342146e-02,4.949184062921042210e-02,4.451152962249742273e-02,3.953121861578441643e-02,3.455090760907142400e-02,2.957059660235842810e-02,2.459028559564542180e-02,1.976560930789220821e-02,1.478529830117920191e-02,9.804987294466202541e-03,4.824676287753217052e-03,-1.556347189597892533e-04,-5.135945725672795559e-03,-1.011625673238578799e-02,-1.494093302013901198e-02,-1.992124402685199053e-02,-2.490155503356501071e-02,-2.988186604027800314e-02,-3.486217704699100944e-02,-3.984248805370400187e-02,-4.466716434145719811e-02,-4.964747534817020441e-02,-5.462778635488322460e-02,-5.960809736159621702e-02,-6.458840836830923027e-02,-6.956871937502220882e-02,-7.454903038173518737e-02,-7.937370666948842524e-02,-8.435401767620143154e-02,-8.933432868291443785e-02,-9.431463968962744415e-02,-9.929495069634039495e-02,-1.042752617030534845e-01,-1.092555727097664076e-01,-1.140802489975196454e-01,-1.140802489975196454e-01,-1.140802489975196454e-01,-1.140802489975196454e-01,-1.140802489975196454e-01,-1.140802489975196454e-01,-1.140802489975196454e-01,-8.127245024079776670e-02,-4.740633539514937239e-02,-1.354022054950098503e-02
5.525032523072232610e-02,5.525032523072232610e-02,5.525032523072232610e-02,5.384961276008429221e-02,4.902493647233107515e-02,4.404462546561807579e-02,3.906431445890508336e-02,3.408400345219207705e-02,2.910369244547908116e-02,2.412338143876608179e-02,1.914307043205308589e-02,1.431839414429986190e-02,9.338083137586862537e-03,4.357772130873870109e-03,-6.225388758391292576e-04,-5.602849882552128624e-03,-1.058316088926512105e-02,-1.540783717701833117e-02,-2.038814818373135135e-02,-2.536845919044434378e-02,-3.034877019715733620e-02,-3.532908120387035639e-02,-4.030939221058334881e-02,-4.528970321729632736e-02,-5.011437950504955136e-02,-5.509469051176255766e-02,-6.007500151847556397e-02,-6.505531252518856333e-02,-7.003562353190156964e-02,-7.501593453861454819e-02,-7.999624554532755449e-02,-8.482092183308076461e-02,-8.980123283979377091e-02,-9.478154384650677722e-02,-9.976185485321975577e-02,-1.047421658599327898e-01,-1.097224768666457961e-01,-1.140802489975196454e-01,-1.140802489975196454e-01,-1.140802489975196454e-01,-1.140802489975196454e-01,-1.140802489975196454e-01,-1.140802489975196454e-01,-1.109053007307401195e-01,-7.809750197401824079e-02,-4.423138712836983261e-02,-1.036527228272144524e-02
5.525032523072232610e-02,5.525032523072232610e-02,5.525032523072232610e-02,5.338270860320495220e-02,4.855803231545173515e-02,4.357772130873873578e-02,3.859741030202573642e-02,3.361709929531273011e-02,2.863678828859973768e-02,2.365647728188673832e-02,1.867616627517374589e-02,1.385148998742052190e-02,8.871178980707522532e-03,3.890867973994523166e-03,-1.089443032718469262e-03,-6.069754039431482506e-03,-1.105006504614446800e-02,-1.603037605285747430e-02,-2.085505234061068441e-02,-2.583536334732369072e-02,-3.081567435403669702e-02,-3.579598536074970333e-02,-4.077629636746268188e-02,-4.575660737417567431e-02,-5.058128366192889830e-02,-5.556159466864189073e-02,-6.054190567535491091e-02,-6.552221668206789640e-02,-7.050252768878090270e-02,-7.548283869549390901e-02,-8.046314970220691531e-02,-8.528782598996009767e-02,-9.026813699667313173e-02,-9.524844800338611028e-02,-1.002287590100990888e-01,-1.052090700168121506e-01,-1.101893810235251570e-01,-1.140802489975196454e-01,-1.140802489975196454e-01,-1.140802489975196454e-01,-1.140802489975196454e-01,-1.140802489975196177e-01,-1.140802489975196732e-01,-1.077303524639605659e-01,-7.386423761831220625e-02,-4.105643886159029282e-02,-7.190324015941905456e-03
5.525032523072232610e-02,5.525032523072232610e-02,5.525032523072232610e-02,5.291580444632560526e-02,4.793549343961260589e-02,4.311081715185939578e-02,3.813050614514638947e-02,3.315019513843339705e-02,2.816988413172039768e-02,2.318957312500739137e-02,1.820926211829439895e-02,1.322895111158139264e-02,8.404274823828175589e-03,3.423963817115190100e-03,-1.556347189597823144e-03,-6.536658196310815572e-03,-1.151696920302381494e-02,-1.649728020973680737e-02,-2.132195649749004523e-02,-2.630226750420302378e-02,-3.128257851091603009e-02,-3.626288951762903640e-02,-4.124320052434201495e-02,-4.622351153105502125e-02,-5.120382253776802756e-02,-5.602849882552123767e-02,-6.100880983223425785e-02,-6.598912083894725722e-02,-7.096943184566023577e-02,-7.594974285237324207e-02,-8.093005385908624838e-02,-8.591036486579922693e-02,-9.073504115355246480e-02,-9.571535216026544335e-02,-1.006956631669784497e-01,-1.056759741736914837e-01,-1.106562851804044900e-01,-1.140802489975196454e-01,-1.140802489975196454e-01,-1.140802489975196454e-01,-1.140802489975196177e-01,-1.140802489975196454e-01,-1.140802489975196454e-01,-1.045554041971810399e-01,-7.068928935153262483e-02,-3.788149059481075304e-02,-4.015375749162365671e-03
5.525032523072232610e-02,5.525032523072232610e-02,5.525032523072232610e-02,5.244890028944626525e-02,4.746858928273326589e-02,4.264391299498004884e-02,3.766360198826704947e-02,3.268329098155405010e-02,2.770297997484105074e-02,2.272266896812805831e-02,1.774235796141505200e-02,1.276204695470205264e-02,7.937370666948835585e-03,2.957059660235843157e-03,-2.023251346477163148e-03,-7.003562353190162515e-03,-1.198387335990316188e-02,-1.696418436661615431e-02,-2.194449537332916061e-02,-2.676917166108238461e-02,-3.174948266779537703e-02,-3.672979367450836946e-02,-4.171010468122137577e-02,-4.669041568793436819e-02,-5.167072669464737450e-02,-5.649540298240059849e-02,-6.147571398911360480e-02,-6.645602499582659028e-02,-7.143633600253956883e-02,-7.641664700925260290e-02,-8.139695801596558145e-02,-8.637726902267856000e-02,-9.120194531043179786e-02,-9.618225631714480417e-02,-1.011625673238578105e-01,-1.061428783305708168e-01,-1.111231893372838231e-01,-1.140802489975196454e-01,-1.140802489975196177e-01,-1.140802489975196454e-01,-1.140802489975196454e-01,-1.140802489975196454e-01,-1.140802489975196454e-01,-1.013804559304015140e-01,-6.751434108475309892e-02,-3.364822623910471849e-02,-8.404274823828258856e-04
5.525032523072232610e-02,5.525032523072232610e-02,5.525032523072232610e-02,5.198199613256691831e-02,4.700168512585391895e-02,4.202137411914091958e-02,3.719669783138770253e-02,3.221638682467471010e-02,2.723607581796170726e-02,2.225576481124871137e-02,1.727545380453570506e-02,1.229514279782270569e-02,7.470466510069488641e-03,2.490155503356496214e-03,-2.490155503356503153e-03,-7.470466510069502519e-03,-1.245077751678249495e-02,-1.743108852349550125e-02,-2.241139953020850756e-02,-2.723607581796171767e-02,-3.221638682467472398e-02,-3.719669783138771640e-02,-4.217700883810070883e-02,-4.715731984481371514e-02,-5.213763085152672144e-02,-5.711794185823971387e-02,-6.194261814599295174e-02,-6.692292915270592335e-02,-7.190324015941892966e-02,-7.688355116613193596e-02,-8.186386217284491451e-02,-8.684417317955792082e-02,-9.182448418627092712e-02,-9.664916047402413724e-02,-1.016294714807371435e-01,-1.066097824874501498e-01,-1.115900934941631562e-01,-1.140802489975196732e-01,-1.140802489975196454e-01,-1.140802489975196454e-01,-1.140802489975196454e-01,-1.140802489975196454e-01,-1.140802489975196454e-01,-9.820550766362196038e-02,-6.433939281797357301e-02,-3.047327797232517871e-02,2.334520784396706961e-03
5.525032523072232610e-02,5.525032523072232610e-02,5.525032523072232610e-02,5.151509197568757831e-02,4.653478096897457894e-02,4.155446996226157957e-02,3.672979367450836252e-02,3.174948266779536316e-02,2.676917166108236379e-02,2.178886065436936442e-02,1.680854964765636506e-02,1.182823864094336569e-02,6.847927634230373262e-03,2.023251346477156210e-03,-2.957059660235843157e-03,-7.937370666948849462e-03,-1.291768167366184189e-02,-1.789799268037483432e-02,-2.287830368708784062e-02,-2.785861469380084693e-02,-3.268329098155407092e-02,-3.766360198826706335e-02,-4.264391299498005578e-02,-4.762422400169306208e-02,-5.260453500840604063e-02,-5.758484601511906081e-02,-6.256515702183207406e-02,-6.738983330958528417e-02,-7.237014431629829048e-02,-7.735045532301126903e-02,-8.233076632972424758e-02,-8.731107733643725388e-02,-9.229138834315026019e-02,-1.541486981016679247e-01,-1.591290091083809033e-01,-1.641093201150939374e-01,-1.690896311218069159e-01,-1.711128824682840721e-01,-1.140802489975196454e-01,-1.140802489975196454e-01,-1.140802489975196454e-01,-1.140802489975196177e-01,-1.140802489975196454e-01,-9.503055939684243447e-02,-6.116444455119404017e-02,-2.729832970554563892e-02,6.567785140102755381e-03
5.525032523072232610e-02,5.525032523072232610e-02,5.525032523072232610e-02,5.104818781880823136e-02,4.606787681209523200e-02,4.108756580538223263e-02,3.610725479866923326e-02,3.128257851091602315e-02,2.630226750420301685e-02,2.132195649749002442e-02,1.634164549077702505e-02,1.136133448406401875e-02,6.381023477351026318e-03,1.556347189597809266e-03,-3.423963817115203978e-03,-8.404274823828196406e-03,-1.338458583054117496e-02,-1.836489683725419514e-02,-2.334520784396718757e-02,-2.832551885068017999e-02,-3.315019513843341786e-02,-3.813050614514641029e-02,-4.311081715185940272e-02,-4.809112815857239515e-02,-5.307143916528540145e-02,-5.805175017199839388e-02,-6.303206117871140712e-02,-6.785673746646461724e-02,-7.283704847317762354e-02,-7.781735947989062985e-02,-8.279767048660360840e-02,-8.777798149331661470e-02,-9.275829250002962101e-02,-1.547712369775070262e-01,-1.595959132652602641e-01,-1.645762242719732704e-01,-1.695565352786862767e-01,-1.711128824682840721e-01,-1.140802489975196732e-01,-1.140802489975196454e-01,-1.140802489975196454e-01,-1.140802489975196454e-01,-1.140802489975196454e-01,-9.185561113006290856e-02,-5.798949628441448650e-02,-2.412338143876609914e-02,9.742733406882302105e-03
5.525032523072232610e-02,5.525032523072232610e-02,5.525032523072232610e-02,5.058128366192889136e-02,4.560097265521589199e-02,4.062066164850289263e-02,3.564035064178989326e-02,3.081567435403667621e-02,2.583536334732367337e-02,2.085505234061068441e-02,1.587474133389767811e-02,1.089443032718467180e-02,5.914119320471679375e-03,9.338083137586869475e-04,-3.890867973994537043e-03,-8.871178980707529471e-03,-1.385148998742052190e-02,-1.883180099413352820e-02,-2.381211200084653451e-02,-2.879242300755954082e-02,-3.377273401427254712e-02,-3.859741030202575723e-02,-4.357772130873874966e-02,-4.855803231545174209e-02,-5.353834332216474839e-02,-5.851865432887774082e-02,-6.349896533559074019e-02,-6.847927634230374649e-02,-7.330395263005695661e-02,-7.828426363676996291e-02,-8.326457464348294146e-02,-8.824488565019594777e-02,-9.322519665690895407e-02,-1.552381411343863593e-01,-1.600628174221396249e-01,-1.650431284288526312e-01,-1.700234394355656098e-01,-3.111382234824434101e-01,-2.541055900116789279e-01,-2.541055900116789279e-01,-1.140802489975196177e-01,-1.140802489975196732e-01,-1.140802489975196454e-01,-8.868066286328335490e-02,-5.481454801763496060e-02,-2.094843317198655935e-02,1.291768167366183495e-02
5.525032523072232610e-02,5.525032523072232610e-02,5.509469051176254378e-02,5.011437950504954442e-02,4.513406849833654505e-02,4.015375749162354568e-02,3.517344648491054632e-02,3.019313547819755389e-02,2.536845919044432990e-02,2.038814818373133747e-02,1.540783717701833117e-02,1.042752617030533180e-02,5.447215163592339371e-03,4.669041568793400043e-04,-4.513406849833666301e-03,-9.338083137586876414e-03,-1.431839414429986884e-02,-1.929870515101287515e-02,-2.427901615772589533e-02,-2.925932716443887388e-02,-3.423963817115188019e-02,-3.906431445890509030e-02,-4.404462546561808273e-02,-4.902493647233108903e-02,-5.400524747904408146e-02,-5.898555848575708777e-02,-6.396586949247010101e-02,-6.894618049918307956e-02,-7.377085678693631743e-02,-7.875116779364932373e-02,-8.373147880036230228e-02,-8.871178980707528083e-02,-9.369210081378831489e-02,-1.557050452912657201e-01,-1.606853562979787542e-01,-1.655100325857319921e-01,-1.704903435924449429e-01,-3.111382234824434101e-01,-2.541055900116789279e-01,-2.541055900116789279e-01,-1.140802489975196454e-01,-1.140802489975196454e-01,-1.140802489975196454e-01,-8.550571459650380124e-02,-5.163959975085542081e-02,-1.777348490520703345e-02,1.609262994044136780e-02
5.525032523072232610e-02,5.525032523072232610e-02,5.462778635488320378e-02,4.964747534817020441e-02,4.466716434145720505e-02,3.968685333474419874e-02,3.470654232803120631e-02,2.972623132131820695e-02,2.490155503356498295e-02,1.992124402685199053e-02,1.494093302013899116e-02,9.960622013425991794e-03,4.980311006712992428e-03,0.000000000000000000e+00,-4.980311006713013244e-03,-9.804987294466209480e-03,-1.478529830117921579e-02,-1.976560930789220821e-02,-2.474592031460522840e-02,-2.972623132131822082e-02,-3.470654232803122713e-02,-3.968685333474421956e-02,-4.451152962249742967e-02,-4.949184062921043598e-02,-5.447215163592342840e-02,-5.945246264263643471e-02,-6.443277364934943408e-02,-6.941308465606244038e-02,-7.439339566277544669e-02,-7.921807195052865680e-02,-8.419838295724163535e-02,-8.917869396395464165e-02,-9.415900497066764796e-02,-1.561719494481450532e-01,-1.611522604548580873e-01,-1.659769367426112974e-01,-1.709572477493242759e-01,-3.111382234824434101e-01,-2.541055900116789279e-01,-2.541055900116789279e-01,-1.140802489975196454e-01,-1.140802489975196454e-01,-1.140802489975196454e-01,-8.233076632972427533e-02,-4.846465148407588103e-02,-1.459853663842749366e-02,1.926757820722090758e-02
5.525032523072232610e-02,5.525032523072232610e-02,5.416088219800385684e-02,4.918057119129085747e-02,4.420026018457785810e-02,3.921994917786485874e-02,3.423963817115185937e-02,2.925932716443886347e-02,2.427901615772586064e-02,1.945433986997265052e-02,1.447402886325964422e-02,9.493717856546644851e-03,4.513406849833659362e-03,-4.669041568793469432e-04,-5.447215163592353249e-03,-1.042752617030533874e-02,-1.525220245805856273e-02,-2.023251346477156903e-02,-2.521282447148456146e-02,-3.019313547819755389e-02,-3.517344648491057407e-02,-4.015375749162355262e-02,-4.497843377937677661e-02,-4.995874478608978292e-02,-5.493905579280277535e-02,-5.991936679951578165e-02,-6.489967780622879490e-02,-6.987998881294177345e-02,-7.486029981965477975e-02,-7.968497610740798986e-02,-8.466528711412099617e-02,-8.964559812083397472e-02,-9.462590912754700878e-02,-9.960622013425995958e-02,-1.045865311409729659e-01,-1.095668421476860277e-01,-1.140802489975196732e-01,-1.140802489975196454e-01,-1.140802489975196454e-01,-1.140802489975196732e-01,-1.140802489975196454e-01,-1.140802489975196454e-01,-1.119636168196666282e-01,-7.915581806294472167e-02,-4.528970321729635512e-02,-1.142358837164795388e-02,2.244252647400044737e-02
5.525032523072232610e-02,5.525032523072232610e-02,5.353834332216473452e-02,4.871366703441151746e-02,4.373335602769851116e-02,3.875304502098551873e-02,3.377273401427251243e-02,2.879242300755951653e-02,2.381211200084652063e-02,1.898743571309330358e-02,1.400712470638029727e-02,9.026813699667297908e-03,4.046502692954312419e-03,-9.338083137586938864e-04,-5.914119320471700192e-03,-1.089443032718468568e-02,-1.571910661493790967e-02,-2.069941762165090210e-02,-2.567972862836390840e-02,-3.066003963507691471e-02,-3.564035064178990714e-02,-4.062066164850289957e-02,-4.560097265521589199e-02,-5.042564894296911598e-02,-5.540595994968210841e-02,-6.038627095639512860e-02,-6.536658196310812796e-02,-7.034689296982110651e-02,-7.532720397653411282e-02,-8.030751498324711912e-02,-8.513219127100032924e-02,-9.011250227771333554e-02,-9.509281328442634185e-02,-1.000731242911393204e-01,-1.050534352978523822e-01,-1.100337463045653608e-01,-1.140802489975196732e-01,-1.140802489975196454e-01,-1.140802489975196454e-01,-1.140802489975196454e-01,-1.140802489975196454e-01,-1.140802489975196454e-01,-1.087886685528870745e-01,-7.598086979616519576e-02,-4.211475495051682921e-02,-8.248640104868414091e-03,2.561747474077998021e-02
5.525032523072232610e-02,5.525032523072232610e-02,5.307143916528538757e-02,4.824676287753217052e-02,4.326645187081917115e-02,3.828614086410617179e-02,3.330582985739317936e-02,2.832551885068017652e-02,2.334520784396718063e-02,1.836489683725417432e-02,1.354022054950095727e-02,8.559909542787964842e-03,3.579598536074972415e-03,-1.400712470638033891e-03,-6.381023477351033257e-03,-1.136133448406403262e-02,-1.634164549077703893e-02,-2.116632177853024904e-02,-2.614663278524325535e-02,-3.112694379195626165e-02,-3.610725479866926796e-02,-4.108756580538224651e-02,-4.606787681209522506e-02,-5.089255309984846293e-02,-5.587286410656145536e-02,-6.085317511327447554e-02,-6.583348611998746103e-02,-7.081379712670043958e-02,-7.579410813341347364e-02,-8.077441914012647994e-02,-8.559909542787966230e-02,-9.057940643459266861e-02,-9.555971744130567491e-02,-1.005400284480186812e-01,-1.055203394547316875e-01,-1.105006504614446938e-01,-1.140802489975196454e-01,-1.140802489975196454e-01,-1.140802489975196454e-01,-1.140802489975196732e-01,-1.140802489975196454e-01,-1.140802489975196454e-01,-1.056137202861075486e-01,-7.174760544045916122e-02,-3.893980668373727555e-02,-5.073691838088867367e-03,2.879242300755952000e-02
5.525032523072232610e-02,5.525032523072232610e-02,5.260453500840604757e-02,4.762422400169304820e-02,4.279954771393983115e-02,3.781923670722682485e-02,3.283892570051383242e-02,2.785861469380082958e-02,2.287830368708783368e-02,1.789799268037483432e-02,1.307331639262161033e-02,8.093005385908617899e-03,3.112694379195618533e-03,-1.867616627517380834e-03,-6.847927634230387139e-03,-1.182823864094337957e-02,-1.680854964765637199e-02,-2.163322593540960986e-02,-2.661353694212258841e-02,-3.159384794883559472e-02,-3.657415895554860102e-02,-4.155446996226159345e-02,-4.653478096897458588e-02,-5.151509197568759219e-02,-5.633976826344081618e-02,-6.132007927015379473e-02,-6.630039027686679409e-02,-7.128070128357980040e-02,-7.626101229029280670e-02,-8.124132329700578525e-02,-8.622163430371881931e-02,-9.104631059147202943e-02,-9.602662159818503573e-02,-1.010069326048980143e-01,-1.059872436116110206e-01,-1.109675546183240269e-01,-1.140802489975196177e-01,-1.140802489975196732e-01,-1.140802489975196454e-01,-1.140802489975196454e-01,-1.140802489975196454e-01,-1.140802489975196732e-01,-1.024387720193280227e-01,-6.857265717367960756e-02,-3.576485841695773576e-02,-1.898743571309341460e-03,3.196737127433905284e-02
5.525032523072232610e-02,5.525032523072232610e-02,5.213763085152670063e-02,4.715731984481370126e-02,4.233264355706048421e-02,3.735233255034748484e-02,3.237202154363448547e-02,2.739171053692148958e-02,2.241139953020849368e-02,1.743108852349549431e-02,1.245077751678249495e-02,7.626101229029270956e-03,2.645790222316278528e-03,-2.334520784396720838e-03,-7.314831791109720205e-03,-1.229514279782271263e-02,-1.727545380453573282e-02,-2.225576481124872524e-02,-2.708044109900193536e-02,-3.206075210571494166e-02,-3.704106311242793409e-02,-4.202137411914094040e-02,-4.700168512585393282e-02,-5.198199613256692525e-02,-5.680667242032014924e-02,-6.178698342703315555e-02,-6.676729443374615491e-02,-7.174760544045916122e-02,-7.672791644717216752e-02,-8.170822745388514607e-02,-8.668853846059815238e-02,-9.151321474835136249e-02,-9.649352575506436880e-02,-1.014738367617773473e-01,-1.064541477684903814e-01,-1.114344587752033877e-01,-1.140802489975196454e-01,-1.140802489975196454e-01,-1.140802489975196454e-01,-1.140802489975196732e-01,-1.140802489975196732e-01,-1.140802489975196454e-01,-9.926382375254846901e-02,-6.539770890690008165e-02,-3.153159406125168734e-02,1.276204695470198325e-03,3.514231954111859263e-02
5.525032523072232610e-02,5.525032523072232610e-02,5.167072669464736062e-02,4.669041568793436126e-02,4.171010468122135495e-02,3.688542839346814484e-02,3.190511738675514547e-02,2.692480638004214263e-02,2.194449537332914674e-02,1.696418436661614043e-02,1.198387335990314800e-02,7.159197072149930952e-03,2.178886065436931585e-03,-2.801424941276074720e-03,-7.781735947989067148e-03,-1.276204695470205958e-02,-1.774235796141506588e-02,-2.272266896812807219e-02,-2.754734525588128230e-02,-3.252765626259428861e-02,-3.750796726930728103e-02,-4.248827827602027346e-02,-4.746858928273327977e-02,-5.244890028944627219e-02,-5.742921129615927850e-02,-6.225388758391250249e-02,-6.723419859062548798e-02,-7.221450959733849428e-02,-7.719482060405150059e-02,-8.217513161076447914e-02,-8.715544261747748545e-02,-9.213575362419049175e-02,-9.696042991194370186e-02,-1.019407409186567082e-01,-1.069210519253697422e-01,-1.119013629320827208e-01,-1.140802489975196177e-01,-1.140802489975196177e-01,-1.140802489975196454e-01,-1.140802489975196454e-01,-1.140802489975196454e-01,-1.140802489975196454e-01,-9.608887548576894311e-02,-6.222276064012054880e-02,-2.835664579447214756e-02,4.451152962249731171e-03,3.831726780789812548e-02
5.525032523072232610e-02,5.525032523072232610e-02,5.120382253776801368e-02,4.622351153105501431e-02,4.124320052434201495e-02,3.641852423658879789e-02,3.143821322987580547e-02,2.645790222316279916e-02,2.147759121644980673e-02,1.649728020973680043e-02,1.151696920302380106e-02,6.536658196310808633e-03,1.711981908557584642e-03,-3.268329098155414725e-03,-8.248640104868414091e-03,-1.322895111158140652e-02,-1.820926211829439895e-02,-2.318957312500740525e-02,-2.816988413172041156e-02,-3.299456041947362167e-02,-3.797487142618662798e-02,-4.295518243289960653e-02,-4.793549343961261283e-02,-5.291580444632561914e-02,-5.789611545303861156e-02,-6.272079174079184249e-02,-6.770110274750482104e-02,-7.268141375421782735e-02,-7.766172476093083366e-02,-8.264203576764383996e-02,-8.762234677435681851e-02,-9.260265778106985257e-02,-9.742733406882303493e-02,-1.024076450755360690e-01,-1.073879560822490753e-01,-1.123682670889620538e-01,-1.140802489975196454e-01,-1.140802489975196454e-01,-1.140802489975196454e-01,-1.140802489975196454e-01,-1.140802489975196454e-01,-1.140802489975196732e-01,-9.291392721898938944e-02,-5.904781237334099514e-02,-2.518169752769260777e-02,8.684417317955793469e-03,4.149221607467766526e-02
5.525032523072232610e-02,5.525032523072232610e-02,5.073691838088867367e-02,4.575660737417566737e-02,4.077629636746267494e-02,3.579598536074966864e-02,3.097130907299645852e-02,2.599099806628345569e-02,2.101068705957045979e-02,1.603037605285746042e-02,1.105006504614445412e-02,6.069754039431461690e-03,1.245077751678251576e-03,-3.735233255034754729e-03,-8.715544261747747157e-03,-1.369585526846073958e-02,-1.867616627517375977e-02,-2.365647728188675220e-02,-2.863678828859974462e-02,-3.346146457635298249e-02,-3.844177558306596104e-02,-4.342208658977896735e-02,-4.840239759649195977e-02,-5.338270860320495220e-02,-5.836301960991797239e-02,-6.334333061663097175e-02,-6.816800690438418187e-02,-7.314831791109718817e-02,-7.812862891781019448e-02,-8.310893992452317303e-02,-8.808925093123617933e-02,-9.306956193794918564e-02,-9.804987294466216419e-02,-1.028745492324154021e-01,-1.078548602391284084e-01,-1.128351712458413869e-01,-1.140802489975196454e-01,-1.140802489975196454e-01,-1.140802489975196732e-01,-1.140802489975196454e-01,-1.140802489975196454e-01,-1.140802489975196732e-01,-8.973897895220983578e-02,-5.587286410656146923e-02,-2.200674926091306799e-02,1.185936558473532632e-02,4.466716434145720505e-02
5.525032523072232610e-02,5.525032523072232610e-02,5.027001422400932673e-02,4.528970321729632736e-02,4.030939221058332800e-02,3.532908120387032863e-02,3.050440491611711505e-02,2.552409390940411221e-02,2.054378290269111978e-02,1.556347189597811348e-02,1.058316088926511411e-02,5.602849882552114746e-03,6.225388758391223187e-04,-4.202137411914101672e-03,-9.182448418627094100e-03,-1.416275942534008653e-02,-1.914307043205309283e-02,-2.412338143876609914e-02,-2.910369244547910544e-02,-3.408400345219209787e-02,-3.890867973994532186e-02,-4.388899074665830041e-02,-4.886930175337130672e-02,-5.384961276008429915e-02,-5.882992376679730545e-02,-6.381023477351030482e-02,-6.879054578022328337e-02,-7.361522206797652124e-02,-7.859553307468952754e-02,-8.357584408140250609e-02,-8.855615508811551240e-02,-9.353646609482851870e-02,-9.851677710154149725e-02,-1.033414533892947629e-01,-1.083217643960077692e-01,-1.133020754027207200e-01,-1.140802489975196454e-01,-1.140802489975196454e-01,-1.140802489975196177e-01,-1.140802489975196454e-01,-1.140802489975196454e-01,-1.140802489975196454e-01,-8.656403068543033763e-02,-5.269791583978194333e-02,-1.883180099413354208e-02,1.503431385151485916e-02,4.890042869716325347e-02
5.525032523072232610e-02,5.478342107384297915e-02,4.980311006712997979e-02,4.482279906041698736e-02,3.984248805370398105e-02,3.486217704699098863e-02,2.988186604027798579e-02,2.505718975252476527e-02,2.007687874581177284e-02,1.509656773909877348e-02,1.011625673238576717e-02,5.135945725672781681e-03,1.556347189597753755e-04,-4.669041568793448616e-03,-9.649352575506441043e-03,-1.462966358221943347e-02,-1.960997458893243978e-02,-2.459028559564544608e-02,-2.957059660235845239e-02,-3.455090760907144481e-02,-3.937558389682465493e-02,-4.435589490353766123e-02,-4.933620591025065366e-02,-5.431651691696364609e-02,-5.929682792367665239e-02,-6.427713893038966564e-02,-6.925744993710264419e-02,-7.408212622485588206e-02,-7.906243723156886061e-02,-8.404274823828183916e-02,-8.902305924499487322e-02,-9.400337025170785177e-02,-9.898368125842083032e-02,-1.039639922651338644e-01,-1.087886685528870745e-01,-1.137689795596000808e-01,-1.140802489975196732e-01,-1.140802489975196454e-01,-1.140802489975196454e-01,-1.140802489975196732e-01,-1.140802489975196454e-01,-1.140802489975196454e-01,-8.338908241865078397e-02,-4.952296757300240354e-02,-1.565685272735400230e-02,1.820926211829439895e-02,5.207537696394278631e-02
5.525032523072232610e-02,5.431651691696363915e-02,4.933620591025063978e-02,4.435589490353764042e-02,3.937558389682464105e-02,3.439527289011164168e-02,2.941496188339864579e-02,2.459028559564542180e-02,1.960997458893242590e-02,1.462966358221942653e-02,9.649352575506427165e-03,4.669041568793434738e-03,-3.112694379195646288e-04,-5.291580444632570934e-03,-1.011625673238577411e-02,-1.509656773909878041e-02,-2.007687874581178672e-02,-2.505718975252479302e-02,-3.003750075923778545e-02,-3.501781176595079176e-02,-3.999812277266378419e-02,-4.482279906041699430e-02,-4.980311006713000060e-02,-5.478342107384297915e-02,-5.976373208055599934e-02,-6.474404308726899870e-02,-6.972435409398197725e-02,-7.470466510069498356e-02,-7.952934138844822143e-02,-8.450965239516119998e-02,-8.948996340187417853e-02,-9.447027440858718483e-02,-9.945058541530021889e-02,-1.044308964220132530e-01,-1.092555727097664631e-01,-1.140802489975196177e-01,-1.140802489975196177e-01,-1.140802489975196454e-01,-1.140802489975196732e-01,-1.140802489975196732e-01,-1.140802489975196454e-01,-1.140802489975196454e-01,-8.021413415187125806e-02,-4.634801930622286376e-02,-1.248190446057446251e-02,2.138421038507393179e-02,5.525032523072232610e-02
5.525032523072232610e-02,5.384961276008429221e-02,4.886930175337129978e-02,4.388899074665829347e-02,3.890867973994530105e-02,3.392836873323229474e-02,2.894805772651929884e-02,2.396774671980630295e-02,1.914307043205308589e-02,1.416275942534007959e-02,9.182448418627080222e-03,4.202137411914087795e-03,-7.781735947989115720e-04,-5.758484601511910939e-03,-1.073879560822490337e-02,-1.556347189597812736e-02,-2.054378290269111978e-02,-2.552409390940413997e-02,-3.050440491611714627e-02,-3.548471592283013870e-02,-4.046502692954313113e-02,-4.528970321729634124e-02,-5.027001422400931979e-02,-5.525032523072232610e-02,-6.023063623743533240e-02,-6.521094724414833177e-02,-7.019125825086133807e-02,-7.517156925757434438e-02,-7.999624554532755449e-02,-8.497655655204053304e-02,-8.995686755875353935e-02,-9.493717856546657341e-02,-9.991748957217955196e-02,-1.048978005788925583e-01,-1.098781115856055923e-01,-1.140802489975196454e-01,-1.140802489975196454e-01,-1.140802489975196177e-01,-1.140802489975196454e-01,-1.140802489975196454e-01,-1.140802489975196177e-01,-1.098469846418136109e-01,-7.703918588509173215e-02,-4.317307103944333785e-02,-9.306956193794922727e-03,2.455915865185346811e-02,5.525032523072232610e-02
5.525032523072232610e-02,5.338270860320495220e-02,4.840239759649195284e-02,4.342208658977895347e-02,3.844177558306595410e-02,3.346146457635295474e-02,2.848115356963995537e-02,2.350084256292696294e-02,1.867616627517374589e-02,1.369585526846073265e-02,8.715544261747740218e-03,3.735233255034754729e-03,-1.245077751678251576e-03,-6.225388758391257882e-03,-1.120569976510425031e-02,-1.603037605285747430e-02,-2.101068705957048061e-02,-2.599099806628347303e-02,-3.097130907299645158e-02,-3.595162007970947177e-02,-4.093193108642246419e-02,-4.591224209313545662e-02,-5.073691838088868061e-02,-5.571722938760167304e-02,-6.069754039431467935e-02,-6.567785140102769259e-02,-7.065816240774067114e-02,-7.563847341445367745e-02,-8.046314970220691531e-02,-8.544346070891989386e-02,-9.042377171563287241e-02,-9.540408272234587872e-02,-1.003843937290588850e-01,-1.053647047357719191e-01,-1.103450157424849254e-01,-1.140802489975196732e-01,-1.140802489975196454e-01,-1.140802489975196454e-01,-1.140802489975196454e-01,-1.140802489975196732e-01,-1.140802489975196454e-01,-1.066720363750340572e-01,-7.386423761831217849e-02,-3.999812277266378419e-02,-6.132007927015382942e-03,2.773410691863300442e-02,5.525032523072232610e-02
5.525032523072232610e-02,5.276016972736582988e-02,4.793549343961260589e-02,4.295518243289960653e-02,3.797487142618660716e-02,3.299456041947361473e-02,2.801424941276061537e-02,2.303393840604761600e-02,1.805362739933461663e-02,1.322895111158139264e-02,8.248640104868400214e-03,3.268329098155400847e-03,-1.711981908557598520e-03,-6.692292915270590947e-03,-1.167260392198358337e-02,-1.665291492869658968e-02,-2.147759121644981367e-02,-2.645790222316280610e-02,-3.143821322987581240e-02,-3.641852423658881871e-02,-4.139883524330181114e-02,-4.637914625001480357e-02,-5.120382253776802756e-02,-5.618413354448101998e-02,-6.116444455119402629e-02,-6.614475555790702566e-02,-7.112506656462000421e-02,-7.610537757133303827e-02,-8.108568857804601682e-02,-8.591036486579922693e-02,-9.089067587251223324e-02,-9.587098687922523954e-02,-1.008512978859382181e-01,-1.058316088926512522e-01,-1.108119198993642585e-01,-1.140802489975196454e-01,-1.140802489975196454e-01,-1.140802489975196454e-01,-1.140802489975196454e-01,-1.140802489975196454e-01,-1.140802489975196454e-01,-1.034970881082545313e-01,-6.963097326260611619e-02,-3.682317450588424440e-02,-2.957059660235850096e-03,3.090905518541254421e-02,5.525032523072232610e-02
5.525032523072232610e-02,5.229326557048648294e-02,4.731295456377348357e-02,4.248827827602026652e-02,3.750796726930726716e-02,3.252765626259426779e-02,2.754734525588126842e-02,2.256703424916826906e-02,1.758672324245526969e-02,1.276204695470205264e-02,7.781735947989053270e-03,2.801424941276060843e-03,-2.178886065436945463e-03,-7.159197072149944829e-03,-1.213950807886294420e-02,-1.711981908557593662e-02,-2.194449537332916061e-02,-2.692480638004215304e-02,-3.190511738675515935e-02,-3.688542839346815178e-02,-4.186573940018114420e-02,-4.684605040689415051e-02,-5.182636141360715681e-02,-5.665103770136036693e-02,-6.163134870807337323e-02,-6.661165971478635872e-02,-7.159197072149936503e-02,-7.657228172821237133e-02,-8.155259273492537764e-02,-8.637726902267858775e-02,-9.135758002939156630e-02,-9.633789103610457261e-02,-1.013182020428175789e-01,-1.062985130495305852e-01,-1.112788240562435915e-01,-1.140802489975196177e-01,-1.140802489975196454e-01,-1.140802489975196177e-01,-1.140802489975196454e-01,-1.140802489975196454e-01,-1.140802489975196454e-01,-1.003221398414749777e-01,-6.645602499582659028e-02,-3.364822623910470462e-02,2.178886065436758113e-04,3.408400345219207705e-02,5.525032523072232610e-02
5.525032523072232610e-02,5.182636141360713600e-02,4.684605040689414357e-02,4.202137411914091958e-02,3.704106311242792715e-02,3.206075210571492778e-02,2.708044109900192148e-02,2.210013009228892905e-02,1.711981908557592968e-02,1.213950807886292338e-02,7.314831791109713266e-03,2.334520784396713899e-03,-2.645790222316292406e-03,-7.626101229029284834e-03,-1.260641223574229114e-02,-1.758672324245526969e-02,-2.256703424916827599e-02,-2.739171053692149999e-02,-3.237202154363450629e-02,-3.735233255034749872e-02,-4.233264355706050502e-02,-4.731295456377348357e-02,-5.229326557048648988e-02,-5.711794185823971387e-02,-6.209825286495272018e-02,-6.707856387166571954e-02,-7.205887487837872585e-02,-7.703918588509170440e-02,-8.201949689180471070e-02,-8.699980789851768925e-02,-9.182448418627092712e-02,-9.680479519298390567e-02,-1.017851061996969397e-01,-1.067654172064099183e-01,-1.117457282131229246e-01,-1.140802489975196454e-01,-1.140802489975196454e-01,-1.140802489975196454e-01,-1.140802489975196177e-01,-1.140802489975196454e-01,-1.140802489975196454e-01,-9.714719157469545174e-02,-6.328107672904706438e-02,-2.941496188339867007e-02,3.392836873323222535e-03,3.725895171897161684e-02,5.525032523072232610e-02
5.525032523072232610e-02,5.135945725672779599e-02,4.637914625001479663e-02,4.139883524330179726e-02,3.657415895554858021e-02,3.159384794883558084e-02,2.661353694212258147e-02,2.163322593540958211e-02,1.665291492869658274e-02,1.167260392198358337e-02,6.847927634230373262e-03,1.867616627517366956e-03,-3.112694379195625471e-03,-8.093005385908631777e-03,-1.307331639262162420e-02,-1.805362739933463051e-02,-2.303393840604763682e-02,-2.785861469380084693e-02,-3.283892570051385323e-02,-3.781923670722685954e-02,-4.279954771393983809e-02,-4.777985872065284439e-02,-5.276016972736583682e-02,-5.774048073407884313e-02,-6.256515702183207406e-02,-6.754546802854505261e-02,-7.252577903525805891e-02,-7.750609004197106522e-02,-8.248640104868404377e-02,-8.746671205539705007e-02,-9.244702306211005638e-02,-9.727169934986326649e-02,-1.022520103565762728e-01,-1.072323213632893069e-01,-1.122126323700022854e-01,-1.140802489975196454e-01,-1.140802489975196454e-01,-1.140802489975196454e-01,-1.140802489975196454e-01,-1.140802489975196454e-01,-1.140802489975196177e-01,-9.397224330791592584e-02,-6.010612846226753153e-02,-2.624001361661911641e-02,6.567785140102755381e-03,4.043389998575115662e-02,5.525032523072232610e-02
5.525032523072232610e-02,5.089255309984844905e-02,4.591224209313544968e-02,4.093193108642245726e-02,3.610725479866923326e-02,3.112694379195623737e-02,2.614663278524323800e-02,2.116632177853024210e-02,1.618601077181724274e-02,1.120569976510423643e-02,6.225388758391244004e-03,1.400712470638026952e-03,-3.579598536074972415e-03,-8.559909542787978720e-03,-1.354022054950097115e-02,-1.852053155621396358e-02,-2.350084256292696988e-02,-2.848115356963997619e-02,-3.330582985739318630e-02,-3.828614086410619261e-02,-4.326645187081917115e-02,-4.824676287753217746e-02,-5.322707388424518377e-02,-5.820738489095819007e-02,-6.303206117871140712e-02,-6.801237218542438567e-02,-7.299268319213739198e-02,-7.797299419885039828e-02,-8.295330520556337683e-02,-8.793361621227638314e-02,-9.291392721898938944e-02,-9.773860350674259956e-02,-1.027189145134556059e-01,-1.076992255201686399e-01,-1.126795365268816185e-01,-1.140802489975196454e-01,-1.140802489975196454e-01,-1.140802489975196454e-01,-1.140802489975196454e-01,-1.140802489975196454e-01,-1.140802489975196454e-01,-9.079729504113637217e-02,-5.693118019548799175e-02,-2.306506534983959050e-02,1.080104949580881074e-02,4.360884825253068947e-02,5.525032523072232610e-02
5.525032523072232610e-02,5.042564894296910905e-02,4.544533793625610968e-02,4.046502692954311031e-02,3.548471592283011095e-02,3.066003963507689389e-02,2.567972862836389453e-02,2.069941762165090210e-02,1.571910661493789579e-02,1.073879560822489643e-02,5.758484601511897061e-03,9.338083137586869475e-04,-4.046502692954319358e-03,-9.026813699667311786e-03,-1.400712470638030421e-02,-1.898743571309331052e-02,-2.396774671980633070e-02,-2.894805772651930925e-02,-3.377273401427254712e-02,-3.875304502098552567e-02,-4.373335602769853198e-02,-4.871366703441152440e-02,-5.369397804112453071e-02,-5.867428904783752314e-02,-6.365460005455053638e-02,-6.847927634230374649e-02,-7.345958734901675280e-02,-7.843989835572975911e-02,-8.342020936244273766e-02,-8.840052036915574396e-02,-9.338083137586872251e-02,-9.836114238258170106e-02,-1.031858186703349667e-01,-1.081661296770479730e-01,-1.131464406837609515e-01,-1.140802489975196454e-01,-1.140802489975196454e-01,-1.140802489975196454e-01,-1.140802489975196454e-01,-1.140802489975196177e-01,-4.012636405351475699e-01,-3.748057383119847707e-01,-3.409396234663363834e-01,-1.989011708306005072e-02,1.397599776258835053e-02,4.678379651931022926e-02,5.525032523072232610e-02
5.493905579280276147e-02,4.995874478608976210e-02,4.497843377937676274e-02,3.999812277266376337e-02,3.501781176595077094e-02,3.019313547819755042e-02,2.521282447148454758e-02,2.023251346477156210e-02,1.525220245805854885e-02,1.027189145134555642e-02,5.291580444632557056e-03,3.112694379195507510e-04,-4.513406849833666301e-03,-9.493717856546658729e-03,-1.447402886325965116e-02,-1.945433986997265746e-02,-2.443465087668566377e-02,-2.941496188339865619e-02,-3.439527289011166250e-02,-3.921994917786487261e-02,-4.420026018457786504e-02,-4.918057119129087135e-02,-5.416088219800386377e-02,-5.914119320471687008e-02,-6.412150421142986945e-02,-6.894618049918307956e-02,-7.392649150589608587e-02,-7.890680251260909217e-02,-8.388711351932207072e-02,-8.886742452603507703e-02,-9.384773553274808333e-02,-9.882804653946106188e-02,-1.036527228272143275e-01,-1.086330338339273061e-01,-1.136133448406403401e-01,-1.140802489975196454e-01,-1.140802489975196732e-01,-1.140802489975196454e-01,-1.140802489975196454e-01,-1.140802489975196454e-01,-4.012636405351475699e-01,-3.716307900452052171e-01,-3.377646751995568852e-01,-1.671516881628051093e-02,1.715094602936788337e-02,5.101706087501627768e-02,5.525032523072232610e-02
5.447215163592342146e-02,4.949184062921042210e-02,4.451152962249742273e-02,3.953121861578441643e-02,3.455090760907142400e-02,2.957059660235842463e-02,2.474592031460520411e-02,1.976560930789220821e-02,1.478529830117920191e-02,9.804987294466202541e-03,4.824676287753210113e-03,-1.556347189597823144e-04,-4.980311006713013244e-03,-9.960622013426005672e-03,-1.494093302013899810e-02,-1.992124402685199053e-02,-2.490155503356501071e-02,-2.988186604027800314e-02,-3.486217704699102332e-02,-3.968685333474421956e-02,-4.466716434145721198e-02,-4.964747534817020441e-02,-5.462778635488319684e-02,-5.960809736159623090e-02,-6.458840836830923027e-02,-6.956871937502220882e-02,-7.439339566277544669e-02,-7.937370666948842524e-02,-8.435401767620143154e-02,-8.933432868291441009e-02,-9.431463968962741640e-02,-9.929495069634039495e-02,-1.042752617030534290e-01,-1.090999379908066669e-01,-1.140802489975196454e-01,-1.140802489975196177e-01,-1.140802489975196454e-01,-1.140802489975196454e-01,-1.140802489975196454e-01,-1.140802489975196454e-01,-4.012636405351475699e-01,-3.684558417784257189e-01,-3.345897269327773316e-01,-1.354022054950098503e-02,2.032589429614741622e-02,5.419200914179581052e-02,5.525032523072232610e-02
5.400524747904407452e-02,4.902493647233107515e-02,4.404462546561807579e-02,3.906431445890507642e-02,3.408400345219207705e-02,2.910369244547908116e-02,2.427901615772586411e-02,1.929870515101286821e-02,1.431839414429986190e-02,9.338083137586862537e-03,4.357772130873870109e-03,-6.225388758391361965e-04,-5.602849882552128624e-03,-1.042752617030533874e-02,-1.540783717701834504e-02,-2.038814818373135135e-02,-2.536845919044434378e-02,-3.034877019715735008e-02,-3.532908120387035639e-02,-4.030939221058333494e-02,-4.513406849833655893e-02,-5.011437950504955136e-02,-5.509469051176255766e-02,-6.007500151847556397e-02,-6.505531252518859109e-02,-7.003562353190154188e-02,-7.486029981965477975e-02,-7.984061082636778606e-02,-8.482092183308076461e-02,-8.980123283979379867e-02,-9.478154384650674946e-02,-9.976185485321975577e-02,-1.047421658599327898e-01,-1.095668421476859999e-01,-1.140802489975196454e-01,-1.140802489975196454e-01,-1.140802489975196454e-01,-1.140802489975196454e-01,-1.140802489975196177e-01,-1.140802489975196454e-01,-1.119636168196666282e-01,-7.809750197401824079e-02,-4.423138712836983261e-02,-1.036527228272144524e-02,2.350084256292695600e-02,5.525032523072232610e-02,5.525032523072232610e-02
5.353834332216473452e-02,4.855803231545173515e-02,4.357772130873873578e-02,3.859741030202573642e-02,3.361709929531273011e-02,2.863678828859974115e-02,2.365647728188673832e-02,1.883180099413352820e-02,1.385148998742051496e-02,8.871178980707522532e-03,3.890867973994523166e-03,-1.089443032718483140e-03,-6.069754039431475567e-03,-1.089443032718468568e-02,-1.587474133389769199e-02,-2.085505234061068441e-02,-2.583536334732369072e-02,-3.081567435403668315e-02,-3.579598536074968945e-02,-4.077629636746268188e-02,-4.560097265521589199e-02,-5.058128366192889830e-02,-5.556159466864190460e-02,-6.054190567535491091e-02,-6.552221668206789640e-02,-7.050252768878090270e-02,-7.548283869549388125e-02,-8.030751498324711912e-02,-8.528782598996009767e-02,-9.026813699667313173e-02,-9.524844800338611028e-02,-1.002287590100990888e-01,-1.052090700168121229e-01,-1.101893810235251014e-01,-1.140802489975196454e-01,-1.140802489975196454e-01,-1.140802489975196454e-01,-1.140802489975196454e-01,-1.140802489975196454e-01,-1.140802489975196454e-01,-1.087886685528870745e-01,-7.492255370723868713e-02,-4.105643886159030670e-02,-7.190324015941905456e-03,2.667579082970649232e-02,5.525032523072232610e-02,5.525032523072232610e-02
5.307143916528538757e-02,4.809112815857238821e-02,4.311081715185938884e-02,3.813050614514638947e-02,3.315019513843339705e-02,2.816988413172039074e-02,2.318957312500739831e-02,1.836489683725418126e-02,1.338458583054117496e-02,8.404274823828182528e-03,3.423963817115190100e-03,-1.556347189597816205e-03,-6.536658196310815572e-03,-1.151696920302381494e-02,-1.634164549077702505e-02,-2.132195649749004523e-02,-2.630226750420303766e-02,-3.128257851091603009e-02,-3.626288951762903640e-02,-4.124320052434202882e-02,-4.622351153105502125e-02,-5.104818781880823136e-02,-5.602849882552123767e-02,-6.100880983223424397e-02,-6.598912083894725722e-02,-7.096943184566023577e-02,-7.594974285237324207e-02,-8.077441914012645219e-02,-8.575473014683943074e-02,-9.073504115355246480e-02,-9.571535216026544335e-02,-1.006956631669784497e-01,-1.056759741736914560e-01,-1.106562851804044623e-01,-1.140802489975196454e-01,-1.140802489975196454e-01,-1.140802489975196454e-01,-1.140802489975196454e-01,-1.140802489975196732e-01,-1.140802489975196454e-01,-1.045554041971810399e-01,-7.174760544045916122e-02,-3.788149059481075304e-02,-4.015375749162365671e-03,2.985073909648603210e-02,5.525032523072232610e-02,5.525032523072232610e-02
5.244890028944626525e-02,4.762422400169304820e-02,4.264391299498004884e-02,3.766360198826704947e-02,3.268329098155405010e-02,2.770297997484105074e-02,2.272266896812805137e-02,1.774235796141505200e-02,1.291768167366182801e-02,7.937370666948835585e-03,2.957059660235836218e-03,-2.023251346477163148e-03,-7.003562353190162515e-03,-1.198387335990314800e-02,-1.696418436661615431e-02,-2.178886065436937830e-02,-2.676917166108238461e-02,-3.174948266779536316e-02,-3.672979367450838334e-02,-4.171010468122137577e-02,-4.669041568793438207e-02,-5.151509197568757831e-02,-5.649540298240058461e-02,-6.147571398911359092e-02,-6.645602499582659028e-02,-7.143633600253959659e-02,-7.641664700925257514e-02,-8.139695801596558145e-02,-8.622163430371879156e-02,-9.120194531043179786e-02,-9.618225631714480417e-02,-1.011625673238577827e-01,-1.061428783305707890e-01,-1.111231893372838508e-01,-1.140802489975196454e-01,-1.140802489975196177e-01,-1.140802489975196454e-01,-1.140802489975196454e-01,-1.140802489975196454e-01,-1.140802489975196454e-01,-1.013804559304015140e-01,-6.751434108475309892e-02,-3.470654232803122713e-02,-8.404274823828258856e-04,3.302568736326556842e-02,5.525032523072232610e-02,5.525032523072232610e-02
5.198199613256691831e-02,4.715731984481370126e-02,4.217700883810070189e-02,3.719669783138770253e-02,3.221638682467470316e-02,2.723607581796170379e-02,2.225576481124871137e-02,1.727545380453570506e-02,1.245077751678249495e-02,7.470466510069488641e-03,2.490155503356496214e-03,-2.490155503356510092e-03,-7.470466510069502519e-03,-1.245077751678249495e-02,-1.743108852349550125e-02,-2.225576481124872524e-02,-2.723607581796171767e-02,-3.221638682467471010e-02,-3.719669783138771640e-02,-4.217700883810070883e-02,-4.715731984481371514e-02,-5.213763085152672144e-02,-5.696230713927993156e-02,-6.194261814599293786e-02,-6.692292915270592335e-02,-7.190324015941892966e-02,-7.688355116613193596e-02,-8.186386217284494227e-02,-8.668853846059815238e-02,-9.166884946731113093e-02,-9.664916047402413724e-02,-1.016294714807371435e-01,-1.066097824874501776e-01,-1.115900934941631562e-01,-1.140802489975196454e-01,-1.140802489975196454e-01,-1.140802489975196454e-01,-1.140802489975196454e-01,-1.140802489975196454e-01,-1.140802489975196454e-01,-9.820550766362196038e-02,-6.433939281797357301e-02,-3.153159406125168734e-02,2.334520784396713899e-03,3.620063563004510820e-02,5.525032523072232610e-02,5.525032523072232610e-02
5.151509197568757831e-02,4.653478096897457894e-02,4.171010468122135495e-02,3.672979367450836252e-02,3.174948266779536316e-02,2.676917166108236379e-02,2.178886065436937136e-02,1.680854964765636506e-02,1.182823864094336569e-02,7.003562353190148637e-03,2.023251346477149271e-03,-2.957059660235850096e-03,-7.937370666948849462e-03,-1.291768167366184189e-02,-1.789799268037484820e-02,-2.287830368708784062e-02,-2.770297997484106461e-02,-3.268329098155407092e-02,-3.766360198826706335e-02,-4.264391299498005578e-02,-4.762422400169306208e-02,-5.260453500840605451e-02,-1.096347137125889271e-01,-1.146150247193019056e-01,-1.195953357260149119e-01,-1.245756467327279182e-01,-1.295559577394408968e-01,-8.233076632972427533e-02,-8.731107733643725388e-02,-9.213575362419049175e-02,-9.711606463090349806e-02,-1.020963756376164766e-01,-1.070766866443295107e-01,-1.120569976510425170e-01,-1.140802489975196454e-01,-1.140802489975196454e-01,-1.140802489975196177e-01,-1.140802489975196454e-01,-1.140802489975196454e-01,-1.140802489975196454e-01,-9.503055939684240672e-02,-6.116444455119404017e-02,-2.729832970554563892e-02,5.509469051176246746e-03,3.937558389682464105e-02,5.525032523072232610e-02,5.525032523072232610e-02
5.104818781880823136e-02,4.606787681209523200e-02,4.108756580538223263e-02,3.626288951762901558e-02,3.128257851091601621e-02,2.630226750420301685e-02,2.132195649749001748e-02,1.634164549077702505e-02,1.136133448406401875e-02,6.536658196310808633e-03,1.556347189597809266e-03,-3.423963817115197039e-03,-8.404274823828196406e-03,-1.338458583054118883e-02,-1.836489683725418126e-02,-2.334520784396718757e-02,-2.816988413172041156e-02,-3.315019513843340399e-02,-3.813050614514641029e-02,-4.311081715185940272e-02,-4.809112815857239515e-02,-5.307143916528538757e-02,-1.102572525884280286e-01,-1.150819288761812664e-01,-1.200622398828942450e-01,-1.250425508896072513e-01,-1.300228618963202576e-01,-8.279767048660360840e-02,-8.777798149331661470e-02,-9.260265778106985257e-02,-9.758296878778283112e-02,-1.025632797944958374e-01,-1.075435908012088437e-01,-1.125239018079218500e-01,-1.140802489975196454e-01,-1.140802489975196454e-01,-1.140802489975196454e-01,-1.140802489975196454e-01,-1.140802489975196177e-01,-1.140802489975196454e-01,-9.185561113006288081e-02,-5.798949628441450038e-02,-2.412338143876609914e-02,8.684417317955779592e-03,4.255053216360418084e-02,5.525032523072232610e-02,5.525032523072232610e-02
5.058128366192889136e-02,4.560097265521588505e-02,4.062066164850289263e-02,3.579598536074966864e-02,3.081567435403667621e-02,2.583536334732367337e-02,2.085505234061068441e-02,1.587474133389767811e-02,1.089443032718467180e-02,5.914119320471686314e-03,1.089443032718462323e-03,-3.890867973994543982e-03,-8.871178980707529471e-03,-1.385148998742053578e-02,-1.883180099413352820e-02,-2.381211200084653451e-02,-2.879242300755952694e-02,-3.361709929531275093e-02,-3.859741030202575723e-02,-4.357772130873873578e-02,-4.855803231545174209e-02,-5.353834332216474839e-02,-1.107241567453073894e-01,-1.155488330330605995e-01,-1.205291440397735780e-01,-1.255094550464865844e-01,-1.304897660531996184e-01,-8.326457464348294146e-02,-8.824488565019594777e-02,-9.322519665690895407e-02,-9.804987294466216419e-02,-1.030301839513751982e-01,-1.080104949580882046e-01,-1.129908059648011831e-01,-1.140802489975196177e-01,-1.140802489975196177e-01,-1.140802489975196454e-01,-1.140802489975196732e-01,-1.140802489975196454e-01,-1.140802489975196454e-01,-8.868066286328335490e-02,-5.481454801763496060e-02,-2.094843317198655935e-02,1.291768167366182801e-02,4.572548043038371368e-02,5.525032523072232610e-02,5.525032523072232610e-02
5.011437950504954442e-02,4.513406849833654505e-02,4.015375749162354568e-02,3.517344648491054632e-02,3.034877019715733273e-02,2.536845919044432990e-02,2.038814818373133747e-02,1.540783717701833117e-02,1.042752617030533180e-02,5.447215163592339371e-03,6.225388758391153798e-04,-4.357772130873883987e-03,-9.338083137586876414e-03,-1.431839414429986884e-02,-1.929870515101287515e-02,-2.427901615772589533e-02,-2.925932716443887388e-02,-3.408400345219209787e-02,-3.906431445890509030e-02,-4.404462546561808273e-02,-4.902493647233108903e-02,-5.400524747904408146e-02,-1.111910609021867224e-01,-1.161713719088997288e-01,-1.209960481966529389e-01,-1.259763592033659452e-01,-1.309566702100789515e-01,-8.373147880036230228e-02,-8.871178980707528083e-02,-9.369210081378831489e-02,-9.867241182050129344e-02,-1.034970881082545313e-01,-1.084773991149675376e-01,-1.134577101216805162e-01,-1.140802489975196454e-01,-1.140802489975196732e-01,-1.140802489975196454e-01,-1.140802489975196177e-01,-1.140802489975196454e-01,-1.140802489975196454e-01,-8.550571459650382899e-02,-5.163959975085542081e-02,-1.777348490520701957e-02,1.609262994044136780e-02,4.890042869716325347e-02,5.525032523072232610e-02,5.525032523072232610e-02
5.034783158348921789e-02,4.499788811924673726e-02,3.968685333474420568e-02,3.470654232803120631e-02,2.988186604027798926e-02,2.490155503356498642e-02,1.992124402685199053e-02,1.494093302013898422e-02,9.960622013425991794e-03,4.980311006712992428e-03,-6.938893903907228378e-18,-4.824676287753223991e-03,-9.804987294466223358e-03,-1.478529830117921579e-02,-1.976560930789220821e-02,-2.474592031460521452e-02,-2.972623132131822082e-02,-3.455090760907144481e-02,-3.953121861578442336e-02,-4.451152962249742967e-02,-4.949184062921043598e-02,-5.447215163592342840e-02,-1.116579650590660833e-01,-1.166382760657790896e-01,-1.214629523535322719e-01,-1.264432633602452782e-01,-1.314235743669582845e-01,-8.419838295724163535e-02,-8.917869396395464165e-02,-9.415900497066764796e-02,-9.913931597738062651e-02,-1.039639922651338644e-01,-1.089443032718468707e-01,-1.139246142785598492e-01,-1.140802489975196454e-01,-1.140802489975196454e-01,-1.140802489975196454e-01,-1.140802489975196454e-01,-1.140802489975196732e-01,-1.140802489975196454e-01,-8.233076632972427533e-02,-4.846465148407588103e-02,-1.459853663842749366e-02,1.926757820722090758e-02,5.207537696394278631e-02,5.525032523072232610e-02,5.525032523072232610e-02
5.525032523072232610e-02,5.525032523072232610e-02,5.374747747576694157e-02,5.131082140705286315e-02,4.794035702458010473e-02,4.369444734795856905e-02,3.847095709287091242e-02,3.231365852402456884e-02,2.522255164141953485e-02,1.719763644505582084e-02,8.238912934933416421e-03,-1.507711339922890303e-03,-1.027189145134555642e-02,-1.525220245805856273e-02,-2.023251346477155516e-02,-2.521282447148456146e-02,-3.019313547819755389e-02,-3.517344648491057407e-02,-3.999812277266378419e-02,-4.497843377937676274e-02,-4.995874478608978292e-02,-5.493905579280277535e-02,-5.991936679951578165e-02,-6.489967780622876714e-02,-6.987998881294177345e-02,-7.470466510069501131e-02,-7.968497610740801762e-02,-8.466528711412096841e-02,-8.964559812083400248e-02,-9.462590912754698103e-02,-9.960622013425998733e-02,-1.045865311409730214e-01,-1.094112074287262315e-01,-1.140802489975196454e-01,-1.140802489975196732e-01,-1.140802489975196454e-01,-1.140802489975196454e-01,-1.140802489975196454e-01,-1.140802489975196732e-01,-1.130219329085931368e-01,-7.915581806294474942e-02,-4.528970321729634124e-02,-1.142358837164795388e-02,2.244252647400044043e-02,5.525032523072232610e-02,5.525032523072232610e-02,5.525032523072232610e-02
5.525032523072232610e-02,5.525032523072232610e-02,5.525032523072232610e-02,5.525032523072232610e-02,5.525032523072232610e-02,5.525032523072232610e-02,5.525032523072232610e-02,5.525032523072232610e-02,5.525032523072232610e-02,5.525032523072232610e-02,5.525032523072232610e-02,5.525032523072232610e-02,5.112600517828812252e-02,4.416135150483791599e-02,3.626288951762901558e-02,2.743061921666143169e-02,1.766454060193516085e-02,6.964653673450199589e-03,-4.669041568793441677e-03,-1.712468267054343546e-02,-3.061140378540196799e-02,-4.503193321401920829e-02,-6.038627095639512860e-02,-6.536658196310812796e-02,-7.034689296982110651e-02,-7.517156925757431662e-02,-8.015188026428735069e-02,-8.513219127100032924e-02,-9.011250227771333554e-02,-9.509281328442634185e-02,-1.000731242911392926e-01,-1.050534352978523545e-01,-1.098781115856055368e-01,-1.140802489975196732e-01,-1.140802489975196177e-01,-1.140802489975196454e-01,-1.140802489975196454e-01,-1.140802489975196454e-01,-1.140802489975196454e-01,-1.098469846418135831e-01,-7.598086979616522352e-02,-4.211475495051681533e-02,-8.248640104868414091e-03,2.561747474077998021e-02,5.525032523072232610e-02,5.525032523072232610e-02,5.525032523072232610e-02
