0.000000000000000000e+00,0.000000000000000000e+00,0.000000000000000000e+00,0.000000000000000000e+00,0.000000000000000000e+00,0.000000000000000000e+00,0.000000000000000000e+00,0.000000000000000000e+00,0.000000000000000000e+00,0.000000000000000000e+00,0.000000000000000000e+00,0.000000000000000000e+00,0.000000000000000000e+00,0.000000000000000000e+00,0.000000000000000000e+00,0.000000000000000000e+00,0.000000000000000000e+00,0.000000000000000000e+00,0.000000000000000000e+00,0.000000000000000000e+00,-4.725585812645409327e-03,-9.948601710832441145e-03,-1.517161760901947209e-02,-2.039463350720650478e-02,-2.536893436262272969e-02,-3.059195026080975890e-02,-3.581496615899679159e-02,-4.103798205718381387e-02,-4.626099795537085696e-02,-5.148401385355788618e-02,-5.670702975174492233e-02,-6.168133060716113336e-02,-6.690434650534816952e-02,-7.212736240353520567e-02,-5.076118576050521469e-02,0.000000000000000000e+00,0.000000000000000000e+00,0.000000000000000000e+00,0.000000000000000000e+00,0.000000000000000000e+00,0.000000000000000000e+00,0.000000000000000000e+00,0.000000000000000000e+00,0.000000000000000000e+00,0.000000000000000000e+00,0.000000000000000000e+00,0.000000000000000000e+00
0.000000000000000000e+00,0.000000000000000000e+00,0.000000000000000000e+00,0.000000000000000000e+00,0.000000000000000000e+00,0.000000000000000000e+00,0.000000000000000000e+00,0.000000000000000000e+00,0.000000000000000000e+00,0.000000000000000000e+00,0.000000000000000000e+00,0.000000000000000000e+00,0.000000000000000000e+00,0.000000000000000000e+00,0.000000000000000000e+00,0.000000000000000000e+00,0.000000000000000000e+00,0.000000000000000000e+00,-4.974300855416220572e-04,-5.720445983728653441e-03,-1.069474683914487488e-02,-1.591776273733190583e-02,-2.114077863551894199e-02,-2.636379453370597120e-02,-3.158681043189300042e-02,-3.680982633008003657e-02,-4.178412718549625454e-02,-4.700714308368329070e-02,-5.223015898187032685e-02,-5.745317488005734913e-02,-6.267619077824437834e-02,-6.789920667643141450e-02,-7.312222257461845065e-02,-7.809652343003466168e-02,-8.331953932822169784e-02,-4.980518731485491374e-02,0.000000000000000000e+00,0.000000000000000000e+00,0.000000000000000000e+00,0.000000000000000000e+00,0.000000000000000000e+00,0.000000000000000000e+00,0.000000000000000000e+00,0.000000000000000000e+00,0.000000000000000000e+00,0.000000000000000000e+00,0.000000000000000000e+00
0.000000000000000000e+00,0.000000000000000000e+00,0.000000000000000000e+00,0.000000000000000000e+00,0.000000000000000000e+00,0.000000000000000000e+00,0.000000000000000000e+00,0.000000000000000000e+00,0.000000000000000000e+00,0.000000000000000000e+00,0.000000000000000000e+00,0.000000000000000000e+00,0.000000000000000000e+00,0.000000000000000000e+00,0.000000000000000000e+00,0.000000000000000000e+00,0.000000000000000000e+00,-1.243575213854055143e-03,-6.466591112041086310e-03,-1.168960701022811813e-02,-1.691262290841515081e-02,-2.188692376383137225e-02,-2.710993966201840494e-02,-3.233295556020543415e-02,-3.755597145839247031e-02,-4.277898735657949952e-02,-4.800200325476653568e-02,-5.322501915295356489e-02,-5.819932000836978980e-02,-6.342233590655681208e-02,-6.864535180474384823e-02,-7.386836770293087051e-02,-7.909138360111790667e-02,-3.250396470810890115e-01,-3.302626629792760893e-01,-3.352369638346923142e-01,-4.675065569582588509e-02,0.000000000000000000e+00,0.000000000000000000e+00,0.000000000000000000e+00,0.000000000000000000e+00,0.000000000000000000e+00,0.000000000000000000e+00,0.000000000000000000e+00,0.000000000000000000e+00,0.000000000000000000e+00,0.000000000000000000e+00
0.000000000000000000e+00,0.000000000000000000e+00,0.000000000000000000e+00,0.000000000000000000e+00,0.000000000000000000e+00,0.000000000000000000e+00,0.000000000000000000e+00,0.000000000000000000e+00,0.000000000000000000e+00,0.000000000000000000e+00,0.000000000000000000e+00,0.000000000000000000e+00,0.000000000000000000e+00,0.000000000000000000e+00,0.000000000000000000e+00,0.000000000000000000e+00,-2.238435384937299474e-03,-7.212736240353519179e-03,-1.243575213854055360e-02,-1.765876803672758455e-02,-2.288178393491462070e-02,-2.810479983310164992e-02,-3.332781573128867914e-02,-3.830211658670489711e-02,-4.352513248489193326e-02,-4.874814838307896941e-02,-5.397116428126600557e-02,-5.919418017945302785e-02,-6.441719607764005706e-02,-6.964021197582709322e-02,-7.461451283124331813e-02,-7.983752872943034040e-02,-8.506054462761737656e-02,-3.310088081075884814e-01,-3.362318240057755592e-01,-3.414548399039625814e-01,-1.034654577926573948e-01,-3.556625111622598034e-02,0.000000000000000000e+00,0.000000000000000000e+00,0.000000000000000000e+00,0.000000000000000000e+00,0.000000000000000000e+00,0.000000000000000000e+00,0.000000000000000000e+00,0.000000000000000000e+00,0.000000000000000000e+00
0.000000000000000000e+00,0.000000000000000000e+00,0.000000000000000000e+00,0.000000000000000000e+00,0.000000000000000000e+00,0.000000000000000000e+00,0.000000000000000000e+00,0.000000000000000000e+00,0.000000000000000000e+00,0.000000000000000000e+00,0.000000000000000000e+00,0.000000000000000000e+00,0.000000000000000000e+00,0.000000000000000000e+00,0.000000000000000000e+00,-2.984580513249732343e-03,-8.207596411436764161e-03,-1.343061230962379685e-02,-1.840491316504001829e-02,-2.362792906322705097e-02,-2.885094496141407672e-02,-3.407396085960111287e-02,-3.929697675778814209e-02,-4.451999265597517824e-02,-4.974300855416221440e-02,-5.471730940957842543e-02,-5.994032530776546158e-02,-6.516334120595249080e-02,-7.038635710413952695e-02,-7.560937300232654923e-02,-8.083238890051358538e-02,-8.605540479870062154e-02,-9.102970565411686032e-02,-3.369779691340880068e-01,-3.422009850322750291e-01,-3.441907053744415190e-01,-1.034654577926573948e-01,-1.034654577926573948e-01,-2.586636444816434871e-02,0.000000000000000000e+00,0.000000000000000000e+00,0.000000000000000000e+00,0.000000000000000000e+00,0.000000000000000000e+00,0.000000000000000000e+00,0.000000000000000000e+00,0.000000000000000000e+00
0.000000000000000000e+00,0.000000000000000000e+00,0.000000000000000000e+00,0.000000000000000000e+00,0.000000000000000000e+00,0.000000000000000000e+00,0.000000000000000000e+00,0.000000000000000000e+00,0.000000000000000000e+00,0.000000000000000000e+00,0.000000000000000000e+00,0.000000000000000000e+00,0.000000000000000000e+00,0.000000000000000000e+00,-3.730725641562165212e-03,-8.953741539749196163e-03,-1.417675743793622885e-02,-1.939977333612325980e-02,-2.462278923431029248e-02,-2.984580513249732517e-02,-3.482010598791354661e-02,-4.004312188610057582e-02,-4.526613778428760504e-02,-5.048915368247464813e-02,-5.571216958066167735e-02,-6.093518547884870656e-02,-6.615820137703573578e-02,-7.113250223245196069e-02,-7.635551813063898297e-02,-8.157853402882601912e-02,-8.680154992701306915e-02,-9.202456582520009143e-02,-9.724758172338712758e-02,-1.022218825788033386e-01,-1.034654577926573948e-01,-1.034654577926573948e-01,-1.034654577926574087e-01,-1.034654577926573948e-01,-9.376557112459577015e-02,-1.293318222408217436e-02,0.000000000000000000e+00,0.000000000000000000e+00,0.000000000000000000e+00,0.000000000000000000e+00,0.000000000000000000e+00,0.000000000000000000e+00,0.000000000000000000e+00
0.000000000000000000e+00,0.000000000000000000e+00,0.000000000000000000e+00,0.000000000000000000e+00,0.000000000000000000e+00,0.000000000000000000e+00,0.000000000000000000e+00,0.000000000000000000e+00,0.000000000000000000e+00,0.000000000000000000e+00,0.000000000000000000e+00,0.000000000000000000e+00,0.000000000000000000e+00,-4.725585812645409327e-03,-9.948601710832441145e-03,-1.492290256624866085e-02,-2.014591846443569700e-02,-2.536893436262272622e-02,-3.059195026080976237e-02,-3.581496615899679159e-02,-4.103798205718382081e-02,-4.626099795537085696e-02,-5.123529881078707493e-02,-5.645831470897411108e-02,-6.168133060716113336e-02,-6.690434650534816952e-02,-7.212736240353520567e-02,-7.735037830172222795e-02,-8.257339419990926410e-02,-8.754769505532548901e-02,-9.277071095351252517e-02,-9.799372685169956132e-02,-1.032167427498865836e-01,-1.034654577926573948e-01,-1.034654577926573948e-01,-1.034654577926573948e-01,-1.034654577926573810e-01,-1.034654577926573948e-01,-1.034654577926573810e-01,-8.083238890051358538e-02,-3.233295556020543589e-03,0.000000000000000000e+00,0.000000000000000000e+00,0.000000000000000000e+00,0.000000000000000000e+00,0.000000000000000000e+00,0.000000000000000000e+00
0.000000000000000000e+00,0.000000000000000000e+00,0.000000000000000000e+00,0.000000000000000000e+00,0.000000000000000000e+00,0.000000000000000000e+00,0.000000000000000000e+00,0.000000000000000000e+00,0.000000000000000000e+00,0.000000000000000000e+00,0.000000000000000000e+00,-2.487150427708110286e-04,-5.471730940957842196e-03,-1.069474683914487315e-02,-1.591776273733190583e-02,-2.114077863551893852e-02,-2.636379453370597120e-02,-3.133809538912218917e-02,-3.656111128730921839e-02,-4.178412718549624760e-02,-4.700714308368329764e-02,-5.223015898187033379e-02,-5.745317488005734913e-02,-6.267619077824437834e-02,-6.765049163366060325e-02,-7.287350753184763941e-02,-7.809652343003467556e-02,-3.118164016927578164e-01,-3.170394175909448942e-01,-3.222624334891319164e-01,-9.898858702278279242e-02,-1.034654577926573948e-01,-1.034654577926573948e-01,-1.034654577926573948e-01,-1.034654577926573948e-01,-1.034654577926573948e-01,-1.034654577926573948e-01,-1.034654577926573810e-01,-1.034654577926573948e-01,-1.034654577926573948e-01,-7.113250223245196069e-02,0.000000000000000000e+00,0.000000000000000000e+00,0.000000000000000000e+00,0.000000000000000000e+00,0.000000000000000000e+00,0.000000000000000000e+00
0.000000000000000000e+00,0.000000000000000000e+00,0.000000000000000000e+00,0.000000000000000000e+00,0.000000000000000000e+00,0.000000000000000000e+00,0.000000000000000000e+00,0.000000000000000000e+00,0.000000000000000000e+00,0.000000000000000000e+00,-1.243575213854054926e-03,-6.466591112041087178e-03,-1.168960701022811813e-02,-1.666390786564433957e-02,-2.188692376383137225e-02,-2.710993966201840147e-02,-3.233295556020543415e-02,-3.755597145839246337e-02,-4.277898735657949258e-02,-4.775328821199572443e-02,-5.297630411018275365e-02,-5.819932000836978980e-02,-6.342233590655681208e-02,-6.864535180474384823e-02,-7.386836770293088439e-02,-7.909138360111792054e-02,-8.406568445653411770e-02,-3.177855627192572863e-01,-3.230085786174443641e-01,-3.282315945156313863e-01,-1.034654577926573948e-01,-1.034654577926573948e-01,-1.034654577926573948e-01,-1.034654577926573948e-01,-1.034654577926573948e-01,-1.034654577926574087e-01,-1.034654577926573948e-01,-1.034654577926574087e-01,-1.034654577926573948e-01,-1.031960164963223459e-01,-9.753774927328640043e-02,-5.168220865326587921e-02,0.000000000000000000e+00,0.000000000000000000e+00,0.000000000000000000e+00,0.000000000000000000e+00,0.000000000000000000e+00
0.000000000000000000e+00,0.000000000000000000e+00,0.000000000000000000e+00,0.000000000000000000e+00,0.000000000000000000e+00,0.000000000000000000e+00,0.000000000000000000e+00,0.000000000000000000e+00,0.000000000000000000e+00,-1.989720342166488229e-03,-7.212736240353520047e-03,-1.243575213854055186e-02,-1.765876803672758455e-02,-2.288178393491462070e-02,-2.785608479033083520e-02,-3.307910068851786789e-02,-3.830211658670489711e-02,-4.352513248489193326e-02,-4.874814838307896941e-02,-5.397116428126599863e-02,-5.919418017945302785e-02,-6.416848103486924582e-02,-6.939149693305628197e-02,-7.461451283124331813e-02,-7.983752872943034040e-02,-8.506054462761737656e-02,-9.028356052580441271e-02,-3.240034387885276090e-01,-3.289777396439438339e-01,-3.319623201571935134e-01,-1.034654577926573810e-01,-1.034654577926573948e-01,-1.034654577926573810e-01,-1.034654577926574087e-01,-1.034654577926573948e-01,-1.034654577926573948e-01,-1.034654577926573948e-01,-1.034654577926573948e-01,-1.021182513109821777e-01,-9.645998408794621837e-02,-9.080171686491025906e-02,-8.541289093820936262e-02,-3.738497986648753324e-02,0.000000000000000000e+00,0.000000000000000000e+00,0.000000000000000000e+00,0.000000000000000000e+00
0.000000000000000000e+00,0.000000000000000000e+00,0.000000000000000000e+00,0.000000000000000000e+00,0.000000000000000000e+00,0.000000000000000000e+00,0.000000000000000000e+00,0.000000000000000000e+00,-2.984580513249732343e-03,-8.207596411436764161e-03,-1.318189726685298387e-02,-1.840491316504001829e-02,-2.362792906322705097e-02,-2.885094496141408366e-02,-3.407396085960110593e-02,-3.929697675778814209e-02,-4.427127761320436700e-02,-4.949429351139139621e-02,-5.471730940957843931e-02,-5.994032530776546852e-02,-6.516334120595249080e-02,-7.038635710413951307e-02,-7.560937300232656311e-02,-8.058367385774277414e-02,-8.580668975592981029e-02,-9.102970565411684645e-02,-9.625272155230388260e-02,-1.014757374504909049e-01,-1.034654577926573948e-01,-1.034654577926573948e-01,-1.034654577926573948e-01,-1.034654577926573948e-01,-1.034654577926573948e-01,-1.034654577926573948e-01,-1.034654577926573948e-01,-1.034654577926574087e-01,-1.034654577926573948e-01,-1.013099274219770307e-01,-9.565166019894108529e-02,-8.999339297590512599e-02,-8.433512575286916668e-02,-7.867685852983323513e-02,-7.301859130679727583e-02,-2.324773184940812781e-02,0.000000000000000000e+00,0.000000000000000000e+00,0.000000000000000000e+00
0.000000000000000000e+00,0.000000000000000000e+00,0.000000000000000000e+00,0.000000000000000000e+00,0.000000000000000000e+00,0.000000000000000000e+00,0.000000000000000000e+00,-3.730725641562165212e-03,-8.953741539749197897e-03,-1.417675743793622885e-02,-1.939977333612325980e-02,-2.437407419153948124e-02,-2.959709008972651392e-02,-3.482010598791354661e-02,-4.004312188610057582e-02,-4.526613778428761892e-02,-5.048915368247464119e-02,-5.571216958066167735e-02,-6.068647043607788838e-02,-6.590948633426492453e-02,-7.113250223245194681e-02,-7.635551813063898297e-02,-8.157853402882601912e-02,-8.680154992701306915e-02,-9.202456582520007755e-02,-9.699886668061631634e-02,-1.022218825788033525e-01,-1.034654577926573948e-01,-1.034654577926573948e-01,-1.034654577926573948e-01,-1.034654577926573948e-01,-1.034654577926573948e-01,-1.034654577926573948e-01,-1.034654577926573948e-01,-1.034654577926573948e-01,-1.034654577926574087e-01,-1.002321622366368487e-01,-9.457389501360091710e-02,-8.918506908689999291e-02,-8.352680186386404748e-02,-7.786853464082808818e-02,-7.221026741779214275e-02,-6.655200019475618345e-02,-6.089373297172023802e-02,-1.387622676125483366e-02,0.000000000000000000e+00,0.000000000000000000e+00
0.000000000000000000e+00,0.000000000000000000e+00,0.000000000000000000e+00,0.000000000000000000e+00,0.000000000000000000e+00,0.000000000000000000e+00,-4.725585812645409327e-03,-9.699886668061629899e-03,-1.492290256624866432e-02,-2.014591846443569353e-02,-2.536893436262272622e-02,-3.059195026080976237e-02,-3.581496615899679159e-02,-4.078926701441300956e-02,-4.601228291260004571e-02,-5.123529881078707493e-02,-5.645831470897411108e-02,-6.168133060716113336e-02,-6.690434650534816952e-02,-7.212736240353520567e-02,-7.710166325895141670e-02,-8.232467915713845286e-02,-8.754769505532548901e-02,-9.277071095351253904e-02,-9.799372685169954744e-02,-1.032167427498865836e-01,-1.034654577926573948e-01,-1.034654577926573948e-01,-1.034654577926573948e-01,-1.034654577926573948e-01,-1.034654577926573948e-01,-1.034654577926573948e-01,-1.034654577926573948e-01,-1.034654577926573948e-01,-1.034654577926573948e-01,-9.942383834763171557e-02,-9.376557112459577015e-02,-8.810730390155982472e-02,-8.244903667852385154e-02,-7.679076945548790611e-02,-7.140194352878700967e-02,-6.574367630575105037e-02,-6.008540908271510494e-02,-5.442714185967915952e-02,-4.419679263945790193e-02,-6.736032408376132694e-03,0.000000000000000000e+00
0.000000000000000000e+00,0.000000000000000000e+00,0.000000000000000000e+00,0.000000000000000000e+00,-2.487150427708110286e-04,-5.471730940957842196e-03,-1.069474683914487315e-02,-1.591776273733190583e-02,-2.089206359274813074e-02,-2.611507949093516343e-02,-3.133809538912218917e-02,-3.656111128730921839e-02,-4.178412718549625454e-02,-4.700714308368329070e-02,-5.223015898187032685e-02,-5.720445983728654482e-02,-6.242747573547356710e-02,-6.765049163366060325e-02,-7.287350753184762553e-02,-7.809652343003466168e-02,-8.331953932822169784e-02,-8.854255522640873399e-02,-9.351685608182495890e-02,-9.873987198001199506e-02,-1.034654577926573948e-01,-1.034654577926573948e-01,-1.034654577926573948e-01,-1.034654577926573948e-01,-1.034654577926573948e-01,-1.034654577926573948e-01,-1.034654577926573948e-01,-1.034654577926573948e-01,-1.034654577926573948e-01,-1.034654577926573810e-01,-9.834607316229153351e-02,-9.295724723559062319e-02,-8.729898001255469164e-02,-8.164071278951871846e-02,-7.598244556648275916e-02,-7.032417834344684149e-02,-6.466591112041086831e-02,-5.927708519370996493e-02,-5.361881797067401950e-02,-4.796055074763806714e-02,-4.230228352460210783e-02,-2.862813773559856265e-02,-9.683046587040690639e-04
0.000000000000000000e+00,0.000000000000000000e+00,0.000000000000000000e+00,-1.243575213854055143e-03,-6.217876069270275932e-03,-1.144089196745730862e-02,-1.666390786564433610e-02,-2.188692376383137225e-02,-2.710993966201840494e-02,-3.233295556020543415e-02,-3.730725641562165212e-02,-4.253027231380869522e-02,-4.775328821199572443e-02,-5.297630411018276059e-02,-5.819932000836978286e-02,-6.342233590655681208e-02,-6.864535180474384823e-02,-7.361965266016007314e-02,-7.884266855834710930e-02,-8.406568445653413157e-02,-8.928870035472116773e-02,-9.451171625290820388e-02,-9.973473215109524004e-02,-1.034654577926573948e-01,-1.034654577926573948e-01,-1.034654577926573948e-01,-1.034654577926573948e-01,-1.034654577926573810e-01,-1.034654577926573948e-01,-1.034654577926573948e-01,-1.034654577926574087e-01,-1.034654577926573948e-01,-1.031960164963223459e-01,-9.753774927328640043e-02,-9.187948205025045501e-02,-8.622121482721449570e-02,-8.056294760417853640e-02,-7.517412167747763996e-02,-6.951585445444168065e-02,-6.385758723140573523e-02,-1.429075544526121899e-01,-1.372492872295762445e-01,-1.315910200065402713e-01,-4.149395963559698169e-02,-3.583569241256102239e-02,-3.017742518952507697e-02,-1.685692110196127316e-02
0.000000000000000000e+00,0.000000000000000000e+00,-1.989720342166488229e-03,-7.212736240353519179e-03,-1.243575213854055360e-02,-1.765876803672758455e-02,-2.263306889214380599e-02,-2.785608479033083867e-02,-3.307910068851786789e-02,-3.830211658670489711e-02,-4.352513248489193326e-02,-4.874814838307897635e-02,-5.372244923849519432e-02,-5.894546513668222354e-02,-6.416848103486924582e-02,-6.939149693305628197e-02,-7.461451283124331813e-02,-7.983752872943034040e-02,-8.506054462761736268e-02,-9.003484548303360147e-02,-9.525786138122063762e-02,-1.004808772794076599e-01,-1.034654577926573948e-01,-1.034654577926573948e-01,-1.034654577926573948e-01,-1.034654577926573948e-01,-1.034654577926574087e-01,-1.034654577926573948e-01,-1.034654577926573948e-01,-1.034654577926573948e-01,-1.034654577926573948e-01,-1.021182513109821777e-01,-9.672942538428126735e-02,-9.107115816124532193e-02,-8.541289093820936262e-02,-7.975462371517340332e-02,-7.409635649213745789e-02,-6.843808926910149859e-02,-6.277982204606555316e-02,-5.739099611936465672e-02,-1.364409633405710975e-01,-1.307826961175351521e-01,-1.251244288944992067e-01,-3.475792722722084033e-02,-2.909966000418489490e-02,-2.371083407748398805e-02,-1.805256685444803222e-02
0.000000000000000000e+00,-2.735865470478921098e-03,-7.958881368665952916e-03,-1.318189726685298213e-02,-1.840491316504001829e-02,-2.362792906322705097e-02,-2.885094496141408019e-02,-3.382524581683030163e-02,-3.904826171501733084e-02,-4.427127761320436700e-02,-4.949429351139139621e-02,-5.471730940957843237e-02,-5.994032530776546158e-02,-6.516334120595249080e-02,-7.013764206136871571e-02,-7.536065795955573798e-02,-8.058367385774277414e-02,-8.580668975592981029e-02,-9.102970565411684645e-02,-9.625272155230388260e-02,-1.014757374504909188e-01,-1.034654577926573948e-01,-1.034654577926573948e-01,-1.034654577926573948e-01,-1.034654577926573948e-01,-1.034654577926573948e-01,-1.034654577926573948e-01,-1.034654577926573948e-01,-1.034654577926573948e-01,-1.034654577926573948e-01,-1.013099274219770307e-01,-9.565166019894108529e-02,-8.999339297590513986e-02,-8.433512575286916668e-02,-7.894629982616827024e-02,-7.328803260313232482e-02,-6.762976538009637939e-02,-6.197149815706041315e-02,-5.631323093402446772e-02,-5.065496371098851536e-02,-1.299743722285300052e-01,-1.243161050054940597e-01,-1.186578377824581143e-01,-2.829133611517975835e-02,-2.263306889214380946e-02,-1.697480166910785362e-02,-1.131653444607190126e-02
-3.730725641562165212e-03,-8.953741539749197897e-03,-1.392804239516541760e-02,-1.915105829335244855e-02,-2.437407419153948124e-02,-2.959709008972651392e-02,-3.482010598791354661e-02,-4.004312188610057582e-02,-4.526613778428761198e-02,-5.024043863970382995e-02,-5.546345453789085916e-02,-6.068647043607789532e-02,-6.590948633426492453e-02,-7.113250223245196069e-02,-7.635551813063898297e-02,-8.157853402882601912e-02,-8.655283488424224403e-02,-9.177585078242928018e-02,-9.699886668061630246e-02,-1.022218825788033386e-01,-1.034654577926573948e-01,-1.034654577926573948e-01,-1.034654577926573948e-01,-1.034654577926573948e-01,-1.034654577926573948e-01,-1.034654577926574087e-01,-1.034654577926573948e-01,-1.034654577926573948e-01,-1.034654577926573810e-01,-1.005016035329718976e-01,-9.484333630993595221e-02,-8.918506908689999291e-02,-8.352680186386403360e-02,-7.786853464082808818e-02,-7.221026741779212887e-02,-6.682144149109123243e-02,-6.116317426805528007e-02,-5.550490704501933464e-02,-4.984663982198338922e-02,-4.418837259894742298e-02,-3.853010537591147755e-02,-3.287183815287552519e-02,-2.748301222617462181e-02,-2.182474500313866944e-02,-1.616647778010272055e-02,-1.050821055706676645e-02,-4.849943334030815817e-03
-9.699886668061629899e-03,-1.492290256624866258e-02,-2.014591846443569700e-02,-2.536893436262272622e-02,-3.034323521803894766e-02,-3.556625111622598034e-02,-4.078926701441300956e-02,-4.601228291260004571e-02,-5.123529881078708187e-02,-5.645831470897410415e-02,-6.168133060716113336e-02,-6.665563146257735827e-02,-7.187864736076439443e-02,-7.710166325895143058e-02,-8.232467915713845286e-02,-8.754769505532548901e-02,-9.277071095351252517e-02,-9.799372685169956132e-02,-1.029680277071157724e-01,-1.034654577926573810e-01,-1.034654577926573948e-01,-1.034654577926574087e-01,-1.034654577926573948e-01,-1.034654577926573948e-01,-1.034654577926573948e-01,-1.034654577926573948e-01,-1.034654577926573948e-01,-1.034654577926573948e-01,-9.942383834763171557e-02,-9.376557112459577015e-02,-8.810730390155981084e-02,-8.271847797485891440e-02,-7.706021075182295510e-02,-7.140194352878700967e-02,-6.574367630575105037e-02,-6.008540908271510494e-02,-5.442714185967914564e-02,-4.903831593297824226e-02,-4.338004870994229684e-02,-3.772178148690634447e-02,-3.206351426387039211e-02,-2.640524704083443974e-02,-2.074697981779848738e-02,-1.508871259476253501e-02,-9.699886668061629899e-03,-4.041619445025679269e-03,0.000000000000000000e+00
-1.566904769456109459e-02,-2.089206359274812727e-02,-2.611507949093516343e-02,-3.133809538912218917e-02,-3.656111128730921839e-02,-4.178412718549625454e-02,-4.675842804091247945e-02,-5.198144393909950867e-02,-5.720445983728654482e-02,-6.242747573547356710e-02,-6.765049163366060325e-02,-7.287350753184763941e-02,-7.809652343003466168e-02,-8.307082428545088659e-02,-8.829384018363792275e-02,-9.351685608182495890e-02,-9.873987198001199506e-02,-1.034654577926573948e-01,-1.034654577926574087e-01,-1.034654577926573948e-01,-1.034654577926573948e-01,-1.034654577926573948e-01,-1.034654577926573948e-01,-1.034654577926574087e-01,-1.034654577926573948e-01,-1.034654577926573948e-01,-1.034654577926574087e-01,-9.861551445862658249e-02,-9.295724723559062319e-02,-8.729898001255467777e-02,-8.164071278951871846e-02,-7.598244556648277304e-02,-7.032417834344682761e-02,-6.493535241674591729e-02,-5.927708519370995799e-02,-5.361881797067401950e-02,-4.796055074763806714e-02,-4.230228352460210783e-02,-3.664401630156616241e-02,-3.125519037486525209e-02,-2.559692315182930666e-02,-1.993865592879335083e-02,-1.428038870575740193e-02,-8.622121482721449570e-03,-2.963854259685498073e-03,0.000000000000000000e+00,0.000000000000000000e+00
-2.188692376383137572e-02,-2.686122461924759369e-02,-3.208424051743462291e-02,-3.730725641562165212e-02,-4.253027231380868828e-02,-4.775328821199573137e-02,-5.297630411018275365e-02,-5.819932000836978286e-02,-6.317362086378600083e-02,-6.839663676197303699e-02,-7.361965266016007314e-02,-7.884266855834709542e-02,-8.406568445653413157e-02,-8.928870035472116773e-02,-9.451171625290820388e-02,-9.948601710832442879e-02,-1.034654577926573948e-01,-1.034654577926574087e-01,-1.034654577926573948e-01,-1.034654577926573948e-01,-1.034654577926573948e-01,-1.034654577926573948e-01,-1.034654577926573948e-01,-1.034654577926573948e-01,-1.034654577926573948e-01,-1.031960164963223459e-01,-9.753774927328640043e-02,-9.187948205025045501e-02,-8.649065612354954469e-02,-8.083238890051358538e-02,-7.517412167747763996e-02,-6.951585445444169453e-02,-6.385758723140573523e-02,-5.819932000836978286e-02,-5.281049408166888642e-02,-4.715222685863292712e-02,-4.149395963559697476e-02,-3.583569241256102239e-02,-3.017742518952507697e-02,-2.451915796648912460e-02,-1.886089074345317224e-02,-1.347206481675226365e-02,-7.813797593716313022e-03,-2.155530370680362393e-03,0.000000000000000000e+00,0.000000000000000000e+00,0.000000000000000000e+00
-2.785608479033083867e-02,-3.307910068851786789e-02,-3.830211658670490404e-02,-4.327641744212112201e-02,-4.849943334030815817e-02,-5.372244923849519432e-02,-5.894546513668222354e-02,-6.416848103486924582e-02,-6.939149693305626809e-02,-7.461451283124331813e-02,-7.958881368665952916e-02,-8.481182958484656531e-02,-9.003484548303360147e-02,-9.525786138122063762e-02,-1.004808772794076599e-01,-1.034654577926573948e-01,-1.034654577926573948e-01,-1.034654577926573948e-01,-1.034654577926573948e-01,-1.034654577926573948e-01,-1.034654577926573948e-01,-1.034654577926573948e-01,-1.034654577926573948e-01,-1.034654577926573948e-01,-1.023876926073172128e-01,-9.672942538428126735e-02,-9.107115816124530805e-02,-8.541289093820936262e-02,-7.975462371517340332e-02,-7.409635649213747177e-02,-6.870753056543654758e-02,-6.304926334240060215e-02,-5.739099611936464979e-02,-5.173272889632870436e-02,-4.607446167329275200e-02,-4.041619445025679269e-02,-3.502736852355588931e-02,-2.936910130051994042e-02,-2.371083407748398805e-02,-1.805256685444803569e-02,-1.239429963141208332e-02,-6.736032408376132694e-03,-1.077765185340181196e-03,0.000000000000000000e+00,0.000000000000000000e+00,0.000000000000000000e+00,0.000000000000000000e+00
-3.382524581683030163e-02,-3.904826171501733778e-02,-4.427127761320436700e-02,-4.949429351139141009e-02,-5.471730940957843237e-02,-5.969161026499465034e-02,-6.491462616318167955e-02,-7.013764206136872958e-02,-7.536065795955575186e-02,-8.058367385774277414e-02,-8.580668975592981029e-02,-9.102970565411686032e-02,-9.600400650953307136e-02,-1.012270224077200936e-01,-1.034654577926573948e-01,-1.034654577926573948e-01,-1.034654577926573948e-01,-1.034654577926573948e-01,-1.034654577926573948e-01,-1.034654577926573948e-01,-1.034654577926573948e-01,-1.034654577926573810e-01,-1.034654577926573948e-01,-1.013099274219770446e-01,-9.565166019894109917e-02,-9.026283427224017497e-02,-8.460456704920422955e-02,-7.894629982616825636e-02,-7.328803260313231094e-02,-6.762976538009637939e-02,-6.197149815706041315e-02,-5.631323093402447466e-02,-5.092440500732356434e-02,-4.526613778428761198e-02,-3.960787056125165961e-02,-3.394960333821570725e-02,-2.829133611517975835e-02,-2.263306889214380946e-02,-1.724424296544289914e-02,-1.158597574240694678e-02,-5.927708519370996146e-03,-2.694412963350452991e-04,0.000000000000000000e+00,0.000000000000000000e+00,0.000000000000000000e+00,0.000000000000000000e+00,0.000000000000000000e+00
-3.979440684332976458e-02,-4.501742274151680767e-02,-5.024043863970383689e-02,-5.546345453789086610e-02,-6.068647043607789532e-02,-6.590948633426492453e-02,-7.113250223245194681e-02,-7.610680308786818560e-02,-8.132981898605520787e-02,-8.655283488424225791e-02,-9.177585078242928018e-02,-9.699886668061631634e-02,-1.022218825788033386e-01,-1.034654577926573948e-01,-1.034654577926573948e-01,-1.034654577926573948e-01,-1.034654577926573948e-01,-1.034654577926573948e-01,-1.034654577926573810e-01,-1.034654577926573948e-01,-1.034654577926573948e-01,-1.034654577926573948e-01,-1.005016035329718976e-01,-9.484333630993595221e-02,-3.205827319507943418e-01,-3.149244647277584241e-01,-3.092661975047224510e-01,-3.038773715780215268e-01,-2.982191043549856091e-01,-6.116317426805528007e-02,-5.550490704501933464e-02,-4.984663982198338228e-02,-4.418837259894743685e-02,-3.879954667224652654e-02,-3.314127944921057417e-02,-2.748301222617462528e-02,-2.182474500313866944e-02,-1.616647778010272055e-02,-1.050821055706676818e-02,-4.849943334030815817e-03,0.000000000000000000e+00,0.000000000000000000e+00,0.000000000000000000e+00,0.000000000000000000e+00,0.000000000000000000e+00,0.000000000000000000e+00,0.000000000000000000e+00
-4.601228291260003878e-02,-5.123529881078708187e-02,-5.620959966620329984e-02,-6.143261556439032212e-02,-6.665563146257735827e-02,-7.187864736076439443e-02,-7.710166325895141670e-02,-8.232467915713845286e-02,-8.754769505532548901e-02,-9.252199591074171392e-02,-9.774501180892873620e-02,-1.029680277071157724e-01,-1.034654577926573948e-01,-1.034654577926573948e-01,-1.034654577926573948e-01,-1.034654577926573948e-01,-1.034654577926573948e-01,-1.034654577926573948e-01,-1.034654577926573948e-01,-1.034654577926573948e-01,-1.034654577926573948e-01,-9.942383834763171557e-02,-9.403501242093081913e-02,-8.837674519789485983e-02,-3.141161408387532772e-01,-3.084578736157173040e-01,-3.027996063926813863e-01,-2.971413391696454132e-01,-2.917525132429445445e-01,-5.469658315601420157e-02,-4.903831593297824920e-02,-4.338004870994229684e-02,-3.772178148690634447e-02,-3.206351426387039211e-02,-2.640524704083444321e-02,-2.101642111413353636e-02,-1.535815389109758226e-02,-9.699886668061629899e-03,-4.041619445025679269e-03,0.000000000000000000e+00,0.000000000000000000e+00,0.000000000000000000e+00,0.000000000000000000e+00,0.000000000000000000e+00,0.000000000000000000e+00,0.000000000000000000e+00,0.000000000000000000e+00
-5.198144393909950867e-02,-5.720445983728654482e-02,-6.242747573547356710e-02,-6.765049163366060325e-02,-7.262479248907682816e-02,-7.784780838726385044e-02,-8.307082428545088659e-02,-8.829384018363792275e-02,-9.351685608182495890e-02,-9.873987198001199506e-02,-1.034654577926573948e-01,-1.034654577926573948e-01,-1.034654577926573948e-01,-1.034654577926573948e-01,-1.034654577926573948e-01,-1.034654577926573948e-01,-1.034654577926573948e-01,-1.034654577926573948e-01,-1.034654577926574087e-01,-1.034654577926573948e-01,-9.861551445862656862e-02,-9.295724723559062319e-02,-8.729898001255466389e-02,-8.164071278951871846e-02,-3.076495497267122126e-01,-3.019912825036762394e-01,-2.963330152806402662e-01,-2.906747480576043485e-01,-2.850164808345683753e-01,-4.796055074763806714e-02,-4.257172482093715682e-02,-3.691345759790120445e-02,-3.125519037486525209e-02,-2.559692315182930666e-02,-1.993865592879335430e-02,-1.428038870575740020e-02,-8.622121482721449570e-03,-3.233295556020543589e-03,0.000000000000000000e+00,0.000000000000000000e+00,0.000000000000000000e+00,0.000000000000000000e+00,0.000000000000000000e+00,0.000000000000000000e+00,0.000000000000000000e+00,0.000000000000000000e+00,0.000000000000000000e+00
-5.795060496559897162e-02,-6.317362086378600083e-02,-6.839663676197303699e-02,-7.361965266016007314e-02,-7.884266855834710930e-02,-8.406568445653413157e-02,-8.903998531195035648e-02,-9.426300121013739264e-02,-9.948601710832442879e-02,-1.034654577926573948e-01,-1.034654577926573948e-01,-1.034654577926573948e-01,-1.034654577926573948e-01,-1.034654577926573948e-01,-1.034654577926573948e-01,-1.034654577926573948e-01,-1.034654577926573948e-01,-1.034654577926573948e-01,-1.031960164963223459e-01,-9.780719056962144942e-02,-9.214892334658549011e-02,-8.649065612354955856e-02,-8.083238890051358538e-02,-7.517412167747763996e-02,-3.009135173183360434e-01,-2.952552500953001258e-01,-2.898664241685992016e-01,-2.842081569455632839e-01,-2.785498897225273107e-01,-4.149395963559697476e-02,-3.583569241256102933e-02,-3.017742518952507697e-02,-2.478859926282417012e-02,-1.913033203978821775e-02,-1.347206481675226539e-02,-7.813797593716313022e-03,-2.155530370680362393e-03,0.000000000000000000e+00,0.000000000000000000e+00,0.000000000000000000e+00,0.000000000000000000e+00,0.000000000000000000e+00,0.000000000000000000e+00,0.000000000000000000e+00,0.000000000000000000e+00,0.000000000000000000e+00,0.000000000000000000e+00
-6.416848103486924582e-02,-6.914278189028547073e-02,-7.436579778847249300e-02,-7.958881368665952916e-02,-8.481182958484655143e-02,-9.003484548303361534e-02,-9.525786138122062374e-02,-1.004808772794076599e-01,-1.034654577926573948e-01,-1.034654577926573810e-01,-1.034654577926573948e-01,-1.034654577926573948e-01,-1.034654577926573810e-01,-1.034654577926573948e-01,-1.034654577926573948e-01,-1.034654577926573948e-01,-1.034654577926573948e-01,-1.023876926073172267e-01,-9.672942538428125347e-02,-9.107115816124532193e-02,-8.541289093820936262e-02,-8.002406501150843843e-02,-7.436579778847249300e-02,-6.870753056543654758e-02,-2.944469262062949788e-01,-2.887886589832590056e-01,-2.831303917602230880e-01,-2.777415658335221638e-01,-2.720832986104861906e-01,-3.502736852355588931e-02,-2.936910130051993695e-02,-2.371083407748399152e-02,-1.805256685444803222e-02,-1.239429963141208332e-02,-7.005473704711178209e-03,-1.347206481675226495e-03,0.000000000000000000e+00,0.000000000000000000e+00,0.000000000000000000e+00,0.000000000000000000e+00,0.000000000000000000e+00,0.000000000000000000e+00,0.000000000000000000e+00,0.000000000000000000e+00,0.000000000000000000e+00,0.000000000000000000e+00,0.000000000000000000e+00
-7.013764206136871571e-02,-7.536065795955573798e-02,-8.058367385774277414e-02,-8.555797471315898517e-02,-9.078099061134603520e-02,-9.600400650953307136e-02,-1.012270224077201075e-01,-1.034654577926573948e-01,-1.034654577926573948e-01,-1.034654577926573948e-01,-1.034654577926573810e-01,-1.034654577926573948e-01,-1.034654577926573810e-01,-1.034654577926573948e-01,-1.034654577926573810e-01,-1.034654577926573948e-01,-1.015793687183120797e-01,-9.592110149527614815e-02,-9.026283427224017497e-02,-8.460456704920421567e-02,-7.894629982616827024e-02,-7.328803260313232482e-02,-6.762976538009636551e-02,-6.224093945339546907e-02,-5.658267223035950977e-02,-5.092440500732356434e-02,-4.526613778428760504e-02,-3.960787056125165961e-02,-3.394960333821570725e-02,-2.856077741151480387e-02,-2.290251018847885150e-02,-1.724424296544289914e-02,-1.158597574240694678e-02,-5.927708519370996146e-03,-2.694412963350452991e-04,0.000000000000000000e+00,0.000000000000000000e+00,0.000000000000000000e+00,0.000000000000000000e+00,0.000000000000000000e+00,0.000000000000000000e+00,0.000000000000000000e+00,0.000000000000000000e+00,0.000000000000000000e+00,0.000000000000000000e+00,0.000000000000000000e+00,0.000000000000000000e+00
-7.610680308786817172e-02,-8.132981898605520787e-02,-8.655283488424224403e-02,-9.177585078242928018e-02,-9.699886668061630246e-02,-1.019731675360325274e-01,-1.034654577926573948e-01,-1.034654577926573810e-01,-1.034654577926573810e-01,-1.034654577926573948e-01,-1.034654577926573948e-01,-1.034654577926573948e-01,-1.034654577926573948e-01,-1.034654577926573948e-01,-1.034654577926573948e-01,-1.005016035329719115e-01,-9.484333630993595221e-02,-8.918506908689999291e-02,-8.379624316019909647e-02,-7.813797593716313716e-02,-7.247970871412717786e-02,-6.682144149109123243e-02,-6.116317426805528701e-02,-5.550490704501934158e-02,-4.984663982198338228e-02,-4.445781389528247196e-02,-3.879954667224652654e-02,-3.314127944921057417e-02,-2.748301222617462528e-02,-2.182474500313867291e-02,-1.616647778010271708e-02,-1.077765185340181196e-02,-5.119384630365860465e-03,0.000000000000000000e+00,0.000000000000000000e+00,0.000000000000000000e+00,0.000000000000000000e+00,0.000000000000000000e+00,0.000000000000000000e+00,0.000000000000000000e+00,0.000000000000000000e+00,0.000000000000000000e+00,0.000000000000000000e+00,0.000000000000000000e+00,0.000000000000000000e+00,0.000000000000000000e+00,0.000000000000000000e+00
-3.392707329558812823e-01,-3.444937488540683046e-01,-3.497167647522553824e-01,-3.549397806504424047e-01,-1.029680277071157724e-01,-1.034654577926573810e-01,-1.034654577926573948e-01,-1.034654577926573810e-01,-1.034654577926573948e-01,-1.034654577926573948e-01,-1.034654577926573948e-01,-1.034654577926573948e-01,-1.034654577926573948e-01,-1.034654577926573948e-01,-9.969327964396676456e-02,-9.403501242093081913e-02,-8.837674519789485983e-02,-8.271847797485891440e-02,-7.706021075182295510e-02,-7.140194352878699580e-02,-6.601311760208609936e-02,-6.035485037905014699e-02,-5.469658315601420157e-02,-4.903831593297824920e-02,-4.338004870994228990e-02,-3.772178148690634447e-02,-3.233295556020544109e-02,-2.667468833716948526e-02,-2.101642111413353636e-02,-1.535815389109758226e-02,-9.699886668061631634e-03,-4.041619445025679269e-03,0.000000000000000000e+00,0.000000000000000000e+00,0.000000000000000000e+00,0.000000000000000000e+00,0.000000000000000000e+00,0.000000000000000000e+00,0.000000000000000000e+00,0.000000000000000000e+00,0.000000000000000000e+00,0.000000000000000000e+00,0.000000000000000000e+00,0.000000000000000000e+00,0.000000000000000000e+00,0.000000000000000000e+00,0.000000000000000000e+00
-3.454886090251515496e-01,-3.507116249233386274e-01,-3.556859257787548523e-01,-3.606602266341710772e-01,-1.034654577926573948e-01,-1.034654577926573948e-01,-1.034654577926573948e-01,-1.034654577926573948e-01,-1.034654577926573948e-01,-1.034654577926573948e-01,-1.034654577926573810e-01,-1.034654577926573948e-01,-1.034654577926574087e-01,-9.861551445862658249e-02,-9.295724723559063707e-02,-8.756842130888972675e-02,-8.191015408585376745e-02,-7.625188686281780814e-02,-7.059361963978186272e-02,-6.493535241674591729e-02,-5.927708519370996493e-02,-5.388825926700906155e-02,-4.822999204397311612e-02,-4.257172482093715682e-02,-3.691345759790120445e-02,-3.125519037486525903e-02,-2.559692315182930666e-02,-1.993865592879335083e-02,-1.454983000209244572e-02,-8.891562779056495086e-03,-3.233295556020543589e-03,0.000000000000000000e+00,0.000000000000000000e+00,0.000000000000000000e+00,0.000000000000000000e+00,0.000000000000000000e+00,0.000000000000000000e+00,0.000000000000000000e+00,0.000000000000000000e+00,0.000000000000000000e+00,0.000000000000000000e+00,0.000000000000000000e+00,0.000000000000000000e+00,0.000000000000000000e+00,0.000000000000000000e+00,0.000000000000000000e+00,0.000000000000000000e+00
-3.220005821734830964e-01,-3.566807859498380973e-01,-3.606602266341710772e-01,-3.606602266341710772e-01,-1.034654577926574087e-01,-1.034654577926573948e-01,-1.034654577926574087e-01,-1.034654577926573948e-01,-1.034654577926573948e-01,-1.034654577926574087e-01,-1.034654577926573948e-01,-1.034654577926573948e-01,-9.780719056962144942e-02,-9.214892334658550399e-02,-8.649065612354954469e-02,-8.083238890051358538e-02,-7.517412167747762608e-02,-6.978529575077672964e-02,-6.412702852774077034e-02,-5.846876130470483185e-02,-5.281049408166888642e-02,-4.715222685863293406e-02,-4.149395963559697476e-02,-3.610513370889606444e-02,-3.044686648586012248e-02,-2.478859926282417359e-02,-1.913033203978821775e-02,-1.347206481675226539e-02,-7.813797593716313022e-03,-2.155530370680362393e-03,0.000000000000000000e+00,0.000000000000000000e+00,0.000000000000000000e+00,0.000000000000000000e+00,0.000000000000000000e+00,0.000000000000000000e+00,0.000000000000000000e+00,0.000000000000000000e+00,0.000000000000000000e+00,0.000000000000000000e+00,0.000000000000000000e+00,0.000000000000000000e+00,0.000000000000000000e+00,0.000000000000000000e+00,0.000000000000000000e+00,0.000000000000000000e+00,0.000000000000000000e+00
-2.603270239114085505e-01,-3.380271577420272400e-01,-3.606602266341710772e-01,-3.606602266341710217e-01,-1.034654577926573948e-01,-1.034654577926573948e-01,-1.034654577926573948e-01,-1.034654577926573948e-01,-1.034654577926573948e-01,-1.034654577926573810e-01,-1.023876926073171989e-01,-9.672942538428126735e-02,-9.134059945758035703e-02,-8.568233223454439773e-02,-8.002406501150845231e-02,-7.436579778847249300e-02,-6.870753056543654758e-02,-6.304926334240060215e-02,-5.739099611936465672e-02,-5.200217019266374641e-02,-4.634390296962780098e-02,-4.068563574659184168e-02,-3.502736852355588931e-02,-2.936910130051994042e-02,-2.371083407748398805e-02,-1.832200815078308120e-02,-1.266374092774712884e-02,-7.005473704711178209e-03,-1.347206481675226495e-03,0.000000000000000000e+00,0.000000000000000000e+00,0.000000000000000000e+00,0.000000000000000000e+00,0.000000000000000000e+00,0.000000000000000000e+00,0.000000000000000000e+00,0.000000000000000000e+00,0.000000000000000000e+00,0.000000000000000000e+00,0.000000000000000000e+00,0.000000000000000000e+00,0.000000000000000000e+00,0.000000000000000000e+00,0.000000000000000000e+00,0.000000000000000000e+00,0.000000000000000000e+00,0.000000000000000000e+00
0.000000000000000000e+00,-1.616647778010271708e-02,-9.376557112459577015e-02,-1.034654577926573948e-01,-1.034654577926574087e-01,-1.034654577926573948e-01,-1.034654577926573810e-01,-1.034654577926573810e-01,-1.034654577926573810e-01,-1.015793687183120797e-01,-9.592110149527614815e-02,-9.026283427224018885e-02,-8.460456704920421567e-02,-7.894629982616827024e-02,-7.355747389946735992e-02,-6.789920667643141450e-02,-6.224093945339546213e-02,-5.658267223035950977e-02,-5.092440500732357128e-02,-4.526613778428761198e-02,-3.987731185758670166e-02,-3.421904463455074930e-02,-2.856077741151480387e-02,-2.290251018847885150e-02,-1.724424296544289914e-02,-1.158597574240694851e-02,-5.927708519370996146e-03,-5.388825926700905981e-04,0.000000000000000000e+00,0.000000000000000000e+00,0.000000000000000000e+00,0.000000000000000000e+00,0.000000000000000000e+00,0.000000000000000000e+00,0.000000000000000000e+00,0.000000000000000000e+00,0.000000000000000000e+00,0.000000000000000000e+00,0.000000000000000000e+00,0.000000000000000000e+00,0.000000000000000000e+00,0.000000000000000000e+00,0.000000000000000000e+00,0.000000000000000000e+00,0.000000000000000000e+00,0.000000000000000000e+00,0.000000000000000000e+00
0.000000000000000000e+00,0.000000000000000000e+00,-2.586636444816434871e-02,-1.034654577926573948e-01,-1.034654577926573810e-01,-1.034654577926573948e-01,-1.034654577926573948e-01,-1.034654577926573948e-01,-1.005016035329718838e-01,-9.511277760627100120e-02,-8.945451038323504189e-02,-8.379624316019908259e-02,-7.813797593716313716e-02,-7.247970871412717786e-02,-6.682144149109123243e-02,-6.116317426805528007e-02,-5.577434834135437669e-02,-5.011608111831842433e-02,-4.445781389528247196e-02,-3.879954667224652654e-02,-3.314127944921057417e-02,-2.748301222617462181e-02,-2.209418629947371843e-02,-1.643591907643776259e-02,-1.077765185340181196e-02,-5.119384630365860465e-03,0.000000000000000000e+00,0.000000000000000000e+00,0.000000000000000000e+00,0.000000000000000000e+00,0.000000000000000000e+00,0.000000000000000000e+00,0.000000000000000000e+00,0.000000000000000000e+00,0.000000000000000000e+00,0.000000000000000000e+00,0.000000000000000000e+00,0.000000000000000000e+00,0.000000000000000000e+00,0.000000000000000000e+00,0.000000000000000000e+00,0.000000000000000000e+00,0.000000000000000000e+00,0.000000000000000000e+00,0.000000000000000000e+00,0.000000000000000000e+00,0.000000000000000000e+00
0.000000000000000000e+00,0.000000000000000000e+00,0.000000000000000000e+00,-3.556625111622598034e-02,-1.034654577926573948e-01,-1.034654577926573948e-01,-1.034654577926573948e-01,-9.969327964396676456e-02,-9.403501242093081913e-02,-8.837674519789485983e-02,-8.271847797485890053e-02,-7.732965204815800409e-02,-7.167138482512204478e-02,-6.601311760208609936e-02,-6.035485037905014699e-02,-5.469658315601420157e-02,-4.903831593297824920e-02,-4.364949000627733888e-02,-3.799122278324138652e-02,-3.233295556020543415e-02,-2.667468833716948873e-02,-2.101642111413353636e-02,-1.535815389109758226e-02,-9.699886668061631634e-03,-4.311060741360724785e-03,0.000000000000000000e+00,0.000000000000000000e+00,0.000000000000000000e+00,0.000000000000000000e+00,0.000000000000000000e+00,0.000000000000000000e+00,0.000000000000000000e+00,0.000000000000000000e+00,0.000000000000000000e+00,0.000000000000000000e+00,0.000000000000000000e+00,0.000000000000000000e+00,0.000000000000000000e+00,0.000000000000000000e+00,0.000000000000000000e+00,0.000000000000000000e+00,0.000000000000000000e+00,0.000000000000000000e+00,0.000000000000000000e+00,0.000000000000000000e+00,0.000000000000000000e+00,0.000000000000000000e+00
0.000000000000000000e+00,0.000000000000000000e+00,0.000000000000000000e+00,0.000000000000000000e+00,-4.849943334030815123e-02,-1.034654577926573810e-01,-9.888495575496161760e-02,-9.322668853192568605e-02,-8.756842130888972675e-02,-8.191015408585376745e-02,-7.625188686281780814e-02,-7.059361963978187660e-02,-6.493535241674591729e-02,-5.954652649004500697e-02,-5.388825926700906155e-02,-4.822999204397311612e-02,-4.257172482093715682e-02,-3.691345759790120445e-02,-3.125519037486525209e-02,-2.586636444816435218e-02,-2.020809722512839635e-02,-1.454983000209244745e-02,-8.891562779056493351e-03,-3.233295556020543589e-03,0.000000000000000000e+00,0.000000000000000000e+00,0.000000000000000000e+00,0.000000000000000000e+00,0.000000000000000000e+00,0.000000000000000000e+00,0.000000000000000000e+00,0.000000000000000000e+00,0.000000000000000000e+00,0.000000000000000000e+00,0.000000000000000000e+00,0.000000000000000000e+00,0.000000000000000000e+00,0.000000000000000000e+00,0.000000000000000000e+00,0.000000000000000000e+00,0.000000000000000000e+00,0.000000000000000000e+00,0.000000000000000000e+00,0.000000000000000000e+00,0.000000000000000000e+00,0.000000000000000000e+00,0.000000000000000000e+00
0.000000000000000000e+00,0.000000000000000000e+00,0.000000000000000000e+00,0.000000000000000000e+00,0.000000000000000000e+00,-5.501654469541206183e-02,-9.214892334658550399e-02,-8.649065612354954469e-02,-8.110183019684863437e-02,-7.544356297381267507e-02,-6.978529575077672964e-02,-6.412702852774078421e-02,-5.846876130470483185e-02,-5.281049408166888642e-02,-4.742166815496797611e-02,-4.176340093193202374e-02,-3.610513370889607138e-02,-3.044686648586012595e-02,-2.478859926282417359e-02,-1.913033203978821775e-02,-1.347206481675226365e-02,-8.083238890051358538e-03,-2.424971667015407908e-03,0.000000000000000000e+00,0.000000000000000000e+00,0.000000000000000000e+00,0.000000000000000000e+00,0.000000000000000000e+00,0.000000000000000000e+00,0.000000000000000000e+00,0.000000000000000000e+00,0.000000000000000000e+00,0.000000000000000000e+00,0.000000000000000000e+00,0.000000000000000000e+00,0.000000000000000000e+00,0.000000000000000000e+00,0.000000000000000000e+00,0.000000000000000000e+00,0.000000000000000000e+00,0.000000000000000000e+00,0.000000000000000000e+00,0.000000000000000000e+00,0.000000000000000000e+00,0.000000000000000000e+00,0.000000000000000000e+00,0.000000000000000000e+00
0.000000000000000000e+00,0.000000000000000000e+00,0.000000000000000000e+00,0.000000000000000000e+00,0.000000000000000000e+00,0.000000000000000000e+00,-5.890660341124927257e-02,-8.002406501150843843e-02,-7.436579778847249300e-02,-6.870753056543654758e-02,-6.331870463873563726e-02,-5.766043741569969183e-02,-5.200217019266374641e-02,-4.634390296962779404e-02,-4.068563574659184168e-02,-3.502736852355588237e-02,-2.963854259685498593e-02,-2.398027537381903357e-02,-1.832200815078308120e-02,-1.266374092774712884e-02,-7.005473704711178209e-03,-1.347206481675226495e-03,0.000000000000000000e+00,0.000000000000000000e+00,0.000000000000000000e+00,0.000000000000000000e+00,0.000000000000000000e+00,0.000000000000000000e+00,0.000000000000000000e+00,0.000000000000000000e+00,0.000000000000000000e+00,0.000000000000000000e+00,0.000000000000000000e+00,0.000000000000000000e+00,0.000000000000000000e+00,0.000000000000000000e+00,0.000000000000000000e+00,0.000000000000000000e+00,0.000000000000000000e+00,0.000000000000000000e+00,0.000000000000000000e+00,0.000000000000000000e+00,0.000000000000000000e+00,0.000000000000000000e+00,0.000000000000000000e+00,0.000000000000000000e+00,0.000000000000000000e+00
0.000000000000000000e+00,0.000000000000000000e+00,0.000000000000000000e+00,0.000000000000000000e+00,0.000000000000000000e+00,0.000000000000000000e+00,-2.475491910078228292e-03,-5.746677648395887711e-02,-6.789920667643141450e-02,-6.224093945339546907e-02,-5.658267223035951671e-02,-5.092440500732357128e-02,-4.553557908062266096e-02,-3.987731185758670166e-02,-3.421904463455075623e-02,-2.856077741151480387e-02,-2.290251018847885150e-02,-1.724424296544289914e-02,-1.185541703874199229e-02,-6.197149815706041662e-03,-5.388825926700905981e-04,0.000000000000000000e+00,0.000000000000000000e+00,0.000000000000000000e+00,0.000000000000000000e+00,0.000000000000000000e+00,0.000000000000000000e+00,0.000000000000000000e+00,0.000000000000000000e+00,0.000000000000000000e+00,0.000000000000000000e+00,0.000000000000000000e+00,0.000000000000000000e+00,0.000000000000000000e+00,0.000000000000000000e+00,0.000000000000000000e+00,0.000000000000000000e+00,0.000000000000000000e+00,0.000000000000000000e+00,0.000000000000000000e+00,0.000000000000000000e+00,0.000000000000000000e+00,0.000000000000000000e+00,0.000000000000000000e+00,0.000000000000000000e+00,0.000000000000000000e+00,0.000000000000000000e+00
0.000000000000000000e+00,0.000000000000000000e+00,0.000000000000000000e+00,0.000000000000000000e+00,0.000000000000000000e+00,0.000000000000000000e+00,0.000000000000000000e+00,-8.386360348428285177e-03,-5.567330785522874026e-02,-5.577434834135438363e-02,-5.011608111831843126e-02,-4.445781389528247196e-02,-3.879954667224651960e-02,-3.341072074554561622e-02,-2.775245352250966732e-02,-2.209418629947371843e-02,-1.643591907643776259e-02,-1.077765185340181023e-02,-5.119384630365860465e-03,0.000000000000000000e+00,0.000000000000000000e+00,0.000000000000000000e+00,0.000000000000000000e+00,0.000000000000000000e+00,0.000000000000000000e+00,0.000000000000000000e+00,0.000000000000000000e+00,0.000000000000000000e+00,0.000000000000000000e+00,0.000000000000000000e+00,0.000000000000000000e+00,0.000000000000000000e+00,0.000000000000000000e+00,0.000000000000000000e+00,0.000000000000000000e+00,0.000000000000000000e+00,0.000000000000000000e+00,0.000000000000000000e+00,0.000000000000000000e+00,0.000000000000000000e+00,0.000000000000000000e+00,0.000000000000000000e+00,0.000000000000000000e+00,0.000000000000000000e+00,0.000000000000000000e+00,0.000000000000000000e+00,0.000000000000000000e+00
0.000000000000000000e+00,0.000000000000000000e+00,0.000000000000000000e+00,0.000000000000000000e+00,0.000000000000000000e+00,0.000000000000000000e+00,0.000000000000000000e+00,0.000000000000000000e+00,-1.367414578900355039e-02,-4.930775722931329125e-02,-4.364949000627733194e-02,-3.799122278324138652e-02,-3.233295556020543415e-02,-2.667468833716949220e-02,-2.101642111413353289e-02,-1.562759518743262604e-02,-9.969327964396675415e-03,-4.311060741360724785e-03,0.000000000000000000e+00,0.000000000000000000e+00,0.000000000000000000e+00,0.000000000000000000e+00,0.000000000000000000e+00,0.000000000000000000e+00,0.000000000000000000e+00,0.000000000000000000e+00,0.000000000000000000e+00,0.000000000000000000e+00,0.000000000000000000e+00,0.000000000000000000e+00,0.000000000000000000e+00,0.000000000000000000e+00,0.000000000000000000e+00,0.000000000000000000e+00,0.000000000000000000e+00,0.000000000000000000e+00,0.000000000000000000e+00,0.000000000000000000e+00,0.000000000000000000e+00,0.000000000000000000e+00,0.000000000000000000e+00,0.000000000000000000e+00,0.000000000000000000e+00,0.000000000000000000e+00,0.000000000000000000e+00,0.000000000000000000e+00,0.000000000000000000e+00
0.000000000000000000e+00,0.000000000000000000e+00,0.000000000000000000e+00,0.000000000000000000e+00,0.000000000000000000e+00,0.000000000000000000e+00,0.000000000000000000e+00,0.000000000000000000e+00,0.000000000000000000e+00,-1.463403040719714679e-02,-3.718289889423624650e-02,-3.152463167120030108e-02,-2.586636444816435218e-02,-2.020809722512839635e-02,-1.454983000209244572e-02,-8.891562779056495086e-03,-3.233295556020543589e-03,0.000000000000000000e+00,0.000000000000000000e+00,0.000000000000000000e+00,0.000000000000000000e+00,0.000000000000000000e+00,0.000000000000000000e+00,0.000000000000000000e+00,0.000000000000000000e+00,0.000000000000000000e+00,0.000000000000000000e+00,0.000000000000000000e+00,0.000000000000000000e+00,0.000000000000000000e+00,0.000000000000000000e+00,0.000000000000000000e+00,0.000000000000000000e+00,0.000000000000000000e+00,0.000000000000000000e+00,0.000000000000000000e+00,0.000000000000000000e+00,0.000000000000000000e+00,0.000000000000000000e+00,0.000000000000000000e+00,0.000000000000000000e+00,0.000000000000000000e+00,0.000000000000000000e+00,0.000000000000000000e+00,0.000000000000000000e+00,0.000000000000000000e+00,0.000000000000000000e+00
0.000000000000000000e+00,0.000000000000000000e+00,0.000000000000000000e+00,0.000000000000000000e+00,0.000000000000000000e+00,0.000000000000000000e+00,0.000000000000000000e+00,0.000000000000000000e+00,0.000000000000000000e+00,0.000000000000000000e+00,-1.427196866524692992e-02,-2.478859926282417012e-02,-1.939977333612325980e-02,-1.374150611308730917e-02,-8.083238890051358538e-03,-2.424971667015407908e-03,0.000000000000000000e+00,0.000000000000000000e+00,0.000000000000000000e+00,0.000000000000000000e+00,0.000000000000000000e+00,0.000000000000000000e+00,0.000000000000000000e+00,0.000000000000000000e+00,0.000000000000000000e+00,0.000000000000000000e+00,0.000000000000000000e+00,0.000000000000000000e+00,0.000000000000000000e+00,0.000000000000000000e+00,0.000000000000000000e+00,0.000000000000000000e+00,0.000000000000000000e+00,0.000000000000000000e+00,0.000000000000000000e+00,0.000000000000000000e+00,0.000000000000000000e+00,0.000000000000000000e+00,0.000000000000000000e+00,0.000000000000000000e+00,0.000000000000000000e+00,0.000000000000000000e+00,0.000000000000000000e+00,0.000000000000000000e+00,0.000000000000000000e+00,0.000000000000000000e+00,0.000000000000000000e+00
0.000000000000000000e+00,0.000000000000000000e+00,0.000000000000000000e+00,0.000000000000000000e+00,0.000000000000000000e+00,0.000000000000000000e+00,0.000000000000000000e+00,0.000000000000000000e+00,0.000000000000000000e+00,0.000000000000000000e+00,0.000000000000000000e+00,-1.030612958481548318e-02,-1.266374092774712884e-02,-7.005473704711178209e-03,-1.616647778010271794e-03,0.000000000000000000e+00,0.000000000000000000e+00,0.000000000000000000e+00,0.000000000000000000e+00,0.000000000000000000e+00,0.000000000000000000e+00,0.000000000000000000e+00,0.000000000000000000e+00,0.000000000000000000e+00,0.000000000000000000e+00,0.000000000000000000e+00,0.000000000000000000e+00,0.000000000000000000e+00,0.000000000000000000e+00,0.000000000000000000e+00,0.000000000000000000e+00,0.000000000000000000e+00,0.000000000000000000e+00,0.000000000000000000e+00,0.000000000000000000e+00,0.000000000000000000e+00,0.000000000000000000e+00,0.000000000000000000e+00,0.000000000000000000e+00,0.000000000000000000e+00,0.000000000000000000e+00,0.000000000000000000e+00,0.000000000000000000e+00,0.000000000000000000e+00,0.000000000000000000e+00,0.000000000000000000e+00,0.000000000000000000e+00
0.000000000000000000e+00,0.000000000000000000e+00,0.000000000000000000e+00,0.000000000000000000e+00,0.000000000000000000e+00,0.000000000000000000e+00,0.000000000000000000e+00,0.000000000000000000e+00,0.000000000000000000e+00,0.000000000000000000e+00,0.000000000000000000e+00,0.000000000000000000e+00,-4.066879566557090112e-03,-5.388825926700905981e-04,0.000000000000000000e+00,0.000000000000000000e+00,0.000000000000000000e+00,0.000000000000000000e+00,0.000000000000000000e+00,0.000000000000000000e+00,0.000000000000000000e+00,0.000000000000000000e+00,0.000000000000000000e+00,0.000000000000000000e+00,0.000000000000000000e+00,0.000000000000000000e+00,0.000000000000000000e+00,0.000000000000000000e+00,0.000000000000000000e+00,0.000000000000000000e+00,0.000000000000000000e+00,0.000000000000000000e+00,0.000000000000000000e+00,0.000000000000000000e+00,0.000000000000000000e+00,0.000000000000000000e+00,0.000000000000000000e+00,0.000000000000000000e+00,0.000000000000000000e+00,0.000000000000000000e+00,0.000000000000000000e+00,0.000000000000000000e+00,0.000000000000000000e+00,0.000000000000000000e+00,0.000000000000000000e+00,0.000000000000000000e+00,0.000000000000000000e+00
