-1.712296853711013644e-01,-1.712296853711013644e-01,-1.712296853711013644e-01,-1.712296853711013644e-01,-1.712296853711013644e-01,-1.712296853711013644e-01,-1.712296853711013644e-01,-1.712296853711013644e-01,-1.712296853711013644e-01,-1.557585249401526595e-01,-1.130674281118957403e-01,-1.170224616055217243e-01,-1.207448460701108783e-01,-1.244672305347000463e-01,-1.284222640283260164e-01,-1.321446484929151843e-01,-1.358670329575043523e-01,-1.395894174220935202e-01,-1.435444509157194903e-01,-1.472668353803086583e-01,-1.509892198448977985e-01,-1.547116043094869664e-01,-1.586666378031129643e-01,-1.623890222677021045e-01,-1.661114067322912724e-01,-1.698337911968804403e-01,-1.712296853711013644e-01,-1.712296853711013644e-01,-1.712296853711013644e-01,-1.712296853711013644e-01,-1.712296853711013644e-01,-1.712296853711013644e-01,-1.712296853711013644e-01,-1.712296853711013644e-01,-1.712296853711013644e-01,-1.712296853711013644e-01,-1.712296853711013644e-01,-1.712296853711013644e-01,-1.712296853711013644e-01,-1.712296853711013644e-01,-1.712296853711013644e-01,-1.712296853711013644e-01,-1.712296853711013644e-01,-1.712296853711013644e-01,-1.712296853711013644e-01,-1.712296853711013644e-01,-1.712296853711013644e-01
-1.712296853711013644e-01,-1.712296853711013644e-01,-1.712296853711013644e-01,-1.712296853711013644e-01,-1.712296853711013644e-01,-1.712296853711013644e-01,-1.712296853711013644e-01,-1.712296853711013644e-01,-1.712296853711013644e-01,-1.201050612402596307e-01,-1.067859043279015402e-01,-1.105082887924906943e-01,-1.142306732570798622e-01,-1.181857067507058462e-01,-1.219080912152950003e-01,-1.256304756798841682e-01,-1.295855091735101383e-01,-1.333078936380993063e-01,-1.370302781026884742e-01,-1.407526625672776144e-01,-1.447076960609036123e-01,-1.484300805254927802e-01,-1.521524649900819204e-01,-1.558748494546710883e-01,-1.598298829482970584e-01,-1.635522674128862264e-01,-1.672746518774753943e-01,-1.709970363420645345e-01,-1.712296853711013644e-01,-1.712296853711013644e-01,-1.712296853711013644e-01,-1.712296853711013644e-01,-1.712296853711013644e-01,-1.712296853711013644e-01,-1.712296853711013644e-01,-1.712296853711013644e-01,-1.712296853711013644e-01,-1.712296853711013644e-01,-1.712296853711013644e-01,-1.712296853711013644e-01,-1.712296853711013644e-01,-1.712296853711013644e-01,-1.712296853711013644e-01,-1.712296853711013644e-01,-1.712296853711013644e-01,-1.712296853711013644e-01,-1.712296853711013644e-01
-1.712296853711013644e-01,-1.712296853711013644e-01,-1.712296853711013644e-01,-1.712296853711013644e-01,-1.712296853711013644e-01,-1.712296853711013644e-01,-1.712296853711013644e-01,-1.712296853711013644e-01,-1.393785792395288992e-01,-9.654934705028136999e-02,-1.002717315148705102e-01,-1.042267650084964942e-01,-1.079491494730856482e-01,-1.116715339376748162e-01,-1.153939184022639702e-01,-1.193489518958899542e-01,-1.230713363604791083e-01,-1.267937208250682624e-01,-1.305161052896574303e-01,-1.344711387832834282e-01,-1.381935232478725684e-01,-1.419159077124617363e-01,-1.458709412060877064e-01,-1.495933256706768744e-01,-1.533157101352660423e-01,-1.570380945998551825e-01,-1.609931280934811804e-01,-1.647155125580703483e-01,-1.684378970226594885e-01,-1.712296853711013644e-01,-1.712296853711013644e-01,-1.712296853711013644e-01,-1.712296853711013644e-01,-1.712296853711013644e-01,-1.712296853711013644e-01,-1.712296853711013644e-01,-1.712296853711013644e-01,-1.712296853711013644e-01,-1.712296853711013644e-01,-1.712296853711013644e-01,-1.712296853711013644e-01,-1.712296853711013644e-01,-1.712296853711013644e-01,-1.712296853711013644e-01,-1.712296853711013644e-01,-1.712296853711013644e-01,-1.712296853711013644e-01
-1.712296853711013644e-01,-1.712296853711013644e-01,-1.712296853711013644e-01,-1.712296853711013644e-01,-1.712296853711013644e-01,-1.712296853711013644e-01,-1.712296853711013644e-01,-1.656897303671620303e-01,-9.427374873501492836e-02,-9.026782326628714215e-02,-9.399020773087631009e-02,-9.771259219546546415e-02,-1.014349766600546321e-01,-1.053900101536806022e-01,-1.091123946182697702e-01,-1.128347790828589242e-01,-1.165571635474480783e-01,-1.205121970410740623e-01,-1.242345815056632163e-01,-1.279569659702523843e-01,-1.316793504348415522e-01,-1.356343839284675223e-01,-1.393567683930566903e-01,-1.430791528576458305e-01,-1.468015373222349984e-01,-1.507565708158609963e-01,-1.544789552804501365e-01,-1.582013397450393044e-01,-1.621563732386652745e-01,-1.658787577032544425e-01,-1.696011421678436104e-01,-1.712296853711013644e-01,-1.712296853711013644e-01,-1.712296853711013644e-01,-1.712296853711013644e-01,-1.712296853711013644e-01,-1.712296853711013644e-01,-1.712296853711013644e-01,-1.712296853711013644e-01,-1.712296853711013644e-01,-1.712296853711013644e-01,-1.712296853711013644e-01,-1.712296853711013644e-01,-1.712296853711013644e-01,-1.712296853711013644e-01,-1.712296853711013644e-01,-1.712296853711013644e-01
-1.712296853711013644e-01,-1.712296853711013644e-01,-1.712296853711013644e-01,-1.712296853711013644e-01,-1.712296853711013644e-01,-1.712296853711013644e-01,-1.712296853711013644e-01,-1.177058681283174035e-01,-8.003126598866694419e-02,-8.375365045325611213e-02,-8.747603491784526619e-02,-9.143106841147126407e-02,-9.515345287606043201e-02,-9.887583734064958607e-02,-1.025982218052387401e-01,-1.065532552988647241e-01,-1.102756397634538782e-01,-1.139980242280430461e-01,-1.177204086926322002e-01,-1.216754421862581703e-01,-1.253978266508473383e-01,-1.291202111154364784e-01,-1.328425955800256464e-01,-1.367976290736516443e-01,-1.405200135382407844e-01,-1.442423980028299524e-01,-1.479647824674191203e-01,-1.519198159610450904e-01,-1.556422004256342584e-01,-1.593645848902234263e-01,-1.630869693548125665e-01,-1.670420028484385644e-01,-1.707643873130277323e-01,-1.712296853711013644e-01,-1.712296853711013644e-01,-1.712296853711013644e-01,-1.712296853711013644e-01,-1.712296853711013644e-01,-1.712296853711013644e-01,-1.712296853711013644e-01,-1.712296853711013644e-01,-1.712296853711013644e-01,-1.712296853711013644e-01,-1.712296853711013644e-01,-1.712296853711013644e-01,-1.712296853711013644e-01,-1.712296853711013644e-01
-1.712296853711013644e-01,-1.712296853711013644e-01,-1.712296853711013644e-01,-1.712296853711013644e-01,-1.712296853711013644e-01,-1.712296853711013644e-01,-1.482265126250855436e-01,-6.979470871104676011e-02,-7.351709317563592805e-02,-7.723947764022508211e-02,-8.119451113385106611e-02,-8.491689559844022017e-02,-8.863928006302938811e-02,-9.236166452761854218e-02,-9.631669802124454005e-02,-1.000390824858336941e-01,-1.037614669504228621e-01,-1.077165004440488322e-01,-1.114388849086379862e-01,-1.151612693732271403e-01,-1.188836538378162944e-01,-1.228386873314422922e-01,-1.265610717960314324e-01,-1.302834562606206004e-01,-1.340058407252097683e-01,-1.379608742188357384e-01,-1.416832586834249064e-01,-1.454056431480140743e-01,-1.491280276126032145e-01,-1.530830611062292124e-01,-1.568054455708183803e-01,-1.605278300354075205e-01,-1.642502144999966884e-01,-1.682052479936226586e-01,-1.712296853711013644e-01,-1.712296853711013644e-01,-1.712296853711013644e-01,-1.712296853711013644e-01,-1.712296853711013644e-01,-1.712296853711013644e-01,-1.712296853711013644e-01,-1.712296853711013644e-01,-1.712296853711013644e-01,-1.712296853711013644e-01,-1.712296853711013644e-01,-1.712296853711013644e-01,-1.712296853711013644e-01
-1.712296853711013644e-01,-1.712296853711013644e-01,-1.712296853711013644e-01,-1.712296853711013644e-01,-1.712296853711013644e-01,-1.712296853711013644e-01,-9.096577035339761808e-02,-6.328053589801574397e-02,-6.723556939164171409e-02,-7.095795385623088203e-02,-7.468033832082003609e-02,-7.840272278540920403e-02,-8.235775627903517415e-02,-8.608014074362432821e-02,-8.980252520821349616e-02,-9.352490967280266410e-02,-9.747994316642864809e-02,-1.012023276310178022e-01,-1.049247120956069562e-01,-1.086470965601961103e-01,-1.126021300538221082e-01,-1.163245145184112622e-01,-1.200468989830004163e-01,-1.240019324766264003e-01,-1.277243169412155543e-01,-1.314467014058047223e-01,-1.351690858703938902e-01,-1.391241193640198603e-01,-1.428465038286090283e-01,-1.465688882931981962e-01,-1.502912727577873364e-01,-1.542463062514133343e-01,-1.579686907160024745e-01,-1.616910751805916424e-01,-1.654134596451808104e-01,-1.693684931388067805e-01,-1.712296853711013644e-01,-1.712296853711013644e-01,-1.712296853711013644e-01,-1.712296853711013644e-01,-1.712296853711013644e-01,-1.712296853711013644e-01,-1.712296853711013644e-01,-1.712296853711013644e-01,-1.712296853711013644e-01,-1.712296853711013644e-01,-1.712296853711013644e-01
-1.712296853711013644e-01,-1.712296853711013644e-01,-1.712296853711013644e-01,-1.712296853711013644e-01,-1.712296853711013644e-01,-1.255141511653657393e-01,-5.327662764943236207e-02,-5.699901211402153001e-02,-6.072139657861069795e-02,-6.444378104319985201e-02,-6.839881453682583601e-02,-7.212119900141500395e-02,-7.584358346600414413e-02,-7.956596793059331207e-02,-8.352100142421929607e-02,-8.724338588880845013e-02,-9.096577035339761808e-02,-9.468815481798677214e-02,-9.864318831161275614e-02,-1.023655727762019102e-01,-1.060879572407910781e-01,-1.098103417053802322e-01,-1.137653751990062162e-01,-1.174877596635953703e-01,-1.212101441281845382e-01,-1.249325285927736923e-01,-1.288875620863996763e-01,-1.326099465509888442e-01,-1.363323310155780121e-01,-1.402873645092039823e-01,-1.440097489737931502e-01,-1.477321334383822904e-01,-1.514545179029714583e-01,-1.554095513965974285e-01,-1.591319358611865964e-01,-1.628543203257757643e-01,-1.665767047903649045e-01,-1.705317382839909024e-01,-1.712296853711013644e-01,-1.712296853711013644e-01,-1.712296853711013644e-01,-1.712296853711013644e-01,-1.712296853711013644e-01,-1.712296853711013644e-01,-1.712296853711013644e-01,-1.712296853711013644e-01,-1.712296853711013644e-01
-1.712296853711013644e-01,-1.712296853711013644e-01,-1.712296853711013644e-01,-1.712296853711013644e-01,-1.712296853711013644e-01,-5.906377224672332282e-02,-4.676245483640134593e-02,-5.048483930099049999e-02,-5.420722376557965405e-02,-5.816225725920565193e-02,-6.188464172379481987e-02,-6.560702618838397393e-02,-6.956205968200994405e-02,-7.328444414659909811e-02,-7.700682861118826605e-02,-8.072921307577740624e-02,-8.468424656940339024e-02,-8.840663103399257206e-02,-9.212901549858172612e-02,-9.585139996317089406e-02,-9.980643345679687806e-02,-1.035288179213860182e-01,-1.072512023859751862e-01,-1.109735868505643541e-01,-1.149286203441903242e-01,-1.186510048087794922e-01,-1.223733892733686462e-01,-1.260957737379578003e-01,-1.300508072315837982e-01,-1.337731916961729661e-01,-1.374955761607621063e-01,-1.412179606253512743e-01,-1.451729941189772444e-01,-1.488953785835664123e-01,-1.526177630481555525e-01,-1.565727965417815504e-01,-1.602951810063707183e-01,-1.640175654709598585e-01,-1.677399499355490264e-01,-1.712296853711013644e-01,-1.712296853711013644e-01,-1.712296853711013644e-01,-1.712296853711013644e-01,-1.712296853711013644e-01,-1.712296853711013644e-01,-1.712296853711013644e-01,-1.712296853711013644e-01
-1.712296853711013644e-01,-1.712296853711013644e-01,-1.712296853711013644e-01,-1.712296853711013644e-01,-9.769078134899325527e-02,-3.652589755878116184e-02,-4.024828202337030203e-02,-4.420331551699629991e-02,-4.792569998158544009e-02,-5.164808444617460803e-02,-5.537046891076377597e-02,-5.932550240438977385e-02,-6.304788686897892791e-02,-6.677027133356806810e-02,-7.049265579815724991e-02,-7.444768929178322003e-02,-7.817007375637237410e-02,-8.189245822096152816e-02,-8.584749171458751216e-02,-8.956987617917666622e-02,-9.329226064376583416e-02,-9.701464510835500210e-02,-1.009696786019809861e-01,-1.046920630665701402e-01,-1.084144475311592942e-01,-1.121368319957484483e-01,-1.160918654893744323e-01,-1.198142499539636002e-01,-1.235366344185527543e-01,-1.272590188831419222e-01,-1.312140523767678923e-01,-1.349364368413570603e-01,-1.386588213059462282e-01,-1.423812057705353684e-01,-1.463362392641613663e-01,-1.500586237287505065e-01,-1.537810081933396744e-01,-1.575033926579288424e-01,-1.614584261515548125e-01,-1.651808106161439804e-01,-1.689031950807331484e-01,-1.712296853711013644e-01,-1.712296853711013644e-01,-1.712296853711013644e-01,-1.712296853711013644e-01,-1.712296853711013644e-01,-1.712296853711013644e-01
-1.712296853711013644e-01,-1.712296853711013644e-01,-1.712296853711013644e-01,-1.480011338782061259e-01,-2.628934028116095001e-02,-3.024437377478694788e-02,-3.396675823937608807e-02,-3.768914270396525601e-02,-4.141152716855442395e-02,-4.536656066218039407e-02,-4.908894512676956201e-02,-5.281132959135872995e-02,-5.653371405594789789e-02,-6.048874754957386801e-02,-6.421113201416303595e-02,-6.793351647875219002e-02,-7.165590094334134408e-02,-7.561093443696732808e-02,-7.933331890155649602e-02,-8.305570336614563620e-02,-8.677808783073480414e-02,-9.073312132436078814e-02,-9.445550578894995608e-02,-9.817789025353911014e-02,-1.021329237471650941e-01,-1.058553082117542482e-01,-1.095776926763434023e-01,-1.133000771409325702e-01,-1.172551106345585403e-01,-1.209774950991477083e-01,-1.246998795637368623e-01,-1.284222640283260164e-01,-1.323772975219520143e-01,-1.360996819865411822e-01,-1.398220664511303224e-01,-1.435444509157194903e-01,-1.474994844093454605e-01,-1.512218688739346284e-01,-1.549442533385237963e-01,-1.586666378031129643e-01,-1.626216712967389344e-01,-1.663440557613281023e-01,-1.700664402259172425e-01,-1.712296853711013644e-01,-1.712296853711013644e-01,-1.712296853711013644e-01,-1.712296853711013644e-01
-1.712296853711013644e-01,-1.712296853711013644e-01,-1.712296853711013644e-01,-6.454556499340347031e-02,-2.000781649716676380e-02,-2.373020096175593174e-02,-2.745258542634507193e-02,-3.140761891997104205e-02,-3.513000338456020999e-02,-3.885238784914937793e-02,-4.257477231373854587e-02,-4.652980580736451599e-02,-5.025219027195367005e-02,-5.397457473654283799e-02,-5.769695920113200593e-02,-6.165199269475798993e-02,-6.537437715934713012e-02,-6.909676162393629806e-02,-7.281914608852546600e-02,-7.677417958215143612e-02,-8.049656404674059018e-02,-8.421894851132974424e-02,-8.794133297591891218e-02,-9.189636646954491006e-02,-9.561875093413407800e-02,-9.934113539872321819e-02,-1.030635198633123861e-01,-1.070185533569383562e-01,-1.107409378215275242e-01,-1.144633222861166783e-01,-1.184183557797426622e-01,-1.221407402443318302e-01,-1.258631247089209704e-01,-1.295855091735101383e-01,-1.335405426671361362e-01,-1.372629271317252764e-01,-1.409853115963144443e-01,-1.447076960609036123e-01,-1.486627295545295824e-01,-1.523851140191187503e-01,-1.561074984837078905e-01,-1.598298829482970584e-01,-1.637849164419230563e-01,-1.675073009065121965e-01,-1.712296853711013644e-01,-1.712296853711013644e-01,-1.712296853711013644e-01
-1.712296853711013644e-01,-1.712296853711013644e-01,-1.196106820535563775e-01,-9.771259219546551966e-03,-1.349364368413571991e-02,-1.721602814872488785e-02,-2.117106164235091348e-02,-2.489344610694002591e-02,-2.861583057152919385e-02,-3.233821503611833403e-02,-3.629324852974433191e-02,-4.001563299433349985e-02,-4.373801745892264004e-02,-4.769305095254862403e-02,-5.141543541713779197e-02,-5.513781988172694604e-02,-5.886020434631611398e-02,-6.281523783994211185e-02,-6.653762230453126592e-02,-7.026000676912041998e-02,-7.398239123370957404e-02,-7.793742472733554416e-02,-8.165980919192471210e-02,-8.538219365651386616e-02,-8.910457812110303411e-02,-9.305961161472901810e-02,-9.678199607931818604e-02,-1.005043805439073401e-01,-1.042267650084964942e-01,-1.081817985021224782e-01,-1.119041829667116322e-01,-1.156265674313007863e-01,-1.193489518958899542e-01,-1.233039853895159382e-01,-1.270263698541050923e-01,-1.307487543186942602e-01,-1.347037878123202304e-01,-1.384261722769093983e-01,-1.421485567414985662e-01,-1.458709412060877064e-01,-1.498259746997137043e-01,-1.535483591643028445e-01,-1.572707436288920124e-01,-1.609931280934811804e-01,-1.649481615871071505e-01,-1.686705460516963184e-01,-1.712296853711013644e-01
-1.712296853711013644e-01,-1.712296853711013644e-01,-2.675463833923460988e-02,-3.257086406515535826e-03,-7.212119900141533702e-03,-1.093450436473067389e-02,-1.465688882931984183e-02,-1.837927329390900977e-02,-2.233430678753500764e-02,-2.605669125212414783e-02,-2.977907571671328801e-02,-3.350146018130245595e-02,-3.745649367492845383e-02,-4.117887813951759401e-02,-4.490126260410676196e-02,-4.862364706869591602e-02,-5.257868056232190002e-02,-5.630106502691106796e-02,-6.002344949150023590e-02,-6.397848298512620602e-02,-6.770086744971537396e-02,-7.142325191430454190e-02,-7.514563637889368208e-02,-7.910066987251965220e-02,-8.282305433710882014e-02,-8.654543880169798808e-02,-9.026782326628712827e-02,-9.422285675991312615e-02,-9.794524122450229409e-02,-1.016676256890914620e-01,-1.053900101536806022e-01,-1.093450436473066001e-01,-1.130674281118957403e-01,-1.167898125764849082e-01,-1.205121970410740623e-01,-1.244672305347000463e-01,-1.281896149992892142e-01,-1.319119994638783822e-01,-1.356343839284675223e-01,-1.395894174220935202e-01,-1.433118018866826604e-01,-1.470341863512718283e-01,-1.509892198448977985e-01,-1.547116043094869664e-01,-1.584339887740761343e-01,-1.621563732386652745e-01,-1.661114067322912724e-01
-1.712296853711013644e-01,-9.096577035339761808e-02,-2.775557561562891351e-17,-2.775557561562891351e-17,-6.979470871104898055e-04,-4.420331551699657746e-03,-8.375365045325627866e-03,-1.209774950991479581e-02,-1.582013397450396375e-02,-1.954251843909313169e-02,-2.349755193271910181e-02,-2.721993639730826975e-02,-3.094232086189740993e-02,-3.466470532648657787e-02,-3.861973882011257575e-02,-4.234212328470168818e-02,-4.606450774929085612e-02,-4.978689221388002406e-02,-5.374192570750600806e-02,-5.746431017209517600e-02,-6.118669463668433006e-02,-6.490907910127349800e-02,-6.886411259489946812e-02,-7.258649705948863606e-02,-7.630888152407779013e-02,-8.026391501770377412e-02,-8.398629948229292819e-02,-8.770868394688211001e-02,-9.143106841147125019e-02,-9.538610190509724807e-02,-9.910848636968641601e-02,-1.028308708342755701e-01,-1.065532552988647241e-01,-1.105082887924906943e-01,-1.142306732570798622e-01,-1.179530577216690301e-01,-1.216754421862581703e-01,-1.256304756798841682e-01,-1.293528601444733084e-01,-1.330752446090625041e-01,-1.367976290736516443e-01,-1.407526625672776144e-01,-1.444750470318667823e-01,-1.481974314964559503e-01,-1.519198159610450904e-01,-1.558748494546710883e-01,-1.595972339192602285e-01
-1.498259746997137043e-01,-2.775557561562891351e-17,-2.775557561562891351e-17,-2.775557561562891351e-17,-2.775557561562891351e-17,0.000000000000000000e+00,-1.861192232294611726e-03,-5.583576696883779666e-03,-9.538610190509749787e-03,-1.326099465509891773e-02,-1.698337911968808567e-02,-2.070576358427722585e-02,-2.466079707790322373e-02,-2.838318154249236391e-02,-3.210556600708150410e-02,-3.582795047167067204e-02,-3.978298396529666991e-02,-4.350536842988581010e-02,-4.722775289447497804e-02,-5.095013735906414598e-02,-5.490517085269012998e-02,-5.862755531727929792e-02,-6.234993978186845198e-02,-6.607232424645761992e-02,-7.002735774008359004e-02,-7.374974220467274411e-02,-7.747212666926191205e-02,-8.119451113385105223e-02,-8.514954462747705011e-02,-8.887192909206620417e-02,-9.259431355665537211e-02,-9.654934705028136999e-02,-1.002717315148705102e-01,-1.039941159794596642e-01,-1.077165004440488183e-01,-1.116715339376748162e-01,-1.153939184022639702e-01,-1.191163028668531243e-01,-1.228386873314422922e-01,-1.267937208250682624e-01,-1.305161052896574303e-01,-1.342384897542465982e-01,-1.379608742188357384e-01,-1.419159077124617363e-01,-1.456382921770508765e-01,-1.493606766416400444e-01,-1.530830611062292124e-01
-6.421113201416303595e-02,-2.775557561562891351e-17,-2.775557561562891351e-17,-2.775557561562891351e-17,-2.775557561562891351e-17,-2.775557561562891351e-17,-2.775557561562891351e-17,-2.775557561562891351e-17,-3.024437377478733646e-03,-6.746821842067873831e-03,-1.070185533569387171e-02,-1.442423980028303965e-02,-1.814662426487217983e-02,-2.186900872946134777e-02,-2.582404222308734565e-02,-2.954642668767645808e-02,-3.326881115226562602e-02,-3.699119561685479396e-02,-4.094622911048079184e-02,-4.466861357506993202e-02,-4.839099803965909996e-02,-5.211338250424826790e-02,-5.606841599787423802e-02,-5.979080046246341984e-02,-6.351318492705257390e-02,-6.723556939164171409e-02,-7.119060288526771196e-02,-7.491298734985685215e-02,-7.863537181444602009e-02,-8.235775627903517415e-02,-8.631278977266115815e-02,-9.003517423725032609e-02,-9.375755870183949403e-02,-9.771259219546546415e-02,-1.014349766600546321e-01,-1.051573611246437723e-01,-1.088797455892329402e-01,-1.128347790828589242e-01,-1.165571635474480783e-01,-1.202795480120372462e-01,-1.240019324766264003e-01,-1.279569659702523843e-01,-1.316793504348415522e-01,-1.354017348994306924e-01,-1.391241193640198603e-01,-1.430791528576458305e-01,-1.468015373222349984e-01
-5.551115123125782702e-17,-2.775557561562891351e-17,-2.775557561562891351e-17,-2.775557561562891351e-17,-2.775557561562891351e-17,-2.775557561562891351e-17,-2.775557561562891351e-17,-2.775557561562891351e-17,-2.775557561562891351e-17,-4.652980580736598704e-04,-4.187682522662800055e-03,-7.910066987251967996e-03,-1.163245145184116369e-02,-1.558748494546713381e-02,-1.930986941005630175e-02,-2.303225387464546969e-02,-2.698728736827143981e-02,-3.070967183286058000e-02,-3.443205629744974794e-02,-3.815444076203891588e-02,-4.210947425566488600e-02,-4.583185872025405394e-02,-4.955424318484320800e-02,-5.327662764943237594e-02,-5.723166114305835994e-02,-6.095404560764752788e-02,-6.467643007223668195e-02,-6.839881453682583601e-02,-7.235384803045182001e-02,-7.607623249504097407e-02,-7.979861695963012813e-02,-8.352100142421928219e-02,-8.747603491784526619e-02,-9.119841938243442026e-02,-9.492080384702361595e-02,-9.864318831161275614e-02,-1.025982218052387263e-01,-1.063206062698278942e-01,-1.100429907344170621e-01,-1.139980242280430323e-01,-1.177204086926322002e-01,-1.214427931572213543e-01,-1.251651776218105083e-01,-1.291202111154365062e-01,-1.328425955800256464e-01,-1.365649800446148143e-01,-1.402873645092039823e-01
-2.775557561562891351e-17,-2.775557561562891351e-17,-2.775557561562891351e-17,-2.775557561562891351e-17,-2.775557561562891351e-17,-2.775557561562891351e-17,-2.775557561562891351e-17,-2.775557561562891351e-17,-2.775557561562891351e-17,-2.775557561562891351e-17,-2.775557561562891351e-17,-1.628543203257809546e-03,-5.350927667846949731e-03,-9.073312132436089916e-03,-1.279569659702525786e-02,-1.675073009065125573e-02,-2.047311455524042367e-02,-2.419549901982956386e-02,-2.791788348441873180e-02,-3.187291697804470192e-02,-3.559530144263386986e-02,-3.931768590722303780e-02,-4.327271940084898016e-02,-4.699510386543814811e-02,-5.071748833002732992e-02,-5.443987279461648399e-02,-5.839490628824248186e-02,-6.211729075283162205e-02,-6.583967521742077611e-02,-6.956205968200995793e-02,-7.351709317563592805e-02,-7.723947764022508211e-02,-8.096186210481423617e-02,-8.468424656940340411e-02,-8.863928006302938811e-02,-9.236166452761854218e-02,-9.608404899220772399e-02,-9.980643345679687806e-02,-1.037614669504228621e-01,-1.074838514150120022e-01,-1.112062358796011702e-01,-1.149286203441903242e-01,-1.188836538378163221e-01,-1.226060383024054623e-01,-1.263284227669946302e-01,-1.302834562606206004e-01,-1.340058407252097683e-01
-2.775557561562891351e-17,-2.775557561562891351e-17,-2.775557561562891351e-17,-2.775557561562891351e-17,-2.775557561562891351e-17,-2.775557561562891351e-17,-2.775557561562891351e-17,-2.775557561562891351e-17,-2.775557561562891351e-17,-2.775557561562891351e-17,-2.775557561562891351e-17,-2.775557561562891351e-17,-2.775557561562891351e-17,-2.791788348441875955e-03,-6.514172813031071652e-03,-1.023655727762021184e-02,-1.395894174220940753e-02,-1.791397523583537765e-02,-2.163635970042454559e-02,-2.535874416501368578e-02,-2.908112862960282596e-02,-3.303616212322879608e-02,-3.675854658781796402e-02,-4.048093105240713196e-02,-4.420331551699629991e-02,-4.815834901062227003e-02,-5.188073347521142409e-02,-5.560311793980059203e-02,-5.955815143342658990e-02,-6.328053589801574397e-02,-6.700292036260489803e-02,-7.072530482719405209e-02,-7.468033832082004997e-02,-7.840272278540920403e-02,-8.212510724999835809e-02,-8.584749171458751216e-02,-8.980252520821349616e-02,-9.352490967280266410e-02,-9.724729413739183204e-02,-1.009696786019809861e-01,-1.049247120956069701e-01,-1.086470965601961103e-01,-1.123694810247852782e-01,-1.160918654893744462e-01,-1.200468989830004163e-01,-1.237692834475895842e-01,-1.274916679121787522e-01
-2.775557561562891351e-17,-2.775557561562891351e-17,0.000000000000000000e+00,-2.775557561562891351e-17,-2.775557561562891351e-17,-2.775557561562891351e-17,-2.775557561562891351e-17,-2.775557561562891351e-17,-2.775557561562891351e-17,-2.775557561562891351e-17,-2.775557561562891351e-17,-2.775557561562891351e-17,-2.775557561562891351e-17,-2.775557561562891351e-17,-2.775557561562891351e-17,-3.955033493625997876e-03,-7.677417958215165816e-03,-1.139980242280430600e-02,-1.512218688739350170e-02,-1.907722038101949957e-02,-2.279960484560866751e-02,-2.652198931019777994e-02,-3.024437377478694788e-02,-3.419940726841291800e-02,-3.792179173300208594e-02,-4.164417619759122613e-02,-4.536656066218039407e-02,-4.932159415580639195e-02,-5.304397862039554601e-02,-5.676636308498472783e-02,-6.048874754957388189e-02,-6.444378104319985201e-02,-6.816616550778900607e-02,-7.188854997237816014e-02,-7.584358346600414413e-02,-7.956596793059329820e-02,-8.328835239518246614e-02,-8.701073685977163408e-02,-9.096577035339761808e-02,-9.468815481798678602e-02,-9.841053928257594008e-02,-1.021329237471650941e-01,-1.060879572407910643e-01,-1.098103417053802322e-01,-1.135327261699693863e-01,-1.172551106345585403e-01,-1.212101441281845382e-01
-2.775557561562891351e-17,-2.775557561562891351e-17,-2.775557561562891351e-17,-2.775557561562891351e-17,-2.775557561562891351e-17,-2.775557561562891351e-17,-2.775557561562891351e-17,-2.775557561562891351e-17,0.000000000000000000e+00,-2.775557561562891351e-17,-2.775557561562891351e-17,-2.775557561562891351e-17,-2.775557561562891351e-17,-2.775557561562891351e-17,-2.775557561562891351e-17,-2.775557561562891351e-17,-1.163245145184149676e-03,-5.118278638810119796e-03,-8.840663103399287737e-03,-1.256304756798845568e-02,-1.628543203257762362e-02,-2.024046552620362149e-02,-2.396284999079276168e-02,-2.768523445538190186e-02,-3.140761891997104205e-02,-3.536265241359701217e-02,-3.908503687818618011e-02,-4.280742134277534805e-02,-4.652980580736451599e-02,-5.048483930099049999e-02,-5.420722376557966793e-02,-5.792960823016883587e-02,-6.165199269475798993e-02,-6.560702618838396005e-02,-6.932941065297312799e-02,-7.305179511756229593e-02,-7.700682861118826605e-02,-8.072921307577742012e-02,-8.445159754036657418e-02,-8.817398200495572824e-02,-9.212901549858172612e-02,-9.585139996317089406e-02,-9.957378442776006200e-02,-1.032961688923492022e-01,-1.072512023859751862e-01,-1.109735868505643541e-01,-1.146959713151535082e-01
-2.775557561562891351e-17,-2.775557561562891351e-17,-2.775557561562891351e-17,-2.775557561562891351e-17,-2.775557561562891351e-17,-2.775557561562891351e-17,-2.775557561562891351e-17,-2.775557561562891351e-17,-2.775557561562891351e-17,0.000000000000000000e+00,-2.775557561562891351e-17,-2.775557561562891351e-17,0.000000000000000000e+00,-2.775557561562891351e-17,-2.775557561562891351e-17,-2.775557561562891351e-17,-2.775557561562891351e-17,-2.775557561562891351e-17,-2.326490290368243841e-03,-6.281523783994241716e-03,-1.000390824858338190e-02,-1.372629271317254984e-02,-1.744867717776174554e-02,-2.140371067138768790e-02,-2.512609513597685584e-02,-2.884847960056599603e-02,-3.257086406515516397e-02,-3.652589755878116184e-02,-4.024828202337030203e-02,-4.397066648795946997e-02,-4.769305095254863791e-02,-5.164808444617460803e-02,-5.537046891076378985e-02,-5.909285337535295779e-02,-6.281523783994211185e-02,-6.677027133356808197e-02,-7.049265579815724991e-02,-7.421504026274640398e-02,-7.793742472733555804e-02,-8.189245822096152816e-02,-8.561484268555068222e-02,-8.933722715013985016e-02,-9.329226064376583416e-02,-9.701464510835500210e-02,-1.007370295729441562e-01,-1.044594140375333241e-01,-1.084144475311592942e-01
-2.775557561562891351e-17,-2.775557561562891351e-17,-2.775557561562891351e-17,-2.775557561562891351e-17,-2.775557561562891351e-17,-2.775557561562891351e-17,-2.775557561562891351e-17,-2.775557561562891351e-17,-2.775557561562891351e-17,-2.775557561562891351e-17,-2.775557561562891351e-17,-2.775557561562891351e-17,-2.775557561562891351e-17,0.000000000000000000e+00,0.000000000000000000e+00,-2.775557561562891351e-17,-2.775557561562891351e-17,-2.775557561562891351e-17,-2.775557561562891351e-17,-2.775557561562891351e-17,-3.489735435552365761e-03,-7.212119900141505946e-03,-1.116715339376750382e-02,-1.488953785835667176e-02,-1.861192232294583970e-02,-2.256695581657183758e-02,-2.628934028116097776e-02,-3.001172474575011795e-02,-3.373410921033928589e-02,-3.768914270396525601e-02,-4.141152716855439619e-02,-4.513391163314359189e-02,-4.885629609773274595e-02,-5.281132959135872995e-02,-5.653371405594788401e-02,-6.025609852053706583e-02,-6.397848298512620602e-02,-6.793351647875219002e-02,-7.165590094334134408e-02,-7.537828540793051202e-02,-7.910066987251966608e-02,-8.305570336614565008e-02,-8.677808783073479026e-02,-9.050047229532395821e-02,-9.422285675991314002e-02,-9.817789025353912402e-02,-1.019002747181282781e-01
-2.775557561562891351e-17,-2.775557561562891351e-17,-2.775557561562891351e-17,-2.775557561562891351e-17,-5.551115123125782702e-17,-2.775557561562891351e-17,-2.775557561562891351e-17,-2.775557561562891351e-17,-2.775557561562891351e-17,-2.775557561562891351e-17,-2.775557561562891351e-17,-2.775557561562891351e-17,-2.775557561562891351e-17,-2.775557561562891351e-17,-2.775557561562891351e-17,-2.775557561562891351e-17,-2.775557561562891351e-17,-2.775557561562891351e-17,-2.775557561562891351e-17,0.000000000000000000e+00,-2.775557561562891351e-17,-9.305961161473197407e-04,-4.652980580736459926e-03,-8.375365045325627866e-03,-1.233039853895162574e-02,-1.605278300354079368e-02,-1.977516746812993387e-02,-2.349755193271910181e-02,-2.745258542634507193e-02,-3.117496989093421211e-02,-3.489735435552338005e-02,-3.885238784914937793e-02,-4.257477231373851811e-02,-4.629715677832768606e-02,-5.001954124291684012e-02,-5.397457473654283799e-02,-5.769695920113199206e-02,-6.141934366572116000e-02,-6.514172813031031406e-02,-6.909676162393629806e-02,-7.281914608852545212e-02,-7.654153055311462006e-02,-8.026391501770377412e-02,-8.421894851132974424e-02,-8.794133297591891218e-02,-9.166371744050808013e-02,-9.538610190509724807e-02
-2.775557561562891351e-17,0.000000000000000000e+00,-2.775557561562891351e-17,-2.775557561562891351e-17,-2.775557561562891351e-17,-2.775557561562891351e-17,-2.775557561562891351e-17,-2.775557561562891351e-17,-2.775557561562891351e-17,-2.775557561562891351e-17,-2.775557561562891351e-17,-2.775557561562891351e-17,-2.775557561562891351e-17,-2.775557561562891351e-17,-5.551115123125782702e-17,-2.775557561562891351e-17,-2.775557561562891351e-17,-2.775557561562891351e-17,-2.775557561562891351e-17,-2.775557561562891351e-17,0.000000000000000000e+00,-2.775557561562891351e-17,-2.775557561562891351e-17,-2.093841261331413905e-03,-5.816225725920581846e-03,-9.538610190509749787e-03,-1.349364368413571991e-02,-1.721602814872491560e-02,-2.093841261331405579e-02,-2.466079707790322373e-02,-2.861583057152916609e-02,-3.233821503611833403e-02,-3.606059950070750197e-02,-3.978298396529666991e-02,-4.373801745892264004e-02,-4.746040192351180798e-02,-5.118278638810097592e-02,-5.513781988172694604e-02,-5.886020434631612785e-02,-6.258258881090528192e-02,-6.630497327549443598e-02,-7.026000676912041998e-02,-7.398239123370957404e-02,-7.770477569829872810e-02,-8.142716016288789604e-02,-8.538219365651386616e-02,-8.910457812110303411e-02
-2.775557561562891351e-17,-2.775557561562891351e-17,0.000000000000000000e+00,-2.775557561562891351e-17,-2.775557561562891351e-17,0.000000000000000000e+00,-2.775557561562891351e-17,-2.775557561562891351e-17,-2.775557561562891351e-17,-2.775557561562891351e-17,-2.775557561562891351e-17,-2.775557561562891351e-17,-2.775557561562891351e-17,-2.775557561562891351e-17,-2.775557561562891351e-17,-2.775557561562891351e-17,-2.775557561562891351e-17,-2.775557561562891351e-17,-2.775557561562891351e-17,-2.775557561562891351e-17,0.000000000000000000e+00,-2.775557561562891351e-17,-2.775557561562891351e-17,-2.775557561562891351e-17,-5.551115123125782702e-17,-3.257086406515508070e-03,-6.979470871104676011e-03,-1.070185533569387171e-02,-1.465688882931986958e-02,-1.837927329390900977e-02,-2.210165775849820546e-02,-2.582404222308734565e-02,-2.977907571671328801e-02,-3.350146018130245595e-02,-3.722384464589162389e-02,-4.094622911048076408e-02,-4.490126260410676196e-02,-4.862364706869591602e-02,-5.234603153328507008e-02,-5.606841599787423802e-02,-6.002344949150023590e-02,-6.374583395608937608e-02,-6.746821842067854402e-02,-7.142325191430451414e-02,-7.514563637889368208e-02,-7.886802084348283615e-02,-8.259040530807199021e-02
-2.775557561562891351e-17,-2.775557561562891351e-17,-2.775557561562891351e-17,-2.775557561562891351e-17,-2.775557561562891351e-17,-2.775557561562891351e-17,-2.775557561562891351e-17,0.000000000000000000e+00,-2.775557561562891351e-17,-2.775557561562891351e-17,-2.775557561562891351e-17,-2.775557561562891351e-17,-2.775557561562891351e-17,-2.775557561562891351e-17,-2.775557561562891351e-17,-2.775557561562891351e-17,-2.775557561562891351e-17,-2.775557561562891351e-17,-2.775557561562891351e-17,-2.775557561562891351e-17,-2.775557561562891351e-17,-2.775557561562891351e-17,-2.775557561562891351e-17,-2.775557561562891351e-17,-2.775557561562891351e-17,-2.775557561562891351e-17,-6.979470871104898055e-04,-4.420331551699657746e-03,-8.142716016288825687e-03,-1.186510048087799363e-02,-1.582013397450399150e-02,-1.954251843909313169e-02,-2.326490290368229963e-02,-2.698728736827143981e-02,-3.094232086189740993e-02,-3.466470532648657787e-02,-3.838708979107574581e-02,-4.210947425566488600e-02,-4.606450774929085612e-02,-4.978689221388005182e-02,-5.350927667846919200e-02,-5.723166114305835994e-02,-6.118669463668434394e-02,-6.490907910127349800e-02,-6.863146356586265207e-02,-7.235384803045180613e-02,-7.630888152407779013e-02
-2.775557561562891351e-17,-2.775557561562891351e-17,-2.775557561562891351e-17,-2.775557561562891351e-17,-2.775557561562891351e-17,-2.775557561562891351e-17,-2.775557561562891351e-17,-2.775557561562891351e-17,-2.775557561562891351e-17,-2.775557561562891351e-17,-2.775557561562891351e-17,-2.775557561562891351e-17,0.000000000000000000e+00,-2.775557561562891351e-17,-2.775557561562891351e-17,-2.775557561562891351e-17,-2.775557561562891351e-17,-2.775557561562891351e-17,-2.775557561562891351e-17,-2.775557561562891351e-17,-2.775557561562891351e-17,-2.775557561562891351e-17,-2.775557561562891351e-17,-2.775557561562891351e-17,-2.775557561562891351e-17,-5.551115123125782702e-17,-2.775557561562891351e-17,-2.775557561562891351e-17,-1.628543203257781791e-03,-5.583576696883779666e-03,-9.305961161472892096e-03,-1.302834562606211555e-02,-1.698337911968808567e-02,-2.070576358427725361e-02,-2.442814804886639379e-02,-2.815053251345553398e-02,-3.210556600708150410e-02,-3.582795047167069979e-02,-3.955033493625983998e-02,-4.327271940084900792e-02,-4.722775289447497804e-02,-5.095013735906413210e-02,-5.467252182365331392e-02,-5.839490628824246798e-02,-6.234993978186845198e-02,-6.607232424645760605e-02,-6.979470871104676011e-02
-2.889500940637337867e-02,-1.177204086926325610e-02,-2.775557561562891351e-17,-2.775557561562891351e-17,-2.775557561562891351e-17,-2.775557561562891351e-17,-2.775557561562891351e-17,-2.775557561562891351e-17,-2.775557561562891351e-17,-2.775557561562891351e-17,-2.775557561562891351e-17,-2.775557561562891351e-17,-2.775557561562891351e-17,0.000000000000000000e+00,-2.775557561562891351e-17,-2.775557561562891351e-17,0.000000000000000000e+00,-2.775557561562891351e-17,-2.775557561562891351e-17,-2.775557561562891351e-17,-2.775557561562891351e-17,-2.775557561562891351e-17,-2.775557561562891351e-17,-2.775557561562891351e-17,-2.775557561562891351e-17,-2.775557561562891351e-17,-2.775557561562891351e-17,0.000000000000000000e+00,-2.775557561562891351e-17,-2.775557561562891351e-17,-2.791788348441875955e-03,-6.746821842067846076e-03,-1.046920630665704177e-02,-1.419159077124620971e-02,-1.791397523583537765e-02,-2.186900872946134777e-02,-2.559139319405048796e-02,-2.931377765863965590e-02,-3.326881115226562602e-02,-3.699119561685479396e-02,-4.071358008144396190e-02,-4.443596454603310208e-02,-4.839099803965907221e-02,-5.211338250424826790e-02,-5.583576696883742196e-02,-5.955815143342658990e-02,-6.351318492705257390e-02
-5.886020434631610010e-02,-4.173723580920599141e-02,-2.354408173852645669e-02,-6.421113201416334126e-03,-2.775557561562891351e-17,-2.775557561562891351e-17,-2.775557561562891351e-17,-2.775557561562891351e-17,-2.775557561562891351e-17,-2.775557561562891351e-17,-5.551115123125782702e-17,-2.775557561562891351e-17,-2.775557561562891351e-17,-2.775557561562891351e-17,-2.775557561562891351e-17,-2.775557561562891351e-17,-2.775557561562891351e-17,0.000000000000000000e+00,0.000000000000000000e+00,-2.775557561562891351e-17,-2.775557561562891351e-17,-2.775557561562891351e-17,-2.775557561562891351e-17,-2.775557561562891351e-17,-2.775557561562891351e-17,-2.775557561562891351e-17,-2.775557561562891351e-17,-2.775557561562891351e-17,-2.775557561562891351e-17,-2.775557561562891351e-17,-2.775557561562891351e-17,-2.326490290368299352e-04,-3.955033493626025631e-03,-7.910066987251967996e-03,-1.163245145184116369e-02,-1.535483591643030388e-02,-1.907722038101949957e-02,-2.303225387464546969e-02,-2.675463833923460988e-02,-3.047702280382375006e-02,-3.419940726841294576e-02,-3.815444076203891588e-02,-4.187682522662808382e-02,-4.559920969121722401e-02,-4.955424318484319413e-02,-5.327662764943236207e-02,-9.983551458542647139e-02
-8.882539928625884929e-02,-7.063224521557930069e-02,-5.350927667846919200e-02,-3.638630814135904168e-02,-1.819315407067953472e-02,-1.070185533569384395e-03,-2.775557561562891351e-17,-2.775557561562891351e-17,-2.775557561562891351e-17,-2.775557561562891351e-17,-2.775557561562891351e-17,-2.775557561562891351e-17,-2.775557561562891351e-17,-2.775557561562891351e-17,-2.775557561562891351e-17,-2.775557561562891351e-17,-2.775557561562891351e-17,-2.775557561562891351e-17,-2.775557561562891351e-17,-2.775557561562891351e-17,-2.775557561562891351e-17,-2.775557561562891351e-17,-2.775557561562891351e-17,0.000000000000000000e+00,-2.775557561562891351e-17,-2.775557561562891351e-17,-2.775557561562891351e-17,-2.775557561562891351e-17,-2.775557561562891351e-17,-2.775557561562891351e-17,-2.775557561562891351e-17,-2.775557561562891351e-17,-2.775557561562891351e-17,-1.395894174220951856e-03,-5.118278638810119796e-03,-9.073312132436089916e-03,-1.279569659702525786e-02,-1.651808106161442580e-02,-2.024046552620359374e-02,-2.419549901982956386e-02,-2.791788348441870404e-02,-3.164026794900787198e-02,-3.536265241359703992e-02,-3.931768590722303780e-02,-4.304007037181217799e-02,-4.676245483640134593e-02,-1.561365796123375116e-01
-1.177204086926322002e-01,-1.005974401555220638e-01,-8.347447161841192731e-02,-6.528131754773239259e-02,-4.815834901062227003e-02,-3.103538047351217521e-02,-1.284222640283264050e-02,-2.775557561562891351e-17,-2.775557561562891351e-17,-2.775557561562891351e-17,-2.775557561562891351e-17,-2.775557561562891351e-17,-2.775557561562891351e-17,-2.775557561562891351e-17,-2.775557561562891351e-17,-2.775557561562891351e-17,-2.775557561562891351e-17,-2.775557561562891351e-17,-2.775557561562891351e-17,-2.775557561562891351e-17,-2.775557561562891351e-17,-2.775557561562891351e-17,-2.775557561562891351e-17,-2.775557561562891351e-17,0.000000000000000000e+00,-2.775557561562891351e-17,-2.775557561562891351e-17,0.000000000000000000e+00,-2.775557561562891351e-17,-2.775557561562891351e-17,-2.775557561562891351e-17,-2.775557561562891351e-17,-2.775557561562891351e-17,-2.775557561562891351e-17,-2.775557561562891351e-17,-2.559139319405073776e-03,-6.281523783994241716e-03,-1.023655727762021184e-02,-1.395894174220937978e-02,-1.768132620679854772e-02,-2.140371067138774341e-02,-2.535874416501368578e-02,-2.908112862960282596e-02,-3.280351309419196615e-02,-3.652589755878113409e-02,-1.099412067842134438e-01,-1.712296853711013644e-01
-1.476856036325749355e-01,-1.294924495618954285e-01,-1.123694810247852782e-01,-9.524651248767514178e-02,-7.812354395056499146e-02,-5.993038987988548449e-02,-4.280742134277537581e-02,-2.568445280566522548e-02,-8.561484268555075161e-03,0.000000000000000000e+00,-2.775557561562891351e-17,-2.775557561562891351e-17,-2.775557561562891351e-17,-2.775557561562891351e-17,-2.775557561562891351e-17,-2.775557561562891351e-17,-2.775557561562891351e-17,-2.775557561562891351e-17,-2.775557561562891351e-17,-2.775557561562891351e-17,0.000000000000000000e+00,-5.551115123125782702e-17,-2.775557561562891351e-17,-2.775557561562891351e-17,0.000000000000000000e+00,-2.775557561562891351e-17,-2.775557561562891351e-17,-2.775557561562891351e-17,-5.551115123125782702e-17,0.000000000000000000e+00,-2.775557561562891351e-17,-2.775557561562891351e-17,-2.775557561562891351e-17,-2.775557561562891351e-17,-2.775557561562891351e-17,-2.775557561562891351e-17,-2.775557561562891351e-17,-3.722384464589167941e-03,-7.444768929178335881e-03,-1.139980242280433376e-02,-1.512218688739350170e-02,-1.884457135198266964e-02,-2.256695581657183758e-02,-2.652198931019780770e-02,-5.227332871171105899e-02,-1.712296853711013644e-01,-1.712296853711013644e-01
-1.712296853711013644e-01,-1.594576445018381361e-01,-1.423346759647280135e-01,-1.241415218940485066e-01,-1.070185533569383701e-01,-8.989558481982823368e-02,-7.277261628271808336e-02,-5.457946221203856252e-02,-3.745649367492842607e-02,-2.033352513781830351e-02,-3.210556600708180941e-03,0.000000000000000000e+00,-2.775557561562891351e-17,-2.775557561562891351e-17,-2.775557561562891351e-17,-2.775557561562891351e-17,-2.775557561562891351e-17,-2.775557561562891351e-17,-2.775557561562891351e-17,-2.775557561562891351e-17,-2.775557561562891351e-17,-2.775557561562891351e-17,-2.775557561562891351e-17,-2.775557561562891351e-17,-2.775557561562891351e-17,-2.775557561562891351e-17,-2.775557561562891351e-17,-2.775557561562891351e-17,-2.775557561562891351e-17,-2.775557561562891351e-17,-2.775557561562891351e-17,-2.775557561562891351e-17,-2.775557561562891351e-17,-2.775557561562891351e-17,-2.775557561562891351e-17,-2.775557561562891351e-17,-2.775557561562891351e-17,-2.775557561562891351e-17,-1.163245145184149676e-03,-4.885629609773289861e-03,-8.608014074362457801e-03,-1.256304756798845568e-02,-1.628543203257759586e-02,-2.000781649716679156e-02,-1.251360964931809150e-01,-1.712296853711013644e-01,-1.712296853711013644e-01
-1.712296853711013644e-01,-1.712296853711013644e-01,-1.712296853711013644e-01,-1.541067168339912419e-01,-1.369837482968810916e-01,-1.187905942262015846e-01,-1.016676256890914481e-01,-8.454465715198131170e-02,-6.742168861487116138e-02,-4.922853454419165442e-02,-3.210556600708153185e-02,-1.498259746997140929e-02,-2.775557561562891351e-17,-2.775557561562891351e-17,-2.775557561562891351e-17,-2.775557561562891351e-17,0.000000000000000000e+00,-2.775557561562891351e-17,-2.775557561562891351e-17,-2.775557561562891351e-17,-2.775557561562891351e-17,-2.775557561562891351e-17,-2.775557561562891351e-17,-2.775557561562891351e-17,-2.775557561562891351e-17,-2.775557561562891351e-17,-2.775557561562891351e-17,-2.775557561562891351e-17,-2.775557561562891351e-17,-2.775557561562891351e-17,-2.775557561562891351e-17,-2.775557561562891351e-17,-2.775557561562891351e-17,-2.775557561562891351e-17,-2.775557561562891351e-17,0.000000000000000000e+00,-2.775557561562891351e-17,-2.775557561562891351e-17,0.000000000000000000e+00,-2.775557561562891351e-17,-2.326490290368243841e-03,-6.048874754957411781e-03,-9.771259219546551966e-03,-6.278615671131249076e-02,-1.712296853711013644e-01,-1.712296853711013644e-01,-1.712296853711013644e-01
-1.712296853711013644e-01,-1.712296853711013644e-01,-1.712296853711013644e-01,-1.712296853711013644e-01,-1.658787577032544425e-01,-1.487557891661443199e-01,-1.316328206290341973e-01,-1.134396665583546626e-01,-9.631669802124454005e-02,-7.919372948413437585e-02,-6.207076094702425328e-02,-4.387760687634473245e-02,-2.675463833923460988e-02,-9.631669802124487312e-03,-2.775557561562891351e-17,-2.775557561562891351e-17,-2.775557561562891351e-17,0.000000000000000000e+00,-2.775557561562891351e-17,-2.775557561562891351e-17,0.000000000000000000e+00,-2.775557561562891351e-17,-2.775557561562891351e-17,-2.775557561562891351e-17,-2.775557561562891351e-17,-2.775557561562891351e-17,-2.775557561562891351e-17,-2.775557561562891351e-17,-2.775557561562891351e-17,-2.775557561562891351e-17,-2.775557561562891351e-17,0.000000000000000000e+00,-2.775557561562891351e-17,-2.775557561562891351e-17,-2.775557561562891351e-17,0.000000000000000000e+00,-2.775557561562891351e-17,-2.775557561562891351e-17,-2.775557561562891351e-17,-5.551115123125782702e-17,0.000000000000000000e+00,0.000000000000000000e+00,-3.489735435552365761e-03,-1.456019407662638709e-01,-1.712296853711013644e-01,-1.712296853711013644e-01,-1.712296853711013644e-01
-1.712296853711013644e-01,-1.712296853711013644e-01,-1.712296853711013644e-01,-1.712296853711013644e-01,-1.712296853711013644e-01,-1.712296853711013644e-01,-1.605278300354075205e-01,-1.434048614982973979e-01,-1.262818929611872754e-01,-1.091589244240771250e-01,-9.096577035339760420e-02,-7.384280181628746775e-02,-5.671983327917733131e-02,-3.852667920849783822e-02,-2.140371067138771566e-02,-4.280742134277565336e-03,-2.775557561562891351e-17,0.000000000000000000e+00,-2.775557561562891351e-17,-2.775557561562891351e-17,-2.775557561562891351e-17,-2.775557561562891351e-17,0.000000000000000000e+00,-2.775557561562891351e-17,-2.775557561562891351e-17,-2.775557561562891351e-17,-2.775557561562891351e-17,-2.775557561562891351e-17,-2.775557561562891351e-17,-2.775557561562891351e-17,-2.775557561562891351e-17,-2.775557561562891351e-17,-2.775557561562891351e-17,-2.775557561562891351e-17,-2.775557561562891351e-17,-2.775557561562891351e-17,0.000000000000000000e+00,-2.775557561562891351e-17,-2.775557561562891351e-17,-2.775557561562891351e-17,-2.775557561562891351e-17,-2.775557561562891351e-17,-8.026391501770377412e-02,-1.712296853711013644e-01,-1.712296853711013644e-01,-1.712296853711013644e-01,-1.712296853711013644e-01
-1.712296853711013644e-01,-1.712296853711013644e-01,-1.712296853711013644e-01,-1.712296853711013644e-01,-1.712296853711013644e-01,-1.712296853711013644e-01,-1.712296853711013644e-01,-1.712296853711013644e-01,-1.551769023675605985e-01,-1.380539338304504760e-01,-1.209309652933403534e-01,-1.038079967562302169e-01,-8.561484268555068222e-02,-6.849187414844054578e-02,-5.136890561133042321e-02,-3.424593707422030064e-02,-1.605278300354076593e-02,-2.775557561562891351e-17,-2.775557561562891351e-17,-2.775557561562891351e-17,-2.775557561562891351e-17,-2.775557561562891351e-17,-2.775557561562891351e-17,-2.775557561562891351e-17,-2.775557561562891351e-17,-2.775557561562891351e-17,-2.775557561562891351e-17,-2.775557561562891351e-17,-2.775557561562891351e-17,-2.775557561562891351e-17,-2.775557561562891351e-17,-2.775557561562891351e-17,-2.775557561562891351e-17,-2.775557561562891351e-17,-2.775557561562891351e-17,-2.775557561562891351e-17,-2.775557561562891351e-17,-2.775557561562891351e-17,-2.775557561562891351e-17,-2.775557561562891351e-17,-5.551115123125782702e-17,-2.140371067138768790e-02,-1.712296853711013644e-01,-1.712296853711013644e-01,-1.712296853711013644e-01,-1.712296853711013644e-01,-1.712296853711013644e-01
-1.712296853711013644e-01,-1.712296853711013644e-01,-1.712296853711013644e-01,-1.712296853711013644e-01,-1.712296853711013644e-01,-1.712296853711013644e-01,-1.712296853711013644e-01,-1.712296853711013644e-01,-1.712296853711013644e-01,-1.680191287703932113e-01,-1.498259746997137043e-01,-1.327030061626035540e-01,-1.155800376254934314e-01,-9.845706908838329496e-02,-8.026391501770377412e-02,-6.314094648059362380e-02,-4.601797794348350124e-02,-2.889500940637337867e-02,-1.070185533569387171e-02,-2.775557561562891351e-17,-2.775557561562891351e-17,-2.775557561562891351e-17,-2.775557561562891351e-17,-2.775557561562891351e-17,-2.775557561562891351e-17,-2.775557561562891351e-17,-2.775557561562891351e-17,-2.775557561562891351e-17,0.000000000000000000e+00,-2.775557561562891351e-17,-2.775557561562891351e-17,0.000000000000000000e+00,-2.775557561562891351e-17,-2.775557561562891351e-17,-2.775557561562891351e-17,-2.775557561562891351e-17,-2.775557561562891351e-17,-2.775557561562891351e-17,-2.775557561562891351e-17,-2.775557561562891351e-17,-2.775557561562891351e-17,-1.070185533569383701e-01,-1.712296853711013644e-01,-1.712296853711013644e-01,-1.712296853711013644e-01,-1.712296853711013644e-01,-1.712296853711013644e-01
-1.712296853711013644e-01,-1.712296853711013644e-01,-1.712296853711013644e-01,-1.712296853711013644e-01,-1.712296853711013644e-01,-1.712296853711013644e-01,-1.712296853711013644e-01,-1.712296853711013644e-01,-1.712296853711013644e-01,-1.712296853711013644e-01,-1.712296853711013644e-01,-1.626682011025462893e-01,-1.444750470318667823e-01,-1.273520784947566598e-01,-1.102291099576465233e-01,-9.310614142053637299e-02,-7.491298734985685215e-02,-5.779001881274672958e-02,-4.066705027563660702e-02,-2.354408173852645669e-02,-5.350927667846921976e-03,-2.775557561562891351e-17,-2.775557561562891351e-17,-2.775557561562891351e-17,0.000000000000000000e+00,-5.551115123125782702e-17,-2.775557561562891351e-17,-2.775557561562891351e-17,0.000000000000000000e+00,-2.775557561562891351e-17,-2.775557561562891351e-17,-2.775557561562891351e-17,-5.551115123125782702e-17,0.000000000000000000e+00,-2.775557561562891351e-17,-2.775557561562891351e-17,-2.775557561562891351e-17,-2.775557561562891351e-17,-2.775557561562891351e-17,-2.775557561562891351e-17,-4.815834901062228390e-02,-1.712296853711013644e-01,-1.712296853711013644e-01,-1.712296853711013644e-01,-1.712296853711013644e-01,-1.712296853711013644e-01,-1.712296853711013644e-01
-1.712296853711013644e-01,-1.712296853711013644e-01,-1.712296853711013644e-01,-1.712296853711013644e-01,-1.712296853711013644e-01,-1.712296853711013644e-01,-1.712296853711013644e-01,-1.712296853711013644e-01,-1.712296853711013644e-01,-1.712296853711013644e-01,-1.712296853711013644e-01,-1.712296853711013644e-01,-1.712296853711013644e-01,-1.573172734346993673e-01,-1.391241193640198603e-01,-1.220011508269097378e-01,-1.048781822897996152e-01,-8.775521375268946489e-02,-6.956205968200993017e-02,-5.243909114489979373e-02,-3.531612260778968504e-02,-1.819315407067956247e-02,-2.775557561562891351e-17,-2.775557561562891351e-17,-2.775557561562891351e-17,-2.775557561562891351e-17,-2.775557561562891351e-17,-2.775557561562891351e-17,-2.775557561562891351e-17,-2.775557561562891351e-17,-2.775557561562891351e-17,-2.775557561562891351e-17,-2.775557561562891351e-17,-2.775557561562891351e-17,-2.775557561562891351e-17,-2.775557561562891351e-17,-2.775557561562891351e-17,-2.775557561562891351e-17,-2.775557561562891351e-17,-2.775557561562891351e-17,-1.337731916961729384e-01,-1.712296853711013644e-01,-1.712296853711013644e-01,-1.712296853711013644e-01,-1.712296853711013644e-01,-1.712296853711013644e-01,-1.712296853711013644e-01
-1.712296853711013644e-01,-1.712296853711013644e-01,-1.712296853711013644e-01,-1.712296853711013644e-01,-1.712296853711013644e-01,-1.712296853711013644e-01,-1.712296853711013644e-01,-1.712296853711013644e-01,-1.712296853711013644e-01,-1.712296853711013644e-01,-1.712296853711013644e-01,-1.712296853711013644e-01,-1.712296853711013644e-01,-1.712296853711013644e-01,-1.690893143039625957e-01,-1.519663457668524731e-01,-1.337731916961729661e-01,-1.166502231590628158e-01,-9.952725462195267936e-02,-8.240428608484252904e-02,-6.421113201416300820e-02,-4.708816347705288563e-02,-2.996519493994276306e-02,-1.284222640283264050e-02,-2.775557561562891351e-17,-2.775557561562891351e-17,-2.775557561562891351e-17,-2.775557561562891351e-17,-2.775557561562891351e-17,-2.775557561562891351e-17,-2.775557561562891351e-17,-2.775557561562891351e-17,-2.775557561562891351e-17,-2.775557561562891351e-17,-2.775557561562891351e-17,-2.775557561562891351e-17,-2.775557561562891351e-17,-2.775557561562891351e-17,-2.775557561562891351e-17,-7.491298734985685215e-02,-1.712296853711013644e-01,-1.712296853711013644e-01,-1.712296853711013644e-01,-1.712296853711013644e-01,-1.712296853711013644e-01,-1.712296853711013644e-01,-1.712296853711013644e-01
-1.712296853711013644e-01,-1.712296853711013644e-01,-1.712296853711013644e-01,-1.712296853711013644e-01,-1.712296853711013644e-01,-1.712296853711013644e-01,-1.712296853711013644e-01,-1.712296853711013644e-01,-1.712296853711013644e-01,-1.712296853711013644e-01,-1.712296853711013644e-01,-1.712296853711013644e-01,-1.712296853711013644e-01,-1.712296853711013644e-01,-1.712296853711013644e-01,-1.712296853711013644e-01,-1.637383866361156737e-01,-1.466154180990055511e-01,-1.294924495618954285e-01,-1.112992954912158938e-01,-9.417632695410575738e-02,-7.705335841699562094e-02,-5.886020434631611398e-02,-4.173723580920596365e-02,-2.461426727209581333e-02,-7.491298734985746277e-03,-2.775557561562891351e-17,-2.775557561562891351e-17,-2.775557561562891351e-17,-2.775557561562891351e-17,-2.775557561562891351e-17,-2.775557561562891351e-17,-2.775557561562891351e-17,-2.775557561562891351e-17,-2.775557561562891351e-17,0.000000000000000000e+00,-5.551115123125782702e-17,-2.775557561562891351e-17,-1.605278300354076593e-02,-1.605278300354075205e-01,-1.712296853711013644e-01,-1.712296853711013644e-01,-1.712296853711013644e-01,-1.712296853711013644e-01,-1.712296853711013644e-01,-1.712296853711013644e-01,-1.712296853711013644e-01
-1.712296853711013644e-01,-1.712296853711013644e-01,-1.712296853711013644e-01,-1.712296853711013644e-01,-1.712296853711013644e-01,-1.712296853711013644e-01,-1.712296853711013644e-01,-1.712296853711013644e-01,-1.712296853711013644e-01,-1.712296853711013644e-01,-1.712296853711013644e-01,-1.712296853711013644e-01,-1.712296853711013644e-01,-1.712296853711013644e-01,-1.712296853711013644e-01,-1.712296853711013644e-01,-1.712296853711013644e-01,-1.712296853711013644e-01,-1.583874589682687795e-01,-1.412644904311586291e-01,-1.241415218940485066e-01,-1.059483678233689857e-01,-8.882539928625884929e-02,-7.170243074914871284e-02,-5.457946221203856252e-02,-3.638630814135906943e-02,-1.926333960424891911e-02,-2.140371067138796546e-03,-2.775557561562891351e-17,-2.775557561562891351e-17,-2.775557561562891351e-17,-2.775557561562891351e-17,-2.775557561562891351e-17,-2.775557561562891351e-17,-2.775557561562891351e-17,-2.775557561562891351e-17,-2.775557561562891351e-17,-2.775557561562891351e-17,-1.016676256890914481e-01,-1.712296853711013644e-01,-1.712296853711013644e-01,-1.712296853711013644e-01,-1.712296853711013644e-01,-1.712296853711013644e-01,-1.712296853711013644e-01,-1.712296853711013644e-01,-1.712296853711013644e-01
-1.712296853711013644e-01,-1.712296853711013644e-01,-1.712296853711013644e-01,-1.712296853711013644e-01,-1.712296853711013644e-01,-1.712296853711013644e-01,-1.712296853711013644e-01,-1.712296853711013644e-01,-1.712296853711013644e-01,-1.712296853711013644e-01,-1.712296853711013644e-01,-1.712296853711013644e-01,-1.712296853711013644e-01,-1.712296853711013644e-01,-1.712296853711013644e-01,-1.712296853711013644e-01,-1.712296853711013644e-01,-1.712296853711013644e-01,-1.712296853711013644e-01,-1.701594998375319800e-01,-1.530365313004218575e-01,-1.359135627633117349e-01,-1.187905942262015846e-01,-1.005974401555220638e-01,-8.347447161841192731e-02,-6.635150308130177699e-02,-4.922853454419166830e-02,-3.103538047351214746e-02,-1.391241193640202489e-02,-2.775557561562891351e-17,-2.775557561562891351e-17,-2.775557561562891351e-17,-2.775557561562891351e-17,-2.775557561562891351e-17,-2.775557561562891351e-17,-2.775557561562891351e-17,-2.775557561562891351e-17,-4.280742134277534805e-02,-1.712296853711013644e-01,-1.712296853711013644e-01,-1.712296853711013644e-01,-1.712296853711013644e-01,-1.712296853711013644e-01,-1.712296853711013644e-01,-1.712296853711013644e-01,-1.712296853711013644e-01,-1.712296853711013644e-01
-1.712296853711013644e-01,-1.712296853711013644e-01,-1.712296853711013644e-01,-1.712296853711013644e-01,-1.712296853711013644e-01,-1.712296853711013644e-01,-1.712296853711013644e-01,-1.712296853711013644e-01,-1.712296853711013644e-01,-1.712296853711013644e-01,-1.712296853711013644e-01,-1.712296853711013644e-01,-1.712296853711013644e-01,-1.712296853711013644e-01,-1.712296853711013644e-01,-1.712296853711013644e-01,-1.712296853711013644e-01,-1.712296853711013644e-01,-1.712296853711013644e-01,-1.712296853711013644e-01,-1.712296853711013644e-01,-1.648085721696850581e-01,-1.476856036325749355e-01,-1.305626350954647852e-01,-1.134396665583546626e-01,-9.524651248767514178e-02,-7.812354395056499146e-02,-6.100057541345485501e-02,-4.387760687634473245e-02,-2.568445280566522548e-02,-8.561484268555075161e-03,-2.775557561562891351e-17,0.000000000000000000e+00,-2.775557561562891351e-17,-2.775557561562891351e-17,0.000000000000000000e+00,-2.775557561562891351e-17,-1.284222640283260164e-01,-1.712296853711013644e-01,-1.712296853711013644e-01,-1.712296853711013644e-01,-1.712296853711013644e-01,-1.712296853711013644e-01,-1.712296853711013644e-01,-1.712296853711013644e-01,-1.712296853711013644e-01,-1.712296853711013644e-01
