-6.998752353754607303e-02,-6.998752353754607303e-02,-6.998752353754607303e-02,-6.998752353754607303e-02,-6.998752353754607303e-02,-6.998752353754607303e-02,-6.998752353754607303e-02,-6.998752353754607303e-02,-6.998752353754607303e-02,-6.998752353754607303e-02,-6.998752353754607303e-02,-6.998752353754607303e-02,-6.998752353754607303e-02,-6.780041342699776041e-02,-5.905197298480450302e-02,-5.249064265315955824e-02,-4.374220221096630085e-02,-3.718087187932135607e-02,-2.843243143712809867e-02,-2.187110110548315389e-02,-1.312266066328990344e-02,-6.561330331644951719e-03,-2.775557561562891351e-17,-1.387778780781445676e-17,-1.770517708539129376e-03,-4.999108824110448657e-03,-8.331848040184067217e-03,-3.597588541278838592e-02,-3.930862462886200448e-02,-4.264136384493562304e-02,-2.196324292545946411e-01,-2.229651684706682735e-01,-2.262979076867419059e-01,-2.296306469028155384e-01,-2.329633861188891708e-01,-3.811820478384206345e-02,-4.145094399991568895e-02,-4.478368321598930751e-02,-4.811642243206293301e-02,-5.144916164813655157e-02,-5.467775276370787085e-02,-5.801049197978148941e-02,-6.134323119585511491e-02,-6.467597041192874041e-02,-6.800870962800235897e-02,-6.998752353754607303e-02,-6.998752353754607303e-02
-6.998752353754607303e-02,-6.998752353754607303e-02,-6.998752353754607303e-02,-6.998752353754607303e-02,-6.561330331644944780e-02,-5.905197298480450302e-02,-5.030353254261124563e-02,-4.374220221096630085e-02,-3.499376176877304345e-02,-2.843243143712809867e-02,-1.968399099493484128e-02,-1.312266066328990344e-02,-4.374220221096639105e-03,-1.387778780781445676e-17,-1.387778780781445676e-17,-1.387778780781445676e-17,-1.387778780781445676e-17,-1.387778780781445676e-17,-1.387778780781445676e-17,-1.387778780781445676e-17,-1.387778780781445676e-17,-1.387778780781445676e-17,0.000000000000000000e+00,-1.387778780781445676e-17,-1.353925306529918382e-03,-4.686664522603550820e-03,-8.019403738677162441e-03,-3.555929301077918880e-02,-3.889203222685279349e-02,-4.222477144292641205e-02,-2.193199849530877432e-01,-2.226527241691613757e-01,-2.258813152847327088e-01,-2.292140545008063413e-01,-2.325467937168799182e-01,-3.780576048233515868e-02,-4.113849969840878418e-02,-4.436709081398010346e-02,-4.769983003005372202e-02,-5.103256924612734752e-02,-5.436530846220097302e-02,-5.769804767827459158e-02,-6.103078689434821014e-02,-6.425937800991952942e-02,-6.759211722599316186e-02,-6.998752353754607303e-02,-6.998752353754607303e-02
-5.804043455867590601e-02,-4.546455142302310154e-02,-3.089293031149495383e-02,-1.175571684419719765e-02,0.000000000000000000e+00,0.000000000000000000e+00,-1.387778780781445676e-17,-1.387778780781445676e-17,-1.387778780781445676e-17,-1.387778780781445676e-17,-1.387778780781445676e-17,-1.387778780781445676e-17,-1.387778780781445676e-17,-1.387778780781445676e-17,0.000000000000000000e+00,-1.387778780781445676e-17,-1.387778780781445676e-17,-1.387778780781445676e-17,-1.387778780781445676e-17,-1.387778780781445676e-17,-1.387778780781445676e-17,-1.387778780781445676e-17,-1.387778780781445676e-17,-1.387778780781445676e-17,-1.041481005023020545e-03,-4.270072120594339826e-03,-7.602811336667958386e-03,-3.524684870927227709e-02,-3.857958792534589565e-02,-4.191232714141951421e-02,-2.189033925510785461e-01,-2.222361317671521785e-01,-2.255688709832258110e-01,-2.289016101992994434e-01,-2.322343494153730203e-01,-3.738916808032596156e-02,-4.072190729639958706e-02,-4.405464651247319868e-02,-4.738738572854682418e-02,-5.072012494462044274e-02,-5.394871606019176202e-02,-5.728145527626538752e-02,-6.061419449233901302e-02,-6.394693370841263158e-02,-6.727967292448625014e-02,-6.998752353754607303e-02,-6.998752353754607303e-02
-5.117837658683056790e-02,-3.761829390143102414e-02,-2.362078919392180537e-02,-9.623284486412600480e-03,-1.387778780781445676e-17,-1.387778780781445676e-17,-1.387778780781445676e-17,-1.387778780781445676e-17,-1.387778780781445676e-17,-1.387778780781445676e-17,-1.387778780781445676e-17,-1.387778780781445676e-17,-1.387778780781445676e-17,-1.387778780781445676e-17,-1.387778780781445676e-17,-1.387778780781445676e-17,-1.387778780781445676e-17,-1.387778780781445676e-17,-1.387778780781445676e-17,-1.387778780781445676e-17,-1.387778780781445676e-17,-1.387778780781445676e-17,-1.387778780781445676e-17,-1.387778780781445676e-17,-6.248886030138234293e-04,-3.957627819087441989e-03,-7.290367035161060549e-03,-1.051895815073238677e-02,-1.385169736680600533e-02,-1.718443658287961695e-02,-2.185909482495716483e-01,-2.219236874656452807e-01,-2.251522785812166139e-01,-2.284850177972902463e-01,-2.318177570133638232e-01,-3.707672377881905679e-02,-4.040946299489268229e-02,-4.363805411046399463e-02,-4.697079332653762707e-02,-5.030353254261124563e-02,-5.363627175868486419e-02,-5.696901097475848968e-02,-6.030175019083210824e-02,-6.353034130640343446e-02,-6.686308052247705302e-02,-6.998752353754607303e-02,-6.998752353754607303e-02
-5.292806467526922631e-02,-3.893055996776000754e-02,-2.493305526025079571e-02,-1.093555055274158389e-02,-1.387778780781445676e-17,-1.387778780781445676e-17,-1.387778780781445676e-17,-1.387778780781445676e-17,-1.387778780781445676e-17,-1.387778780781445676e-17,-1.387778780781445676e-17,-1.387778780781445676e-17,-1.387778780781445676e-17,-1.387778780781445676e-17,-1.387778780781445676e-17,-1.387778780781445676e-17,-1.387778780781445676e-17,-1.387778780781445676e-17,-1.387778780781445676e-17,-1.387778780781445676e-17,-1.387778780781445676e-17,-1.387778780781445676e-17,-1.387778780781445676e-17,-1.387778780781445676e-17,-2.082962010046124357e-04,-3.541035417078230996e-03,-6.873774633151849556e-03,-2.494192558819674499e-01,-2.527519950980410823e-01,-2.560847343141147148e-01,-4.573870978803044607e-01,-2.215070950636360836e-01,-2.248398342797097160e-01,-2.281725734957832930e-01,-2.315053127118569254e-01,-3.666013137680985273e-02,-3.999287059288347823e-02,-4.332560980895709679e-02,-4.665834902503071535e-02,-4.999108824110434085e-02,-5.321967935667566707e-02,-5.655241857274928563e-02,-5.988515778882290419e-02,-6.321789700489652275e-02,-6.655063622097015519e-02,-6.977922733654147447e-02,-6.998752353754607303e-02
-5.424033074159820972e-02,-4.068024805619865902e-02,-2.668274334868944719e-02,-1.268523864118023536e-02,-1.387778780781445676e-17,-1.387778780781445676e-17,-1.387778780781445676e-17,-1.387778780781445676e-17,-1.387778780781445676e-17,-1.387778780781445676e-17,-1.387778780781445676e-17,-1.387778780781445676e-17,-1.387778780781445676e-17,-1.387778780781445676e-17,-1.387778780781445676e-17,-1.387778780781445676e-17,-1.387778780781445676e-17,-1.387778780781445676e-17,-1.387778780781445676e-17,-1.387778780781445676e-17,-1.387778780781445676e-17,-1.387778780781445676e-17,-1.387778780781445676e-17,-1.387778780781445676e-17,-1.387778780781445676e-17,-3.228591115571333159e-03,-6.561330331644951719e-03,-2.490026634799582528e-01,-2.523354026960318852e-01,-2.556681419121055177e-01,-2.590008811281790946e-01,-2.312087831151076606e-02,-2.634946942708208534e-02,-2.968220864315571084e-02,-3.301494785922932246e-02,-3.634768707530294796e-02,-3.968042629137657346e-02,-4.290901740694789274e-02,-4.624175662302151824e-02,-4.957449583909513680e-02,-5.290723505516875536e-02,-5.623997427124238085e-02,-5.946856538681370707e-02,-6.280130460288732563e-02,-6.613404381896094419e-02,-6.946678303503456275e-02,-6.998752353754607303e-02
-5.599001883003686120e-02,-4.199251412252764937e-02,-2.799500941501843754e-02,-1.399750470750922571e-02,-4.374220221096819516e-04,-1.387778780781445676e-17,0.000000000000000000e+00,-1.387778780781445676e-17,-1.387778780781445676e-17,-1.387778780781445676e-17,-1.387778780781445676e-17,-1.387778780781445676e-17,-1.387778780781445676e-17,-1.387778780781445676e-17,0.000000000000000000e+00,-1.387778780781445676e-17,-1.387778780781445676e-17,-1.387778780781445676e-17,-1.387778780781445676e-17,-1.387778780781445676e-17,-1.387778780781445676e-17,-1.387778780781445676e-17,-1.387778780781445676e-17,-1.387778780781445676e-17,-1.387778780781445676e-17,-2.811998713562122165e-03,-6.144737929635754603e-03,-2.486902191784513549e-01,-2.520229583945249874e-01,-2.553556976105986198e-01,-2.585842887261698975e-01,-2.270428590950155506e-02,-2.603702512557518056e-02,-2.936976434164880606e-02,-3.270250355772242462e-02,-3.593109467329374390e-02,-3.926383388936737634e-02,-4.259657310544098796e-02,-4.592931232151461346e-02,-4.926205153758823896e-02,-5.249064265315955824e-02,-5.582338186923317680e-02,-5.915612108530680230e-02,-6.248886030138042086e-02,-6.582159951745404636e-02,-6.905019063302536564e-02,-6.998752353754607303e-02
-5.730228489636585154e-02,-4.374220221096630085e-02,-2.974469750345708902e-02,-1.574719279594787719e-02,-1.749688088438658418e-03,-1.387778780781445676e-17,-1.387778780781445676e-17,-1.387778780781445676e-17,-1.387778780781445676e-17,-1.387778780781445676e-17,-1.387778780781445676e-17,-1.387778780781445676e-17,-1.387778780781445676e-17,-1.387778780781445676e-17,0.000000000000000000e+00,-1.387778780781445676e-17,-1.387778780781445676e-17,-1.387778780781445676e-17,-1.387778780781445676e-17,-1.387778780781445676e-17,-1.387778780781445676e-17,-1.387778780781445676e-17,-1.387778780781445676e-17,-1.387778780781445676e-17,-1.387778780781445676e-17,-2.499554412055224328e-03,-5.832293628128842888e-03,-2.482736267764421578e-01,-2.516063659925157903e-01,-2.549391052085893672e-01,-2.582718444246629996e-01,-2.239184160799466417e-02,-2.562043272356597651e-02,-2.895317193963960201e-02,-3.228591115571322057e-02,-3.561865037178683913e-02,-3.895138958786047156e-02,-4.217998070343179084e-02,-4.551271991950540940e-02,-4.884545913557903490e-02,-5.217819835165265346e-02,-5.551093756772627896e-02,-5.873952868329759824e-02,-6.207226789937121680e-02,-6.540500711544483536e-02,-6.873774633151846780e-02,-6.998752353754607303e-02
-5.905197298480450302e-02,-4.505446827729528425e-02,-3.105696356978607936e-02,-1.749688088438652867e-02,-3.499376176877316835e-03,-1.387778780781445676e-17,-1.387778780781445676e-17,-1.387778780781445676e-17,-1.387778780781445676e-17,-1.387778780781445676e-17,-1.387778780781445676e-17,-1.387778780781445676e-17,-1.387778780781445676e-17,-1.387778780781445676e-17,-1.387778780781445676e-17,-1.387778780781445676e-17,-1.387778780781445676e-17,-1.387778780781445676e-17,-1.387778780781445676e-17,-1.387778780781445676e-17,-1.387778780781445676e-17,-1.387778780781445676e-17,-1.387778780781445676e-17,-1.387778780781445676e-17,-1.387778780781445676e-17,-2.082962010046027213e-03,-5.415701226119645773e-03,-8.748440442193271271e-03,-1.208117965826689677e-02,-1.530977077383821605e-02,-1.864250998991183461e-02,-2.197524920598545317e-02,-2.530798842205908561e-02,-2.864072763813270417e-02,-3.197346685420631579e-02,-3.520205796977764201e-02,-3.853479718585126751e-02,-4.186753640192488607e-02,-4.520027561799851157e-02,-4.853301483407213013e-02,-5.176160594964344941e-02,-5.509434516571707491e-02,-5.842708438179070041e-02,-6.175982359786431897e-02,-6.509256281393793753e-02,-6.832115392950925681e-02,-6.998752353754607303e-02
-6.036423905113348642e-02,-4.680415636573394267e-02,-3.280665165822472390e-02,-1.880914695071551901e-02,-4.811642243206307179e-03,-1.387778780781445676e-17,-1.387778780781445676e-17,-1.387778780781445676e-17,-1.387778780781445676e-17,-1.387778780781445676e-17,-1.387778780781445676e-17,-1.387778780781445676e-17,-1.387778780781445676e-17,-1.387778780781445676e-17,-1.387778780781445676e-17,-1.387778780781445676e-17,-1.387778780781445676e-17,-1.387778780781445676e-17,-1.387778780781445676e-17,-1.387778780781445676e-17,-1.387778780781445676e-17,-1.387778780781445676e-17,-1.387778780781445676e-17,-1.387778780781445676e-17,-1.387778780781445676e-17,-1.770517708539129376e-03,-5.103256924612747936e-03,-8.331848040184067217e-03,-1.166458725625769272e-02,-1.499732647233131128e-02,-1.833006568840492984e-02,-2.166280490447855533e-02,-2.489139602004987462e-02,-2.822413523612350011e-02,-3.155687445219711174e-02,-3.488961366827073723e-02,-3.822235288434436273e-02,-4.145094399991568201e-02,-4.478368321598930751e-02,-4.811642243206293301e-02,-5.144916164813655157e-02,-5.478190086421017013e-02,-5.801049197978148941e-02,-6.134323119585511491e-02,-6.467597041192874041e-02,-6.800870962800235897e-02,-6.998752353754607303e-02
-6.211392713957214484e-02,-4.811642243206293301e-02,-3.411891772455372118e-02,-2.055883503915416355e-02,-6.561330331644951719e-03,-1.387778780781445676e-17,-1.387778780781445676e-17,-1.387778780781445676e-17,-1.387778780781445676e-17,-1.387778780781445676e-17,-1.387778780781445676e-17,-1.387778780781445676e-17,-1.387778780781445676e-17,-1.387778780781445676e-17,0.000000000000000000e+00,-1.387778780781445676e-17,-1.387778780781445676e-17,-1.387778780781445676e-17,-1.387778780781445676e-17,-1.387778780781445676e-17,-1.387778780781445676e-17,-1.387778780781445676e-17,-1.387778780781445676e-17,-1.387778780781445676e-17,-1.387778780781445676e-17,-1.353925306529918382e-03,-4.686664522603536942e-03,-8.019403738677169380e-03,-1.135214295475078794e-02,-1.458073407032210722e-02,-1.791347328639572578e-02,-2.124621250246934434e-02,-2.457895171854296984e-02,-2.791169093461659534e-02,-3.114028205018791462e-02,-3.447302126626153318e-02,-3.780576048233516562e-02,-4.113849969840878418e-02,-4.447123891448240274e-02,-4.780397813055602824e-02,-5.103256924612734752e-02,-5.436530846220097302e-02,-5.769804767827459158e-02,-6.103078689434821014e-02,-6.436352611042184257e-02,-6.759211722599316186e-02,-6.998752353754607303e-02
-6.342619320590113519e-02,-4.986611052050157755e-02,-3.586860581299236572e-02,-2.187110110548315389e-02,-7.873596397973942063e-03,-1.387778780781445676e-17,-1.387778780781445676e-17,-1.387778780781445676e-17,-1.387778780781445676e-17,-1.387778780781445676e-17,-1.387778780781445676e-17,-1.387778780781445676e-17,-1.387778780781445676e-17,-1.387778780781445676e-17,-1.387778780781445676e-17,-1.387778780781445676e-17,-1.387778780781445676e-17,-1.387778780781445676e-17,-1.387778780781445676e-17,-1.387778780781445676e-17,-1.387778780781445676e-17,-1.387778780781445676e-17,-1.387778780781445676e-17,-1.387778780781445676e-17,-1.387778780781445676e-17,-1.041481005023020545e-03,-4.374220221096639105e-03,-7.602811336667958386e-03,-1.093555055274159082e-02,-1.426828976881520938e-02,-1.760102898488882794e-02,-2.093376820096244650e-02,-2.416235931653377272e-02,-2.749509853260739822e-02,-3.082783774868101678e-02,-3.416057696475463534e-02,-3.749331618082825390e-02,-4.072190729639958012e-02,-4.405464651247319868e-02,-4.738738572854682418e-02,-5.072012494462044274e-02,-5.405286416069406824e-02,-5.728145527626538752e-02,-6.061419449233901302e-02,-6.394693370841263158e-02,-6.727967292448625014e-02,-6.998752353754607303e-02
-6.517588129433977973e-02,-5.117837658683056790e-02,-3.718087187932135607e-02,-2.362078919392181231e-02,-9.623284486412600480e-03,-1.387778780781445676e-17,-1.387778780781445676e-17,-1.387778780781445676e-17,-1.387778780781445676e-17,-1.387778780781445676e-17,-1.387778780781445676e-17,-1.387778780781445676e-17,-1.387778780781445676e-17,-1.387778780781445676e-17,-1.387778780781445676e-17,-1.387778780781445676e-17,-1.387778780781445676e-17,-1.387778780781445676e-17,-1.387778780781445676e-17,-1.387778780781445676e-17,-1.387778780781445676e-17,-1.387778780781445676e-17,-1.387778780781445676e-17,-1.387778780781445676e-17,-1.387778780781445676e-17,-6.248886030138234293e-04,-3.957627819087441989e-03,-7.290367035161060549e-03,-1.062310625123468605e-02,-1.385169736680600533e-02,-1.718443658287962389e-02,-2.051717579895323551e-02,-2.384991501502686795e-02,-2.718265423110048651e-02,-3.041124534667181273e-02,-3.374398456274543129e-02,-3.707672377881905679e-02,-4.040946299489268229e-02,-4.374220221096630085e-02,-4.707494142703991941e-02,-5.030353254261124563e-02,-5.363627175868486419e-02,-5.696901097475848275e-02,-6.030175019083210824e-02,-6.363448940690573374e-02,-6.686308052247705302e-02,-6.998752353754607303e-02
-6.648814736066877007e-02,-5.292806467526921937e-02,-3.893055996776000754e-02,-2.493305526025079571e-02,-1.093555055274159082e-02,-1.387778780781445676e-17,-1.387778780781445676e-17,-1.387778780781445676e-17,-1.387778780781445676e-17,-1.387778780781445676e-17,-1.387778780781445676e-17,-1.387778780781445676e-17,-1.387778780781445676e-17,-1.387778780781445676e-17,-1.387778780781445676e-17,-1.387778780781445676e-17,-1.387778780781445676e-17,-1.387778780781445676e-17,-1.387778780781445676e-17,-1.387778780781445676e-17,-1.387778780781445676e-17,-1.387778780781445676e-17,-1.387778780781445676e-17,-1.387778780781445676e-17,-1.387778780781445676e-17,-3.124443015069117147e-04,-3.541035417078230996e-03,-6.873774633151849556e-03,-1.020651384922548199e-02,-1.353925306529910055e-02,-1.687199228137271911e-02,-2.020473149744633767e-02,-2.343332261301765695e-02,-2.676606182909129633e-02,-3.009880104516490795e-02,-3.343154026123852651e-02,-3.676427947731215201e-02,-3.999287059288347823e-02,-4.332560980895709679e-02,-4.665834902503071535e-02,-4.999108824110434085e-02,-5.332382745717796635e-02,-5.655241857274928563e-02,-5.988515778882290419e-02,-6.321789700489652275e-02,-6.655063622097015519e-02,-6.988337543704377375e-02
-6.823783544910741461e-02,-5.424033074159820972e-02,-4.024282603408899789e-02,-2.668274334868944719e-02,-1.268523864118023536e-02,-1.387778780781445676e-17,-1.387778780781445676e-17,-1.387778780781445676e-17,-1.387778780781445676e-17,-1.387778780781445676e-17,-1.387778780781445676e-17,-1.387778780781445676e-17,-1.387778780781445676e-17,-1.387778780781445676e-17,-1.387778780781445676e-17,-1.387778780781445676e-17,-1.387778780781445676e-17,-1.387778780781445676e-17,-1.387778780781445676e-17,-1.387778780781445676e-17,-1.387778780781445676e-17,-1.387778780781445676e-17,-1.387778780781445676e-17,-1.387778780781445676e-17,-1.387778780781445676e-17,-1.387778780781445676e-17,-3.228591115571333159e-03,-6.561330331644951719e-03,-9.894069547718584157e-03,-1.312266066328990344e-02,-1.645539987936352200e-02,-1.978813909543714056e-02,-2.312087831151075912e-02,-2.645361752758439156e-02,-2.968220864315570390e-02,-3.301494785922931552e-02,-3.634768707530294796e-02,-3.968042629137658039e-02,-4.301316550745019895e-02,-4.624175662302151824e-02,-4.957449583909513680e-02,-5.290723505516876229e-02,-5.623997427124238085e-02,-5.957271348731600635e-02,-6.290545270338962491e-02,-6.613404381896094419e-02,-6.946678303503456275e-02
-6.955010151543640495e-02,-5.599001883003686120e-02,-4.199251412252764937e-02,-2.799500941501843754e-02,-1.399750470750922571e-02,-1.387778780781445676e-17,-1.387778780781445676e-17,-1.387778780781445676e-17,0.000000000000000000e+00,-1.387778780781445676e-17,-1.387778780781445676e-17,0.000000000000000000e+00,-1.387778780781445676e-17,-1.387778780781445676e-17,-1.387778780781445676e-17,-1.387778780781445676e-17,-1.387778780781445676e-17,0.000000000000000000e+00,-1.387778780781445676e-17,-1.387778780781445676e-17,-1.387778780781445676e-17,-2.775557561562891351e-17,-1.387778780781445676e-17,0.000000000000000000e+00,-2.775557561562891351e-17,-1.387778780781445676e-17,-2.811998713562122165e-03,-6.144737929635740725e-03,-9.477477145709380102e-03,-1.281021636178300560e-02,-1.614295557785661722e-02,-1.947569479393023578e-02,-2.270428590950155506e-02,-2.603702512557518750e-02,-2.936976434164880606e-02,-3.270250355772241768e-02,-3.603524277379605012e-02,-3.926383388936736940e-02,-4.259657310544098796e-02,-4.592931232151461346e-02,-4.926205153758823896e-02,-5.259479075366185752e-02,-5.582338186923317680e-02,-5.915612108530680230e-02,-6.248886030138042086e-02,-6.582159951745404636e-02,-6.915433873352766492e-02
-6.998752353754607303e-02,-5.730228489636585154e-02,-4.330478018885663971e-02,-2.974469750345708902e-02,-1.574719279594787719e-02,-1.749688088438658418e-03,-1.387778780781445676e-17,-1.387778780781445676e-17,-1.387778780781445676e-17,-1.387778780781445676e-17,-1.387778780781445676e-17,-1.387778780781445676e-17,-1.387778780781445676e-17,-1.387778780781445676e-17,-1.387778780781445676e-17,-1.387778780781445676e-17,-1.387778780781445676e-17,-1.387778780781445676e-17,-2.775557561562891351e-17,-1.387778780781445676e-17,-1.387778780781445676e-17,-1.387778780781445676e-17,-1.387778780781445676e-17,-1.387778780781445676e-17,-1.387778780781445676e-17,-1.387778780781445676e-17,-2.499554412055224328e-03,-5.832293628128842888e-03,-9.165032844202475326e-03,-1.239362395977379461e-02,-1.572636317584742011e-02,-1.905910239192103173e-02,-2.239184160799466417e-02,-2.572458082406828273e-02,-2.895317193963960201e-02,-3.228591115571322057e-02,-3.561865037178683913e-02,-3.895138958786047156e-02,-4.228412880393409012e-02,-4.551271991950540940e-02,-4.884545913557902796e-02,-5.217819835165265346e-02,-5.551093756772627896e-02,-5.884367678379989752e-02,-6.207226789937121680e-02,-6.540500711544484924e-02,-6.873774633151846780e-02
-6.998752353754607303e-02,-5.905197298480450302e-02,-4.505446827729528425e-02,-3.105696356978607242e-02,-1.705945886227686059e-02,-3.061954154767648761e-03,-1.387778780781445676e-17,-1.387778780781445676e-17,-1.387778780781445676e-17,-1.387778780781445676e-17,-1.387778780781445676e-17,-1.387778780781445676e-17,-1.387778780781445676e-17,-1.387778780781445676e-17,0.000000000000000000e+00,-1.387778780781445676e-17,-1.387778780781445676e-17,-1.387778780781445676e-17,-1.387778780781445676e-17,-1.387778780781445676e-17,-1.387778780781445676e-17,-1.387778780781445676e-17,-1.387778780781445676e-17,-1.387778780781445676e-17,-1.387778780781445676e-17,-1.387778780781445676e-17,-2.082962010046027213e-03,-5.415701226119645773e-03,-8.748440442193278210e-03,-1.208117965826688983e-02,-1.541391887434051533e-02,-1.864250998991183461e-02,-2.197524920598545317e-02,-2.530798842205907867e-02,-2.864072763813270417e-02,-3.197346685420631579e-02,-3.530620607027994129e-02,-3.853479718585126751e-02,-4.186753640192489301e-02,-4.520027561799851157e-02,-4.853301483407213013e-02,-5.186575405014575563e-02,-5.509434516571707491e-02,-5.842708438179069347e-02,-6.175982359786431897e-02,-6.509256281393793753e-02,-6.842530203001155609e-02
-6.998752353754607303e-02,-6.036423905113348642e-02,-4.636673434362427459e-02,-3.280665165822473084e-02,-1.880914695071551901e-02,-4.811642243206307179e-03,-1.387778780781445676e-17,-1.387778780781445676e-17,-1.387778780781445676e-17,-1.387778780781445676e-17,-1.387778780781445676e-17,-1.387778780781445676e-17,-1.387778780781445676e-17,-1.387778780781445676e-17,-1.387778780781445676e-17,-1.387778780781445676e-17,-1.387778780781445676e-17,-1.387778780781445676e-17,-1.387778780781445676e-17,-1.387778780781445676e-17,-1.387778780781445676e-17,-1.387778780781445676e-17,-1.387778780781445676e-17,-2.775557561562891351e-17,-1.387778780781445676e-17,-1.387778780781445676e-17,-1.770517708539129376e-03,-5.103256924612747936e-03,-8.435996140686366496e-03,-1.166458725625769272e-02,-1.499732647233131821e-02,-1.833006568840492984e-02,-2.166280490447854840e-02,-2.499554412055217389e-02,-2.822413523612350011e-02,-3.155687445219711867e-02,-3.488961366827074417e-02,-3.822235288434436273e-02,-4.155509210041798823e-02,-4.478368321598930751e-02,-4.811642243206292607e-02,-5.144916164813655157e-02,-5.478190086421017013e-02,-5.811464008028379563e-02,-6.134323119585511491e-02,-6.467597041192874041e-02,-6.800870962800235897e-02
-6.998752353754607303e-02,-6.211392713957214484e-02,-4.811642243206293301e-02,-3.411891772455372118e-02,-2.012141301704450935e-02,-6.561330331644951719e-03,-1.387778780781445676e-17,-1.387778780781445676e-17,-1.387778780781445676e-17,-1.387778780781445676e-17,-1.387778780781445676e-17,-1.387778780781445676e-17,-1.387778780781445676e-17,-1.387778780781445676e-17,-1.387778780781445676e-17,-1.387778780781445676e-17,-1.387778780781445676e-17,-1.387778780781445676e-17,-1.387778780781445676e-17,-1.387778780781445676e-17,-1.387778780781445676e-17,-1.387778780781445676e-17,-1.387778780781445676e-17,-1.387778780781445676e-17,-1.387778780781445676e-17,-1.387778780781445676e-17,-1.353925306529918382e-03,-4.686664522603536942e-03,-8.019403738677169380e-03,-1.135214295475078794e-02,-1.468488217082440650e-02,-1.791347328639572578e-02,-2.124621250246935128e-02,-2.457895171854296984e-02,-2.791169093461659534e-02,-3.124443015069021390e-02,-3.457716936676383246e-02,-3.780576048233515868e-02,-4.113849969840878418e-02,-4.447123891448240274e-02,-4.780397813055602824e-02,-5.113671734662965374e-02,-5.436530846220097302e-02,-5.769804767827459158e-02,-6.103078689434821014e-02,-6.436352611042184257e-02,-6.769626532649546113e-02
-6.998752353754607303e-02,-6.342619320590113519e-02,-4.942868849839191642e-02,-3.586860581299236572e-02,-2.187110110548315389e-02,-7.873596397973949002e-03,-1.387778780781445676e-17,-1.387778780781445676e-17,-1.387778780781445676e-17,-1.387778780781445676e-17,-1.387778780781445676e-17,-1.387778780781445676e-17,-1.387778780781445676e-17,-1.387778780781445676e-17,-1.387778780781445676e-17,-1.387778780781445676e-17,-1.387778780781445676e-17,-1.387778780781445676e-17,-1.387778780781445676e-17,-1.387778780781445676e-17,-1.387778780781445676e-17,-1.387778780781445676e-17,-1.387778780781445676e-17,-1.387778780781445676e-17,-1.387778780781445676e-17,-1.387778780781445676e-17,-1.041481005023020545e-03,-4.374220221096639105e-03,-7.706959437170257665e-03,-1.093555055274159082e-02,-1.426828976881520938e-02,-1.760102898488882794e-02,-2.093376820096244650e-02,-2.426650741703607200e-02,-2.749509853260739822e-02,-3.082783774868101678e-02,-3.416057696475463534e-02,-3.749331618082825390e-02,-4.082605539690188634e-02,-4.405464651247320562e-02,-4.738738572854682418e-02,-5.072012494462044274e-02,-5.405286416069406824e-02,-5.738560337676769374e-02,-6.061419449233901302e-02,-6.394693370841263158e-02,-6.727967292448625014e-02
-6.998752353754607303e-02,-6.517588129433977973e-02,-5.117837658683056790e-02,-3.718087187932135607e-02,-2.318336717181214424e-02,-9.623284486412600480e-03,-1.387778780781445676e-17,-1.387778780781445676e-17,-1.387778780781445676e-17,-1.387778780781445676e-17,-1.387778780781445676e-17,-1.387778780781445676e-17,-1.387778780781445676e-17,-1.387778780781445676e-17,-1.387778780781445676e-17,-1.387778780781445676e-17,-1.387778780781445676e-17,-1.387778780781445676e-17,-1.387778780781445676e-17,-1.387778780781445676e-17,-1.387778780781445676e-17,-1.387778780781445676e-17,-1.387778780781445676e-17,-1.387778780781445676e-17,-1.387778780781445676e-17,-1.387778780781445676e-17,-6.248886030138095515e-04,-3.957627819087441989e-03,-7.290367035161060549e-03,-1.062310625123468605e-02,-1.395584546730830461e-02,-1.718443658287962389e-02,-2.051717579895324245e-02,-2.384991501502686795e-02,-2.718265423110049345e-02,-3.051539344717411895e-02,-3.384813266324773751e-02,-3.707672377881905679e-02,-4.040946299489267535e-02,-4.374220221096630085e-02,-4.707494142703991941e-02,-5.040768064311354490e-02,-5.363627175868486419e-02,-5.696901097475848275e-02,-6.030175019083210824e-02,-6.363448940690573374e-02,-6.696722862297935230e-02
-6.998752353754607303e-02,-6.648814736066877007e-02,-5.249064265315955824e-02,-3.893055996776000754e-02,-2.493305526025079571e-02,-1.093555055274158389e-02,-1.387778780781445676e-17,-1.387778780781445676e-17,-1.387778780781445676e-17,-1.387778780781445676e-17,-1.387778780781445676e-17,-1.387778780781445676e-17,-1.387778780781445676e-17,-1.387778780781445676e-17,-1.387778780781445676e-17,-1.387778780781445676e-17,-1.387778780781445676e-17,-1.387778780781445676e-17,-1.387778780781445676e-17,-1.387778780781445676e-17,-1.387778780781445676e-17,-1.387778780781445676e-17,-1.387778780781445676e-17,-1.387778780781445676e-17,-1.387778780781445676e-17,-1.387778780781445676e-17,-3.124443015069117147e-04,-3.645183517580530275e-03,-6.977922733654148835e-03,-1.020651384922548199e-02,-1.353925306529910055e-02,-1.687199228137271911e-02,-2.020473149744633767e-02,-2.353747071351997011e-02,-2.676606182909129633e-02,-3.009880104516490795e-02,-3.343154026123852651e-02,-3.676427947731215201e-02,-4.009701869338577751e-02,-4.332560980895709679e-02,-4.665834902503071535e-02,-4.999108824110434085e-02,-5.332382745717796635e-02,-5.665656667325158491e-02,-5.988515778882290419e-02,-6.321789700489652275e-02,-6.655063622097015519e-02
-6.998752353754607303e-02,-6.823783544910741461e-02,-5.424033074159820972e-02,-4.024282603408899789e-02,-2.624532132657978606e-02,-1.268523864118023536e-02,-1.387778780781445676e-17,-1.387778780781445676e-17,-1.387778780781445676e-17,-1.387778780781445676e-17,-1.387778780781445676e-17,-1.387778780781445676e-17,-1.387778780781445676e-17,-1.387778780781445676e-17,-1.387778780781445676e-17,-1.387778780781445676e-17,-1.387778780781445676e-17,-1.387778780781445676e-17,-1.387778780781445676e-17,-1.387778780781445676e-17,-1.387778780781445676e-17,-1.387778780781445676e-17,-1.387778780781445676e-17,-1.387778780781445676e-17,-1.387778780781445676e-17,-1.387778780781445676e-17,-1.387778780781445676e-17,-3.228591115571333159e-03,-6.561330331644951719e-03,-9.894069547718584157e-03,-1.322680876379219578e-02,-1.645539987936352200e-02,-1.978813909543714056e-02,-2.312087831151075912e-02,-2.645361752758439156e-02,-2.978635674365800318e-02,-3.301494785922932940e-02,-3.634768707530294796e-02,-3.968042629137658039e-02,-4.301316550745019895e-02,-4.634590472352381751e-02,-4.967864393959744301e-02,-5.290723505516875536e-02,-5.623997427124238085e-02,-5.957271348731600635e-02,-6.290545270338962491e-02,-6.623819191946324347e-02
-6.998752353754607303e-02,-6.955010151543640495e-02,-5.555259680792720006e-02,-4.199251412252764937e-02,-2.799500941501843754e-02,-1.399750470750922571e-02,-1.387778780781445676e-17,-1.387778780781445676e-17,-1.387778780781445676e-17,-1.387778780781445676e-17,-1.387778780781445676e-17,-1.387778780781445676e-17,-1.387778780781445676e-17,-1.387778780781445676e-17,-1.387778780781445676e-17,0.000000000000000000e+00,-1.387778780781445676e-17,-1.387778780781445676e-17,-1.387778780781445676e-17,-1.387778780781445676e-17,-1.387778780781445676e-17,-1.387778780781445676e-17,0.000000000000000000e+00,-1.387778780781445676e-17,-1.387778780781445676e-17,-1.387778780781445676e-17,-1.387778780781445676e-17,-2.916146814064421444e-03,-6.248886030138053882e-03,-9.477477145709380102e-03,-1.281021636178299172e-02,-1.614295557785661722e-02,-1.947569479393022884e-02,-2.280843401000386128e-02,-2.603702512557518750e-02,-2.936976434164880606e-02,-3.270250355772242462e-02,-3.603524277379604318e-02,-3.936798198986967562e-02,-4.259657310544099490e-02,-4.592931232151461346e-02,-4.926205153758823896e-02,-5.259479075366185752e-02,-5.592752996973548302e-02,-5.915612108530680230e-02,-6.248886030138042086e-02,-6.582159951745404636e-02
-6.998752353754607303e-02,-6.998752353754607303e-02,-5.730228489636585154e-02,-4.330478018885663971e-02,-2.930727548134742788e-02,-1.574719279594787719e-02,-1.749688088438672295e-03,-1.387778780781445676e-17,-1.387778780781445676e-17,-1.387778780781445676e-17,-1.387778780781445676e-17,-1.387778780781445676e-17,-1.387778780781445676e-17,-2.775557561562891351e-17,-1.387778780781445676e-17,0.000000000000000000e+00,-1.387778780781445676e-17,-1.387778780781445676e-17,-1.387778780781445676e-17,-1.387778780781445676e-17,-1.387778780781445676e-17,-1.387778780781445676e-17,-1.387778780781445676e-17,-1.387778780781445676e-17,-1.387778780781445676e-17,-1.387778780781445676e-17,-1.387778780781445676e-17,-2.499554412055224328e-03,-5.832293628128842888e-03,-9.165032844202475326e-03,-1.249777206027610083e-02,-1.572636317584742011e-02,-1.905910239192103173e-02,-2.239184160799465029e-02,-2.572458082406828273e-02,-2.905732004014190822e-02,-3.228591115571322057e-02,-3.561865037178683913e-02,-3.895138958786047156e-02,-4.228412880393409012e-02,-4.561686802000770868e-02,-4.884545913557903490e-02,-5.217819835165265346e-02,-5.551093756772627896e-02,-5.884367678379989752e-02,-6.217641599987352302e-02,-6.550915521594714852e-02
-6.998752353754607303e-02,-6.998752353754607303e-02,-5.861455096269484188e-02,-4.505446827729529813e-02,-3.105696356978607242e-02,-1.705945886227686753e-02,-3.061954154767648761e-03,-1.387778780781445676e-17,-1.387778780781445676e-17,-1.387778780781445676e-17,-1.387778780781445676e-17,-1.387778780781445676e-17,-1.387778780781445676e-17,-1.387778780781445676e-17,-1.387778780781445676e-17,-1.387778780781445676e-17,-1.387778780781445676e-17,-1.387778780781445676e-17,-1.387778780781445676e-17,-1.387778780781445676e-17,-1.387778780781445676e-17,-1.387778780781445676e-17,-1.387778780781445676e-17,-1.387778780781445676e-17,-1.387778780781445676e-17,-1.387778780781445676e-17,-1.387778780781445676e-17,-2.187110110548326491e-03,-5.415701226119631895e-03,-8.748440442193278210e-03,-1.208117965826689677e-02,-1.541391887434051533e-02,-1.874665809041412695e-02,-2.207939730648775939e-02,-2.530798842205907867e-02,-2.864072763813269723e-02,-3.197346685420631579e-02,-3.530620607027994129e-02,-3.863894528635356679e-02,-4.186753640192489301e-02,-4.520027561799851157e-02,-4.853301483407213013e-02,-5.186575405014574869e-02,-5.519849326621937419e-02,-5.842708438179070041e-02,-6.175982359786431897e-02,-6.509256281393793753e-02
-6.998752353754607303e-02,-6.998752353754607303e-02,-6.036423905113348642e-02,-4.636673434362427459e-02,-3.236922963611506276e-02,-1.880914695071551901e-02,-4.811642243206307179e-03,-1.387778780781445676e-17,-1.387778780781445676e-17,-1.387778780781445676e-17,-1.387778780781445676e-17,-1.387778780781445676e-17,-1.387778780781445676e-17,-1.387778780781445676e-17,-1.387778780781445676e-17,-1.387778780781445676e-17,-1.387778780781445676e-17,-1.387778780781445676e-17,-1.387778780781445676e-17,-1.387778780781445676e-17,-1.387778780781445676e-17,-1.387778780781445676e-17,-1.387778780781445676e-17,-1.387778780781445676e-17,-1.387778780781445676e-17,-1.387778780781445676e-17,-1.387778780781445676e-17,-1.770517708539129376e-03,-5.103256924612747936e-03,-8.435996140686366496e-03,-1.176873535675999199e-02,-1.499732647233131128e-02,-1.833006568840492984e-02,-2.166280490447854840e-02,-2.499554412055217389e-02,-2.832828333662579939e-02,-3.155687445219711867e-02,-3.488961366827074417e-02,-3.822235288434436273e-02,-4.155509210041798823e-02,-4.488783131649160679e-02,-4.811642243206293301e-02,-5.144916164813655157e-02,-5.478190086421017013e-02,-5.811464008028379563e-02,-6.144737929635742113e-02,-6.478011851243103969e-02
-6.998752353754607303e-02,-6.998752353754607303e-02,-6.211392713957214484e-02,-4.811642243206293301e-02,-3.411891772455372118e-02,-2.012141301704450935e-02,-6.123908309535297523e-03,-1.387778780781445676e-17,-1.387778780781445676e-17,-1.387778780781445676e-17,-1.387778780781445676e-17,-1.387778780781445676e-17,-1.387778780781445676e-17,-1.387778780781445676e-17,-1.387778780781445676e-17,-1.387778780781445676e-17,-1.387778780781445676e-17,-1.387778780781445676e-17,-1.387778780781445676e-17,-1.387778780781445676e-17,-1.387778780781445676e-17,-1.387778780781445676e-17,-1.387778780781445676e-17,-1.387778780781445676e-17,-1.387778780781445676e-17,-1.387778780781445676e-17,-1.387778780781445676e-17,-1.458073407032217661e-03,-4.686664522603536942e-03,-8.019403738677169380e-03,-1.135214295475078794e-02,-1.468488217082440650e-02,-1.801762138689802506e-02,-2.124621250246934434e-02,-2.457895171854296984e-02,-2.791169093461659534e-02,-3.124443015069021390e-02,-3.457716936676383246e-02,-3.790990858283746490e-02,-4.113849969840878418e-02,-4.447123891448240274e-02,-4.780397813055602824e-02,-5.113671734662965374e-02,-5.446945656270327230e-02,-5.769804767827459158e-02,-6.103078689434821014e-02,-6.436352611042184257e-02
-6.998752353754607303e-02,-6.998752353754607303e-02,-6.342619320590113519e-02,-4.942868849839191642e-02,-3.543118379088270459e-02,-2.187110110548315389e-02,-7.873596397973949002e-03,-1.387778780781445676e-17,-1.387778780781445676e-17,-1.387778780781445676e-17,-1.387778780781445676e-17,-1.387778780781445676e-17,-1.387778780781445676e-17,-1.387778780781445676e-17,-1.387778780781445676e-17,-1.387778780781445676e-17,-1.387778780781445676e-17,-1.387778780781445676e-17,-1.387778780781445676e-17,-1.387778780781445676e-17,-1.387778780781445676e-17,-1.387778780781445676e-17,-1.387778780781445676e-17,-1.387778780781445676e-17,-1.387778780781445676e-17,-1.387778780781445676e-17,-1.387778780781445676e-17,-1.041481005023020545e-03,-4.374220221096639105e-03,-7.706959437170257665e-03,-1.103969865324389010e-02,-1.426828976881520938e-02,-1.760102898488882794e-02,-2.093376820096245344e-02,-2.426650741703607200e-02,-2.759924663310969750e-02,-3.082783774868101678e-02,-3.416057696475463534e-02,-3.749331618082825390e-02,-4.082605539690187940e-02,-4.415879461297550490e-02,-4.738738572854682418e-02,-5.072012494462044274e-02,-5.405286416069406824e-02,-5.738560337676768680e-02,-6.071834259284131230e-02,-6.394693370841263158e-02
-6.998752353754607303e-02,-6.998752353754607303e-02,-6.517588129433977973e-02,-5.117837658683056790e-02,-3.718087187932135607e-02,-2.318336717181214424e-02,-9.185862464302932406e-03,-1.387778780781445676e-17,-1.387778780781445676e-17,-1.387778780781445676e-17,-1.387778780781445676e-17,-1.387778780781445676e-17,-1.387778780781445676e-17,-1.387778780781445676e-17,-1.387778780781445676e-17,-2.775557561562891351e-17,-1.387778780781445676e-17,-1.387778780781445676e-17,-1.387778780781445676e-17,-1.387778780781445676e-17,-1.387778780781445676e-17,-1.387778780781445676e-17,-1.387778780781445676e-17,-1.387778780781445676e-17,-1.387778780781445676e-17,-1.387778780781445676e-17,-1.387778780781445676e-17,-7.290367035161227083e-04,-3.957627819087441989e-03,-7.290367035161046672e-03,-1.062310625123468605e-02,-1.395584546730831155e-02,-1.728858468338192317e-02,-2.051717579895324245e-02,-2.384991501502686795e-02,-2.718265423110048651e-02,-3.051539344717411201e-02,-3.384813266324773057e-02,-3.718087187932135607e-02,-4.040946299489268229e-02,-4.374220221096630085e-02,-4.707494142703991941e-02,-5.040768064311354490e-02,-5.374041985918716346e-02,-5.696901097475848275e-02,-6.030175019083210824e-02,-6.363448940690573374e-02
-6.998752353754607303e-02,-6.998752353754607303e-02,-6.648814736066877007e-02,-5.249064265315955824e-02,-3.849313794565034641e-02,-2.493305526025080265e-02,-1.093555055274158389e-02,-1.387778780781445676e-17,-1.387778780781445676e-17,-1.387778780781445676e-17,-1.387778780781445676e-17,-1.387778780781445676e-17,-1.387778780781445676e-17,-1.387778780781445676e-17,-1.387778780781445676e-17,-1.387778780781445676e-17,-1.387778780781445676e-17,-1.387778780781445676e-17,-1.387778780781445676e-17,-1.387778780781445676e-17,-1.387778780781445676e-17,-1.387778780781445676e-17,-1.387778780781445676e-17,-1.387778780781445676e-17,-1.387778780781445676e-17,-1.387778780781445676e-17,-1.387778780781445676e-17,-3.124443015069117147e-04,-3.645183517580530275e-03,-6.977922733654148835e-03,-1.031066194972778127e-02,-1.353925306529910055e-02,-1.687199228137272605e-02,-2.020473149744633767e-02,-2.353747071351997011e-02,-2.687020992959359561e-02,-3.009880104516491489e-02,-3.343154026123852651e-02,-3.676427947731215201e-02,-4.009701869338577751e-02,-4.342975790945939607e-02,-4.665834902503071535e-02,-4.999108824110434085e-02,-5.332382745717796635e-02,-5.665656667325158491e-02,-5.998930588932520347e-02,-6.321789700489652275e-02
-6.998752353754607303e-02,-6.998752353754607303e-02,-6.823783544910741461e-02,-5.424033074159820972e-02,-4.024282603408899789e-02,-2.624532132657978606e-02,-1.224781661907057423e-02,-1.387778780781445676e-17,-1.387778780781445676e-17,-1.387778780781445676e-17,-1.387778780781445676e-17,-1.387778780781445676e-17,-1.387778780781445676e-17,-1.387778780781445676e-17,-1.387778780781445676e-17,-1.387778780781445676e-17,-1.387778780781445676e-17,-1.387778780781445676e-17,-1.387778780781445676e-17,-1.387778780781445676e-17,-1.387778780781445676e-17,-1.387778780781445676e-17,-1.387778780781445676e-17,-1.387778780781445676e-17,-1.387778780781445676e-17,-1.387778780781445676e-17,-1.387778780781445676e-17,-1.387778780781445676e-17,-3.228591115571333159e-03,-6.561330331644951719e-03,-9.894069547718584157e-03,-1.322680876379219578e-02,-1.655954797986582822e-02,-1.978813909543714056e-02,-2.312087831151076606e-02,-2.645361752758439156e-02,-2.978635674365801012e-02,-3.311909595973162174e-02,-3.634768707530294796e-02,-3.968042629137658039e-02,-4.301316550745019202e-02,-4.634590472352381751e-02,-4.967864393959744301e-02,-5.301138315567106157e-02,-5.623997427124238085e-02,-5.957271348731600635e-02,-6.290545270338962491e-02
-6.998752353754607303e-02,-6.998752353754607303e-02,-6.955010151543640495e-02,-5.555259680792720006e-02,-4.155509210041798129e-02,-2.799500941501843754e-02,-1.399750470750922571e-02,-1.387778780781445676e-17,-1.387778780781445676e-17,-1.387778780781445676e-17,-1.387778780781445676e-17,-1.387778780781445676e-17,-1.387778780781445676e-17,-1.387778780781445676e-17,-1.387778780781445676e-17,-1.387778780781445676e-17,-1.387778780781445676e-17,0.000000000000000000e+00,-1.387778780781445676e-17,-1.387778780781445676e-17,-1.387778780781445676e-17,-1.387778780781445676e-17,-2.775557561562891351e-17,-1.387778780781445676e-17,0.000000000000000000e+00,-2.775557561562891351e-17,-1.387778780781445676e-17,-2.775557561562891351e-17,-2.916146814064435322e-03,-6.248886030138053882e-03,-9.581625246211679381e-03,-1.281021636178300560e-02,-1.614295557785661722e-02,-1.947569479393022884e-02,-2.280843401000386128e-02,-2.614117322607747984e-02,-2.936976434164880606e-02,-3.270250355772242462e-02,-3.603524277379605012e-02,-3.936798198986966868e-02,-4.270072120594328724e-02,-4.592931232151461346e-02,-4.926205153758823896e-02,-5.259479075366185752e-02,-5.592752996973548302e-02,-5.926026918580910158e-02,-6.248886030138042086e-02
-6.998752353754607303e-02,-6.998752353754607303e-02,-8.118583260654568812e-02,-6.850059396536546663e-02,-5.450308925785624092e-02,-4.050558455034704297e-02,-1.530977077383821605e-02,-1.749688088438658418e-03,-1.387778780781445676e-17,-1.387778780781445676e-17,-1.387778780781445676e-17,-2.775557561562891351e-17,-1.387778780781445676e-17,-1.387778780781445676e-17,-1.387778780781445676e-17,-1.387778780781445676e-17,-2.775557561562891351e-17,-1.387778780781445676e-17,-1.387778780781445676e-17,-2.775557561562891351e-17,-1.387778780781445676e-17,-1.387778780781445676e-17,-1.387778780781445676e-17,-1.387778780781445676e-17,-1.387778780781445676e-17,-1.387778780781445676e-17,-1.387778780781445676e-17,-1.387778780781445676e-17,-2.499554412055224328e-03,-5.832293628128842888e-03,-9.165032844202475326e-03,-1.249777206027610776e-02,-1.583051127634971245e-02,-1.905910239192103173e-02,-2.239184160799466417e-02,-2.572458082406828273e-02,-2.905732004014190129e-02,-3.239005925621551985e-02,-3.561865037178684607e-02,-3.895138958786047156e-02,-4.228412880393409012e-02,-4.561686802000771562e-02,-4.894960723608133418e-02,-5.217819835165266040e-02,-5.551093756772627896e-02,-5.884367678379989752e-02,-6.217641599987352302e-02
-6.998752353754607303e-02,-6.998752353754607303e-02,-8.118583260654568812e-02,-6.981286003169445697e-02,-5.581535532418523821e-02,-4.225527263878568751e-02,-1.705945886227686059e-02,-3.061954154767648761e-03,-1.387778780781445676e-17,-1.387778780781445676e-17,-1.387778780781445676e-17,-1.387778780781445676e-17,-1.387778780781445676e-17,-1.387778780781445676e-17,-1.387778780781445676e-17,0.000000000000000000e+00,-1.387778780781445676e-17,-1.387778780781445676e-17,-1.387778780781445676e-17,-1.387778780781445676e-17,-1.387778780781445676e-17,-1.387778780781445676e-17,-1.387778780781445676e-17,-1.387778780781445676e-17,-1.387778780781445676e-17,-1.387778780781445676e-17,-1.387778780781445676e-17,-1.387778780781445676e-17,-2.187110110548326491e-03,-5.519849326621945051e-03,-8.852588542695577489e-03,-1.208117965826689677e-02,-1.541391887434051533e-02,-1.874665809041412695e-02,-2.207939730648775245e-02,-2.541213652256138489e-02,-2.864072763813270417e-02,-3.197346685420631579e-02,-3.530620607027994129e-02,-3.863894528635356679e-02,-4.197168450242719229e-02,-4.520027561799851157e-02,-4.853301483407213013e-02,-5.186575405014575563e-02,-5.519849326621938113e-02,-5.853123248229299969e-02,-6.175982359786431897e-02
-6.998752353754607303e-02,-6.998752353754607303e-02,-8.118583260654568812e-02,-7.156254812013310151e-02,-5.756504341262388968e-02,-4.356753870511467785e-02,-1.837172492860585093e-02,-4.811642243206307179e-03,-1.387778780781445676e-17,-1.387778780781445676e-17,-1.387778780781445676e-17,0.000000000000000000e+00,-1.387778780781445676e-17,-1.387778780781445676e-17,-1.387778780781445676e-17,-1.387778780781445676e-17,-1.387778780781445676e-17,-1.387778780781445676e-17,-1.387778780781445676e-17,-1.387778780781445676e-17,-1.387778780781445676e-17,-1.387778780781445676e-17,-1.387778780781445676e-17,-1.387778780781445676e-17,-2.775557561562891351e-17,-1.387778780781445676e-17,-2.775557561562891351e-17,-1.387778780781445676e-17,-1.770517708539115498e-03,-5.103256924612734058e-03,-8.435996140686366496e-03,-1.176873535675999199e-02,-1.510147457283361749e-02,-1.833006568840492290e-02,-2.166280490447855533e-02,-2.499554412055218083e-02,-2.832828333662580633e-02,-3.166102255269941795e-02,-3.488961366827074417e-02,-3.822235288434436273e-02,-4.155509210041798823e-02,-4.488783131649160679e-02,-4.822057053256523229e-02,-5.144916164813655157e-02,-5.478190086421017013e-02,-5.811464008028379563e-02,-6.144737929635741419e-02
-6.998752353754607303e-02,-6.998752353754607303e-02,-8.118583260654568812e-02,-7.287481418646209186e-02,-5.887730947895288003e-02,-4.531722679355333627e-02,-2.012141301704450241e-02,-6.123908309535283645e-03,-1.387778780781445676e-17,-1.387778780781445676e-17,-1.387778780781445676e-17,-1.387778780781445676e-17,-1.387778780781445676e-17,-1.387778780781445676e-17,-1.387778780781445676e-17,-1.387778780781445676e-17,-1.387778780781445676e-17,-1.387778780781445676e-17,-1.387778780781445676e-17,-1.387778780781445676e-17,-1.387778780781445676e-17,-1.387778780781445676e-17,-1.387778780781445676e-17,-1.387778780781445676e-17,-1.387778780781445676e-17,-1.387778780781445676e-17,-1.387778780781445676e-17,-1.387778780781445676e-17,-1.458073407032231539e-03,-4.790812623105836221e-03,-8.123551839179461720e-03,-1.135214295475078794e-02,-1.468488217082440650e-02,-1.801762138689802506e-02,-2.135036060297165056e-02,-2.468309981904527606e-02,-2.791169093461659534e-02,-3.124443015069021390e-02,-3.457716936676383940e-02,-3.790990858283745796e-02,-4.124264779891108346e-02,-4.447123891448240274e-02,-4.780397813055602824e-02,-5.113671734662965374e-02,-5.446945656270327230e-02,-5.780219577877689086e-02,-6.103078689434821014e-02
-6.998752353754607303e-02,-6.998752353754607303e-02,-6.998752353754607303e-02,-6.342619320590113519e-02,-4.942868849839192336e-02,-3.543118379088270459e-02,-2.143367908337349276e-02,-7.873596397973942063e-03,-1.387778780781445676e-17,-1.387778780781445676e-17,-1.387778780781445676e-17,-1.387778780781445676e-17,-1.387778780781445676e-17,-1.387778780781445676e-17,-1.387778780781445676e-17,0.000000000000000000e+00,0.000000000000000000e+00,-1.387778780781445676e-17,-1.387778780781445676e-17,-1.387778780781445676e-17,-1.387778780781445676e-17,-1.387778780781445676e-17,-1.387778780781445676e-17,-1.387778780781445676e-17,-1.387778780781445676e-17,0.000000000000000000e+00,-1.387778780781445676e-17,-1.387778780781445676e-17,-1.041481005023020545e-03,-4.374220221096639105e-03,-7.706959437170257665e-03,-1.103969865324389010e-02,-1.437243786931750866e-02,-1.760102898488882794e-02,-2.093376820096243957e-02,-2.426650741703607200e-02,-2.759924663310969750e-02,-3.093198584918331606e-02,-3.416057696475463534e-02,-3.749331618082826084e-02,-4.082605539690188634e-02,-4.415879461297550490e-02,-4.749153382904912346e-02,-5.072012494462044274e-02,-5.405286416069406824e-02,-5.738560337676769374e-02,-6.071834259284131230e-02
-6.998752353754607303e-02,-6.998752353754607303e-02,-6.998752353754607303e-02,-6.473845927223012553e-02,-5.117837658683056790e-02,-3.718087187932135607e-02,-2.318336717181214424e-02,-9.185862464302932406e-03,-1.387778780781445676e-17,-1.387778780781445676e-17,-1.387778780781445676e-17,-1.387778780781445676e-17,-1.387778780781445676e-17,-1.387778780781445676e-17,-1.387778780781445676e-17,-1.387778780781445676e-17,-1.387778780781445676e-17,-1.387778780781445676e-17,-1.387778780781445676e-17,-1.387778780781445676e-17,-1.387778780781445676e-17,-1.387778780781445676e-17,-1.387778780781445676e-17,-1.387778780781445676e-17,-1.387778780781445676e-17,-1.387778780781445676e-17,-1.387778780781445676e-17,-1.387778780781445676e-17,-7.290367035161088305e-04,-4.061775919589741268e-03,-7.290367035161060549e-03,-1.062310625123468605e-02,-1.395584546730830461e-02,-1.728858468338193011e-02,-2.062132389945554173e-02,-2.395406311552916723e-02,-2.718265423110049345e-02,-3.051539344717411201e-02,-3.384813266324773751e-02,-3.718087187932135607e-02,-4.051361109539498156e-02,-4.374220221096629391e-02,-4.707494142703991941e-02,-5.040768064311354490e-02,-5.374041985918716346e-02,-5.707315907526078202e-02,-6.030175019083210824e-02
-6.998752353754607303e-02,-6.998752353754607303e-02,-6.998752353754607303e-02,-6.648814736066877007e-02,-5.249064265315955824e-02,-3.849313794565034641e-02,-2.449563323814113458e-02,-1.093555055274158389e-02,-1.387778780781445676e-17,-1.387778780781445676e-17,-1.387778780781445676e-17,-1.387778780781445676e-17,-1.387778780781445676e-17,-1.387778780781445676e-17,-1.387778780781445676e-17,-1.387778780781445676e-17,-1.387778780781445676e-17,-1.387778780781445676e-17,-1.387778780781445676e-17,-1.387778780781445676e-17,-1.387778780781445676e-17,-1.387778780781445676e-17,-1.387778780781445676e-17,-1.387778780781445676e-17,-1.387778780781445676e-17,-1.387778780781445676e-17,-1.387778780781445676e-17,-1.387778780781445676e-17,-3.124443015069117147e-04,-3.645183517580544152e-03,-6.977922733654148835e-03,-1.031066194972778821e-02,-1.364340116580140677e-02,-1.687199228137271911e-02,-2.020473149744633767e-02,-2.353747071351996317e-02,-2.687020992959358867e-02,-3.020294914566720723e-02,-3.343154026123852651e-02,-3.676427947731215201e-02,-4.009701869338577751e-02,-4.342975790945939607e-02,-4.676249712553302157e-02,-4.999108824110434085e-02,-5.332382745717796635e-02,-5.665656667325158491e-02,-5.998930588932520347e-02
-6.998752353754607303e-02,-6.998752353754607303e-02,-6.998752353754607303e-02,-6.780041342699776041e-02,-5.424033074159820972e-02,-4.024282603408899789e-02,-2.624532132657978606e-02,-1.224781661907058117e-02,-1.387778780781445676e-17,-1.387778780781445676e-17,-1.387778780781445676e-17,-1.387778780781445676e-17,-1.387778780781445676e-17,-1.387778780781445676e-17,-1.387778780781445676e-17,-1.387778780781445676e-17,-1.387778780781445676e-17,-1.387778780781445676e-17,-1.387778780781445676e-17,-1.387778780781445676e-17,-1.387778780781445676e-17,-1.387778780781445676e-17,-1.387778780781445676e-17,-1.387778780781445676e-17,-1.387778780781445676e-17,-1.387778780781445676e-17,-1.387778780781445676e-17,-1.387778780781445676e-17,-1.387778780781445676e-17,-3.332739216073632438e-03,-6.561330331644951719e-03,-9.894069547718584157e-03,-1.322680876379220966e-02,-1.655954797986582128e-02,-1.989228719593943984e-02,-2.312087831151075912e-02,-2.645361752758439156e-02,-2.978635674365801012e-02,-3.311909595973162174e-02,-3.645183517580524724e-02,-3.978457439187887967e-02,-4.301316550745019895e-02,-4.634590472352381751e-02,-4.967864393959743607e-02,-5.301138315567106157e-02,-5.634412237174468707e-02,-5.957271348731600635e-02
-6.998752353754607303e-02,-6.998752353754607303e-02,-6.998752353754607303e-02,-6.955010151543640495e-02,-5.555259680792720006e-02,-4.155509210041798129e-02,-2.755758739290876946e-02,-1.399750470750922571e-02,-1.387778780781445676e-17,-1.387778780781445676e-17,-1.387778780781445676e-17,-1.387778780781445676e-17,-1.387778780781445676e-17,-1.387778780781445676e-17,-1.387778780781445676e-17,-1.387778780781445676e-17,-1.387778780781445676e-17,-1.387778780781445676e-17,-1.387778780781445676e-17,-1.387778780781445676e-17,-1.387778780781445676e-17,-1.387778780781445676e-17,-1.387778780781445676e-17,0.000000000000000000e+00,-1.387778780781445676e-17,-1.387778780781445676e-17,-1.387778780781445676e-17,-1.387778780781445676e-17,-1.387778780781445676e-17,-2.916146814064421444e-03,-6.248886030138053882e-03,-9.581625246211672442e-03,-1.291436446228529794e-02,-1.614295557785661722e-02,-1.947569479393023578e-02,-2.280843401000386128e-02,-2.614117322607748678e-02,-2.947391244215110534e-02,-3.270250355772242462e-02,-3.603524277379605012e-02,-3.936798198986967562e-02,-4.270072120594329418e-02,-4.603346042201691274e-02,-4.926205153758823896e-02,-5.259479075366185752e-02,-5.592752996973547608e-02,-5.926026918580910158e-02
-6.998752353754607303e-02,-6.998752353754607303e-02,-6.998752353754607303e-02,-6.998752353754607303e-02,-5.730228489636585154e-02,-4.330478018885663971e-02,-2.930727548134742788e-02,-1.530977077383821605e-02,-1.312266066328990344e-03,-1.387778780781445676e-17,-1.387778780781445676e-17,-1.387778780781445676e-17,-1.387778780781445676e-17,-1.387778780781445676e-17,-1.387778780781445676e-17,-1.387778780781445676e-17,-2.775557561562891351e-17,-1.387778780781445676e-17,-1.387778780781445676e-17,-1.387778780781445676e-17,-1.387778780781445676e-17,-1.387778780781445676e-17,-1.387778780781445676e-17,-1.387778780781445676e-17,-1.387778780781445676e-17,-1.387778780781445676e-17,-1.387778780781445676e-17,-1.387778780781445676e-17,-1.387778780781445676e-17,-2.603702512557523607e-03,-5.832293628128842888e-03,-9.165032844202475326e-03,-1.249777206027609389e-02,-1.583051127634971245e-02,-1.916325049242333101e-02,-2.239184160799466417e-02,-2.572458082406828273e-02,-2.905732004014190822e-02,-3.239005925621551985e-02,-3.572279847228914534e-02,-3.905553768836277084e-02,-4.228412880393409012e-02,-4.561686802000771562e-02,-4.894960723608132724e-02,-5.228234645215495274e-02,-5.561508566822857824e-02,-5.884367678379989752e-02
-6.998752353754607303e-02,-6.998752353754607303e-02,-6.998752353754607303e-02,-6.998752353754607303e-02,-5.861455096269484188e-02,-4.461704625518563005e-02,-3.061954154767641129e-02,-1.705945886227686753e-02,-3.061954154767648761e-03,-1.387778780781445676e-17,-1.387778780781445676e-17,-1.387778780781445676e-17,-1.387778780781445676e-17,-1.387778780781445676e-17,-1.387778780781445676e-17,-1.387778780781445676e-17,-1.387778780781445676e-17,-1.387778780781445676e-17,-1.387778780781445676e-17,-1.387778780781445676e-17,-1.387778780781445676e-17,-1.387778780781445676e-17,-1.387778780781445676e-17,-1.387778780781445676e-17,-1.387778780781445676e-17,-1.387778780781445676e-17,-1.387778780781445676e-17,-1.387778780781445676e-17,-1.387778780781445676e-17,-2.187110110548312614e-03,-5.519849326621945051e-03,-8.852588542695570550e-03,-1.218532775876919605e-02,-1.541391887434051533e-02,-1.874665809041413389e-02,-2.207939730648775939e-02,-2.541213652256137795e-02,-2.874487573863499651e-02,-3.197346685420631579e-02,-3.530620607027994129e-02,-3.863894528635356679e-02,-4.197168450242719229e-02,-4.530442371850081085e-02,-4.987392162803925416e-02,-5.526358582903331124e-02,-5.935790803003000715e-02,-6.318535072348956116e-02
-6.998752353754607303e-02,-6.998752353754607303e-02,-6.998752353754607303e-02,-6.998752353754607303e-02,-6.036423905113348642e-02,-4.636673434362427459e-02,-3.236922963611506276e-02,-1.837172492860585787e-02,-4.374220221096639105e-03,-1.387778780781445676e-17,-1.387778780781445676e-17,-1.387778780781445676e-17,-1.387778780781445676e-17,-1.387778780781445676e-17,-1.387778780781445676e-17,-1.387778780781445676e-17,-2.775557561562891351e-17,-1.387778780781445676e-17,-1.387778780781445676e-17,-1.387778780781445676e-17,-1.387778780781445676e-17,-1.387778780781445676e-17,-1.387778780781445676e-17,-1.387778780781445676e-17,-1.387778780781445676e-17,-1.387778780781445676e-17,-1.387778780781445676e-17,-1.387778780781445676e-17,-1.387778780781445676e-17,-1.874665809041414777e-03,-5.103256924612734058e-03,-8.435996140686366496e-03,-1.176873535675999199e-02,-1.510147457283361749e-02,-2.165629564819715469e-02,-3.072368964817871057e-02,-3.764953833158170976e-02,-4.525234966824966121e-02,-5.082427304512274202e-02,-5.686486287425618347e-02,-6.105356929133309157e-02,-6.554495612549481043e-02,-6.841879277373016932e-02,-6.998752353754607303e-02,-6.998752353754607303e-02,-6.998752353754607303e-02,-6.998752353754607303e-02
-6.998752353754607303e-02,-6.998752353754607303e-02,-6.998752353754607303e-02,-6.998752353754607303e-02,-6.167650511746247677e-02,-4.767900040995326494e-02,-3.368149570244405311e-02,-2.012141301704450241e-02,-6.123908309535297523e-03,-1.387778780781445676e-17,-1.387778780781445676e-17,-1.387778780781445676e-17,-1.387778780781445676e-17,-1.387778780781445676e-17,-1.387778780781445676e-17,-1.387778780781445676e-17,-1.387778780781445676e-17,-1.387778780781445676e-17,-1.387778780781445676e-17,-1.387778780781445676e-17,-1.387778780781445676e-17,-1.387778780781445676e-17,-1.387778780781445676e-17,-1.387778780781445676e-17,-1.387778780781445676e-17,-6.561330331644951719e-03,-1.312266066328990344e-02,-2.187110110548315389e-02,-2.843243143712809867e-02,-3.786434378886770202e-02,-4.553875694463098422e-02,-5.452153061295442193e-02,-6.084201846218779269e-02,-6.825931599483602008e-02,-6.998752353754607303e-02,-6.998752353754607303e-02,-6.998752353754607303e-02,-6.998752353754607303e-02,-6.998752353754607303e-02,-6.998752353754607303e-02,-6.998752353754607303e-02,-6.998752353754607303e-02,-6.998752353754607303e-02,-6.998752353754607303e-02,-6.998752353754607303e-02,-6.998752353754607303e-02,-6.998752353754607303e-02
