3.764595600665084085e-02,3.764595600665084085e-02,3.764595600665084085e-02,3.764595600665084085e-02,1.903687548063593901e-02,-3.018331068715053578e-03,-2.507353761806606351e-02,-4.712874416741706651e-02,-6.918395071676805563e-02,-9.123915726611904475e-02,-1.132943638154700755e-01,-1.353495703648210369e-01,-1.516295450267881040e-01,-1.482309517761877249e-01,-1.413862325022511857e-01,-1.345415132283147019e-01,-1.276967939543781627e-01,-1.208520746804416096e-01,-1.140073554065050704e-01,-1.071626361325685589e-01,-1.003179168586320474e-01,-9.347319758469553597e-02,-8.662847831075902449e-02,-7.978375903682252690e-02,-6.948325864508797522e-02,-5.961055320797446766e-02,-4.713765656230499423e-02,-3.552034982587758127e-02,-2.752593161139704758e-02,-1.739253862381133497e-02,-1.029381609556858507e-02,-1.657705449156499089e-03,6.122815288013526425e-03,1.151035799777214846e-02,1.779359639376856123e-02,2.322124488052291005e-02,2.689760777179740422e-02,3.082797391737814030e-02,3.343484942210005195e-02,3.586793322650717875e-02,3.744542712167223120e-02,3.764595600665084085e-02,3.764595600665084085e-02,3.764595600665084085e-02,3.764595600665084085e-02,3.764595600665084085e-02,3.764595600665084085e-02
3.764595600665084085e-02,3.764595600665084085e-02,3.764595600665084085e-02,3.764595600665084085e-02,1.765842507130150132e-02,-4.396781478049491265e-03,-2.645198802740049426e-02,-4.850719457675149726e-02,-7.056240112610248638e-02,-9.261760767545350326e-02,-1.146728142248044785e-01,-1.367280207741554676e-01,-1.525802004815015045e-01,-1.478031568215666391e-01,-1.409584375476301554e-01,-1.341137182736936162e-01,-1.272689989997571325e-01,-1.204242797258205794e-01,-1.135795604518840402e-01,-1.069487386552580438e-01,-1.001040193813215323e-01,-9.325930010738502085e-02,-8.641458083344850938e-02,-7.956986155951199791e-02,-7.272514228557548643e-02,-6.588042301163896108e-02,-5.903570373770244961e-02,-5.219098446376595202e-02,-4.534626518982944055e-02,-3.850154591589290132e-02,-3.165682664195637597e-02,-2.481210736801987143e-02,-1.796738809408335302e-02,-1.112266882014684155e-02,-4.277949546210330078e-03,2.566769727726195272e-03,9.411489001662710213e-03,1.625620827559922515e-02,2.310092754953574357e-02,2.994564682347225851e-02,3.679036609740877345e-02,3.764595600665084085e-02,3.764595600665084085e-02,3.764595600665084085e-02,3.764595600665084085e-02,3.764595600665084085e-02,3.764595600665084085e-02
3.764595600665084085e-02,3.764595600665084085e-02,3.764595600665084085e-02,3.764595600665084085e-02,1.627997466196706364e-02,-5.775231887383928953e-03,-2.783043843673492501e-02,-4.988564498608592801e-02,-7.194085153543690325e-02,-9.399605808478793401e-02,-1.153620394294717216e-01,-1.374172459788227108e-01,-1.530555282088582048e-01,-1.475892593442561518e-01,-1.407445400703196126e-01,-1.338998207963831288e-01,-1.270551015224465896e-01,-1.202103822485100365e-01,-1.133656629745735250e-01,-1.065209437006370136e-01,-9.967622442670050209e-02,-9.283150515276399062e-02,-8.598678587882747915e-02,-7.914206660489096767e-02,-7.229734733095447008e-02,-6.545262805701793085e-02,-5.860790878308141938e-02,-5.176318950914490791e-02,-4.491847023520838256e-02,-3.807375096127185721e-02,-3.122903168733534573e-02,-2.438431241339884120e-02,-1.753959313946232279e-02,-1.069487386552581132e-02,-4.064052068899808023e-03,2.780667205036710388e-03,9.625386478973225329e-03,1.647010575290974027e-02,2.331482502684625868e-02,3.015954430078277709e-02,3.700426357471929550e-02,3.764595600665084085e-02,3.764595600665084085e-02,3.764595600665084085e-02,3.764595600665084085e-02,3.764595600665084085e-02,3.764595600665084085e-02
3.764595600665084085e-02,3.764595600665084085e-02,3.764595600665084085e-02,3.764595600665084085e-02,1.559074945729984479e-02,-6.464457092051151266e-03,-2.851966364140215426e-02,-5.057487019075314338e-02,-7.263007674010413250e-02,-9.468528328945514938e-02,-1.167404898388061524e-01,-1.387956963881571415e-01,-1.540061836635716053e-01,-1.471614643896351216e-01,-1.403167451156985823e-01,-1.334720258417620986e-01,-1.266273065678255594e-01,-1.197825872938890063e-01,-1.129378680199524948e-01,-1.060931487460159833e-01,-9.924842947207947186e-02,-9.240371019814296039e-02,-8.555899092420644891e-02,-7.871427165026993744e-02,-7.186955237633342597e-02,-6.523873057970741574e-02,-5.839401130577089039e-02,-5.154929203183439279e-02,-4.470457275789788132e-02,-3.785985348396134209e-02,-3.101513421002483062e-02,-2.417041493608831915e-02,-1.732569566215180767e-02,-1.048097638821528926e-02,-3.636257114278777791e-03,3.208462159657740620e-03,1.005318143359425903e-02,1.689790070753077050e-02,2.374261998146728891e-02,3.058733925540380733e-02,3.743205852934032574e-02,3.764595600665084085e-02,3.764595600665084085e-02,3.764595600665084085e-02,3.764595600665084085e-02,3.764595600665084085e-02,3.764595600665084085e-02
3.764595600665084085e-02,3.764595600665084085e-02,3.764595600665084085e-02,3.626750559731640317e-02,1.421229904796540711e-02,-7.842907501385588953e-03,-2.989811405073658501e-02,-5.195332060008757413e-02,-7.400852714943857713e-02,-9.606373369878958013e-02,-1.181189402481406109e-01,-1.397463518428705420e-01,-1.535783887089505750e-01,-1.467336694350140913e-01,-1.398889501610775521e-01,-1.332581283644515557e-01,-1.264134090905150720e-01,-1.195686898165784634e-01,-1.127239705426419797e-01,-1.058792512687054682e-01,-9.903453199476895674e-02,-9.218981272083241751e-02,-8.534509344689591992e-02,-7.850037417295942233e-02,-7.165565489902291085e-02,-6.481093562508638550e-02,-5.796621635114987403e-02,-5.112149707721336256e-02,-4.427677780327683721e-02,-3.743205852934031186e-02,-3.058733925540380039e-02,-2.374261998146728891e-02,-1.689790070753077050e-02,-1.005318143359425903e-02,-3.208462159657747559e-03,3.636257114278777791e-03,1.048097638821528926e-02,1.732569566215180767e-02,2.417041493608832609e-02,3.101513421002484103e-02,3.764595600665084085e-02,3.764595600665084085e-02,3.764595600665084085e-02,3.764595600665084085e-02,3.764595600665084085e-02,3.764595600665084085e-02,3.764595600665084085e-02
3.764595600665084085e-02,3.764595600665084085e-02,3.764595600665084085e-02,3.488905518798196548e-02,1.283384863863096942e-02,-9.221357910720026640e-03,-3.058733925540380039e-02,-5.264254580475480338e-02,-7.469775235410579250e-02,-9.675295890345679550e-02,-1.188081654528077707e-01,-1.402216795702272423e-01,-1.533644912316400877e-01,-1.465197719577035484e-01,-1.396750526837670647e-01,-1.328303334098305255e-01,-1.259856141358940418e-01,-1.191408948619574609e-01,-1.122961755880209772e-01,-1.054514563140844657e-01,-9.860673704014792651e-02,-9.176201776621141504e-02,-8.491729849227490357e-02,-7.807257921833839209e-02,-7.122785994440186674e-02,-6.438314067046535527e-02,-5.753842139652884380e-02,-5.069370212259233233e-02,-4.384898284865580698e-02,-3.700426357471928163e-02,-3.037344177809329915e-02,-2.352872250415678074e-02,-1.668400323022026233e-02,-9.839283956283743915e-03,-2.994564682347225504e-03,3.850154591589292907e-03,1.069487386552580438e-02,1.753959313946232279e-02,2.438431241339884120e-02,3.122903168733535614e-02,3.764595600665084085e-02,3.764595600665084085e-02,3.764595600665084085e-02,3.764595600665084085e-02,3.764595600665084085e-02,3.764595600665084085e-02,3.764595600665084085e-02
3.764595600665084085e-02,3.764595600665084085e-02,3.764595600665084085e-02,3.419982998331475010e-02,1.214462343396375404e-02,-9.910583115387242015e-03,-3.196578966473824501e-02,-5.402099621408923413e-02,-7.607620276344023713e-02,-9.813140931279122625e-02,-1.201866158621422570e-01,-1.411723350249406428e-01,-1.529366962770190574e-01,-1.460919770030825182e-01,-1.392472577291460345e-01,-1.324025384552094953e-01,-1.255578191812730116e-01,-1.187130999073364307e-01,-1.118683806333998915e-01,-1.050236613594634077e-01,-9.817894208552689628e-02,-9.154812028890089992e-02,-8.470340101496437457e-02,-7.785868174102787698e-02,-7.101396246709136550e-02,-6.416924319315484015e-02,-5.732452391921831480e-02,-5.047980464528183109e-02,-4.363508537134530574e-02,-3.679036609740876651e-02,-2.994564682347225504e-02,-2.310092754953574357e-02,-1.625620827559922515e-02,-9.411489001662713683e-03,-2.566769727726202210e-03,4.277949546210330078e-03,1.112266882014683808e-02,1.796738809408334955e-02,2.481210736801987143e-02,3.165682664195638985e-02,3.764595600665084085e-02,3.764595600665084085e-02,3.764595600665084085e-02,3.764595600665084085e-02,3.764595600665084085e-02,3.764595600665084085e-02,3.764595600665084085e-02
3.764595600665084085e-02,3.764595600665084085e-02,3.764595600665084085e-02,3.282137957398031242e-02,1.076617302462931636e-02,-1.128903352472167970e-02,-3.334424007407268964e-02,-5.539944662342366488e-02,-7.745465317277466788e-02,-9.950985972212568476e-02,-1.215650662714766878e-01,-1.421229904796540433e-01,-1.527227987997085146e-01,-1.458780795257720309e-01,-1.390333602518354916e-01,-1.321886409778989524e-01,-1.253439217039624687e-01,-1.184992024300259156e-01,-1.116544831560893764e-01,-1.048097638821528926e-01,-9.796504460821635341e-02,-9.112032533427986969e-02,-8.427560606034334434e-02,-7.743088678640684674e-02,-7.058616751247033527e-02,-6.374144823853380992e-02,-5.689672896459728457e-02,-5.005200969066077310e-02,-4.320729041672427551e-02,-3.636257114278772240e-02,-2.951785186885121093e-02,-2.267313259491470639e-02,-1.582841332097819492e-02,-8.983694047041683450e-03,-2.138974773105165039e-03,4.705744500831353372e-03,1.155046377476787178e-02,1.818128557139386814e-02,2.502600484533038655e-02,3.187072411926690496e-02,3.764595600665084085e-02,3.764595600665084085e-02,3.764595600665084085e-02,3.764595600665084085e-02,3.764595600665084085e-02,3.764595600665084085e-02,3.764595600665084085e-02
3.764595600665084085e-02,3.764595600665084085e-02,3.764595600665084085e-02,3.213215436931309010e-02,1.007694781996209404e-02,-1.197825872938890202e-02,-3.403346527873990501e-02,-5.608867182809088026e-02,-7.814387837744189713e-02,-1.001990849267929279e-01,-1.222542914761438754e-01,-1.425983182070107436e-01,-1.522950038450874843e-01,-1.454502845711510006e-01,-1.386055652972144614e-01,-1.317608460232779222e-01,-1.249161267493414246e-01,-1.180714074754048576e-01,-1.112266882014683739e-01,-1.043819689275318624e-01,-9.753724965359532317e-02,-9.069253037965883946e-02,-8.384781110572232798e-02,-7.700309183178580263e-02,-7.015837255784930504e-02,-6.331365328391276581e-02,-5.646893400997626822e-02,-4.983811221335027186e-02,-4.299339293941376039e-02,-3.614867366547722116e-02,-2.930395439154069581e-02,-2.245923511760419128e-02,-1.561451584366767981e-02,-8.769796569731161395e-03,-1.925077295794649923e-03,4.919641978141875427e-03,1.176436125207838690e-02,1.860908052601490531e-02,2.545379979995142025e-02,3.229851907388793519e-02,3.764595600665084085e-02,3.764595600665084085e-02,3.764595600665084085e-02,3.764595600665084085e-02,3.764595600665084085e-02,3.764595600665084085e-02,3.764595600665084085e-02
3.764595600665084085e-02,3.764595600665084085e-02,3.764595600665084085e-02,3.075370395997865589e-02,8.698497410627656357e-03,-1.335670913872333970e-02,-3.541191568807433576e-02,-5.746712223742533876e-02,-7.952232878677631400e-02,-1.015775353361273309e-01,-1.236327418854783339e-01,-1.435489736617241441e-01,-1.518672088904665096e-01,-1.450224896165299149e-01,-1.381777703425934312e-01,-1.313330510686569474e-01,-1.244883317947203943e-01,-1.176436125207838551e-01,-1.110127907241578588e-01,-1.041680714502213473e-01,-9.732335217628483581e-02,-9.047863290234829658e-02,-8.363391362841181287e-02,-7.678919435447528752e-02,-6.994447508053877605e-02,-6.309975580660227845e-02,-5.625503653266573922e-02,-4.941031725872922775e-02,-4.256559798479271628e-02,-3.572087871085617705e-02,-2.887615943691966558e-02,-2.203144016298316105e-02,-1.518672088904664957e-02,-8.342001615110131163e-03,-1.497282341173612752e-03,5.347436932762905659e-03,1.219215620669941713e-02,1.903687548063593207e-02,2.588159475457245395e-02,3.272631402850896543e-02,3.764595600665084085e-02,3.764595600665084085e-02,3.764595600665084085e-02,3.764595600665084085e-02,3.764595600665084085e-02,3.764595600665084085e-02,3.764595600665084085e-02
3.764595600665084085e-02,3.764595600665084085e-02,3.764595600665084085e-02,2.937525355064421473e-02,7.320047001293222139e-03,-1.473515954805777739e-02,-3.679036609740876651e-02,-5.884557264675976951e-02,-8.090077919611075863e-02,-1.022667605407945463e-01,-1.243219670901455493e-01,-1.440243013890808998e-01,-1.516533114131559667e-01,-1.448085921392194275e-01,-1.379638728652828883e-01,-1.311191535913464046e-01,-1.242744343174098792e-01,-1.174297150434733122e-01,-1.105849957695368285e-01,-1.037402764956002893e-01,-9.689555722166380558e-02,-9.005083794772726635e-02,-8.320611867379078264e-02,-7.636139939985427116e-02,-6.951668012591774581e-02,-6.267196085198123434e-02,-5.582724157804472287e-02,-4.898252230410818364e-02,-4.213780303017168605e-02,-3.529308375623514682e-02,-2.844836448229863535e-02,-2.160364520836212388e-02,-1.475892593442561934e-02,-7.914206660489100931e-03,-1.283384863863097636e-03,5.561334410073420775e-03,1.240605368400993225e-02,1.925077295794645066e-02,2.609549223188296907e-02,3.294021150581948748e-02,3.764595600665084085e-02,3.764595600665084085e-02,3.764595600665084085e-02,3.764595600665084085e-02,3.764595600665084085e-02,3.764595600665084085e-02,3.764595600665084085e-02
3.764595600665084085e-02,3.764595600665084085e-02,3.764595600665084085e-02,2.868602834597699935e-02,6.630821796626003295e-03,-1.542438475272499276e-02,-3.747959130207599576e-02,-5.953479785142699876e-02,-8.159000440077798788e-02,-1.036452109501290048e-01,-1.257004174994799661e-01,-1.449749568437943004e-01,-1.512255164585349365e-01,-1.443807971845983973e-01,-1.375360779106619136e-01,-1.306913586367253743e-01,-1.238466393627888212e-01,-1.170019200888522820e-01,-1.101572008149157983e-01,-1.033124815409792591e-01,-9.646776226704277535e-02,-8.962304299310626388e-02,-8.277832371916975240e-02,-7.593360444523324093e-02,-6.930278264860724458e-02,-6.245806337467071923e-02,-5.561334410073419388e-02,-4.876862482679768240e-02,-4.192390555286115705e-02,-3.507918627892463170e-02,-2.823446700498812023e-02,-2.138974773105160876e-02,-1.454502845711509729e-02,-7.700309183178585815e-03,-8.555899092420604646e-04,5.989129364694457947e-03,1.283384863863096595e-02,1.967856791256748436e-02,2.652328718650399930e-02,3.336800646044051771e-02,3.764595600665084085e-02,3.764595600665084085e-02,3.764595600665084085e-02,3.764595600665084085e-02,3.764595600665084085e-02,3.764595600665084085e-02,3.764595600665084085e-02
3.764595600665084085e-02,-1.723535396967965649e-01,-1.723535396967965649e-01,-1.826919177668048788e-01,5.252371387291565608e-03,-1.680283516205943739e-02,-3.885804171141044039e-02,-6.091324826076141563e-02,-8.296845481011243251e-02,-1.050236613594634355e-01,-1.270788679088144524e-01,-1.459256122985076454e-01,-1.507977215039138508e-01,-1.439530022299773671e-01,-1.371082829560408278e-01,-1.304774611594148870e-01,-1.236327418854783061e-01,-1.167880226115417946e-01,-1.099433033376052554e-01,-1.030985840636687717e-01,-9.625386478973223248e-02,-8.940914551579574876e-02,-8.256442624185923729e-02,-7.571970696792269806e-02,-6.887498769398620047e-02,-6.203026842004967512e-02,-5.518554914611316364e-02,-4.834082987217665217e-02,-4.149611059824012682e-02,-3.465139132430360147e-02,-2.780667205036709000e-02,-2.096195277643058547e-02,-1.411723350249406705e-02,-7.272514228557548643e-03,-4.277949546210302323e-04,6.416924319315484709e-03,1.326164359325199965e-02,2.010636286718851806e-02,2.695108214112503300e-02,3.379580141506154795e-02,3.764595600665084085e-02,3.764595600665084085e-02,3.764595600665084085e-02,3.764595600665084085e-02,3.764595600665084085e-02,3.764595600665084085e-02,3.764595600665084085e-02
3.764595600665084085e-02,-1.723535396967965649e-01,-1.723535396967965649e-01,-1.840703681761393096e-01,3.873920977957127920e-03,-1.818128557139386814e-02,-3.954726691607764189e-02,-6.160247346542864488e-02,-8.365768001477963400e-02,-1.057128865641306509e-01,-1.277680931134816400e-01,-1.464009400258643456e-01,-1.505838240266033634e-01,-1.437391047526668242e-01,-1.368943854787303405e-01,-1.300496662047938567e-01,-1.232049469308573036e-01,-1.163602276569207644e-01,-1.095155083829842252e-01,-1.026707891090477415e-01,-9.582606983511123000e-02,-8.898135056117471853e-02,-8.213663128723819318e-02,-7.529191201330168171e-02,-6.844719273936517023e-02,-6.160247346542864488e-02,-5.475775419149213341e-02,-4.791303491755563582e-02,-4.106831564361909659e-02,-3.422359636968257124e-02,-2.759277457305658876e-02,-2.074805529912006341e-02,-1.390333602518355194e-02,-7.058616751247033527e-03,-2.138974773105151161e-04,6.630821796626003295e-03,1.347554107056251824e-02,2.032026034449903318e-02,2.716497961843555159e-02,3.400969889237207000e-02,3.764595600665084085e-02,3.764595600665084085e-02,3.764595600665084085e-02,3.764595600665084085e-02,3.764595600665084085e-02,3.764595600665084085e-02,3.764595600665084085e-02
3.764595600665084085e-02,-1.723535396967965649e-01,-1.723535396967965649e-01,-1.847595933808064972e-01,3.184695773289912546e-03,-1.887051077606109045e-02,-4.092571732541208651e-02,-6.298092387476307563e-02,-8.503613042411407863e-02,-1.070913369734650816e-01,-1.291465435228160707e-01,-1.473515954805778017e-01,-1.501560290719823332e-01,-1.433113097980458495e-01,-1.364665905241093102e-01,-1.296218712501727710e-01,-1.227771519762362734e-01,-1.159324327022997342e-01,-1.090877134283631950e-01,-1.022429941544266835e-01,-3.412806988456398849e-01,-3.346498770490138885e-01,-3.278051577750774048e-01,-3.209604385011409211e-01,-6.823329526205465512e-02,-6.138857598811811589e-02,-5.454385671418161829e-02,-4.769913744024509294e-02,-4.085441816630858147e-02,-3.400969889237205612e-02,-2.716497961843554465e-02,-2.032026034449903318e-02,-1.347554107056252171e-02,-6.630821796626003295e-03,2.138974773105151161e-04,7.058616751247033527e-03,1.390333602518354847e-02,2.074805529912006341e-02,2.759277457305658182e-02,3.443749384699310023e-02,3.764595600665084085e-02,3.764595600665084085e-02,3.764595600665084085e-02,3.764595600665084085e-02,3.764595600665084085e-02,3.764595600665084085e-02,3.764595600665084085e-02
3.764595600665084085e-02,3.764595600665084085e-02,3.764595600665084085e-02,2.386145191330647092e-02,1.806245363955467920e-03,-2.024896118539552814e-02,-4.230416773474651726e-02,-6.435937428409752026e-02,-8.641458083344852326e-02,-1.084697873827995401e-01,-1.305249939321505570e-01,-1.483022509352912022e-01,-1.499421315946717903e-01,-1.430974123207353066e-01,-1.362526930467987674e-01,-1.294079737728622836e-01,-1.225632544989257305e-01,-1.157185352249891913e-01,-1.088738159510526798e-01,-1.020290966771161684e-01,-3.410668013683293975e-01,-3.342220820943929138e-01,-3.273773628204563746e-01,-3.205326435465198909e-01,-6.780550030743361101e-02,-6.096078103349711341e-02,-5.411606175956060194e-02,-4.727134248562407659e-02,-4.042662321168753736e-02,-3.358190393775102589e-02,-2.673718466381451442e-02,-1.989246538987800295e-02,-1.304774611594148453e-02,-6.203026842004966124e-03,6.416924319315453484e-04,7.486411705868063760e-03,1.433113097980458217e-02,2.096195277643057853e-02,2.780667205036709694e-02,3.465139132430361535e-02,3.764595600665084085e-02,3.764595600665084085e-02,3.764595600665084085e-02,3.764595600665084085e-02,3.764595600665084085e-02,3.764595600665084085e-02,3.764595600665084085e-02
3.764595600665084085e-02,3.764595600665084085e-02,3.764595600665084085e-02,2.317222670863924860e-02,1.117020159288252545e-03,-2.093818639006274351e-02,-4.299339293941373263e-02,-6.504859948876472175e-02,-8.710380603811573863e-02,-1.091590125874667278e-01,-1.312142191368177446e-01,-1.487775786626479024e-01,-1.495143366400507601e-01,-1.426696173661142764e-01,-1.358248980921777371e-01,-1.289801788182412534e-01,-1.221354595443047003e-01,-1.152907402703681611e-01,-1.084460209964316774e-01,-1.016013017224951381e-01,-3.406390064137084228e-01,-3.337942871397718281e-01,-3.269495678658353444e-01,-3.201048485918988606e-01,-6.737770535281258077e-02,-6.053298607887606930e-02,-5.368826680493955783e-02,-4.705744500831354760e-02,-4.021272573437702225e-02,-3.336800646044051077e-02,-2.652328718650399930e-02,-1.967856791256748783e-02,-1.283384863863096248e-02,-5.989129364694451008e-03,8.555899092420674035e-04,7.700309183178582345e-03,1.454502845711509729e-02,2.138974773105161223e-02,2.823446700498813064e-02,3.507918627892464558e-02,3.764595600665084085e-02,3.764595600665084085e-02,3.764595600665084085e-02,3.764595600665084085e-02,3.764595600665084085e-02,3.764595600665084085e-02,3.764595600665084085e-02
3.764595600665084085e-02,3.764595600665084085e-02,3.764595600665084085e-02,2.179377629930481439e-02,-2.614302500461782031e-04,-2.231663679939718814e-02,-4.437184334874817726e-02,-6.642704989809916638e-02,-8.848225644745018326e-02,-1.105374629968011863e-01,-1.325926695461521754e-01,-1.497282341173613029e-01,-1.490865416854297298e-01,-1.422418224114932461e-01,-1.353971031375567069e-01,-1.285523838636202232e-01,-1.217076645896836701e-01,-1.148629453157471308e-01,-1.082321235191211345e-01,-1.013874042451846230e-01,-3.404251089363978244e-01,-3.335803896624613407e-01,-3.267356703885248570e-01,-3.198909511145883178e-01,-6.716380787550206566e-02,-6.031908860156555419e-02,-5.347436932762904271e-02,-4.662965005369251736e-02,-3.978493077975599201e-02,-3.294021150581946666e-02,-2.609549223188296907e-02,-1.925077295794644372e-02,-1.240605368400994613e-02,-5.561334410073420775e-03,1.283384863863097636e-03,8.128104137799616047e-03,1.497282341173612752e-02,2.181754268567264593e-02,2.866226195960916434e-02,3.550698123354567581e-02,3.764595600665084085e-02,3.764595600665084085e-02,3.764595600665084085e-02,3.764595600665084085e-02,3.764595600665084085e-02,3.764595600665084085e-02,3.764595600665084085e-02
3.764595600665084085e-02,3.764595600665084085e-02,3.764595600665084085e-02,2.041532588997037670e-02,-1.639880659380615890e-03,-2.369508720873162583e-02,-4.575029375808260801e-02,-6.780550030743359713e-02,-8.986070685678461401e-02,-1.112266882014684016e-01,-1.332818947508194185e-01,-1.502035618447180032e-01,-1.488726442081192425e-01,-1.420279249341827033e-01,-1.351832056602462195e-01,-1.283384863863096803e-01,-1.214937671123731272e-01,-1.146490478384366157e-01,-1.078043285645001043e-01,-1.009596092905635928e-01,-9.411489001662708132e-02,-8.727017074269058372e-02,-8.042545146875405837e-02,-7.358073219481754690e-02,-6.673601292088102155e-02,-5.989129364694451008e-02,-5.304657437300799860e-02,-4.620185509907148713e-02,-3.935713582513496178e-02,-3.251241655119845031e-02,-2.566769727726193884e-02,-1.882297800332542737e-02,-1.197825872938890895e-02,-5.133539455452390543e-03,1.497282341173612752e-03,8.342001615110131163e-03,1.518672088904664264e-02,2.203144016298316105e-02,2.887615943691967946e-02,3.572087871085619787e-02,3.764595600665084085e-02,3.764595600665084085e-02,3.764595600665084085e-02,3.764595600665084085e-02,3.764595600665084085e-02,3.764595600665084085e-02,3.764595600665084085e-02
3.764595600665084085e-02,3.764595600665084085e-02,3.764595600665084085e-02,1.972610068530315786e-02,-2.329105864047838204e-03,-2.438431241339884814e-02,-4.643951896274982338e-02,-6.849472551210082638e-02,-9.054993206145182938e-02,-1.126051386108028324e-01,-1.346603451601538493e-01,-1.511542172994314037e-01,-1.484448492534982122e-01,-1.416001299795616730e-01,-1.347554107056251893e-01,-1.279106914316886501e-01,-1.210659721577521247e-01,-1.142212528838155855e-01,-1.073765336098790740e-01,-1.005318143359425903e-01,-9.368709506200605108e-02,-8.684237578806953961e-02,-7.999765651413302814e-02,-7.315293724019651667e-02,-6.652211544357052031e-02,-5.967739616963400884e-02,-5.283267689569749737e-02,-4.598795762176098589e-02,-3.914323834782443279e-02,-3.229851907388792132e-02,-2.545379979995140984e-02,-1.860908052601490531e-02,-1.176436125207838690e-02,-4.919641978141875427e-03,1.925077295794649923e-03,8.769796569731161395e-03,1.561451584366767634e-02,2.245923511760419475e-02,2.930395439154070969e-02,3.614867366547722810e-02,3.764595600665084085e-02,3.764595600665084085e-02,3.764595600665084085e-02,3.764595600665084085e-02,3.764595600665084085e-02,3.764595600665084085e-02,3.764595600665084085e-02
3.764595600665084085e-02,3.764595600665084085e-02,3.764595600665084085e-02,1.834765027596872017e-02,-3.707556273382275891e-03,-2.576276282273327889e-02,-4.781796937208426801e-02,-6.987317592143525713e-02,-9.192838247078626013e-02,-1.139835890201372909e-01,-1.360387955694882800e-01,-1.521048727541448042e-01,-1.480170542988771820e-01,-1.411723350249406428e-01,-1.343276157510041591e-01,-1.276967939543781627e-01,-1.208520746804416096e-01,-1.140073554065050704e-01,-1.071626361325685589e-01,-1.003179168586320474e-01,-9.347319758469553597e-02,-8.662847831075902449e-02,-7.978375903682251302e-02,-7.293903976288600155e-02,-6.609432048894949008e-02,-5.924960121501295085e-02,-5.240488194107645326e-02,-4.556016266713994178e-02,-3.871544339320341643e-02,-3.187072411926689108e-02,-2.502600484533037961e-02,-1.818128557139386814e-02,-1.133656629745735667e-02,-4.491847023520838256e-03,2.352872250415680155e-03,9.197591524352195097e-03,1.604231079828871004e-02,2.288703007222522845e-02,2.973174934616174339e-02,3.636257114278774322e-02,3.764595600665084085e-02,3.764595600665084085e-02,3.764595600665084085e-02,3.764595600665084085e-02,3.764595600665084085e-02,3.764595600665084085e-02,3.764595600665084085e-02
3.764595600665084085e-02,3.764595600665084085e-02,3.764595600665084085e-02,1.696919986663428248e-02,-5.086006682716713578e-03,-2.645198802740049426e-02,-4.850719457675148338e-02,-7.056240112610247250e-02,-9.261760767545350326e-02,-1.146728142248045063e-01,-1.367280207741554676e-01,-1.525802004815015045e-01,-1.478031568215666391e-01,-1.409584375476301554e-01,-1.341137182736936717e-01,-1.272689989997571325e-01,-1.204242797258205794e-01,-1.135795604518840402e-01,-1.067348411779475287e-01,-9.989012190401101721e-02,-9.304540263007450573e-02,-8.620068335613799426e-02,-7.935596408220148279e-02,-7.251124480826497132e-02,-6.566652553432844597e-02,-5.882180626039193450e-02,-5.197708698645542302e-02,-4.513236771251891155e-02,-3.828764843858237232e-02,-3.144292916464586085e-02,-2.481210736801987143e-02,-1.796738809408335302e-02,-1.112266882014684155e-02,-4.277949546210323140e-03,2.566769727726195272e-03,9.411489001662713683e-03,1.625620827559922515e-02,2.310092754953574357e-02,2.994564682347225851e-02,3.679036609740877345e-02,3.764595600665084085e-02,3.764595600665084085e-02,3.764595600665084085e-02,3.764595600665084085e-02,3.764595600665084085e-02,3.764595600665084085e-02,3.764595600665084085e-02
3.764595600665084085e-02,3.764595600665084085e-02,3.764595600665084085e-02,1.627997466196706364e-02,-5.775231887383928953e-03,-2.783043843673493889e-02,-4.988564498608592801e-02,-7.194085153543690325e-02,-9.399605808478793401e-02,-1.160512646341389370e-01,-1.381064711834898984e-01,-1.535308559362149050e-01,-1.473753618669456089e-01,-1.405306425930091252e-01,-1.336859233190725860e-01,-1.268412040451361023e-01,-1.199964847711995214e-01,-1.131517654972630099e-01,-1.063070462233264984e-01,-9.946232694938998697e-02,-9.261760767545347550e-02,-8.598678587882747915e-02,-7.914206660489096767e-02,-7.229734733095445620e-02,-6.545262805701793085e-02,-5.860790878308141938e-02,-5.176318950914490791e-02,-4.491847023520839643e-02,-3.807375096127185721e-02,-3.122903168733534573e-02,-2.438431241339884120e-02,-1.753959313946232279e-02,-1.069487386552581132e-02,-3.850154591589292907e-03,2.994564682347225504e-03,9.839283956283743915e-03,1.668400323022025539e-02,2.352872250415677380e-02,3.037344177809329221e-02,3.721816105202981062e-02,3.764595600665084085e-02,3.764595600665084085e-02,3.764595600665084085e-02,3.764595600665084085e-02,3.764595600665084085e-02,3.764595600665084085e-02,3.764595600665084085e-02
3.764595600665084085e-02,3.764595600665084085e-02,3.695673080198362548e-02,1.490152425263262595e-02,-7.153682296718373579e-03,-2.920888884606936964e-02,-5.126409539542035876e-02,-7.331930194477134788e-02,-9.537450849412236475e-02,-1.174297150434733678e-01,-1.392710241155138418e-01,-1.537922861862611179e-01,-1.471614643896351216e-01,-1.403167451156985823e-01,-1.334720258417620986e-01,-1.266273065678255594e-01,-1.197825872938890063e-01,-1.129378680199524948e-01,-1.060931487460159833e-01,-9.924842947207947186e-02,-9.240371019814296039e-02,-8.555899092420644891e-02,-7.871427165026993744e-02,-7.186955237633342597e-02,-6.502483310239690062e-02,-5.818011382846038915e-02,-5.133539455452387767e-02,-4.449067528058738008e-02,-3.764595600665082697e-02,-3.080123673271431550e-02,-2.395651745877780403e-02,-1.711179818484129256e-02,-1.026707891090477415e-02,-3.422359636968262675e-03,3.422359636968262675e-03,1.026707891090477415e-02,1.689790070753077397e-02,2.374261998146729238e-02,3.058733925540380733e-02,3.743205852934032574e-02,3.764595600665084085e-02,3.764595600665084085e-02,3.764595600665084085e-02,3.764595600665084085e-02,3.764595600665084085e-02,3.764595600665084085e-02,3.764595600665084085e-02
3.764595600665084085e-02,3.764595600665084085e-02,3.626750559731640317e-02,1.421229904796540711e-02,-7.842907501385588953e-03,-2.989811405073659889e-02,-5.195332060008758801e-02,-7.400852714943857713e-02,-9.606373369878958013e-02,-1.181189402481406109e-01,-1.397463518428705420e-01,-1.535783887089505750e-01,-1.467336694350140913e-01,-1.398889501610775521e-01,-1.330442308871410129e-01,-1.261995116132045291e-01,-1.193547923392679760e-01,-1.125100730653314923e-01,-1.056653537913949253e-01,-9.882063451745844163e-02,-9.197591524352193015e-02,-8.513119596958541868e-02,-7.828647669564889333e-02,-7.144175742171239574e-02,-6.459703814777587039e-02,-5.775231887383935891e-02,-5.090759959990284744e-02,-4.427677780327683721e-02,-3.743205852934031186e-02,-3.058733925540380039e-02,-2.374261998146728198e-02,-1.689790070753077744e-02,-1.005318143359425903e-02,-3.208462159657740620e-03,3.636257114278784730e-03,1.048097638821528926e-02,1.732569566215180420e-02,2.417041493608832609e-02,3.101513421002484103e-02,3.764595600665084085e-02,3.764595600665084085e-02,3.764595600665084085e-02,3.764595600665084085e-02,3.764595600665084085e-02,3.764595600665084085e-02,3.764595600665084085e-02,3.764595600665084085e-02
3.764595600665084085e-02,3.764595600665084085e-02,3.488905518798196548e-02,1.283384863863096942e-02,-9.221357910720026640e-03,-3.127656446007101576e-02,-5.333177100942201876e-02,-7.538697755877300788e-02,-9.744218410812403863e-02,-1.194973906574750416e-01,-1.406970072975839425e-01,-1.531505937543295448e-01,-1.463058744803930611e-01,-1.394611552064565219e-01,-1.326164359325200381e-01,-1.257717166585834989e-01,-1.189269973846469458e-01,-1.120822781107104343e-01,-1.054514563140844657e-01,-9.860673704014792651e-02,-9.176201776621141504e-02,-8.491729849227488969e-02,-7.807257921833837822e-02,-7.122785994440186674e-02,-6.438314067046534139e-02,-5.753842139652884380e-02,-5.069370212259233233e-02,-4.384898284865580698e-02,-3.700426357471929550e-02,-3.015954430078275628e-02,-2.331482502684625174e-02,-1.647010575290974027e-02,-9.625386478973228799e-03,-2.780667205036710388e-03,4.064052068899808023e-03,1.090877134283632297e-02,1.775349061677283791e-02,2.459820989070935632e-02,3.144292916464587473e-02,3.764595600665084085e-02,3.764595600665084085e-02,3.764595600665084085e-02,3.764595600665084085e-02,3.764595600665084085e-02,3.764595600665084085e-02,3.764595600665084085e-02,3.764595600665084085e-02
3.764595600665084085e-02,3.764595600665084085e-02,3.351060477864752779e-02,1.145539822929653520e-02,-1.059980832005446433e-02,-3.265501486940547426e-02,-5.471022141875644951e-02,-7.676542796810745251e-02,-9.813140931279125401e-02,-1.201866158621422570e-01,-1.411723350249406428e-01,-1.529366962770190574e-01,-1.460919770030825182e-01,-1.392472577291460345e-01,-1.324025384552094953e-01,-1.255578191812730116e-01,-1.187130999073364307e-01,-1.118683806333998915e-01,-1.050236613594634077e-01,-9.817894208552689628e-02,-9.133422281159038481e-02,-8.448950353765387333e-02,-7.764478426371736186e-02,-7.080006498978085039e-02,-6.395534571584432504e-02,-5.711062644190781357e-02,-5.026590716797128822e-02,-4.342118789403477674e-02,-3.657646862009825139e-02,-2.973174934616172604e-02,-2.288703007222522845e-02,-1.604231079828871004e-02,-9.197591524352191628e-03,-2.566769727726188333e-03,4.277949546210330078e-03,1.112266882014683808e-02,1.796738809408335302e-02,2.481210736801987143e-02,3.165682664195638985e-02,3.764595600665084085e-02,3.764595600665084085e-02,3.764595600665084085e-02,3.764595600665084085e-02,3.764595600665084085e-02,3.764595600665084085e-02,3.764595600665084085e-02,3.764595600665084085e-02
3.764595600665084085e-02,3.764595600665084085e-02,3.282137957398031242e-02,1.076617302462931636e-02,-1.128903352472167276e-02,-3.334424007407268964e-02,-5.539944662342366488e-02,-7.745465317277466788e-02,-9.950985972212568476e-02,-1.215650662714766878e-01,-1.421229904796540433e-01,-1.525089013223980272e-01,-1.456641820484614880e-01,-1.388194627745250043e-01,-1.319747435005884650e-01,-1.251300242266519258e-01,-1.182853049527154005e-01,-1.114405856787788890e-01,-1.045958664048423775e-01,-9.775114713090586605e-02,-9.090642785696935457e-02,-2.953430624394478565e-01,-2.884983431655113728e-01,-2.816536238915748336e-01,-6.374144823853379604e-02,-5.689672896459729845e-02,-5.005200969066077310e-02,-4.320729041672427551e-02,-3.636257114278772240e-02,-2.951785186885122481e-02,-2.267313259491470639e-02,-1.582841332097819492e-02,-8.983694047041676511e-03,-2.138974773105165039e-03,4.705744500831360311e-03,1.155046377476787178e-02,1.839518304870438672e-02,2.523990232264090167e-02,3.208462159657742008e-02,3.764595600665084085e-02,3.764595600665084085e-02,3.764595600665084085e-02,3.764595600665084085e-02,3.764595600665084085e-02,3.764595600665084085e-02,3.764595600665084085e-02,3.764595600665084085e-02
3.764595600665084085e-02,3.764595600665084085e-02,3.144292916464587473e-02,9.387722615294875200e-03,-1.266748393405611739e-02,-3.472269048340713427e-02,-5.677789703275810951e-02,-7.883310358210911251e-02,-1.008883101314601155e-01,-1.229435166808111185e-01,-1.430736459343674438e-01,-1.520811063677769970e-01,-1.452363870938404578e-01,-1.383916678199039740e-01,-1.315469485459674348e-01,-1.249161267493414246e-01,-1.180714074754048853e-01,-1.112266882014683739e-01,-1.043819689275318624e-01,-9.753724965359532317e-02,-9.069253037965883946e-02,-2.951291649621373692e-01,-2.882844456882008299e-01,-2.814397264142643462e-01,-6.331365328391279357e-02,-5.646893400997625434e-02,-4.962421473603974287e-02,-4.277949546210323140e-02,-3.593477618816669217e-02,-2.909005691423019457e-02,-2.224533764029368310e-02,-1.540061836635715775e-02,-8.555899092420639340e-03,-1.711179818484134807e-03,5.133539455452390543e-03,1.197825872938890202e-02,1.882297800332541696e-02,2.566769727726193884e-02,3.251241655119845031e-02,3.764595600665084085e-02,3.764595600665084085e-02,3.764595600665084085e-02,3.764595600665084085e-02,3.764595600665084085e-02,3.764595600665084085e-02,3.764595600665084085e-02,3.764595600665084085e-02
3.764595600665084085e-02,3.764595600665084085e-02,3.006447875531143704e-02,8.009272205960440982e-03,-1.404593434339056202e-02,-3.541191568807433576e-02,-5.746712223742533876e-02,-7.952232878677632788e-02,-1.015775353361273586e-01,-1.236327418854783339e-01,-1.435489736617241441e-01,-1.518672088904664541e-01,-1.450224896165299704e-01,-1.381777703425934312e-01,-1.313330510686569474e-01,-1.244883317947203943e-01,-1.176436125207838551e-01,-1.107988932468473159e-01,-1.039541739729108322e-01,-9.710945469897432070e-02,-9.026473542503780922e-02,-2.947013700075163389e-01,-2.878566507335797997e-01,-2.810119314596433160e-01,-6.288585832929173558e-02,-5.604113905535523799e-02,-4.919641978141871264e-02,-4.235170050748220116e-02,-3.550698123354566194e-02,-2.866226195960915046e-02,-2.203144016298316105e-02,-1.518672088904664264e-02,-8.342001615110131163e-03,-1.497282341173612752e-03,5.347436932762905659e-03,1.219215620669942060e-02,1.903687548063593554e-02,2.588159475457245395e-02,3.272631402850896543e-02,3.764595600665084085e-02,3.764595600665084085e-02,3.764595600665084085e-02,3.764595600665084085e-02,3.764595600665084085e-02,3.764595600665084085e-02,3.764595600665084085e-02,3.764595600665084085e-02
3.764595600665084085e-02,3.764595600665084085e-02,2.937525355064421820e-02,7.320047001293222139e-03,-1.473515954805777045e-02,-3.679036609740878039e-02,-5.884557264675976951e-02,-8.090077919611075863e-02,-1.029559857454617616e-01,-1.250111922948127785e-01,-1.444996291164376001e-01,-1.514394139358454239e-01,-1.445946946619089402e-01,-1.377499753879724009e-01,-1.309052561140359172e-01,-1.240605368400993641e-01,-1.172158175661628249e-01,-1.103710982922262857e-01,-1.035263790182898019e-01,-9.668165974435326271e-02,-8.983694047041677899e-02,-8.320611867379076876e-02,-7.636139939985427116e-02,-6.951668012591774581e-02,-6.267196085198122046e-02,-5.582724157804472287e-02,-4.898252230410821140e-02,-4.213780303017167217e-02,-3.529308375623516070e-02,-2.844836448229863535e-02,-2.160364520836212388e-02,-1.475892593442561934e-02,-7.914206660489100931e-03,-1.069487386552582520e-03,5.775231887383935891e-03,1.261995116132045083e-02,1.946467043525696577e-02,2.630938970919348419e-02,3.315410898313000260e-02,3.764595600665084085e-02,3.764595600665084085e-02,3.764595600665084085e-02,3.764595600665084085e-02,3.764595600665084085e-02,3.764595600665084085e-02,3.764595600665084085e-02,3.764595600665084085e-02
3.764595600665084085e-02,3.764595600665084085e-02,2.799680314130977704e-02,5.941596591958780982e-03,-1.611360995739222202e-02,-3.816881650674321114e-02,-6.022402305609420026e-02,-8.227922960544520325e-02,-1.043344361547961924e-01,-1.263896427041472093e-01,-1.454502845711510006e-01,-1.510116189812243936e-01,-1.443807971845983973e-01,-1.375360779106619136e-01,-1.306913586367253743e-01,-1.238466393627888212e-01,-1.170019200888523098e-01,-1.101572008149157983e-01,-1.033124815409792591e-01,-9.646776226704277535e-02,-8.962304299310626388e-02,-8.277832371916972465e-02,-7.593360444523321318e-02,-6.908888517129671558e-02,-6.224416589736020411e-02,-5.539944662342367876e-02,-4.855472734948718116e-02,-4.171000807555064194e-02,-3.486528880161411659e-02,-2.802056952767761899e-02,-2.117585025374110058e-02,-1.433113097980458217e-02,-7.486411705868070698e-03,-6.416924319315453484e-04,6.203026842004966124e-03,1.304774611594148800e-02,1.967856791256748436e-02,2.652328718650399930e-02,3.336800646044051771e-02,3.764595600665084085e-02,3.764595600665084085e-02,3.764595600665084085e-02,3.764595600665084085e-02,3.764595600665084085e-02,3.764595600665084085e-02,3.764595600665084085e-02,3.764595600665084085e-02
3.764595600665084085e-02,3.764595600665084085e-02,2.730757793664256167e-02,5.252371387291565608e-03,-1.680283516205943739e-02,-3.885804171141044039e-02,-6.091324826076141563e-02,-8.296845481011241863e-02,-1.050236613594634077e-01,-1.270788679088144524e-01,-1.459256122985077009e-01,-1.507977215039139063e-01,-1.439530022299773671e-01,-1.371082829560408833e-01,-1.302635636821043441e-01,-1.234188444081678188e-01,-1.165741251342312795e-01,-1.097294058602947403e-01,-1.028846865863582566e-01,-9.603996731242174512e-02,-8.919524803848520589e-02,-8.235052876454869442e-02,-7.550580949061221070e-02,-6.866109021667567147e-02,-6.181637094273916000e-02,-5.497165166880266240e-02,-4.812693239486613705e-02,-4.149611059824012682e-02,-3.465139132430360147e-02,-2.780667205036709000e-02,-2.096195277643057853e-02,-1.411723350249406012e-02,-7.272514228557555582e-03,-4.277949546210302323e-04,6.416924319315488179e-03,1.326164359325199965e-02,2.010636286718851806e-02,2.695108214112503300e-02,3.379580141506154795e-02,3.764595600665084085e-02,3.764595600665084085e-02,3.764595600665084085e-02,3.764595600665084085e-02,3.764595600665084085e-02,3.764595600665084085e-02,3.764595600665084085e-02,3.764595600665084085e-02
3.764595600665084085e-02,3.764595600665084085e-02,2.592912752730812398e-02,3.873920977957127920e-03,-1.818128557139386814e-02,-4.023649212074485726e-02,-6.229169867009586026e-02,-8.434690521944686326e-02,-1.064021117687978663e-01,-1.284573183181488831e-01,-1.468762677532211014e-01,-1.503699265492928761e-01,-1.435252072753563368e-01,-1.366804880014198531e-01,-1.298357687274833139e-01,-1.229910494535467608e-01,-1.161463301796102215e-01,-1.093016109056737101e-01,-1.026707891090477415e-01,-9.582606983511120224e-02,-8.898135056117471853e-02,-8.213663128723819318e-02,-7.529191201330168171e-02,-6.844719273936515636e-02,-6.160247346542864488e-02,-5.475775419149213341e-02,-4.791303491755562194e-02,-4.106831564361909659e-02,-3.422359636968257124e-02,-2.737887709574605977e-02,-2.053415782180954829e-02,-1.368943854787303682e-02,-6.844719273936518411e-03,0.000000000000000000e+00,6.844719273936518411e-03,1.368943854787303335e-02,2.053415782180954829e-02,2.737887709574606671e-02,3.422359636968258512e-02,3.764595600665084085e-02,3.764595600665084085e-02,3.764595600665084085e-02,3.764595600665084085e-02,3.764595600665084085e-02,3.764595600665084085e-02,3.764595600665084085e-02,3.764595600665084085e-02
3.764595600665084085e-02,3.764595600665084085e-02,2.455067711797368629e-02,2.495470568622690233e-03,-1.955973598072830583e-02,-4.161494253007930189e-02,-6.367014907943027713e-02,-8.572535562878129400e-02,-1.070913369734650816e-01,-1.291465435228160707e-01,-1.473515954805778017e-01,-1.501560290719823332e-01,-1.433113097980458495e-01,-1.364665905241093102e-01,-1.296218712501727710e-01,-1.227771519762362457e-01,-1.159324327022997342e-01,-1.090877134283631950e-01,-1.022429941544267112e-01,-9.539827488049017201e-02,-8.855355560655368830e-02,-8.170883633261716295e-02,-7.486411705868063760e-02,-6.801939778474412612e-02,-6.117467851080761465e-02,-5.432995923687111706e-02,-4.748523996293459171e-02,-4.064052068899806636e-02,-3.379580141506154101e-02,-2.695108214112502953e-02,-2.010636286718851806e-02,-1.326164359325199965e-02,-6.416924319315488179e-03,2.138974773105151161e-04,7.058616751247033527e-03,1.390333602518354500e-02,2.074805529912006341e-02,2.759277457305658182e-02,3.443749384699310023e-02,3.764595600665084085e-02,3.764595600665084085e-02,3.764595600665084085e-02,3.764595600665084085e-02,3.764595600665084085e-02,3.764595600665084085e-02,3.764595600665084085e-02,3.764595600665084085e-02
3.764595600665084085e-02,3.764595600665084085e-02,2.386145191330647092e-02,1.806245363955474859e-03,-2.024896118539552814e-02,-4.230416773474651726e-02,-6.435937428409750638e-02,-8.641458083344852326e-02,-1.084697873827995124e-01,-1.305249939321505015e-01,-1.483022509352912022e-01,-1.497282341173613029e-01,-1.428835148434247637e-01,-1.360387955694882800e-01,-1.291940762955517408e-01,-1.223493570216152154e-01,-1.155046377476786762e-01,-1.086599184737421647e-01,-1.018151991998056810e-01,-9.497047992586914178e-02,-8.812576065193265806e-02,-8.128104137799613271e-02,-7.443632210405962124e-02,-6.759160283012309589e-02,-6.096078103349708566e-02,-5.411606175956058806e-02,-4.727134248562407659e-02,-4.042662321168755124e-02,-3.358190393775102589e-02,-2.673718466381451442e-02,-1.989246538987800295e-02,-1.304774611594148453e-02,-6.203026842004973063e-03,6.416924319315453484e-04,7.486411705868063760e-03,1.433113097980457870e-02,2.117585025374109711e-02,2.802056952767761552e-02,3.486528880161413047e-02,3.764595600665084085e-02,3.764595600665084085e-02,3.764595600665084085e-02,3.764595600665084085e-02,3.764595600665084085e-02,3.764595600665084085e-02,3.764595600665084085e-02,3.764595600665084085e-02
3.764595600665084085e-02,3.764595600665084085e-02,2.248300150397202976e-02,4.277949546210371712e-04,-2.162741159472995889e-02,-4.368261814408094801e-02,-6.573782469343195101e-02,-8.779303124278296788e-02,-1.098482377921339709e-01,-1.319034443414849878e-01,-1.492529063900046027e-01,-1.493004391627402727e-01,-1.424557198888037335e-01,-1.356110006148672498e-01,-1.287662813409307105e-01,-1.221354595443047003e-01,-1.152907402703681611e-01,-1.084460209964316774e-01,-1.016013017224951381e-01,-9.475658244855865442e-02,-8.791186317462211519e-02,-8.106714390068560372e-02,-7.422242462674909225e-02,-6.737770535281258077e-02,-6.053298607887606930e-02,-5.368826680493955783e-02,-4.684354753100304636e-02,-3.999882825706650713e-02,-3.315410898312998178e-02,-2.630938970919347031e-02,-1.946467043525696577e-02,-1.261995116132045430e-02,-5.775231887383935891e-03,1.069487386552582520e-03,7.914206660489097461e-03,1.475892593442561240e-02,2.160364520836213081e-02,2.844836448229864576e-02,3.529308375623516070e-02,3.764595600665084085e-02,3.764595600665084085e-02,3.764595600665084085e-02,3.764595600665084085e-02,3.764595600665084085e-02,3.764595600665084085e-02,3.764595600665084085e-02,3.764595600665084085e-02
3.764595600665084085e-02,3.764595600665084085e-02,2.110455109463759207e-02,-9.506554547134005162e-04,-2.300586200406440351e-02,-4.437184334874817726e-02,-6.642704989809915250e-02,-8.848225644745018326e-02,-1.105374629968011863e-01,-1.325926695461521754e-01,-1.497282341173613029e-01,-1.490865416854297854e-01,-1.422418224114932461e-01,-1.353971031375567069e-01,-1.285523838636202232e-01,-1.217076645896836701e-01,-1.148629453157471308e-01,-1.080182260418106471e-01,-1.011735067678741079e-01,-9.432878749393762419e-02,-8.748406822000108496e-02,-8.063934894606457349e-02,-7.379462967212806201e-02,-6.694991039819155054e-02,-6.010519112425503907e-02,-5.326047185031852760e-02,-4.641575257638201613e-02,-3.957103330244547690e-02,-3.272631402850896543e-02,-2.609549223188296907e-02,-1.925077295794645760e-02,-1.240605368400994613e-02,-5.561334410073420775e-03,1.283384863863097636e-03,8.128104137799616047e-03,1.497282341173612752e-02,2.181754268567264593e-02,2.866226195960916434e-02,3.550698123354567581e-02,3.764595600665084085e-02,3.764595600665084085e-02,3.764595600665084085e-02,3.764595600665084085e-02,3.764595600665084085e-02,3.764595600665084085e-02,3.764595600665084085e-02,3.764595600665084085e-02
3.764595600665084085e-02,3.764595600665084085e-02,2.041532588997037670e-02,-1.639880659380615890e-03,-2.369508720873162583e-02,-4.575029375808260801e-02,-6.780550030743361101e-02,-8.986070685678461401e-02,-1.119159134061356170e-01,-1.339711199554866061e-01,-1.506788895720747035e-01,-1.486587467308086996e-01,-1.418140274568722159e-01,-1.349693081829356767e-01,-1.281245889089991929e-01,-1.212798696350626398e-01,-1.144351503611261006e-01,-1.075904310871895891e-01,-1.007457118132530777e-01,-9.390099253931656620e-02,-8.727017074269058372e-02,-8.042545146875407225e-02,-7.358073219481756078e-02,-6.673601292088102155e-02,-5.989129364694452395e-02,-5.304657437300801248e-02,-4.620185509907148713e-02,-3.935713582513496178e-02,-3.251241655119845031e-02,-2.566769727726193884e-02,-1.882297800332542043e-02,-1.197825872938890895e-02,-5.133539455452390543e-03,1.711179818484134807e-03,8.555899092420646279e-03,1.540061836635715775e-02,2.224533764029367616e-02,2.909005691423019457e-02,3.593477618816671298e-02,3.764595600665084085e-02,3.764595600665084085e-02,3.764595600665084085e-02,3.764595600665084085e-02,3.764595600665084085e-02,3.764595600665084085e-02,3.764595600665084085e-02,3.764595600665084085e-02
3.764595600665084085e-02,3.764595600665084085e-02,1.903687548063593554e-02,-3.018331068715053578e-03,-2.507353761806606351e-02,-4.712874416741706651e-02,-6.918395071676804176e-02,-9.123915726611904475e-02,-1.132943638154700755e-01,-1.353495703648210369e-01,-1.516295450267881040e-01,-1.484448492534982122e-01,-1.416001299795616730e-01,-1.347554107056251893e-01,-1.279106914316887056e-01,-1.210659721577521247e-01,-1.142212528838155855e-01,-1.073765336098790740e-01,-1.005318143359425903e-01,-9.368709506200605108e-02,-8.684237578806953961e-02,-7.999765651413304202e-02,-7.315293724019651667e-02,-6.630821796625999132e-02,-5.946349869232349372e-02,-5.261877941838698225e-02,-4.577406014445045690e-02,-3.892934087051393155e-02,-3.208462159657742008e-02,-2.523990232264090861e-02,-1.839518304870439713e-02,-1.155046377476787178e-02,-4.705744500831360311e-03,2.138974773105165039e-03,8.983694047041676511e-03,1.561451584366767634e-02,2.245923511760419475e-02,2.930395439154070969e-02,3.614867366547722810e-02,3.764595600665084085e-02,3.764595600665084085e-02,3.764595600665084085e-02,3.764595600665084085e-02,3.764595600665084085e-02,3.764595600665084085e-02,3.764595600665084085e-02,3.764595600665084085e-02
3.764595600665084085e-02,3.764595600665084085e-02,1.834765027596872017e-02,-3.707556273382275891e-03,-2.576276282273327889e-02,-4.781796937208426801e-02,-6.987317592143527101e-02,-9.192838247078628788e-02,-1.139835890201372631e-01,-1.360387955694882245e-01,-1.521048727541448042e-01,-1.480170542988771820e-01,-1.411723350249406428e-01,-1.343276157510041591e-01,-1.274828964770676754e-01,-1.206381772031310667e-01,-1.137934579291945553e-01,-1.069487386552580438e-01,-1.001040193813215323e-01,-9.325930010738502085e-02,-8.641458083344850938e-02,-7.956986155951199791e-02,-7.272514228557548643e-02,-6.588042301163896108e-02,-5.903570373770244961e-02,-5.219098446376593814e-02,-4.556016266713994178e-02,-3.871544339320341643e-02,-3.187072411926689108e-02,-2.502600484533039349e-02,-1.818128557139386814e-02,-1.133656629745735667e-02,-4.491847023520838256e-03,2.352872250415680155e-03,9.197591524352195097e-03,1.604231079828871004e-02,2.288703007222522845e-02,2.973174934616174339e-02,3.657646862009825833e-02,3.764595600665084085e-02,3.764595600665084085e-02,3.764595600665084085e-02,3.764595600665084085e-02,3.764595600665084085e-02,3.764595600665084085e-02,3.764595600665084085e-02,3.764595600665084085e-02
3.764595600665084085e-02,3.764595600665084085e-02,1.696919986663428248e-02,-5.086006682716713578e-03,-2.714121323206772352e-02,-4.919641978141871264e-02,-7.125162633076970176e-02,-9.330683288012071863e-02,-1.153620394294717216e-01,-1.374172459788227108e-01,-1.530555282088582048e-01,-1.475892593442561518e-01,-1.407445400703196126e-01,-1.338998207963831288e-01,-1.270551015224466451e-01,-1.202103822485100365e-01,-1.133656629745735250e-01,-1.067348411779475287e-01,-9.989012190401101721e-02,-9.304540263007450573e-02,-8.620068335613799426e-02,-7.935596408220148279e-02,-7.251124480826497132e-02,-6.566652553432845985e-02,-5.882180626039193450e-02,-5.197708698645542302e-02,-4.513236771251891155e-02,-3.828764843858237232e-02,-3.144292916464587473e-02,-2.459820989070934938e-02,-1.775349061677284485e-02,-1.090877134283632643e-02,-4.064052068899808023e-03,2.780667205036710388e-03,9.625386478973228799e-03,1.647010575290974027e-02,2.331482502684625868e-02,3.015954430078277709e-02,3.700426357471929550e-02,3.764595600665084085e-02,3.764595600665084085e-02,3.764595600665084085e-02,3.764595600665084085e-02,3.764595600665084085e-02,3.764595600665084085e-02,3.764595600665084085e-02,3.764595600665084085e-02
3.764595600665084085e-02,3.764595600665084085e-02,1.559074945729984479e-02,-6.464457092051151266e-03,-2.851966364140215426e-02,-5.057487019075314338e-02,-7.263007674010413250e-02,-9.468528328945514938e-02,-1.160512646341389370e-01,-1.381064711834898984e-01,-1.535308559362149050e-01,-1.473753618669456089e-01,-1.405306425930091252e-01,-1.336859233190725860e-01,-1.268412040451361023e-01,-1.199964847711995214e-01,-1.131517654972630099e-01,-1.063070462233264984e-01,-9.946232694938998697e-02,-9.261760767545347550e-02,-8.577288840151696403e-02,-7.892816912758045256e-02,-7.208344985364394109e-02,-6.523873057970741574e-02,-5.839401130577090426e-02,-5.154929203183440667e-02,-4.470457275789788132e-02,-3.785985348396134209e-02,-3.101513421002483062e-02,-2.417041493608831915e-02,-1.732569566215180767e-02,-1.048097638821528232e-02,-3.850154591589292907e-03,2.994564682347232443e-03,9.839283956283743915e-03,1.668400323022025539e-02,2.352872250415677727e-02,3.037344177809329221e-02,3.721816105202981062e-02,3.764595600665084085e-02,3.764595600665084085e-02,3.764595600665084085e-02,3.764595600665084085e-02,3.764595600665084085e-02,3.764595600665084085e-02,3.764595600665084085e-02,3.764595600665084085e-02
3.764595600665084085e-02,3.695673080198362548e-02,1.490152425263262595e-02,-7.153682296718366640e-03,-2.920888884606936964e-02,-5.126409539542035876e-02,-7.331930194477136176e-02,-9.537450849412236475e-02,-1.174297150434733678e-01,-1.392710241155138418e-01,-1.537922861862611179e-01,-1.469475669123245787e-01,-1.401028476383880950e-01,-1.332581283644515557e-01,-1.264134090905150720e-01,-1.195686898165784912e-01,-1.127239705426419797e-01,-1.058792512687054682e-01,-9.903453199476895674e-02,-9.218981272083241751e-02,-8.534509344689593380e-02,-7.850037417295940845e-02,-7.165565489902291085e-02,-6.502483310239690062e-02,-5.818011382846038915e-02,-5.133539455452387767e-02,-4.449067528058738008e-02,-3.764595600665082697e-02,-3.080123673271431550e-02,-2.395651745877780403e-02,-1.711179818484129256e-02,-1.026707891090477415e-02,-3.422359636968262675e-03,3.422359636968262675e-03,1.026707891090477415e-02,1.711179818484128909e-02,2.395651745877780750e-02,3.080123673271432244e-02,3.764595600665084085e-02,3.764595600665084085e-02,3.764595600665084085e-02,3.764595600665084085e-02,3.764595600665084085e-02,3.764595600665084085e-02,3.764595600665084085e-02,3.764595600665084085e-02,3.764595600665084085e-02
3.764595600665084085e-02,3.557828039264918779e-02,1.352307384329818826e-02,-8.532132706052804327e-03,-3.058733925540381426e-02,-5.264254580475478951e-02,-7.469775235410579250e-02,-9.675295890345679550e-02,-1.188081654528078263e-01,-1.402216795702272423e-01,-1.533644912316400877e-01,-1.465197719577035484e-01,-1.396750526837670647e-01,-1.328303334098305255e-01,-1.261995116132045847e-01,-1.193547923392679483e-01,-1.125100730653314923e-01,-1.056653537913949531e-01,-9.882063451745844163e-02,-9.197591524352193015e-02,-8.513119596958541868e-02,-7.828647669564889333e-02,-7.144175742171239574e-02,-6.459703814777587039e-02,-5.775231887383935891e-02,-5.090759959990284744e-02,-4.406288032596633597e-02,-3.721816105202979674e-02,-3.037344177809327139e-02,-2.352872250415678074e-02,-1.668400323022026233e-02,-9.839283956283743915e-03,-2.994564682347225504e-03,3.850154591589292907e-03,1.069487386552580438e-02,1.753959313946232279e-02,2.438431241339884120e-02,3.122903168733535614e-02,3.764595600665084085e-02,3.764595600665084085e-02,3.764595600665084085e-02,3.764595600665084085e-02,3.764595600665084085e-02,3.764595600665084085e-02,3.764595600665084085e-02,3.764595600665084085e-02,3.764595600665084085e-02
3.764595600665084085e-02,3.452290429800250471e-02,1.294154007686022095e-02,-9.910583115387242015e-03,-3.196578966473824501e-02,-5.333177100942201876e-02,-7.538697755877300788e-02,-9.744218410812401088e-02,-1.194973906574750416e-01,-1.406970072975839425e-01,-1.531505937543295448e-01,-1.463058744803930611e-01,-1.394611552064565219e-01,-1.326164359325200381e-01,-1.257717166585835544e-01,-1.189269973846469181e-01,-1.120822781107104343e-01,-1.052375588367739229e-01,-9.839283956283738364e-02,-9.154812028890089992e-02,-8.470340101496438845e-02,-7.785868174102787698e-02,-7.101396246709136550e-02,-6.416924319315482628e-02,-5.732452391921832868e-02,-5.047980464528180333e-02,-4.363508537134529186e-02,-3.679036609740876651e-02,-2.994564682347225504e-02,-2.331482502684625174e-02,-1.647010575290974027e-02,-9.625386478973228799e-03,-2.780667205036710388e-03,4.064052068899814962e-03,1.090877134283632643e-02,1.775349061677283791e-02,2.459820989070935632e-02,3.144292916464587473e-02,3.764595600665084085e-02,3.764595600665084085e-02,3.764595600665084085e-02,3.764595600665084085e-02,3.764595600665084085e-02,3.764595600665084085e-02,3.764595600665084085e-02,3.764595600665084085e-02,3.764595600665084085e-02
3.764595600665084085e-02,3.764595600665084085e-02,3.764595600665084085e-02,3.613827587144129855e-02,3.325214532689732549e-02,2.610143382847492782e-02,1.976917726059485708e-02,7.793889329501930974e-03,-6.938299420259863570e-03,-1.838329985552046575e-02,-3.374232704573391917e-02,-3.691068342839594341e-02,-4.517247348951462793e-02,-5.257867364139126587e-02,-5.403585020556915530e-02,-5.994476801627213192e-02,-6.499809591773307582e-02,-6.474409266342684433e-02,-6.830013822371418242e-02,-6.697664758285536146e-02,-6.922257109461578406e-02,-7.043911299681933358e-02,-6.741112683364235136e-02,-6.395534571584433892e-02,-5.711062644190781357e-02,-5.026590716797130209e-02,-4.342118789403477674e-02,-3.657646862009825139e-02,-2.973174934616173992e-02,-2.288703007222522845e-02,-1.604231079828871004e-02,-9.197591524352191628e-03,-2.352872250415680155e-03,4.491847023520838256e-03,1.133656629745735320e-02,1.818128557139386814e-02,2.502600484533038655e-02,3.187072411926690496e-02,3.764595600665084085e-02,3.764595600665084085e-02,3.764595600665084085e-02,3.764595600665084085e-02,3.764595600665084085e-02,3.764595600665084085e-02,3.764595600665084085e-02,3.764595600665084085e-02,3.764595600665084085e-02
