-1.946160793304443359e-01,-1.945003271102905273e-01,-1.948869228363037109e-01,-1.941137313842773438e-01,-1.944460868835449219e-01,-1.941517591476440430e-01,-1.947190761566162109e-01,-1.952246427536010742e-01,-1.965812444686889648e-01,-1.985877752304077148e-01,-1.998412609100341797e-01,-1.992365121841430664e-01,-1.985833644866943359e-01,-1.969928741455078125e-01,-1.952898502349853516e-01,-1.936362981796264648e-01,-1.936982870101928711e-01,-1.945784091949462891e-01,-1.953938007354736328e-01,-1.970789432525634766e-01,-1.995249986648559570e-01,-2.011508941650390625e-01,-2.027550935745239258e-01,-2.041772603988647461e-01,-2.046732902526855469e-01,-2.033973932266235352e-01,-2.012220621109008789e-01,-1.981624364852905273e-01,-2.004092931747436523e-01,-1.981191635131835938e-01,-1.974557638168334961e-01,-1.979349851608276367e-01,-1.955181360244750977e-01,-1.930599212646484375e-01,-1.905581951141357422e-01,-1.876456737518310547e-01,-1.863714456558227539e-01,-1.878744363784790039e-01,-1.836023330688476562e-01,-1.817352771759033203e-01,4.337106943130493164e-01,4.116104841232299805e-01,4.467574357986450195e-01,3.709824085235595703e-01,3.474366664886474609e-01,3.132598400115966797e-01,3.178150653839111328e-01
-1.951180696487426758e-01,-1.950241327285766602e-01,-1.943269968032836914e-01,-1.941100358963012695e-01,-1.938447952270507812e-01,-1.941480636596679688e-01,-1.947153806686401367e-01,-1.952209472656250000e-01,-1.965774297714233398e-01,-1.985839605331420898e-01,-1.989380121231079102e-01,-1.983369588851928711e-01,-1.967952251434326172e-01,-1.952120065689086914e-01,-1.927492618560791016e-01,-1.927913427352905273e-01,-1.928149461746215820e-01,-1.936987638473510742e-01,-1.953898668289184570e-01,-1.970750093460083008e-01,-1.995210647583007812e-01,-2.020119428634643555e-01,-2.036143541336059570e-01,-2.048581838607788086e-01,-2.055252790451049805e-01,-2.042458057403564453e-01,-2.037644386291503906e-01,-2.026562690734863281e-01,-2.015391588211059570e-01,-2.006344795227050781e-01,-1.994665861129760742e-01,-1.987652778625488281e-01,-1.963447332382202148e-01,-1.922284364700317383e-01,-1.889070272445678711e-01,-1.903843283653259277e-01,-1.850843429565429688e-01,-1.841108798980712891e-01,2.590192078899305767e-03,5.079933404922485352e-01,5.006965398788452148e-01,4.205323457717895508e-01,3.762902021408081055e-01,3.614397048950195312e-01,3.462939262390136719e-01,3.304094076156616211e-01,3.178185224533081055e-01
-1.964722871780395508e-01,-1.954213380813598633e-01,-1.948795318603515625e-01,-1.946824789047241211e-01,-1.938410997390747070e-01,-1.941443681716918945e-01,-1.947116851806640625e-01,-1.963585615158081055e-01,-1.974784135818481445e-01,-1.987662315368652344e-01,-1.989341974258422852e-01,-1.975696086883544922e-01,-1.951159238815307617e-01,-1.935126781463623047e-01,-1.926929950714111328e-01,-1.927875280380249023e-01,-1.928111314773559570e-01,-1.945494413375854492e-01,-1.962583065032958984e-01,-1.970711946487426758e-01,-1.995171308517456055e-01,-2.020080089569091797e-01,-2.027471065521240234e-01,-2.050288915634155273e-01,-2.063773870468139648e-01,-2.059468030929565430e-01,-2.057086229324340820e-01,-2.043462991714477539e-01,-2.032257318496704102e-01,-2.051516771316528320e-01,-2.019766569137573242e-01,-2.012645006179809570e-01,-1.988329887390136719e-01,-1.938787698745727539e-01,-1.905499696731567383e-01,-1.876415014266967773e-01,-1.867165565490722656e-01,-1.857359409332275391e-01,-1.844109296798706055e-01,5.228820443153381348e-01,5.823392271995544434e-01,4.330668449401855469e-01,3.886462450027465820e-01,3.672180175781250000e-01,3.534433841705322266e-01,3.257247209548950195e-01,3.171499967575073242e-01
-1.974006891250610352e-01,-1.963458061218261719e-01,-1.958022117614746094e-01,-1.965243816375732422e-01,-1.962734460830688477e-01,-1.959718465805053711e-01,-1.965317726135253906e-01,-1.988469362258911133e-01,-1.981680393218994141e-01,-1.996637582778930664e-01,-1.981884241104125977e-01,-1.966719627380371094e-01,-1.951121091842651367e-01,-1.926221847534179688e-01,-1.926891803741455078e-01,-1.927835941314697266e-01,-1.928073167800903320e-01,-1.936910152435302734e-01,-1.962543725967407227e-01,-1.970672607421875000e-01,-2.003802061080932617e-01,-2.020040750503540039e-01,-2.036064863204956055e-01,-2.050249576568603516e-01,-2.063733339309692383e-01,-2.061660289764404297e-01,-2.065551280975341797e-01,-2.060364484786987305e-01,-2.057572603225708008e-01,-2.068308591842651367e-01,-2.044864892959594727e-01,-2.029291391372680664e-01,-2.017163038253784180e-01,-1.984268426895141602e-01,-1.934548616409301758e-01,-1.938401460647583008e-01,-1.908031702041625977e-01,-1.911271810531616211e-01,-1.898043155670166016e-01,-1.911785602569580078e-01,5.660756826400756836e-01,6.225569844245910645e-01,3.950119018554687500e-01,3.736482858657836914e-01,3.527837991714477539e-01,3.191697597503662109e-01,3.065319061279296875e-01
-1.992605924606323242e-01,-1.972702741622924805e-01,-1.989388465881347656e-01,-1.992892026901245117e-01,-1.990271806716918945e-01,-1.987148523330688477e-01,-1.999084949493408203e-01,-2.004251480102539062e-01,-2.008839845657348633e-01,-2.005610466003417969e-01,-1.990822553634643555e-01,-1.966681480407714844e-01,-1.941074132919311523e-01,-1.925350427627563477e-01,-1.926852464675903320e-01,-1.927797794342041016e-01,-1.928033828735351562e-01,-1.936870813369750977e-01,-1.953781843185424805e-01,-1.970633268356323242e-01,-2.003761529922485352e-01,-2.020001411437988281e-01,-2.036025524139404297e-01,-2.058805227279663086e-01,-2.065620422363281250e-01,-2.070164680480957031e-01,-2.074017524719238281e-01,-2.071478366851806641e-01,-2.074435949325561523e-01,-2.076684236526489258e-01,-2.053204774856567383e-01,-2.049653530120849609e-01,-2.025448083877563477e-01,-2.009096145629882812e-01,-1.967521905899047852e-01,-1.979538202285766602e-01,-1.986541748046875000e-01,-1.965261697769165039e-01,-1.968375444412231445e-01,-2.014660835266113281e-01,4.773920774459838867e-01,6.276420950889587402e-01,6.354554295539855957e-01,3.985142707824707031e-01,3.765581846237182617e-01,3.479515314102172852e-01,3.361246585845947266e-01
-2.001886367797851562e-01,-2.005894184112548828e-01,-2.004233598709106445e-01,-2.011309862136840820e-01,-2.017810344696044922e-01,-2.014579772949218750e-01,-2.035598754882812500e-01,-2.031518220901489258e-01,-2.028955221176147461e-01,-2.014583349227905273e-01,-1.981809139251708984e-01,-1.957702636718750000e-01,-1.933237314224243164e-01,-1.925312280654907227e-01,-1.926814317703247070e-01,-1.927758455276489258e-01,-1.927995681762695312e-01,-1.936832666397094727e-01,-1.953743696212768555e-01,-1.970593929290771484e-01,-1.995053291320800781e-01,-2.019962072372436523e-01,-2.035986185073852539e-01,-2.058765888214111328e-01,-2.074158191680908203e-01,-2.078666687011718750e-01,-2.084916830062866211e-01,-2.085691690444946289e-01,-2.074395418167114258e-01,-2.076643705368041992e-01,-2.061543464660644531e-01,-2.057974338531494141e-01,-2.033730745315551758e-01,-2.017344236373901367e-01,-2.004836797714233398e-01,-2.000496387481689453e-01,-2.024165391921997070e-01,-2.014307975769042969e-01,-2.058091163635253906e-01,-2.060824632644653320e-01,-2.033342123031616211e-01,6.276451349258422852e-01,6.581631898880004883e-01,6.636196970939636230e-01,6.690747737884521484e-01,3.788465261459350586e-01,3.586312532424926758e-01
-2.007017135620117188e-01,-2.015157938003540039e-01,-2.031986713409423828e-01,-2.035543918609619141e-01,-2.051433324813842773e-01,-2.057483196258544922e-01,-2.062975168228149414e-01,-2.058784961700439453e-01,-2.047013044357299805e-01,-2.014545202255249023e-01,-1.990747451782226562e-01,-1.957665681838989258e-01,-1.933199167251586914e-01,-1.925274133682250977e-01,-1.935625076293945312e-01,-1.936131715774536133e-01,-1.936863660812377930e-01,-1.945551633834838867e-01,-1.954078674316406250e-01,-1.979259252548217773e-01,-1.995912790298461914e-01,-2.028572559356689453e-01,-2.044578790664672852e-01,-2.075918912887573242e-01,-2.082697153091430664e-01,-2.095712423324584961e-01,-2.101925611495971680e-01,-2.094123363494873047e-01,-2.082808017730712891e-01,-2.079797983169555664e-01,-2.053122520446777344e-01,-2.049571275711059570e-01,-2.033690214157104492e-01,-2.017303705215454102e-01,-2.013068199157714844e-01,-2.016961574554443359e-01,-2.032340764999389648e-01,-2.046991586685180664e-01,-2.037726640701293945e-01,-2.085219621658325195e-01,-2.065736055374145508e-01,-2.059839963912963867e-01,6.581691503524780273e-01,6.663517355918884277e-01,6.734217405319213867e-01,6.750285625457763672e-01,6.777781248092651367e-01
-2.020412683486938477e-01,-2.024421691894531250e-01,-2.037532329559326172e-01,-2.053998708724975586e-01,-2.069816589355468750e-01,-2.084966897964477539e-01,-2.090350389480590820e-01,-2.095116376876831055e-01,-2.072147130966186523e-01,-2.023519277572631836e-01,-1.990709304809570312e-01,-1.966567039489746094e-01,-1.942064762115478516e-01,-1.934120655059814453e-01,-1.935586929321289062e-01,-1.944925785064697266e-01,-1.945508718490600586e-01,-1.945513486862182617e-01,-1.954039335250854492e-01,-1.987924575805664062e-01,-2.004560232162475586e-01,-2.037185430526733398e-01,-2.053171396255493164e-01,-2.093073129653930664e-01,-2.099813222885131836e-01,-2.112754583358764648e-01,-2.107921838760375977e-01,-2.085611820220947266e-01,-2.074314355850219727e-01,-2.059769630432128906e-01,-2.044702768325805664e-01,-2.029128074645996094e-01,-2.025324106216430664e-01,-2.017263174057006836e-01,-2.021298408508300781e-01,-2.016919851303100586e-01,-2.040519714355468750e-01,-2.052013874053955078e-01,-2.063312530517578125e-01,-2.085177898406982422e-01,-2.087680101394653320e-01,-2.084071636199951172e-01,6.581721901893615723e-01,6.663547754287719727e-01,6.723182201385498047e-01,6.739484071731567383e-01,6.750284433364868164e-01
-2.016242742538452148e-01,-2.024384737014770508e-01,-2.037495374679565430e-01,-2.053961753845214844e-01,-2.078988552093505859e-01,-2.103277444839477539e-01,-2.105985879898071289e-01,-2.095079421997070312e-01,-2.072108983993530273e-01,-2.023481130599975586e-01,-1.981694698333740234e-01,-1.965227127075195312e-01,-1.950930356979370117e-01,-1.943763494491577148e-01,-1.953246593475341797e-01,-1.954082250595092773e-01,-1.963058710098266602e-01,-1.962991952896118164e-01,-1.962742805480957031e-01,-2.005294561386108398e-01,-2.013207674026489258e-01,-2.054445743560791016e-01,-2.070397138595581055e-01,-2.086130380630493164e-01,-2.116931676864624023e-01,-2.121256589889526367e-01,-2.118895053863525391e-01,-2.077101469039916992e-01,-2.054414749145507812e-01,-2.051314115524291992e-01,-2.019522190093994141e-01,-2.012399435043334961e-01,-2.016957998275756836e-01,-2.021354436874389648e-01,-2.012985944747924805e-01,-2.025132179260253906e-01,-2.034589201211929321e-01,-2.060171365737915039e-01,-2.071453332901000977e-01,-4.663158514643017671e-02,-2.095764875411987305e-01,-2.092121839523315430e-01,6.543128490447998047e-01,6.657975912094116211e-01,6.723212003707885742e-01,6.750376224517822266e-01,6.761331558227539062e-01
-2.025542259216308594e-01,-2.033647298812866211e-01,-2.046738862991333008e-01,-2.072416543960571289e-01,-2.097371816635131836e-01,-2.112413644790649414e-01,-2.115103006362915039e-01,-2.095041275024414062e-01,-2.072072029113769531e-01,-2.023442983627319336e-01,-1.990633010864257812e-01,-1.966490745544433594e-01,-1.967647075653076172e-01,-1.960699558258056641e-01,-1.952592134475708008e-01,-1.962856054306030273e-01,-1.971814632415771484e-01,-1.971712112426757812e-01,-1.980184316635131836e-01,-2.005254030227661133e-01,-2.013169527053833008e-01,-2.071707248687744141e-01,-2.087621688842773438e-01,-2.103320360183715820e-01,-2.134045362472534180e-01,-2.129758596420288086e-01,-2.107882499694824219e-01,-2.067877799272537231e-01,-2.037506103515625000e-01,-2.006020545959472656e-01,-2.002720832824707031e-01,-2.004014253616333008e-01,-2.000265121459960938e-01,-2.013007402420043945e-01,-2.010267823934555054e-01,-2.016837596893310547e-01,-2.032258510589599609e-01,-2.043197154998779297e-01,-2.063227891921997070e-01,-2.085136175155639648e-01,-1.765537813683099727e-02,-2.098046541213989258e-01,-2.079708576202392578e-01,6.608247160911560059e-01,6.695895195007324219e-01,6.734014749526977539e-01,6.750375032424926758e-01
-2.025505304336547852e-01,-2.042912244796752930e-01,-2.055984735488891602e-01,-2.081624269485473633e-01,-2.097297906875610352e-01,-2.112376689910888672e-01,-2.108511924743652344e-01,-2.095004320144653320e-01,-2.072033882141113281e-01,-2.014393806457519531e-01,-1.999568939208984375e-01,-1.984330415725708008e-01,-1.968659162521362305e-01,-1.960661411285400391e-01,-1.979116201400756836e-01,-1.980131864547729492e-01,-1.980570554733276367e-01,-1.980432271957397461e-01,-1.980146169662475586e-01,-2.013920545578002930e-01,-2.030502557754516602e-01,-2.088968753814697266e-01,-2.104847431182861328e-01,-2.120507955551147461e-01,-2.142585515975952148e-01,-2.129718065261840820e-01,-2.099334001541137695e-01,-2.060121297836303711e-01,-2.020598649978637695e-01,-1.989182233810424805e-01,-1.994301080703735352e-01,-1.990875005722045898e-01,-1.991899013519287109e-01,-1.996349096298217773e-01,-2.004672288894653320e-01,-2.008543014526367188e-01,-2.040436267852783203e-01,-2.051930427551269531e-01,-2.055006027221679688e-01,-2.076950073242187500e-01,-2.081786394119262695e-01,-2.083945274353027344e-01,-2.071611881256103516e-01,6.558358669281005859e-01,6.640671491622924805e-01,6.706393957138061523e-01,6.706341505050659180e-01
-2.025468349456787109e-01,-2.042875289916992188e-01,-2.055947780609130859e-01,-2.081587314605712891e-01,-2.097260951995849609e-01,-2.112339735031127930e-01,-2.108474969863891602e-01,-2.101774215698242188e-01,-2.071996927261352539e-01,-2.023366689682006836e-01,-2.008507251739501953e-01,-1.993232965469360352e-01,-1.994334459304809570e-01,-1.977523565292358398e-01,-1.987946033477783203e-01,-1.988925933837890625e-01,-1.989327669143676758e-01,-1.989151239395141602e-01,-1.997588872909545898e-01,-2.022585868835449219e-01,-2.039149999618530273e-01,-2.064164876937866211e-01,-2.104808092117309570e-01,-2.120468616485595703e-01,-2.133965492248535156e-01,-2.129678726196289062e-01,-2.090789079666137695e-01,-2.043141126632690430e-01,-1.995254755020141602e-01,-1.972347497940063477e-01,-1.969121694564819336e-01,-1.987285614013671875e-01,-1.988002061843872070e-01,-2.000560760498046875e-01,-2.004630565643310547e-01,-2.000248432159423828e-01,-2.007524967193603516e-01,-2.027289867401123047e-01,-2.041554450988769531e-01,-2.060614824295043945e-01,-2.057416439056396484e-01,-2.059628963470458984e-01,-2.047404050827026367e-01,-2.033016681671142578e-01,-2.027982473373413086e-01,-2.013214826583862305e-01,-2.070045471191406250e-01
-2.034767866134643555e-01,-2.042838335037231445e-01,-2.055910825729370117e-01,-2.081550359725952148e-01,-2.097223997116088867e-01,-2.103128433227539062e-01,-2.105835676193237305e-01,-2.104029655456542969e-01,-2.090089321136474609e-01,-2.057657241821289062e-01,-2.032340764999389648e-01,-2.018779516220092773e-01,-2.002133131027221680e-01,-1.987237930297851562e-01,-1.987907886505126953e-01,-1.988886594772338867e-01,-1.998082399368286133e-01,-1.997871398925781250e-01,-2.006289958953857422e-01,-2.039955854415893555e-01,-2.056483030319213867e-01,-2.072795629501342773e-01,-2.104767560958862305e-01,-2.111815214157104492e-01,-2.125349044799804688e-01,-2.112554311752319336e-01,-2.073734998703002930e-01,-1.998044252395629883e-01,-1.978346109390258789e-01,-1.966992616653442383e-01,-1.952319145202636719e-01,-1.970558166503906250e-01,-1.979653835296630859e-01,-1.983939409255981445e-01,-1.967191696166992188e-01,-1.995720863342285156e-01,-1.982830762863159180e-01,-1.997653245925903320e-01,-2.008858919143676758e-01,-2.019848823547363281e-01,-2.024937868118286133e-01,-2.027221918106079102e-01,-2.023196220397949219e-01,-2.018519639968872070e-01,-2.019938230514526367e-01,-2.005189657211303711e-01,-2.070002555847167969e-01
-2.034730911254882812e-01,-2.048147916793823242e-01,-2.065155506134033203e-01,-2.081513404846191406e-01,-2.106395959854125977e-01,-2.109392881393432617e-01,-2.108399868011474609e-01,-2.113093137741088867e-01,-2.099117040634155273e-01,-2.075678110122680664e-01,-2.060871124267578125e-01,-2.036656141281127930e-01,-2.012099027633666992e-01,-1.987199783325195312e-01,-1.987868547439575195e-01,-1.988848447799682617e-01,-1.998044252395629883e-01,-2.006767988204956055e-01,-2.014992237091064453e-01,-2.031934261322021484e-01,-2.065131664276123047e-01,-2.072755098342895508e-01,-2.104728221893310547e-01,-2.110025882720947266e-01,-2.106134891510009766e-01,-2.086886167526245117e-01,-2.028714418411254883e-01,-1.972647905349731445e-01,-1.941704750061035156e-01,-1.955510377883911133e-01,-1.932221651077270508e-01,-1.953829526901245117e-01,-1.946381330490112305e-01,-1.950742006301879883e-01,-1.942390203475952148e-01,-1.949918270111083984e-01,-1.961611509323120117e-01,-1.966945677995681763e-01,-1.967999935150146484e-01,-1.998070478439331055e-01,-1.986725330352783203e-01,-1.996992826461791992e-01,-1.990934610366821289e-01,-2.000826597213745117e-01,-2.003895044326782227e-01,-2.005146741867065430e-01,-2.133679389953613281e-01
-2.044030427932739258e-01,-2.057428359985351562e-01,-2.074400186538696289e-01,-2.099968194961547852e-01,-2.121673822402954102e-01,-2.112227678298950195e-01,-2.124072313308715820e-01,-2.129020690917968750e-01,-2.115223407745361328e-01,-2.100994586944580078e-01,-2.078820466995239258e-01,-2.045575380325317383e-01,-2.012060880661010742e-01,-1.987161636352539062e-01,-1.987830400466918945e-01,-1.988810300827026367e-01,-1.998006105422973633e-01,-2.006728649139404297e-01,-2.023693323135375977e-01,-2.031894922256469727e-01,-2.065092325210571289e-01,-2.072715759277343750e-01,-2.096055746078491211e-01,-2.092794179916381836e-01,-2.080414295196533203e-01,-2.059025764465332031e-01,-1.986235380172729492e-01,-1.966788768768310547e-01,-1.908000707626342773e-01,-1.918760538101196289e-01,-1.907299160957336426e-01,-1.912069320678710938e-01,-1.896495819091796875e-01,-1.900962591171264648e-01,-1.913589686155319214e-01,-1.900573968887329102e-01,-1.912373304367065430e-01,-1.956703662872314453e-01,-1.930166482925415039e-01,-1.941137313842773438e-01,-1.984349489212036133e-01,-1.964568048715591431e-01,-1.950615644454956055e-01,-1.970322132110595703e-01,-1.995849609375000000e-01,-2.013087272644042969e-01,-2.069916725158691406e-01
-2.062666416168212891e-01,-2.076028585433959961e-01,-2.092927694320678711e-01,-2.109177112579345703e-01,-2.130862474441528320e-01,-2.127701044082641602e-01,-2.133189439773559570e-01,-2.138100862503051758e-01,-2.133353948593139648e-01,-2.119051218032836914e-01,-2.096768617630004883e-01,-2.054494619369506836e-01,-2.020943164825439453e-01,-1.987123489379882812e-01,-1.979523897171020508e-01,-1.988770961761474609e-01,-1.997966766357421875e-01,-2.006689310073852539e-01,-2.023655176162719727e-01,-2.031855583190917969e-01,-2.056365013122558594e-01,-2.064007520675659180e-01,-2.077238559722900391e-01,-2.066965103149414062e-01,-2.046134471893310547e-01,-1.980049610137939453e-01,-1.932870149612426758e-01,-1.930347681045532227e-01,-1.880143135786056519e-01,-1.876822710037231445e-01,-1.853624582290649414e-01,-1.858525276184082031e-01,-1.834605932235717773e-01,-1.830765008926391602e-01,-1.855595111846923828e-01,-1.864279210567474365e-01,-1.891213655471801758e-01,-1.918977499008178711e-01,-1.929821968078613281e-01,-1.916713714599609375e-01,-1.946226358413696289e-01,-1.940437555313110352e-01,-1.920371055603027344e-01,-1.970279216766357422e-01,-2.003809213638305664e-01,-2.030054181814193726e-01,-2.093768119812011719e-01
-2.058460712432861328e-01,-2.094626426696777344e-01,-2.111452817916870117e-01,-2.133482694625854492e-01,-2.140053510665893555e-01,-2.139673233032226562e-01,-2.142307758331298828e-01,-2.156304121017456055e-01,-2.142398357391357422e-01,-2.129739522933959961e-01,-2.096730470657348633e-01,-2.054456472396850586e-01,-2.020905017852783203e-01,-1.987085342407226562e-01,-1.979485750198364258e-01,-1.988732814788818359e-01,-2.006722688674926758e-01,-2.006651163101196289e-01,-2.023615837097167969e-01,-2.031816244125366211e-01,-2.047640085220336914e-01,-2.055299282073974609e-01,-2.068585157394409180e-01,-2.039407491683959961e-01,-2.001346349716186523e-01,-1.954491138458251953e-01,-1.898950338363647461e-01,-1.877020597457885742e-01,-1.829421520233154297e-01,-1.823438405990600586e-01,-1.783553361892700195e-01,-1.838300228118896484e-01,-1.775472313165664673e-01,-1.748492717742919922e-01,-1.786472052335739136e-01,-1.843008995056152344e-01,-1.817538738250732422e-01,-1.848673820495605469e-01,-1.829584581511361496e-01,-1.927502155303955078e-01,-1.900032758712768555e-01,-1.799775362014770508e-01,-1.919226944446563721e-01,-1.944404393434524536e-01,-1.979281306266784668e-01,-2.021027803421020508e-01,-2.069830894470214844e-01
-2.067776918411254883e-01,-2.103908061981201172e-01,-2.129980325698852539e-01,-2.151972055435180664e-01,-2.158471345901489258e-01,-2.148808240890502930e-01,-2.160581350326538086e-01,-2.165383100509643555e-01,-2.160526514053344727e-01,-2.129701375961303711e-01,-2.096692323684692383e-01,-2.045460939407348633e-01,-2.011946439743041992e-01,-1.987046003341674805e-01,-1.979447603225708008e-01,-1.988693475723266602e-01,-1.997889280319213867e-01,-2.006613016128540039e-01,-2.014836072921752930e-01,-2.031778097152709961e-01,-2.047600746154785156e-01,-2.055259943008422852e-01,-2.059929370880126953e-01,-2.039366960525512695e-01,-1.992764472961425781e-01,-1.928933858871459961e-01,-1.873500347137451172e-01,-1.815347671508789062e-01,-1.759424209594726562e-01,-1.748142242431640625e-01,-1.684937523284428806e-01,-1.738570928573608398e-01,-1.661651134490966797e-01,-1.621099710464477539e-01,-1.696126461029052734e-01,-1.797500848770141602e-01,-1.714604408559152748e-01,-1.745152791079721821e-01,-1.753486596931845554e-01,-1.768959606768654991e-01,-1.861928701400756836e-01,-1.910257339477539062e-01,-1.872809976339340210e-01,-1.906085014343261719e-01,-1.950666308403015137e-01,-2.084847688674926758e-01,-2.030844688415527344e-01
-2.077094316482543945e-01,-2.113188505172729492e-01,-2.144876718521118164e-01,-2.182995080947875977e-01,-2.179886102676391602e-01,-2.182737588882446289e-01,-2.172136306762695312e-01,-2.158410549163818359e-01,-2.144254446029663086e-01,-2.120634317398071289e-01,-2.087661027908325195e-01,-2.036465406417846680e-01,-2.011908292770385742e-01,-1.995062828063964844e-01,-1.987677812576293945e-01,-1.988655328750610352e-01,-1.997851133346557617e-01,-2.015154361724853516e-01,-2.023537158966064453e-01,-2.031738758087158203e-01,-2.044238299131393433e-01,-2.062699794769287109e-01,-2.059890031814575195e-01,-2.049692869186401367e-01,-1.992725133895874023e-01,-1.884218454360961914e-01,-1.820353269577026367e-01,-1.703376770019531250e-01,-1.647763252258300781e-01,-1.686669588088989258e-01,-1.610707044601440430e-01,-1.615625619888305664e-01,-1.591980457305908203e-01,-1.584701980069532501e-01,-1.522973775863647461e-01,-1.514679193496704102e-01,-1.505787372589111328e-01,-1.472120285034179688e-01,-1.668204925954341888e-01,-1.687061717467648603e-01,-1.697511052978890322e-01,-1.759546995162963867e-01,-1.857930421829223633e-01,-1.851707696914672852e-01,-1.787083849310875105e-01,-2.014034986495971680e-01,-1.826303005218505859e-01
-2.133145332336425781e-01,-2.150423526763916016e-01,-2.182039022445678711e-01,-2.207479476928710938e-01,-2.198268175125122070e-01,-2.185389995574951172e-01,-2.172098159790039062e-01,-2.158373594284057617e-01,-2.144216299057006836e-01,-2.111567258834838867e-01,-2.078629732131958008e-01,-2.036427259445190430e-01,-2.011870145797729492e-01,-1.995024681091308594e-01,-1.987638473510742188e-01,-1.997447013854980469e-01,-2.015399932861328125e-01,-2.023874521255493164e-01,-2.023497819900512695e-01,-2.040420770645141602e-01,-2.047561407089233398e-01,-2.055181264877319336e-01,-2.061328887939453125e-01,-2.039327621459960938e-01,-1.937385797500610352e-01,-1.956536769866943359e-01,-1.741958856582641602e-01,-1.697446107864379883e-01,-1.561477184295654297e-01,-1.525380611419677734e-01,-1.442157908127857935e-01,-1.341671943664550781e-01,-1.354699134826660156e-01,-1.454799373041499866e-01,-1.449444727862582716e-01,-1.475628097267712158e-01,-1.278326511383056641e-01,-1.530561556524419053e-01,-1.483303308486938477e-01,-1.494287252426147461e-01,-1.585592119132771538e-01,-1.615479260396499028e-01,-1.642897113595368774e-01,-1.845278739929199219e-01,-1.806908845901489258e-01,-1.704609725962985822e-01,-1.638686656951904297e-01
-2.179876565933227539e-01,-2.174512147903442383e-01,-2.219201326370239258e-01,-2.241212129592895508e-01,-2.222951650619506836e-01,-2.185351848602294922e-01,-2.172061204910278320e-01,-2.149233818054199219e-01,-2.126046419143676758e-01,-2.102500200271606445e-01,-2.069598436355590820e-01,-2.036389112472534180e-01,-2.011831998825073242e-01,-1.994985342025756836e-01,-1.996465921401977539e-01,-1.997407674789428711e-01,-2.006493806838989258e-01,-2.015311717987060547e-01,-2.023459672927856445e-01,-2.031660079956054688e-01,-2.056207656860351562e-01,-2.055141925811767578e-01,-2.077039480209350586e-01,-2.047865390777587891e-01,-1.992684602737426758e-01,-1.867202520370483398e-01,-1.621664762496948242e-01,-1.444627046585083008e-01,-1.417107582092285156e-01,-1.248900890350341797e-01,-1.270761489868164062e-01,-1.317915932698683623e-01,-9.982478618621826172e-02,-1.316985131800174902e-01,-1.297912458362786847e-01,-1.234089136123657227e-01,-1.337160050868987926e-01,-1.364322304725646973e-01,-1.329631358385086060e-01,-1.497038602828979492e-01,-1.415194999426603317e-01,-1.454463555496565974e-01,-1.522172689437866211e-01,-1.462372541427612305e-01,-1.546916998922824860e-01,-1.326665878295898438e-01,-1.274307966232299805e-01
-2.175762653350830078e-01,-2.258460521697998047e-01,-2.256363630294799805e-01,-2.262986898422241211e-01,-2.232142686843872070e-01,-2.185314893722534180e-01,-2.162885665893554688e-01,-2.149196863174438477e-01,-2.126008272171020508e-01,-2.093434333801269531e-01,-2.069561481475830078e-01,-2.036350965499877930e-01,-2.020714282989501953e-01,-1.995779275894165039e-01,-1.996990442276000977e-01,-1.997369527816772461e-01,-2.006455659866333008e-01,-2.015273571014404297e-01,-2.032159566879272461e-01,-2.031620740890502930e-01,-2.047482728958129883e-01,-2.071232795715332031e-01,-2.077000141143798828e-01,-2.047826051712036133e-01,-1.992645263671875000e-01,-1.606938838958740234e-01,-1.466015577316284180e-01,-1.179575920104980469e-01,-8.791005611419677734e-02,-9.256827831268310547e-02,-8.902728557586669922e-02,-7.678020000457763672e-02,-1.136770136654376984e-01,-1.132042874460635062e-01,-1.036096811294555664e-01,-1.156527910913739965e-01,-1.257723569869995117e-01,-1.229029893875122070e-01,-1.198747339983319282e-01,-1.371576786041259766e-01,-1.344913244247436523e-01,-1.278731119818985462e-01,-1.329296178051403432e-01,-1.252793073654174805e-01,-1.375946179032325745e-01,-1.210559606552124023e-01,-1.434319952600880688e-01
-2.222584486007690430e-01,-2.263988256454467773e-01,-2.284226417541503906e-01,-2.272213697433471680e-01,-2.232105731964111328e-01,-2.185276746749877930e-01,-2.153710126876831055e-01,-2.130955457687377930e-01,-2.116906642913818359e-01,-2.093396186828613281e-01,-2.069523334503173828e-01,-2.045270204544067383e-01,-2.020676136016845703e-01,-2.004625797271728516e-01,-1.996388435363769531e-01,-1.997331380844116211e-01,-2.006417512893676758e-01,-2.015234231948852539e-01,-2.023380994796752930e-01,-2.031582593917846680e-01,-2.047443389892578125e-01,-2.055102586746215820e-01,-2.076959609985351562e-01,-2.047785520553588867e-01,-1.922321319580078125e-01,-1.426134109497070312e-01,-1.217256784439086914e-01,-9.352338314056396484e-02,-8.732068538665771484e-02,-9.905017623978276675e-02,-7.978260517120361328e-02,-7.404994964599609375e-02,-9.277595649473369122e-02,-9.473973172514335572e-02,-9.385183910754595071e-02,-9.961913951805660694e-02,-9.882120867925031638e-02,-1.184263229370117188e-01,-1.034374704415148005e-01,-1.108903884887695312e-01,-1.090533733367919922e-01,-1.122546963849846147e-01,-1.005247831344604492e-01,-1.169983672981078915e-01,-1.002780199050903320e-01,-1.102614402770996094e-01,-1.307089553567870044e-01
-2.250627279281616211e-01,-2.273304462432861328e-01,-2.290004491806030273e-01,-2.262912988662719727e-01,-2.222839593887329102e-01,-2.176066637039184570e-01,-2.153673171997070312e-01,-2.130917310714721680e-01,-2.116868495941162109e-01,-2.102385759353637695e-01,-2.069485187530517578e-01,-2.045232057571411133e-01,-2.020636796951293945e-01,-2.004586458206176758e-01,-2.005217075347900391e-01,-1.997293233871459961e-01,-2.006378173828125000e-01,-2.015196084976196289e-01,-2.023341655731201172e-01,-2.030858993530273438e-01,-2.038718461990356445e-01,-2.055063247680664062e-01,-2.076920270919799805e-01,-2.047744989395141602e-01,-1.826663017272949219e-01,-1.152523756027221680e-01,-6.942093372344970703e-02,-4.149651527404785156e-02,-5.349636077880859375e-02,-7.995773497368059701e-02,-6.380176544189453125e-02,-5.920457839965820312e-02,-7.053311811165607903e-02,-7.824420928955078125e-02,-8.233761787414550781e-02,-8.081276428907417653e-02,-8.994901180267333984e-02,-8.181259746468345917e-02,-8.624859413375025874e-02,-8.640944957733154297e-02,-8.354032039642333984e-02,-9.841210099886048279e-02,-8.116757869720458984e-02,-1.055041910814387557e-01,-1.091319451990880457e-01,-1.157895232501782862e-01,-1.152272820472717285e-01
-2.222474813461303711e-01,-2.258349657058715820e-01,-2.262014150619506836e-01,-2.235084772109985352e-01,-2.198081016540527344e-01,-2.166854143142700195e-01,-2.153635025024414062e-01,-2.130880355834960938e-01,-2.116831541061401367e-01,-2.102347612380981445e-01,-2.078438997268676758e-01,-2.054151296615600586e-01,-2.029520273208618164e-01,-2.004548311233520508e-01,-1.996310949325561523e-01,-1.997526884078979492e-01,-2.006412744522094727e-01,-2.006379365921020508e-01,-2.023302316665649414e-01,-2.022781372070312500e-01,-2.047364711761474609e-01,-2.063691616058349609e-01,-2.068266868591308594e-01,-2.039128541946411133e-01,-1.369075775146484375e-01,-8.810782432556152344e-02,-5.001831054687500000e-02,-3.298366069793701172e-02,-7.400227442164632186e-02,-6.308175745652988553e-02,-5.435693264007568359e-02,-5.399819836020470359e-02,-6.696355342864990234e-02,-5.772479854524135978e-02,-5.880898107983627970e-02,-6.419679736520382540e-02,-7.115316390991210938e-02,-6.949651241302490234e-02,-7.588917148463866780e-02,-6.652414798736572266e-02,-6.759953498840332031e-02,-8.924327712309987337e-02,-7.826793193817138672e-02,-9.778676131519221937e-02,-9.716010093688964844e-02,-1.050001904368400574e-01,-1.159478425979614258e-01
-2.226462364196777344e-01,-2.211633920669555664e-01,-2.222462892532348633e-01,-2.201224565505981445e-01,-2.179623842239379883e-01,-2.166817188262939453e-01,-2.153598070144653320e-01,-2.130842208862304688e-01,-2.116793394088745117e-01,-2.102309465408325195e-01,-2.078400850296020508e-01,-2.054113149642944336e-01,-2.029482126235961914e-01,-2.012599706649780273e-01,-2.005140781402587891e-01,-2.006045579910278320e-01,-2.006300687789916992e-01,-2.006340026855468750e-01,-2.032003402709960938e-01,-2.031464576721191406e-01,-2.056010961532592773e-01,-2.063652276992797852e-01,-2.059612274169921875e-01,-2.021931409835815430e-01,-1.078978776931762695e-01,-5.953097343444824219e-02,-3.922045230865478516e-02,-3.235828876495361328e-02,-2.873265743255615234e-02,-4.968456619165160376e-02,-4.279482364654541016e-02,-4.252648353576660156e-02,-4.272473122585904171e-02,-5.634176731109619141e-02,-5.483639240264892578e-02,-5.098298520726316646e-02,-5.630185677168461633e-02,-5.246758460998535156e-02,-6.440496695312587783e-02,-6.963519752025604248e-02,-6.239485740661621094e-02,-7.301464676856994629e-02,-7.514274120330810547e-02,-8.583956211805343628e-02,-9.482061862945556641e-02,-1.013502180576324463e-01,-1.143904924392700195e-01
-2.179656028747558594e-01,-2.174254655838012695e-01,-2.194581031799316406e-01,-2.191940546035766602e-01,-2.176591157913208008e-01,-2.166780233383178711e-01,-2.160242795944213867e-01,-2.146805524826049805e-01,-2.132937908172607422e-01,-2.111301422119140625e-01,-2.078362703323364258e-01,-2.054075002670288086e-01,-2.029443979263305664e-01,-2.012561559677124023e-01,-2.005646228790283203e-01,-2.014838457107543945e-01,-2.006262540817260742e-01,-2.023602724075317383e-01,-2.040706872940063477e-01,-2.039445638656616211e-01,-2.055971622467041016e-01,-2.071074247360229492e-01,-1.514666045084595847e-01,-1.492042541503906250e-01,-6.641805171966552734e-02,-4.525887966156005859e-02,-3.252947330474853516e-02,-2.387416362762451172e-02,-2.206146717071533203e-02,-1.760852336883544922e-02,-2.768113836646080017e-02,-3.384480836083654520e-02,-3.364193439483642578e-02,-3.221070766448974609e-02,-3.187358379364013672e-02,-4.120590476827188514e-02,-3.392326831817626953e-02,-4.946456457439221688e-02,-4.643177986145019531e-02,-6.107893534775438171e-02,-5.769860744476318359e-02,-6.699178367853164673e-02,-7.357835769653320312e-02,-8.374551683664321899e-02,-9.248149394989013672e-02,-1.003026589751243591e-01,-1.120563745498657227e-01
-2.136876583099365234e-01,-2.150090932846069336e-01,-2.175980806350708008e-01,-2.179391384124755859e-01,-2.176553010940551758e-01,-2.173210382461547852e-01,-2.169361114501953125e-01,-2.155889272689819336e-01,-2.141982316970825195e-01,-2.129321098327636719e-01,-2.096312046051025391e-01,-2.054036855697631836e-01,-2.029405832290649414e-01,-2.013317346572875977e-01,-2.014455795288085938e-01,-2.032459974288940430e-01,-2.023849487304687500e-01,-2.032592296600341797e-01,-2.049406766891479492e-01,-2.048830986022949219e-01,-2.064619064331054688e-01,-2.062383890151977539e-01,-1.980566978454589844e-01,-9.534788131713867188e-02,-5.801868438720703125e-02,-3.773534297943115234e-02,-2.666187286376953125e-02,-2.225232124328613281e-02,-1.943206787109375000e-02,-1.657581329345703125e-02,-1.553404331207275391e-02,-1.607632637023925781e-02,-3.123814245918765664e-02,-1.807022094726562500e-02,-1.852595806121826172e-02,-2.721484564244747162e-02,-4.006367342005814208e-02,-3.545403480529785156e-02,-4.491810873150825500e-02,-5.300235748291015625e-02,-5.724009126424789429e-02,-6.967306137084960938e-02,-7.346185296773910522e-02,-8.534172177314758301e-02,-8.936357498168945312e-02,-1.024405583739280701e-01,-1.097224950790405273e-01
-2.114107608795166016e-01,-2.140735387802124023e-01,-2.153807878494262695e-01,-2.170090675354003906e-01,-2.185742855072021484e-01,-2.191555500030517578e-01,-2.187633514404296875e-01,-2.183207273483276367e-01,-2.185336351394653320e-01,-2.163754701614379883e-01,-2.105265855789184570e-01,-2.053998708724975586e-01,-2.029367685317993164e-01,-2.022165060043334961e-01,-2.031625509262084961e-01,-2.032114267349243164e-01,-2.041435241699218750e-01,-2.050105333328247070e-01,-2.058107852935791016e-01,-2.056776285171508789e-01,-2.055892944335937500e-01,-2.045044898986816406e-01,-1.884565353393554688e-01,-6.914782524108886719e-02,-5.471360683441162109e-02,-3.854954242706298828e-02,-3.089296817779541016e-02,-2.467584609985351562e-02,-2.023375034332275391e-02,-1.737368106842041016e-02,-1.633024215698242188e-02,-1.580202579498291016e-02,-1.631367206573486328e-02,-1.759827136993408203e-02,-1.615428924560546875e-02,-2.840721607208251953e-02,-2.801585197448730469e-02,-2.682805061340332031e-02,-4.010359570384025574e-02,-4.830634593963623047e-02,-5.865821325734480590e-02,-6.576800346374511719e-02,-7.492088526487350464e-02,-8.546745777130126953e-02,-8.910380303859710693e-02,-1.035052537918090820e-01,-1.064231544733047485e-01
-2.104716300964355469e-01,-2.140698432922363281e-01,-2.153772115707397461e-01,-2.188581228256225586e-01,-2.204160690307617188e-01,-2.207102775573730469e-01,-2.215061187744140625e-01,-2.201408147811889648e-01,-2.205449342727661133e-01,-2.163716554641723633e-01,-2.096235752105712891e-01,-2.053960561752319336e-01,-2.029329538345336914e-01,-2.030252218246459961e-01,-2.049319744110107422e-01,-2.049773931503295898e-01,-2.059020996093750000e-01,-2.067619562149047852e-01,-2.075549364089965820e-01,-2.065440416336059570e-01,-2.037489414215087891e-01,-1.991914510726928711e-01,-1.701903343200683594e-01,-6.748247146606445312e-02,-4.881370067596435547e-02,-4.278767108917236328e-02,-3.414714336395263672e-02,-3.478133678436279297e-02,-2.689385414123535156e-02,-2.506279945373535156e-02,-1.952683925628662109e-02,-1.739108562469482422e-02,-1.521587371826171875e-02,-1.299357414245605469e-02,-1.954457350075244904e-02,-2.289128303527832031e-02,-2.212107181549072266e-02,-3.086223825812339783e-02,-3.902191296219825745e-02,-4.517424106597900391e-02,-5.737687274813652039e-02,-6.186270713806152344e-02,-6.779592484235763550e-02,-7.923591136932373047e-02,-8.459557592868804932e-02,-9.648852795362472534e-02,-1.058465912938117981e-01
-2.104679346084594727e-01,-2.149981260299682617e-01,-2.163033485412597656e-01,-2.197806835174560547e-01,-2.213350534439086914e-01,-2.216273546218872070e-01,-2.233333587646484375e-01,-2.235645055770874023e-01,-2.214494943618774414e-01,-2.163678407669067383e-01,-2.096197605133056641e-01,-2.053922414779663086e-01,-2.038211822509765625e-01,-2.030214071273803711e-01,-2.048703432083129883e-01,-2.058583498001098633e-01,-2.076606750488281250e-01,-2.085133790969848633e-01,-2.075508832931518555e-01,-2.056697607040405273e-01,-2.020114660263061523e-01,-1.913015842437744141e-01,-1.598137617111206055e-01,-6.581723690032958984e-02,-4.880988597869873047e-02,-4.360377788543701172e-02,-4.246675968170166016e-02,-4.046630859375000000e-02,-3.680455684661865234e-02,-3.230845928192138672e-02,-2.698862552642822266e-02,-2.432334423065185547e-02,-1.521205902099609375e-02,-1.220047473907470703e-02,-1.994148641824722290e-02,-2.131247520446777344e-02,-2.133333683013916016e-02,-3.057092800736427307e-02,-4.204213619232177734e-02,-4.547915607690811157e-02,-5.717730522155761719e-02,-6.048495322465896606e-02,-7.412990927696228027e-02,-7.535102963447570801e-02,-7.927643063087617958e-02,-9.262859821319580078e-02,-9.907770156860351562e-02
-2.113997936248779297e-01,-2.159260511398315430e-01,-2.172296047210693359e-01,-2.216297388076782227e-01,-2.219489812850952148e-01,-2.234654426574707031e-01,-2.249151468276977539e-01,-2.246890068054199219e-01,-2.214456796646118164e-01,-2.163640260696411133e-01,-2.087165117263793945e-01,-2.044926881790161133e-01,-2.029253244400024414e-01,-2.039077281951904297e-01,-2.048665285110473633e-01,-2.067393064498901367e-01,-2.085381746292114258e-01,-2.093870639801025391e-01,-2.075470685958862305e-01,-2.047953605651855469e-01,-2.002739906311035156e-01,-1.799894571304321289e-01,-1.503167152404785156e-01,-5.990123748779296875e-02,-4.880619049072265625e-02,-4.523992538452148438e-02,-4.426491260528564453e-02,-4.491174221038818359e-02,-4.452610015869140625e-02,-4.222440719604492188e-02,-4.116475582122802734e-02,-3.232014179229736328e-02,-2.107012271881103516e-02,-1.568543910980224609e-02,-1.851046085357666016e-02,-1.894629001617431641e-02,-2.132940292358398438e-02,-2.741608209908008575e-02,-3.969204425811767578e-02,-4.278079420328140259e-02,-4.785516113042831421e-02,-5.237201957830361215e-02,-7.222628593444824219e-02,-7.575803995132446289e-02,-7.804465293884277344e-02,-7.578139845281839371e-02,-9.068536758422851562e-02
-2.123314142227172852e-01,-2.155362367630004883e-01,-2.181557416915893555e-01,-2.216260433197021484e-01,-2.228698730468750000e-01,-2.243827581405639648e-01,-2.251569032669067383e-01,-2.237733602523803711e-01,-2.196253538131713867e-01,-2.129130363464355469e-01,-2.078135013580322266e-01,-2.044888734817504883e-01,-2.037124633789062500e-01,-2.039039134979248047e-01,-2.066937685012817383e-01,-2.076202630996704102e-01,-2.094153165817260742e-01,-2.093831300735473633e-01,-2.075431346893310547e-01,-2.039209604263305664e-01,-1.949735879898071289e-01,-1.738623380661010742e-01,-1.339392662048339844e-01,-5.989742279052734375e-02,-4.880237579345703125e-02,-4.523622989654541016e-02,-4.507935047149658203e-02,-4.472041130065917969e-02,-4.592740535736083984e-02,-4.650592803955078125e-02,-4.598999023437500000e-02,-4.381644725799560547e-02,-3.251218795776367188e-02,-2.788603305816650391e-02,-2.166354656219482422e-02,-2.130472660064697266e-02,-2.250063419342041016e-02,-2.916383743286132812e-02,-3.499615192413330078e-02,-3.776950016617774963e-02,-5.120491981506347656e-02,-4.768716267177037366e-02,-5.277580161815259574e-02,-7.475829124450683594e-02,-6.428837776184082031e-02,-6.540184300392866412e-02,-6.687435372893152374e-02
-2.141984701156616211e-01,-2.164660692214965820e-01,-2.190819978713989258e-01,-2.225484848022460938e-01,-2.237907648086547852e-01,-2.252998352050781250e-01,-2.260648012161254883e-01,-2.237695455551147461e-01,-2.187131643295288086e-01,-2.120064496994018555e-01,-2.069104909896850586e-01,-2.044850587844848633e-01,-2.037086486816406250e-01,-2.039000988006591797e-01,-2.048627138137817383e-01,-2.076163291931152344e-01,-2.085303068161010742e-01,-2.085211277008056641e-01,-2.057912349700927734e-01,-2.021762132644653320e-01,-1.923747062683105469e-01,-1.643182039260864258e-01,-1.245087385177612305e-01,-6.663668155670166016e-02,-4.879856109619140625e-02,-4.441237449645996094e-02,-4.327166080474853516e-02,-4.145860671997070312e-02,-4.268026351928710938e-02,-4.569292068481445312e-02,-4.625308513641357422e-02,-4.060506820678710938e-02,-3.760635852813720703e-02,-2.788221836090087891e-02,-2.402746677398681641e-02,-2.287578582763671875e-02,-2.642500400543212891e-02,-3.072762489318847656e-02,-3.968417644500732422e-02,-3.446386754512786865e-02,-4.030311107635498047e-02,-4.411380528144433905e-02,-4.784443678663057725e-02,-6.409406661987304688e-02,-5.615139007568359375e-02,-5.338597297668457031e-02,-5.869021173566579819e-02
-2.151300907135009766e-01,-2.164624929428100586e-01,-2.200046777725219727e-01,-2.225446701049804688e-01,-2.237869501113891602e-01,-2.262169122695922852e-01,-2.260609865188598633e-01,-2.237657308578491211e-01,-2.187093496322631836e-01,-2.110997438430786133e-01,-2.078058719635009766e-01,-2.053769826889038086e-01,-2.037048339843750000e-01,-2.047864198684692383e-01,-2.066860198974609375e-01,-2.076125144958496094e-01,-2.085264921188354492e-01,-2.076200246810913086e-01,-2.049132585525512695e-01,-1.977483034133911133e-01,-1.853606700897216797e-01,-1.547994613647460938e-01,-1.228146553039550781e-01,-6.829428672790527344e-02,-4.961466789245605469e-02,-4.358875751495361328e-02,-4.081892967224121094e-02,-3.738236427307128906e-02,-3.700006008148193359e-02,-4.083466529846191406e-02,-3.766977787017822266e-02,-3.279495239257812500e-02,-3.091168403625488281e-02,-2.629268169403076172e-02,-2.560198307037353516e-02,-2.602148056030273438e-02,-2.799236774444580078e-02,-2.915596961975097656e-02,-3.264212608337402344e-02,-3.485035896301269531e-02,-3.387272357940673828e-02,-3.052389621734619141e-02,-2.637135982513427734e-02,-4.775825125398114324e-02,-4.984447679349354732e-02,-2.618372440338134766e-02,-5.371856158141229826e-02
-2.160617113113403320e-01,-2.173923254013061523e-01,-2.200008630752563477e-01,-2.225409746170043945e-01,-2.247077226638793945e-01,-2.262132167816162109e-01,-2.242263555526733398e-01,-2.219381332397460938e-01,-2.177972793579101562e-01,-2.119988203048706055e-01,-2.078020572662353516e-01,-2.053731679916381836e-01,-2.054886817932128906e-01,-2.047826051712036133e-01,-2.057431936264038086e-01,-2.076085805892944336e-01,-2.067545652389526367e-01,-2.067385911941528320e-01,-2.013629674911499023e-01,-1.960070133209228516e-01,-1.844935417175292969e-01,-1.461564302444458008e-01,-1.159487962722778320e-01,-6.829047203063964844e-02,-4.961085319519042969e-02,-4.276502132415771484e-02,-3.493523597717285156e-02,-3.213107585906982422e-02,-3.435826301574707031e-02,-3.470563888549804688e-02,-3.123664855957031250e-02,-2.801954746246337891e-02,-2.692556381225585938e-02,-2.311742305755615234e-02,-2.278566360473632812e-02,-2.523028850555419922e-02,-2.720272541046142578e-02,-2.915203571319580078e-02,-3.297483921051025391e-02,-3.251111507415771484e-02,-3.309392929077148438e-02,-3.051984310150146484e-02,-2.921867370605468750e-02,-2.811110019683837891e-02,-2.829778194427490234e-02,-2.862083911895751953e-02,-2.875530719757080078e-02
-2.151226997375488281e-01,-2.164551019668579102e-01,-2.190670967102050781e-01,-2.225372791290283203e-01,-2.237794399261474609e-01,-2.252885103225708008e-01,-2.242225408554077148e-01,-2.210224866867065430e-01,-2.177935838699340820e-01,-2.119950056076049805e-01,-2.077982425689697266e-01,-2.062649726867675781e-01,-2.063788175582885742e-01,-2.065591812133789062e-01,-2.066279649734497070e-01,-2.076047658920288086e-01,-2.058712244033813477e-01,-2.040728330612182617e-01,-2.013590335845947266e-01,-1.960030794143676758e-01,-1.836265325546264648e-01,-1.435954570770263672e-01,-9.721636772155761719e-02,-6.828665733337402344e-02,-5.468332767486572266e-02,-4.276132583618164062e-02,-3.493142127990722656e-02,-3.050541877746582031e-02,-2.928900718688964844e-02,-2.641093730926513672e-02,-2.696573734283447266e-02,-2.322614192962646484e-02,-2.214300632476806641e-02,-1.882648468017578125e-02,-2.085888385772705078e-02,-2.128922939300537109e-02,-2.877020835876464844e-02,-2.993190288543701172e-02,-3.107416629791259766e-02,-3.406393527984619141e-02,-3.358626365661621094e-02,-3.258323669433593750e-02,-2.998399734497070312e-02,-2.887308597564697266e-02,-3.058564662933349609e-02,-3.227317333221435547e-02,-3.089797496795654297e-02
-2.141838073730468750e-01,-2.155178785324096680e-01,-2.181335687637329102e-01,-2.216073274612426758e-01,-2.228511571884155273e-01,-2.234429121017456055e-01,-2.223877906799316406e-01,-2.201068401336669922e-01,-2.177897691726684570e-01,-2.119911909103393555e-01,-2.095930576324462891e-01,-2.071567773818969727e-01,-2.072688341140747070e-01,-2.073625326156616211e-01,-2.075610160827636719e-01,-2.076009511947631836e-01,-2.049880027770996094e-01,-2.023173570632934570e-01,-1.996105909347534180e-01,-1.951307058334350586e-01,-1.766306161880493164e-01,-1.358338594436645508e-01,-8.109533786773681641e-02,-6.662154197692871094e-02,-5.467963218688964844e-02,-4.521727561950683594e-02,-3.917503356933593750e-02,-3.212344646453857422e-02,-2.686345577239990234e-02,-2.479970455169677734e-02,-2.189660072326660156e-02,-1.974987983703613281e-02,-2.025234699249267578e-02,-1.914942264556884766e-02,-1.734817028045654297e-02,-1.933884620666503906e-02,-2.652401104569435120e-02,-3.619861602783203125e-02,-3.263425827026367188e-02,-3.608775138854980469e-02,-3.746521472930908203e-02,-3.644430637359619141e-02,-3.459632396697998047e-02,-4.516446590423583984e-02,-3.269779682159423828e-02,-3.669345378875732422e-02,-3.925776481628417969e-02
-2.132446765899658203e-01,-2.149685621261596680e-01,-2.162700891494750977e-01,-2.197510004043579102e-01,-2.213051319122314453e-01,-2.215974330902099609e-01,-2.205530405044555664e-01,-2.191910743713378906e-01,-2.168776988983154297e-01,-2.128902673721313477e-01,-2.104884386062622070e-01,-2.080485820770263672e-01,-2.081588506698608398e-01,-2.082507610321044922e-01,-2.084438800811767578e-01,-2.075970172882080078e-01,-2.041045427322387695e-01,-2.023134231567382812e-01,-1.987345218658447266e-01,-1.933895349502563477e-01,-1.749038696289062500e-01,-1.186709403991699219e-01,-7.774698734283447266e-02,-6.495618820190429688e-02,-5.632650852203369141e-02,-5.110776424407958984e-02,-4.325258731842041016e-02,-3.799784183502197266e-02,-3.272867202758789062e-02,-2.825045585632324219e-02,-2.269279956817626953e-02,-2.321851253509521484e-02,-1.865935325622558594e-02,-1.724052429199218750e-02,-1.848351955413818359e-02,-1.813173294067382812e-02,-2.404868602752685547e-02,-3.368942067027091980e-02,-4.168128967285156250e-02,-4.592049121856689453e-02,-4.548066109418869019e-02,-4.600393772125244141e-02,-4.895273199329128189e-02,-6.329905986785888672e-02,-4.844129085540771484e-02,-6.089639663696289062e-02,-5.731654167175292969e-02
-2.123056650161743164e-01,-2.140330076217651367e-01,-2.153364419937133789e-01,-2.188209295272827148e-01,-2.203787565231323242e-01,-2.215936183929443359e-01,-2.187181711196899414e-01,-2.182754278182983398e-01,-2.159655094146728516e-01,-2.128864526748657227e-01,-2.104846239089965820e-01,-2.089403867721557617e-01,-2.081550359725952148e-01,-2.083283662796020508e-01,-2.083932161331176758e-01,-2.076147794723510742e-01,-2.049802541732788086e-01,-2.023094892501831055e-01,-1.978584527969360352e-01,-1.889741420745849609e-01,-1.740385293960571289e-01,-1.092768907546997070e-01,-7.097494602203369141e-02,-6.069612503051757812e-02,-5.714797973632812500e-02,-5.439078807830810547e-02,-5.159747600555419922e-02,-4.977905750274658203e-02,-4.530823230743408203e-02,-3.815746307373046875e-02,-3.096354007720947266e-02,-2.828919887542724609e-02,-2.183389663696289062e-02,-2.152025699615478516e-02,-2.321505546569824219e-02,-2.442729473114013672e-02,-2.797281742095947266e-02,-3.675415739417076111e-02,-4.951560497283935547e-02,-5.139064788818359375e-02,-5.402457714080810547e-02,-6.363129615783691406e-02,-6.619143486022949219e-02,-7.026815414428710938e-02,-7.276272773742675781e-02,-6.983447074890136719e-02,-6.780064105987548828e-02
-2.113630771636962891e-01,-2.140293121337890625e-01,-2.144026756286621094e-01,-2.169644832611083984e-01,-2.194522619247436523e-01,-2.184600830078125000e-01,-2.177989482879638672e-01,-2.164477109909057617e-01,-2.159616947174072266e-01,-2.145205736160278320e-01,-2.130359411239624023e-01,-2.106126546859741211e-01,-2.090449333190917969e-01,-2.092145681381225586e-01,-2.092778682708740234e-01,-2.076108455657958984e-01,-2.049763202667236328e-01,-2.023056745529174805e-01,-1.978545188903808594e-01,-1.881034374237060547e-01,-1.662049293518066406e-01,-8.292567729949951172e-02,-6.930243968963623047e-02,-5.820572376251220703e-02,-5.714416503906250000e-02,-5.700337886810302734e-02,-5.668425559997558594e-02,-5.548930168151855469e-02,-5.424380302429199219e-02,-5.052053928375244141e-02,-4.515743255615234375e-02,-3.628587722778320312e-02,-3.678107261657714844e-02,-3.407430648803710938e-02,-3.146755695343017578e-02,-2.873575687408447266e-02,-3.500047326087951660e-02,-4.211008548736572266e-02,-4.324114322662353516e-02,-5.104650557041168213e-02,-5.792176723480224609e-02,-6.081445142626762390e-02,-6.518411636352539062e-02,-7.317662239074707031e-02,-7.413792610168457031e-02,-7.368624210357666016e-02,-7.240176200866699219e-02
-2.113593816757202148e-01,-2.130938768386840820e-01,-2.143989801406860352e-01,-2.160345315933227539e-01,-2.176030874252319336e-01,-2.175390720367431641e-01,-2.168797254562377930e-01,-2.155323028564453125e-01,-2.143381834030151367e-01,-2.128788232803344727e-01,-2.121310234069824219e-01,-2.115061283111572266e-01,-2.107241153717041016e-01,-2.109153270721435547e-01,-2.101624011993408203e-01,-2.076069116592407227e-01,-2.049723863601684570e-01,-2.023017406463623047e-01,-1.969783306121826172e-01,-1.872328519821166992e-01,-1.653413772583007812e-01,-8.124244213104248047e-02,-6.254673004150390625e-02,-5.571520328521728516e-02,-5.478179454803466797e-02,-5.452907085418701172e-02,-5.684816837310791016e-02,-5.813455581665039062e-02,-5.956685543060302734e-02,-5.992865562438964844e-02,-6.183981895446777344e-02,-5.884253978729248047e-02,-5.260193347930908203e-02,-4.044187068939208984e-02,-3.895080089569091797e-02,-3.346705436706542969e-02,-3.465592861175537109e-02,-4.367733001708984375e-02,-4.723731428384780884e-02,-5.184666439890861511e-02,-5.947792530059814453e-02,-6.340011954307556152e-02,-7.296407222747802734e-02,-7.394921779632568359e-02,-7.335913181304931641e-02,-7.291102409362792969e-02,-7.150638103485107422e-02
-2.113558053970336914e-01,-2.130901813507080078e-01,-2.147580385208129883e-01,-2.151043415069580078e-01,-2.157539129257202148e-01,-2.166179418563842773e-01,-2.159603834152221680e-01,-2.146165370941162109e-01,-2.132294178009033203e-01,-2.127035856246948242e-01,-2.121272087097167969e-01,-2.115023136138916016e-01,-2.117189168930053711e-01,-2.109874486923217773e-01,-2.101585865020751953e-01,-2.076030969619750977e-01,-2.049685716629028320e-01,-2.014219760894775391e-01,-1.961022615432739258e-01,-1.872289180755615234e-01,-1.653374433517456055e-01,-7.278549671173095703e-02,-5.497264862060546875e-02,-5.064237117767333984e-02,-4.958438873291015625e-02,-5.273604393005371094e-02,-5.339717864990234375e-02,-5.485844612121582031e-02,-6.097185611724853516e-02,-6.236290931701660156e-02,-6.021773815155029297e-02,-5.722773075103759766e-02,-5.339992046356201172e-02,-4.521667957305908203e-02,-4.211831092834472656e-02,-4.095208644866943359e-02,-3.898775577545166016e-02,-4.681575298309326172e-02,-4.725367575883865356e-02,-5.260133743286132812e-02,-5.919873714447021484e-02,-6.103432178497314453e-02,-6.828963756561279297e-02,-6.870627403259277344e-02,-7.120871543884277344e-02,-6.827974319458007812e-02,-6.855583190917968750e-02
-2.104166746139526367e-01,-2.125319242477416992e-01,-2.138261795043945312e-01,-2.141743898391723633e-01,-2.151323556900024414e-01,-2.147797346115112305e-01,-2.143783569335937500e-01,-2.139264345169067383e-01,-2.132257223129272461e-01,-2.126997709274291992e-01,-2.121233940124511719e-01,-2.122679948806762695e-01,-2.125076055526733398e-01,-2.117997407913208008e-01,-2.110431194305419922e-01,-2.084821462631225586e-01,-2.049646377563476562e-01,-2.014180421829223633e-01,-1.960984468460083008e-01,-1.863580942153930664e-01,-1.575217247009277344e-01,-7.278168201446533203e-02,-5.164611339569091797e-02,-4.650306701660156250e-02,-4.381620883941650391e-02,-4.615867137908935547e-02,-4.830980300903320312e-02,-4.894769191741943359e-02,-5.852448940277099609e-02,-5.561578273773193359e-02,-5.018125474452972412e-02,-4.753396660089492798e-02,-4.587090015411376953e-02,-4.441630840301513672e-02,-4.132151603698730469e-02,-4.173922538757324219e-02,-4.056227207183837891e-02,-4.226648807525634766e-02,-5.152547359466552734e-02,-5.263483524322509766e-02,-5.434427782893180847e-02,-5.894470214843750000e-02,-6.384551525115966797e-02,-6.017971038818359375e-02,-6.133496761322021484e-02,-6.087601184844970703e-02,-6.483590602874755859e-02
-2.113484144210815430e-01,-2.121511697769165039e-01,-2.138224840164184570e-01,-2.141706943511962891e-01,-2.148238420486450195e-01,-2.138586044311523438e-01,-2.141219377517700195e-01,-2.130125761032104492e-01,-2.132219076156616211e-01,-2.128673791885375977e-01,-2.130206823348999023e-01,-2.122641801834106445e-01,-2.126051187515258789e-01,-2.118699550628662109e-01,-2.119277715682983398e-01,-2.084783315658569336e-01,-2.049608230590820312e-01,-2.005385160446166992e-01,-1.952223777770996094e-01,-1.854873895645141602e-01,-1.575179100036621094e-01,-6.601858139038085938e-02,-4.575693607330322266e-02,-4.144847393035888672e-02,-3.804802894592285156e-02,-3.945159912109375000e-02,-3.996479511260986328e-02,-4.874706268310546875e-02,-4.588150978088378906e-02,-5.131435394287109375e-02,-5.186176300048828125e-02,-4.566788673400878906e-02,-4.075682163238525391e-02,-3.690886497497558594e-02,-3.656065464019775391e-02,-3.698909282684326172e-02,-3.976905345916748047e-02,-4.209434986114501953e-02,-4.949569702148437500e-02,-5.528461933135986328e-02,-5.244433879852294922e-02,-5.529880523681640625e-02,-5.087816715240478516e-02,-5.130577087402343750e-02,-5.688023567199707031e-02,-5.166101455688476562e-02,-5.118036270141601562e-02
-2.117540836334228516e-01,-2.121474742889404297e-01,-2.138187885284423828e-01,-2.141669988632202148e-01,-2.138973474502563477e-01,-2.135733366012573242e-01,-2.134571075439453125e-01,-2.136933803558349609e-01,-2.134165763854980469e-01,-2.145015001296997070e-01,-2.137665748596191406e-01,-2.132858037948608398e-01,-2.142913341522216797e-01,-2.127563953399658203e-01,-2.110804319381713867e-01,-2.084743976593017578e-01,-2.040773630142211914e-01,-2.005347013473510742e-01,-1.916846036911010742e-01,-1.846168041229248047e-01,-1.566562652587890625e-01,-7.277417182922363281e-02,-4.575324058532714844e-02,-3.557372093200683594e-02,-3.546929359436035156e-02,-3.439497947692871094e-02,-3.408277034759521484e-02,-3.959667682647705078e-02,-3.614747524261474609e-02,-4.160165786743164062e-02,-3.602027893066406250e-02,-3.976082801818847656e-02,-3.246200084686279297e-02,-3.370737656950950623e-02,-3.021430969238281250e-02,-3.660833835601806641e-02,-3.857731819152832031e-02,-3.659093379974365234e-02,-3.930222988128662109e-02,-4.385805130004882812e-02,-4.960024356842041016e-02,-4.597592353820800781e-02,-4.568827152252197266e-02,-4.610490798950195312e-02,-4.091119766235351562e-02,-3.971695899963378906e-02,-3.922533988952636719e-02
-2.126840353012084961e-01,-2.130755186080932617e-01,-2.138150930404663086e-01,-2.141631841659545898e-01,-2.138935327529907227e-01,-2.144887447357177734e-01,-2.141144275665283203e-01,-2.139152288436889648e-01,-2.150307893753051758e-01,-2.152255773544311523e-01,-2.155684232711791992e-01,-2.158533334732055664e-01,-2.152789831161499023e-01,-2.136427164077758789e-01,-2.110766172409057617e-01,-2.093536853790283203e-01,-2.040735483169555664e-01,-1.996549367904663086e-01,-1.908102035522460938e-01,-1.837459802627563477e-01,-1.566524505615234375e-01,-7.360827922821044922e-02,-5.163478851318359375e-02,-3.813982009887695312e-02,-3.288483619689941406e-02,-3.193700313568115234e-02,-3.163564205169677734e-02,-3.127849102020263672e-02,-3.350722789764404297e-02,-3.224730491638183594e-02,-2.797996997833251953e-02,-2.478432655334472656e-02,-2.449393272399902344e-02,-2.895867824554443359e-02,-2.792616374790668488e-02,-2.871239185333251953e-02,-3.030240535736083984e-02,-3.224420547485351562e-02,-3.729081153869628906e-02,-3.527212142944335938e-02,-3.665280342102050781e-02,-3.640842437744140625e-02,-4.127633571624755859e-02,-3.609919548034667969e-02,-3.495895862579345703e-02,-3.528547286987304688e-02,-3.085756301879882812e-02
