-2.013986110687255859e-01,-1.916729211807250977e-01,-1.820067167282104492e-01,-1.307677030563354492e-01,-7.276284694671630859e-02,-6.168591976165771484e-02,-5.817556381225585938e-02,-5.393004417419433594e-02,-5.121052265167236328e-02,-5.074322223663330078e-02,-4.140353202819824219e-02,-3.349959850311279297e-02,-2.636516094207763672e-02,-2.025258541107177734e-02,-1.732027530670166016e-02,-1.593387126922607422e-02,-1.640927791595458984e-02,-1.923608779907226562e-02,-2.008366584777832031e-02,-2.126514911651611328e-02,-2.085912227630615234e-02,-2.312123775482177734e-02,-2.297222614288330078e-02,-2.403497695922851562e-02,-2.275848388671875000e-02,-2.324724197387695312e-02,-2.423238754272460938e-02,-2.366590499877929688e-02,-2.248752117156982422e-02,-2.276730537414550781e-02,-2.514684200286865234e-02,-2.372777462005615234e-02,-2.380251884460449219e-02,-2.539360523223876953e-02,-2.391684055328369141e-02,-2.773792482912540436e-02,-2.609205245971679688e-02,-2.677392959594726562e-02,-3.038370609283447266e-02,-2.868962287902832031e-02,-3.221297264099121094e-02,-3.277921676635742188e-02,-3.259611129760742188e-02,-2.927660942077636719e-02,-2.872684039175510406e-02,-2.861379459500312805e-02,-2.824819087982177734e-02
-2.031736373901367188e-01,-1.602374078705907090e-01,-1.767464876174926758e-01,-1.204779148101806641e-01,-7.275915145874023438e-02,-6.593143939971923828e-02,-6.408393383026123047e-02,-6.054294109344482422e-02,-6.026506423950195312e-02,-6.421113014221191406e-02,-6.219232082366943359e-02,-5.117332935333251953e-02,-4.077732563018798828e-02,-2.531254291534423828e-02,-1.652014255523681641e-02,-1.513731479644775391e-02,-1.482319831848144531e-02,-1.528608798980712891e-02,-1.772296428680419922e-02,-1.890981197357177734e-02,-2.085530757904052734e-02,-2.233874797821044922e-02,-2.266454696655273438e-02,-2.248501777648925781e-02,-2.352571487426757812e-02,-2.300989627838134766e-02,-2.213394641876220703e-02,-2.155673503875732422e-02,-2.096295356750488281e-02,-2.124977111816406250e-02,-2.136802673339843750e-02,-2.071130275726318359e-02,-2.160668373107910156e-02,-2.165091037750244141e-02,-2.424553222954273224e-02,-2.390193939208984375e-02,-2.307641506195068359e-02,-2.522134780883789062e-02,-2.586531639099121094e-02,-2.428567409515380859e-02,-2.635681629180908203e-02,-2.676892280578613281e-02,-2.658212184906005859e-02,-2.420246601104736328e-02,-2.591371536254882812e-02,-2.250754833221435547e-02,-2.221977710723876953e-02
-2.005190849304199219e-01,-1.907985210418701172e-01,-1.697648763656616211e-01,-1.033821105957031250e-01,-7.191741466522216797e-02,-6.592762470245361328e-02,-6.584084033966064453e-02,-6.632876396179199219e-02,-7.113432884216308594e-02,-6.849610805511474609e-02,-7.304167747497558594e-02,-7.014191150665283203e-02,-5.129122734069824219e-02,-4.592263698577880859e-02,-2.397263050079345703e-02,-1.861333847045898438e-02,-1.877450942993164062e-02,-1.686072349548339844e-02,-2.007591724395751953e-02,-2.125728130340576172e-02,-2.476131916046142578e-02,-2.355551719665527344e-02,-2.499032020568847656e-02,-2.479994297027587891e-02,-2.737748622894287109e-02,-2.531397342681884766e-02,-2.422440052032470703e-02,-2.307689189910888672e-02,-2.400028705596923828e-02,-2.187192440032958984e-02,-2.060902118682861328e-02,-2.078902721405029297e-02,-2.085316181182861328e-02,-2.089905738830566406e-02,-2.242720127105712891e-02,-2.167093753814697266e-02,-2.407170459628105164e-02,-2.226972579956054688e-02,-2.292096614837646484e-02,-2.208161354064941406e-02,-2.328515052795410156e-02,-2.312529087066650391e-02,-2.057683467864990234e-02,-2.109313011169433594e-02,-1.989972591400146484e-02,-1.820111274719238281e-02,-1.792395114898681641e-02
-2.005151510238647461e-01,-1.899243593215942383e-01,-1.697610616683959961e-01,-8.636915683746337891e-02,-7.107567787170410156e-02,-6.675815582275390625e-02,-6.573784351348876953e-02,-6.728184223175048828e-02,-7.128751277923583984e-02,-7.508015632629394531e-02,-7.899343967437744141e-02,-7.854592800140380859e-02,-7.315599918365478516e-02,-6.099581718444824219e-02,-4.053950309753417969e-02,-2.766227722167968750e-02,-2.496635913848876953e-02,-2.238118648529052734e-02,-2.280783653259277344e-02,-2.714228630065917969e-02,-2.830767631530761719e-02,-2.979302406311035156e-02,-3.478503227233886719e-02,-3.119909763336181641e-02,-3.097975254058837891e-02,-2.992618083953857422e-02,-2.881491184234619141e-02,-2.747368812561035156e-02,-2.688372135162353516e-02,-2.490198612213134766e-02,-2.362477779388427734e-02,-2.446854114532470703e-02,-2.309763431549072266e-02,-2.092492580413818359e-02,-2.093470096588134766e-02,-2.240908145904541016e-02,-2.159488201141357422e-02,-2.226555347442626953e-02,-2.218151092529296875e-02,-2.269113063812255859e-02,-2.255117893218994141e-02,-2.239334583282470703e-02,-1.984846591949462891e-02,-1.964402198791503906e-02,-1.702010631561279297e-02,-1.532864570617675781e-02,-1.505875587463378906e-02
-2.005113363265991211e-01,-1.916612386703491211e-01,-1.697572469711303711e-01,-8.467888832092285156e-02,-7.023406028747558594e-02,-6.675434112548828125e-02,-6.407260894775390625e-02,-6.479144096374511719e-02,-6.782555580139160156e-02,-6.982868909835815430e-02,-9.154570102691650391e-02,-7.959306240081787109e-02,-7.911300659179687500e-02,-7.341992855072021484e-02,-6.041276454925537109e-02,-3.913116455078125000e-02,-3.370320796966552734e-02,-3.653144836425781250e-02,-3.105866909027099609e-02,-3.067779541015625000e-02,-3.577995300292968750e-02,-4.039311408996582031e-02,-3.915119171142578125e-02,-4.129052162170410156e-02,-4.542481899261474609e-02,-3.947842121124267578e-02,-3.684639930725097656e-02,-3.570246696472167969e-02,-3.450107574462890625e-02,-3.172481060028076172e-02,-3.561544418334960938e-02,-2.890503406524658203e-02,-2.979683876037597656e-02,-2.687263488769531250e-02,-2.316296100616455078e-02,-2.537429332733154297e-02,-2.306807041168212891e-02,-2.520883083343505859e-02,-2.585279941558837891e-02,-2.354407310485839844e-02,-2.400636672973632812e-02,-2.311682701110839844e-02,-2.221310138702392578e-02,-1.963984966278076172e-02,-1.629698276519775391e-02,-1.814243197441101074e-02,-1.405537128448486328e-02
-2.005074024200439453e-01,-1.907868385314941406e-01,-1.688901185989379883e-01,-8.383178710937500000e-02,-6.598663330078125000e-02,-6.166708469390869141e-02,-6.064319610595703125e-02,-6.383609771728515625e-02,-6.121957302093505859e-02,-5.808280375373515297e-02,-9.071838855743408203e-02,-8.860766887664794922e-02,-7.502782344818115234e-02,-7.017242908477783203e-02,-6.121408939361572266e-02,-5.336105823516845703e-02,-4.437923431396484375e-02,-4.244005680084228516e-02,-4.762685298919677734e-02,-4.091012477874755859e-02,-5.393743515014648438e-02,-5.463016033172607422e-02,-5.494856834411621094e-02,-5.475080013275146484e-02,-5.371165275573730469e-02,-5.013301111757755696e-02,-5.879843235015869141e-02,-5.761492252349853516e-02,-6.160473823547363281e-02,-5.267572402954101562e-02,-4.309868812561035156e-02,-3.720533847808837891e-02,-3.952276706695556641e-02,-3.583109378814697266e-02,-2.912163734436035156e-02,-2.911174297332763672e-02,-2.903759479522705078e-02,-2.897334098815917969e-02,-3.404736518859863281e-02,-2.793955802917480469e-02,-3.072881698608398438e-02,-2.747988700866699219e-02,-2.129280567169189453e-02,-2.180278301239013672e-02,-1.844930648803710938e-02,-1.604139804840087891e-02,-1.476466655731201172e-02
-2.005034685134887695e-01,-1.907829046249389648e-01,-1.593391895294189453e-01,-8.382809162139892578e-02,-6.514680385589599609e-02,-5.833327770233154297e-02,-5.483734607696533203e-02,-5.461347103118896484e-02,-5.433201789855957031e-02,-5.334961414337158203e-02,-5.317461490631103516e-02,-5.404158903262283598e-02,-6.312727928161621094e-02,-6.206023693084716797e-02,-5.718314647674560547e-02,-5.496084690093994141e-02,-5.189490318298339844e-02,-5.154323577880859375e-02,-5.117678642272949219e-02,-5.555105209350585938e-02,-5.534837022423744202e-02,-6.452405452728271484e-02,-6.091094017028808594e-02,-6.697249412536621094e-02,-6.332874298095703125e-02,-6.457960605621337891e-02,-6.865954399108886719e-02,-6.575095653533935547e-02,-6.607377529144287109e-02,-6.402719020843505859e-02,-5.888152122497558594e-02,-5.219697952270507812e-02,-4.701507091522216797e-02,-4.930925369262695312e-02,-4.632008075714111328e-02,-3.881430625915527344e-02,-4.324531555175781250e-02,-4.377130334135852924e-02,-4.078829288482666016e-02,-4.509627819061279297e-02,-3.600144386291503906e-02,-3.567266464233398438e-02,-3.019142150878906250e-02,-2.490985393524169922e-02,-2.373051643371582031e-02,-1.818835735321044922e-02,-1.719594001770019531e-02
-2.004996538162231445e-01,-1.899088621139526367e-01,-1.498150825500488281e-01,-8.466756343841552734e-02,-6.430697441101074219e-02,-5.326235294342041016e-02,-5.068910121917724609e-02,-4.800748825073242188e-02,-4.678690433502197266e-02,-4.580831527709960938e-02,-4.563498497009277344e-02,-4.524528980255126953e-02,-5.151534080505371094e-02,-5.101013183593750000e-02,-5.125081539154052734e-02,-5.415499210357666016e-02,-5.302643775939941406e-02,-5.552124977111816406e-02,-5.832445621490478516e-02,-6.347513198852539062e-02,-6.261467933654785156e-02,-6.471596658229827881e-02,-6.876289844512939453e-02,-6.904852390289306641e-02,-7.034635543823242188e-02,-7.213103771209716797e-02,-7.078814506530761719e-02,-7.270359992980957031e-02,-7.516920566558837891e-02,-7.376325130462646484e-02,-6.871020793914794922e-02,-6.649863719940185547e-02,-6.129515171051025391e-02,-5.606997013092041016e-02,-5.532896518707275391e-02,-5.456042289733886719e-02,-5.452525615692138672e-02,-4.843501760801183220e-02,-6.705224514007568359e-02,-6.841468811035156250e-02,-6.220591068267822266e-02,-4.846286773681640625e-02,-4.442417621612548828e-02,-3.069972991943359375e-02,-3.118610382080078125e-02,-2.850461006164550781e-02,-2.291357517242431641e-02
-2.004957199096679688e-01,-1.811612844467163086e-01,-1.317030191421508789e-01,-8.466374874114990234e-02,-6.430327892303466797e-02,-5.242812633514404297e-02,-4.387736320495605469e-02,-4.117774963378906250e-02,-4.104423522949218750e-02,-3.991746902465820312e-02,-4.036545753479003906e-02,-4.097068309783935547e-02,-4.641389846801757812e-02,-4.374122619628906250e-02,-4.642522335052490234e-02,-5.014204978942871094e-02,-5.062246322631835938e-02,-5.472087860107421875e-02,-5.966666713356971741e-02,-6.626641750335693359e-02,-7.139909267425537109e-02,-6.971335411071777344e-02,-7.003176212310791016e-02,-7.268655300140380859e-02,-6.962458044290542603e-02,-7.346296310424804688e-02,-7.389020919799804688e-02,-7.501840591430664062e-02,-7.008397579193115234e-02,-7.606697082519531250e-02,-7.397353649139404297e-02,-7.030510902404785156e-02,-6.508362293243408203e-02,-6.059539318084716797e-02,-5.984449386596679688e-02,-5.980300903320312500e-02,-6.199812889099121094e-02,-6.043046340346336365e-02,-7.311725616455078125e-02,-7.225668430328369141e-02,-7.049226760864257812e-02,-6.811106204986572266e-02,-5.558609962463378906e-02,-4.711937904357910156e-02,-3.721356391906738281e-02,-3.813493251800537109e-02,-3.252053260803222656e-02
-2.004917860031127930e-01,-1.802886724472045898e-01,-1.239614486694335938e-01,-8.465993404388427734e-02,-6.429946422576904297e-02,-5.325484275817871094e-02,-4.645240306854248047e-02,-4.117393493652343750e-02,-3.843820095062255859e-02,-3.746497631072998047e-02,-3.629851341247558594e-02,-3.610181808471679688e-02,-3.808677196502685547e-02,-4.025757312774658203e-02,-4.079604148864746094e-02,-4.773283004760742188e-02,-5.188322067260742188e-02,-5.232787132263183594e-02,-6.175306439399719238e-02,-7.500314712524414062e-02,-7.456624507904052734e-02,-7.365548610687255859e-02,-7.317733764648437500e-02,-7.374322414398193359e-02,-7.400226593017578125e-02,-7.290530204772949219e-02,-7.233297824859619141e-02,-7.269537448883056641e-02,-7.516515254974365234e-02,-7.298552989959716797e-02,-7.167220115661621094e-02,-6.801462173461914062e-02,-6.356239318847656250e-02,-5.983638763427734375e-02,-5.815867707133293152e-02,-5.733555555343627930e-02,-6.039726734161376953e-02,-6.341636180877685547e-02,-6.789665669202804565e-02,-7.969331741333007812e-02,-6.683807075023651123e-02,-7.401633262634277344e-02,-6.311976909637451172e-02,-5.138579010963439941e-02,-4.905605316162109375e-02,-4.445183277130126953e-02,-4.461646080017089844e-02
-2.004879713058471680e-01,-1.715667247772216797e-01,-1.222492456436157227e-01,-8.296966552734375000e-02,-6.429576873779296875e-02,-5.831825733184814453e-02,-4.892981052398681641e-02,-4.458510875701904297e-02,-4.431593418121337891e-02,-4.154241085052490234e-02,-3.729331493377685547e-02,-3.750681877136230469e-02,-3.969740867614746094e-02,-4.105913639068603516e-02,-4.320299625396728516e-02,-4.901480674743652344e-02,-5.347573757171630859e-02,-5.232393741607666016e-02,-6.124825775623321533e-02,-7.579374313354492188e-02,-7.297682762145996094e-02,-7.253110408782958984e-02,-7.189309597015380859e-02,-7.060408592224121094e-02,-6.955397129058837891e-02,-6.766963005065917969e-02,-7.019698619842529297e-02,-6.650769710540771484e-02,-6.528806686401367188e-02,-6.401073932647705078e-02,-6.335043907165527344e-02,-6.191349029541015625e-02,-5.900728702545166016e-02,-5.756747722625732422e-02,-5.757462978363037109e-02,-5.904924869537353516e-02,-5.904506146907806396e-02,-6.490397453308105469e-02,-6.788764894008636475e-02,-6.907482445240020752e-02,-7.879829406738281250e-02,-7.475066184997558594e-02,-7.161128520965576172e-02,-5.536079406738281250e-02,-5.221009254455566406e-02,-4.879307746887207031e-02,-4.601614549756050110e-02
-2.004840373992919922e-01,-1.715629100799560547e-01,-1.059807538986206055e-01,-7.366049289703369141e-02,-6.345582008361816406e-02,-5.831456184387207031e-02,-5.647623538970947266e-02,-5.388855934143066406e-02,-5.116903781890869141e-02,-5.070137977600097656e-02,-4.380500316619873047e-02,-4.582417011260986328e-02,-4.154813289642333984e-02,-4.534423351287841797e-02,-4.641354084014892578e-02,-4.612135887145996094e-02,-4.868268966674804688e-02,-5.539420992136001587e-02,-6.904435157775878906e-02,-6.663048267364501953e-02,-6.699013710021972656e-02,-7.049071788787841797e-02,-6.639003753662109375e-02,-6.589746475219726562e-02,-6.252837181091308594e-02,-5.834686756134033203e-02,-5.645537376403808594e-02,-5.605196952819824219e-02,-6.004941463470458984e-02,-5.481779575347900391e-02,-5.428814888000488281e-02,-5.369329452514648438e-02,-5.677902698516845703e-02,-5.303382873535156250e-02,-5.456542968750000000e-02,-5.604708194732666016e-02,-5.791654437780380249e-02,-6.423282623291015625e-02,-7.086694240570068359e-02,-7.298815250396728516e-02,-7.122004032135009766e-02,-7.031428813934326172e-02,-6.237792968750000000e-02,-5.681586265563964844e-02,-5.195593833923339844e-02,-5.168569087982177734e-02,-4.995691776275634766e-02
-2.004801034927368164e-01,-1.637294292449951172e-01,-9.745204448699951172e-02,-6.773746013641357422e-02,-6.094384193420410156e-02,-5.747830867767333984e-02,-5.813026428222656250e-02,-5.802011489868164062e-02,-5.775296688079833984e-02,-6.170403957366943359e-02,-6.051421165466308594e-02,-5.276012420654296875e-02,-4.882562160491943359e-02,-5.099081993103027344e-02,-5.042779445648193359e-02,-5.012655258178710938e-02,-5.220711231231689453e-02,-5.629801750183105469e-02,-5.989396572113037109e-02,-5.790579319000244141e-02,-6.259477138519287109e-02,-5.853021144866943359e-02,-5.727195739746093750e-02,-5.394268035888671875e-02,-4.980063438415527344e-02,-4.717576503753662109e-02,-4.527699947357177734e-02,-5.006730556488037109e-02,-4.485917091369628906e-02,-4.513847827911376953e-02,-4.905474185943603516e-02,-4.534566402435302734e-02,-4.699039459228515625e-02,-5.004179477691650391e-02,-5.005335807800292969e-02,-5.004703998565673828e-02,-5.450856685638427734e-02,-6.340372562408447266e-02,-6.331074237823486328e-02,-6.233000755310058594e-02,-6.218469142913818359e-02,-6.497097015380859375e-02,-5.797398090362548828e-02,-5.535221099853515625e-02,-5.195164680480957031e-02,-5.095720291137695312e-02,-5.211997032165527344e-02
-2.013518810272216797e-01,-1.637256145477294922e-01,-7.961428165435791016e-02,-5.846977233886718750e-02,-5.670917034149169922e-02,-5.580973625183105469e-02,-5.656266212463378906e-02,-6.049752235412597656e-02,-6.366479396820068359e-02,-6.433689594268798828e-02,-6.808030605316162109e-02,-6.171524524688720703e-02,-6.310021877288818359e-02,-5.610299110412597656e-02,-5.473983287811279297e-02,-5.252814292907714844e-02,-5.300307273864746094e-02,-5.390489101409912109e-02,-5.155956745147705078e-02,-5.116260051727294922e-02,-5.505156517028808594e-02,-4.786276817321777344e-02,-4.457676410675048828e-02,-4.047811031341552734e-02,-3.789663314819335938e-02,-4.121828079223632812e-02,-3.604102134704589844e-02,-3.566634654998779297e-02,-3.660058975219726562e-02,-4.011928662657737732e-02,-3.851485252380371094e-02,-4.239320755004882812e-02,-4.019224643707275391e-02,-4.401278495788574219e-02,-4.629528522491455078e-02,-5.001819133758544922e-02,-5.221128463745117188e-02,-5.288934707641601562e-02,-5.269956588745117188e-02,-5.257773399353027344e-02,-5.686104297637939453e-02,-5.063724517822265625e-02,-5.264317989349365234e-02,-5.001378059387207031e-02,-4.976928234100341797e-02,-4.660749435424804688e-02,-5.139327049255371094e-02
-2.013479471206665039e-01,-1.619917154312133789e-01,-6.270992755889892578e-02,-5.511450767517089844e-02,-5.253386497497558594e-02,-4.997861385345458984e-02,-5.583147332072257996e-02,-6.143808364868164062e-02,-6.861269474029541016e-02,-6.845033168792724609e-02,-6.991291046142578125e-02,-7.009565830230712891e-02,-6.634688377380371094e-02,-6.014418601989746094e-02,-5.715203285217285156e-02,-5.412781238555908203e-02,-5.186367034912109375e-02,-5.035090446472167969e-02,-4.641258716583251953e-02,-4.759240150451660156e-02,-4.123973846435546875e-02,-4.002106189727783203e-02,-3.677117824554443359e-02,-3.348517417907714844e-02,-3.093600273132324219e-02,-2.911293506622314453e-02,-2.877092361450195312e-02,-2.972114086151123047e-02,-2.988791465759277344e-02,-3.168427944183349609e-02,-3.633546829223632812e-02,-3.414893150329589844e-02,-3.798401355743408203e-02,-3.952682018280029297e-02,-4.104471206665039062e-02,-4.176473617553710938e-02,-4.321205615997314453e-02,-4.834771156311035156e-02,-4.370951652526855469e-02,-4.727745056152343750e-02,-4.713225364685058594e-02,-4.256713390350341797e-02,-4.512858390808105469e-02,-4.491448402404785156e-02,-4.468262195587158203e-02,-4.520843923091888428e-02,-4.777669906616210938e-02
-2.004684209823608398e-01,-1.179815530776977539e-01,-6.102323532104492188e-02,-5.089974403381347656e-02,-4.747748374938964844e-02,-4.741775989532470703e-02,-4.817247390747070312e-02,-5.800879001617431641e-02,-6.448245048522949219e-02,-6.662249565124511719e-02,-6.725275516510009766e-02,-6.682682037353515625e-02,-6.471788883209228516e-02,-6.094932556152343750e-02,-5.634284019470214844e-02,-5.412387847900390625e-02,-5.106163024902343750e-02,-4.796326160430908203e-02,-4.324483871459960938e-02,-4.087090492248535156e-02,-3.531455993652343750e-02,-3.208613395690917969e-02,-2.959847450256347656e-02,-2.988982200622558594e-02,-2.706730365753173828e-02,-2.526223659515380859e-02,-2.417242527008056641e-02,-2.436959743499755859e-02,-2.775371074676513672e-02,-2.637064456939697266e-02,-2.810549736022949219e-02,-3.120183944702148438e-02,-3.276109695434570312e-02,-3.429508209228515625e-02,-3.280997276306152344e-02,-3.677041083574295044e-02,-3.869390487670898438e-02,-3.893926739692687988e-02,-3.964787349104881287e-02,-3.904211521148681641e-02,-3.998119756579399109e-02,-3.946852684020996094e-02,-3.928709030151367188e-02,-3.981530666351318359e-02,-4.298198223114013672e-02,-4.271543025970458984e-02,-4.387414455413818359e-02
-1.934384107589721680e-01,-9.065258502960205078e-02,-6.017804145812988281e-02,-4.922378063201904297e-02,-4.580891132354736328e-02,-4.575264453887939453e-02,-4.733991622924804688e-02,-5.375039577484130859e-02,-5.938470363616943359e-02,-5.758047103881835938e-02,-5.886280536651611328e-02,-5.947673320770263672e-02,-5.634582042694091797e-02,-5.501163005828857422e-02,-5.282318592071533203e-02,-5.411994457244873047e-02,-5.105769634246826172e-02,-4.795944690704345703e-02,-4.403185844421386719e-02,-3.850471973419189453e-02,-3.452682495117187500e-02,-3.130221366882324219e-02,-2.881801128387451172e-02,-2.629053592681884766e-02,-2.578353881835937500e-02,-2.395498752593994141e-02,-2.263700962066650391e-02,-2.225875854492187500e-02,-2.318775653839111328e-02,-2.181553840637207031e-02,-2.206230163574218750e-02,-2.517294883728027344e-02,-2.599537372589111328e-02,-2.757525444030761719e-02,-2.943744882941246033e-02,-3.353488445281982422e-02,-2.978241443634033203e-02,-3.491985797882080078e-02,-3.105819225311279297e-02,-3.168749809265136719e-02,-3.288114070892333984e-02,-3.344559669494628906e-02,-3.398847579956054688e-02,-3.450965881347656250e-02,-3.548681735992431641e-02,-3.594303131103515625e-02,-3.637754917144775391e-02
-1.916866302490234375e-01,-8.215641975402832031e-02,-5.933272838592529297e-02,-4.838395118713378906e-02,-4.497253894805908203e-02,-4.408764839172363281e-02,-4.807651042938232422e-02,-4.796981811523437500e-02,-5.018198490142822266e-02,-5.084836483001708984e-02,-5.131065845489501953e-02,-5.008280277252197266e-02,-4.985535144805908203e-02,-4.935717582702636719e-02,-4.989182949066162109e-02,-5.171072483062744141e-02,-5.105388164520263672e-02,-4.875004291534423828e-02,-4.916548728942871094e-02,-4.086303710937500000e-02,-3.844177722930908203e-02,-3.408992290496826172e-02,-3.162026405334472656e-02,-2.910709381103515625e-02,-2.655076980590820312e-02,-2.471864223480224609e-02,-2.416443824768066406e-02,-2.149271965026855469e-02,-1.877737045288085938e-02,-1.967573165893554688e-02,-1.914417743682861328e-02,-1.922976970672607422e-02,-2.004659175872802734e-02,-2.084183692932128906e-02,-2.534711360931396484e-02,-2.309787273406982422e-02,-2.751100063323974609e-02,-2.515900135040283203e-02,-2.580285072326660156e-02,-2.936005592346191406e-02,-2.775692939758300781e-02,-2.816140651702880859e-02,-2.869701385498046875e-02,-3.210985660552978516e-02,-2.970314025878906250e-02,-3.017365932464599609e-02,-3.062260150909423828e-02
-1.291462182998657227e-01,-7.198250293731689453e-02,-5.932903289794921875e-02,-4.921638965606689453e-02,-4.663372039794921875e-02,-4.484581947326660156e-02,-4.476451873779296875e-02,-4.549026489257812500e-02,-4.592549800872802734e-02,-4.576659202575683594e-02,-4.559326171875000000e-02,-4.498660564422607422e-02,-4.637551307678222656e-02,-4.531729221343994141e-02,-4.799377918243408203e-02,-5.010318756103515625e-02,-5.184805393218994141e-02,-5.229258537292480469e-02,-5.192446708679199219e-02,-4.757666587829589844e-02,-4.558336734771728516e-02,-3.955972194671630859e-02,-3.706479072570800781e-02,-3.452634811401367188e-02,-3.633069992065429688e-02,-3.194475173950195312e-02,-2.855217456817626953e-02,-2.796693146228790283e-02,-2.013850212097167969e-02,-1.664483547210693359e-02,-1.537477970123291016e-02,-1.546919345855712891e-02,-1.629519462585449219e-02,-1.937592029571533203e-02,-2.013337612152099609e-02,-1.938235759735107422e-02,-2.158319950103759766e-02,-2.220749855041503906e-02,-2.359342575073242188e-02,-2.495634555816650391e-02,-2.555835247039794922e-02,-2.670156955718994141e-02,-2.724075317382812500e-02,-2.776026725769042969e-02,-2.800750732421875000e-02,-2.774310111999511719e-02,-2.889668941497802734e-02
-1.008479595184326172e-01,-7.028496265411376953e-02,-5.932533740997314453e-02,-5.509591102600097656e-02,-5.001235008239746094e-02,-4.989480972290039062e-02,-4.641485214233398438e-02,-4.619812965393066406e-02,-4.770946502685546875e-02,-4.658079147338867188e-02,-4.458916187286376953e-02,-4.336118698120117188e-02,-4.394459724426269531e-02,-4.369902610778808594e-02,-4.397189617156982422e-02,-4.769408702850341797e-02,-5.937969684600830078e-02,-5.663335323333740234e-02,-5.748260021209716797e-02,-5.904853343963623047e-02,-5.187821388244628906e-02,-4.985515400767326355e-02,-4.815733432769775391e-02,-4.640090465545654297e-02,-4.459404945373535156e-02,-3.371298313140869141e-02,-3.028607368469238281e-02,-2.377498149871826172e-02,-1.953196525573730469e-02,-1.601493358612060547e-02,-1.537072658538818359e-02,-1.471388339996337891e-02,-1.559996604919433594e-02,-1.638829708099365234e-02,-1.715290546417236328e-02,-1.863610744476318359e-02,-2.079415321350097656e-02,-2.294027805328369141e-02,-2.432429790496826172e-02,-2.495217323303222656e-02,-2.701711654663085938e-02,-2.759575843811035156e-02,-2.941453456878662109e-02,-2.848029136657714844e-02,-2.952527999877929688e-02,-2.958742529153823853e-02,-2.602434158325195312e-02
-8.381032943725585938e-02,-6.943428516387939453e-02,-6.184601783752441406e-02,-5.928146839141845703e-02,-5.584859848022460938e-02,-5.911314487457275391e-02,-5.892884731292724609e-02,-5.302762985229492188e-02,-5.195856094360351562e-02,-5.230319499969482422e-02,-4.621410369873046875e-02,-4.578971862792968750e-02,-4.394078254699707031e-02,-4.450237751007080078e-02,-4.368126392364501953e-02,-5.240631103515625000e-02,-5.520155280828475952e-02,-6.141853332519531250e-02,-6.184136867523193359e-02,-6.113453209400177002e-02,-6.177377700805664062e-02,-5.536019802093505859e-02,-5.410897731781005859e-02,-5.469477176666259766e-02,-5.365538597106933594e-02,-5.084052556133889650e-02,-5.333125591278076172e-02,-3.947079181671142578e-02,-3.139209747314453125e-02,-2.332043647766113281e-02,-1.903057098388671875e-02,-1.921761035919189453e-02,-1.928484439849853516e-02,-1.787602901458740234e-02,-1.863694190979003906e-02,-2.160096168518066406e-02,-2.083432674407958984e-02,-2.440989017486572266e-02,-2.817916311323642731e-02,-2.861428260803222656e-02,-3.079792670905590057e-02,-3.196041658520698547e-02,-3.211240097880363464e-02,-3.137302398681640625e-02,-2.897202968597412109e-02,-2.773880958557128906e-02,-2.673709392547607422e-02
-8.210206031799316406e-02,-6.858372688293457031e-02,-6.268393993377685547e-02,-6.182217597961425781e-02,-6.174623966217041016e-02,-6.335330009460449219e-02,-6.826651096343994141e-02,-7.135784626007080078e-02,-6.708359718322753906e-02,-6.430637836456298828e-02,-5.782520771026611328e-02,-5.191123485565185547e-02,-4.717302322387695312e-02,-4.853451251983642578e-02,-4.907095432281494141e-02,-4.768633842468261719e-02,-5.899041146039962769e-02,-6.540560722351074219e-02,-6.661570072174072266e-02,-6.659483909606933594e-02,-6.695437431335449219e-02,-6.966149806976318359e-02,-6.351006031036376953e-02,-6.769812107086181641e-02,-6.405258178710937500e-02,-5.745146713860622978e-02,-6.840574741363525391e-02,-7.342350482940673828e-02,-5.324959754943847656e-02,-3.165996074676513672e-02,-2.431082725524902344e-02,-2.665877342224121094e-02,-2.452719211578369141e-02,-2.531170845031738281e-02,-2.234709262847900391e-02,-2.456593513488769531e-02,-2.527308464050292969e-02,-2.595651149749755859e-02,-3.342995792627334595e-02,-3.507422283291816711e-02,-3.213310241699218750e-02,-3.342878818511962891e-02,-3.397154808044433594e-02,-3.449261188507080078e-02,-3.402495384216308594e-02,-3.304338455200195312e-02,-3.060972690582275391e-02
-7.532131671905517578e-02,-6.352007389068603516e-02,-6.183862686157226562e-02,-6.013906002044677734e-02,-6.346344947814941406e-02,-6.646745651960372925e-02,-7.336068153381347656e-02,-7.895648479461669922e-02,-7.700431346893310547e-02,-7.418382167816162109e-02,-7.296466827392578125e-02,-5.923736095428466797e-02,-5.632269382476806641e-02,-5.202317237854003906e-02,-5.470490455627441406e-02,-5.570042133331298828e-02,-5.856812000274658203e-02,-7.217180728912353516e-02,-7.817256450653076172e-02,-7.377922534942626953e-02,-7.293295860290527344e-02,-7.327818870544433594e-02,-7.548713684082031250e-02,-7.263433933258056641e-02,-7.394981384277343750e-02,-7.419049739837646484e-02,-6.045688708361826591e-02,-8.315575122833251953e-02,-8.269441127777099609e-02,-6.396567821502685547e-02,-4.075777530670166016e-02,-3.261053562164306641e-02,-3.870427608489990234e-02,-3.393178060650825500e-02,-3.054761886596679688e-02,-3.900032320731803420e-02,-3.937034327772599707e-02,-5.062365531921386719e-02,-3.103733062744140625e-02,-3.681206703186035156e-02,-4.180431365966796875e-02,-3.944325447082519531e-02,-4.072093963623046875e-02,-4.051768779754638672e-02,-4.153504967689514160e-02,-4.124486446380615234e-02,-3.851258754730224609e-02
-7.361650466918945312e-02,-6.267130374908447266e-02,-5.931043624877929688e-02,-5.845606327056884766e-02,-6.257116794586181641e-02,-6.842720508575439453e-02,-8.169937133789062500e-02,-8.241069316864013672e-02,-8.792710304260253906e-02,-8.527100086212158203e-02,-8.302462100982666016e-02,-7.169342041015625000e-02,-6.468701362609863281e-02,-5.687332153320312500e-02,-5.711710453033447266e-02,-6.484985351562500000e-02,-6.211078166961669922e-02,-6.893288344144821167e-02,-7.657229900360107422e-02,-7.934987545013427734e-02,-7.847845554351806641e-02,-7.881081104278564453e-02,-7.941997051239013672e-02,-7.734382152557373047e-02,-7.682585716247558594e-02,-8.042752742767333984e-02,-8.040180802345275879e-02,-6.165248394012452088e-02,-9.402322769165039062e-02,-8.810091018676757812e-02,-6.110191345214843750e-02,-5.137288570404052734e-02,-4.543948173522949219e-02,-4.453135654330253601e-02,-4.474314674735069275e-02,-5.750024318695068359e-02,-5.596220493316650391e-02,-4.757201671600341797e-02,-4.969990253448486328e-02,-4.503321647644042969e-02,-4.489326477050781250e-02,-4.913246631622314453e-02,-4.602205753326416016e-02,-4.851096868515014648e-02,-5.006865784525871277e-02,-6.817114353179931641e-02,-6.352519989013671875e-02
-7.276237010955810547e-02,-6.097733974456787109e-02,-5.930674076080322266e-02,-5.761277675628662109e-02,-5.922305583953857422e-02,-6.774312257766723633e-02,-8.419835567474365234e-02,-8.240687847137451172e-02,-8.792328834533691406e-02,-8.857536315917968750e-02,-8.735108375549316406e-02,-7.764661312103271484e-02,-6.712079048156738281e-02,-6.091451644897460938e-02,-6.224536895751953125e-02,-6.275117397308349609e-02,-6.611585617065429688e-02,-6.416392326354980469e-02,-7.816469669342041016e-02,-7.934582233428955078e-02,-7.971096038818359375e-02,-8.117973804473876953e-02,-7.862854003906250000e-02,-7.891094684600830078e-02,-7.785141468048095703e-02,-8.276391029357910156e-02,-8.302430063486099243e-02,-9.775531291961669922e-02,-9.261131286621093750e-02,-8.898794651031494141e-02,-7.697451114654541016e-02,-5.889356136322021484e-02,-5.143260955810546875e-02,-4.698395729064941406e-02,-5.365471914410591125e-02,-5.749607086181640625e-02,-5.745339393615722656e-02,-5.805575847625732422e-02,-5.499053001403808594e-02,-5.710029602050781250e-02,-5.239748954772949219e-02,-5.297458171844482422e-02,-5.406343936920166016e-02,-5.457556247711181641e-02,-5.724358558654785156e-02,-5.727222934365272522e-02,-7.180607318878173828e-02
-6.599771976470947266e-02,-5.928361415863037109e-02,-5.425035953521728516e-02,-5.339789390563964844e-02,-6.089138984680175781e-02,-6.667149066925048828e-02,-7.324612140655517578e-02,-8.060634136199951172e-02,-8.128881454467773438e-02,-8.342480659484863281e-02,-8.055198192596435547e-02,-7.168567180633544922e-02,-6.630432605743408203e-02,-6.333768367767333984e-02,-6.224143505096435547e-02,-6.274735927581787109e-02,-6.851708889007568359e-02,-7.375979423522949219e-02,-7.337152957916259766e-02,-7.456362247467041016e-02,-7.847046852111816406e-02,-7.516956329345703125e-02,-7.390034198760986328e-02,-7.603406906127929688e-02,-7.315564155578613281e-02,-7.651877403259277344e-02,-8.099529892206192017e-02,-9.385943412780761719e-02,-9.493148326873779297e-02,-9.052598476409912109e-02,-7.620477676391601562e-02,-6.269109249114990234e-02,-5.672538280487060547e-02,-5.375766754150390625e-02,-5.702365562319755554e-02,-6.352674961090087891e-02,-6.198859214782714844e-02,-6.335330009460449219e-02,-6.018197536468505859e-02,-5.660137534141540527e-02,-5.828821659088134766e-02,-5.811548233032226562e-02,-5.646061897277832031e-02,-6.137359142303466797e-02,-6.113779544830322266e-02,-6.306767463684082031e-02,-6.342095881700515747e-02
-6.429672241210937500e-02,-5.592465400695800781e-02,-5.340683460235595703e-02,-5.255627632141113281e-02,-5.503523349761962891e-02,-6.325292587280273438e-02,-6.482017040252685547e-02,-6.636583805084228516e-02,-6.939208507537841797e-02,-6.754454225301742554e-02,-7.048976421356201172e-02,-6.596815586090087891e-02,-5.955052375793457031e-02,-6.090676784515380859e-02,-5.820167064666748047e-02,-6.082022190093994141e-02,-6.530606746673583984e-02,-6.895601749420166016e-02,-6.857860088348388672e-02,-6.937360763549804688e-02,-7.291710376739501953e-02,-6.602287292480468750e-02,-6.947624683380126953e-02,-6.376838684082031250e-02,-7.027363777160644531e-02,-7.011828571557998657e-02,-6.395557798541985639e-02,-8.546912670135498047e-02,-8.731555938720703125e-02,-8.061301708221435547e-02,-6.787216663360595703e-02,-6.268692016601562500e-02,-5.899131298065185547e-02,-5.750536918640136719e-02,-5.676579475402832031e-02,-6.502509117126464844e-02,-6.423294544219970703e-02,-6.417405605316162109e-02,-6.251609325408935547e-02,-6.079840660095214844e-02,-6.065642833709716797e-02,-6.049454212188720703e-02,-6.085586547851562500e-02,-6.210076808929443359e-02,-6.624102592468261719e-02,-6.306338310241699219e-02,-6.883264333009719849e-02
-6.429302692413330078e-02,-5.423438549041748047e-02,-5.172383785247802734e-02,-5.168735980987548828e-02,-5.248165130615234375e-02,-5.575716495513916016e-02,-5.734062194824218750e-02,-5.547845363616943359e-02,-6.113600730895996094e-02,-6.064820289611816406e-02,-5.698609352111816406e-02,-5.329501628875732422e-02,-5.143857002258300781e-02,-5.012583732604980469e-02,-5.146396160125732422e-02,-5.358397960662841797e-02,-5.888795852661132812e-02,-6.139099597930908203e-02,-6.142401695251464844e-02,-6.498539447784423828e-02,-5.780017375946044922e-02,-5.657064914703369141e-02,-4.577970504760742188e-02,-5.708452686667442322e-02,-5.570888519287109375e-02,-5.942352445652852172e-02,-7.459354400634765625e-02,-6.721556186676025391e-02,-6.368422508239746094e-02,-6.164801120758056641e-02,-5.727517604827880859e-02,-5.439031124114990234e-02,-5.596041679382324219e-02,-5.297195911407470703e-02,-6.203305721282958984e-02,-6.126451492309570312e-02,-6.192684173583984375e-02,-6.260335445404052734e-02,-6.017363071441650391e-02,-6.079411506652832031e-02,-6.065225601196289062e-02,-5.975317955017089844e-02,-6.085157394409179688e-02,-6.136500835418701172e-02,-6.185901165008544922e-02,-6.655824184417724609e-02,-6.949572265148162842e-02
-6.428933143615722656e-02,-5.507397651672363281e-02,-5.255985260009765625e-02,-5.168366432189941406e-02,-5.080950260162353516e-02,-5.152237415313720703e-02,-5.051255226135253906e-02,-4.945421218872070312e-02,-5.178356170654296875e-02,-4.981875419616699219e-02,-4.800391197204589844e-02,-4.332685470581054688e-02,-4.205000400543212891e-02,-4.340624809265136719e-02,-4.474079608917236328e-02,-4.814493656158447266e-02,-5.260729789733886719e-02,-5.304992198944091797e-02,-5.267977714538574219e-02,-4.990470409393310547e-02,-4.869318008422851562e-02,-5.015838146209716797e-02,-4.577577114105224609e-02,-4.714334011077880859e-02,-5.129384994506835938e-02,-4.765689373016357422e-02,-5.561780929565429688e-02,-5.367910861968994141e-02,-5.245542526245117188e-02,-5.105817317962646484e-02,-5.041205883026123047e-02,-4.907679557800292969e-02,-4.994833469390869141e-02,-5.449831485748291016e-02,-5.525004863739013672e-02,-5.598032474517822266e-02,-5.668902397155761719e-02,-5.804324150085449219e-02,-5.497372150421142578e-02,-5.782818794250488281e-02,-5.532813072204589844e-02,-5.589759349822998047e-02,-5.864751338958740234e-02,-5.841661244630813599e-02,-6.142026558518409729e-02,-6.233119964599609375e-02,-6.686658412218093872e-02
-6.428563594818115234e-02,-6.011378765106201172e-02,-5.423927307128906250e-02,-5.338299274444580078e-02,-5.330848693847656250e-02,-5.068802833557128906e-02,-4.977762699127197266e-02,-4.780364036560058594e-02,-4.506409168243408203e-02,-4.065406322479248047e-02,-3.703534603118896484e-02,-3.521502017974853516e-02,-3.478157520294189453e-02,-3.534853458404541016e-02,-4.204285144805908203e-02,-3.934133052825927734e-02,-4.462170600891113281e-02,-4.552483558654785156e-02,-4.832959175109863281e-02,-4.160320758819580078e-02,-4.354131221771240234e-02,-3.873443603515625000e-02,-3.857767581939697266e-02,-4.274797439575195312e-02,-3.835618495941162109e-02,-4.324710369110107422e-02,-4.367399215698242188e-02,-4.769992828369140625e-02,-4.265129566192626953e-02,-4.202508926391601562e-02,-4.224634170532226562e-02,-4.687190055847167969e-02,-4.390525817871093750e-02,-4.846954345703125000e-02,-4.848456382751464844e-02,-4.995584487915039062e-02,-5.289864540100097656e-02,-4.977369308471679688e-02,-5.264067649841308594e-02,-5.325722694396972656e-02,-5.163955688476562500e-02,-5.221831798553466797e-02,-5.424380302429199219e-02,-5.747687816619873047e-02,-5.794117972254753113e-02,-6.002220511436462402e-02,-7.294189929962158203e-02
-6.682789325714111328e-02,-6.264531612396240234e-02,-5.844295024871826172e-02,-5.756855010986328125e-02,-6.170868873596191406e-02,-5.483734607696533203e-02,-5.474698543548583984e-02,-5.204701423645019531e-02,-4.424035549163818359e-02,-3.558504581451416016e-02,-3.034639358520507812e-02,-2.912735939025878906e-02,-2.970707416534423828e-02,-3.107225894927978516e-02,-3.373777866363525391e-02,-3.743433952331542969e-02,-3.791105747222900391e-02,-3.836977481842041016e-02,-3.648138046264648438e-02,-3.530049324035644531e-02,-3.682696819305419922e-02,-3.325688838958740234e-02,-3.234720230102539062e-02,-3.215444087982177734e-02,-3.551387786865234375e-02,-3.266799449920654297e-02,-3.520739078521728516e-02,-3.483617305755615234e-02,-3.500831127166748047e-02,-3.834128379821777344e-02,-3.617417812347412109e-02,-3.786206245422363281e-02,-4.244077205657958984e-02,-4.247021675109863281e-02,-4.323124885559082031e-02,-4.322278499603271484e-02,-4.687416553497314453e-02,-4.383146762847900391e-02,-4.745340347290039062e-02,-4.574072360992431641e-02,-4.986896365880966187e-02,-5.057358741760253906e-02,-5.331075191497802734e-02,-5.528378486633300781e-02,-5.502058938145637512e-02,-6.232261657714843750e-02,-5.813050270080566406e-02
-7.103538513183593750e-02,-6.685268878936767578e-02,-6.349551677703857422e-02,-6.348788738250732422e-02,-6.510543823242187500e-02,-6.922948360443115234e-02,-6.563198566436767578e-02,-6.386029720306396484e-02,-5.259382724761962891e-02,-3.983032703399658203e-02,-3.115344047546386719e-02,-2.912366390228271484e-02,-2.889788150787353516e-02,-2.946126461029052734e-02,-3.053390979766845703e-02,-3.233265876770019531e-02,-3.280401229858398438e-02,-3.166997432708740234e-02,-3.174257278442382812e-02,-3.057253360748291016e-02,-2.934324741363525391e-02,-3.046691417694091797e-02,-2.922999858856201172e-02,-2.905166149139404297e-02,-2.803730964660644531e-02,-2.904915809631347656e-02,-2.947247028350830078e-02,-2.965688705444335938e-02,-2.982342243194580078e-02,-3.086090087890625000e-02,-3.475689888000488281e-02,-3.257381916046142578e-02,-3.641223907470703125e-02,-3.720736503601074219e-02,-3.723728656768798828e-02,-4.095661640167236328e-02,-4.091739654541015625e-02,-3.937375545501708984e-02,-4.226613044738769531e-02,-4.452843964099884033e-02,-4.633390903472900391e-02,-4.741392284631729126e-02,-5.184364318847656250e-02,-5.236101150512695312e-02,-5.358457565307617188e-02,-5.016005039215087891e-02,-5.276918411254882812e-02
-7.273268699645996094e-02,-6.854283809661865234e-02,-6.686472892761230469e-02,-6.853306293487548828e-02,-6.933808326721191406e-02,-6.942380219697952271e-02,-7.738173007965087891e-02,-7.808768749237060547e-02,-6.097066402435302734e-02,-4.980349540710449219e-02,-3.702390193939208984e-02,-3.095090389251708984e-02,-3.211557865142822266e-02,-3.080642223358154297e-02,-3.293001651763916016e-02,-3.153252601623535156e-02,-3.041660785675048828e-02,-3.052699565887451172e-02,-2.899396419525146484e-02,-2.860414981842041016e-02,-2.819800376892089844e-02,-2.890276908874511719e-02,-2.953517436981201172e-02,-2.904760837554931641e-02,-2.854967117309570312e-02,-2.673721313476562500e-02,-2.563989162445068359e-02,-2.583348751068115234e-02,-2.600896358489990234e-02,-2.706444263458251953e-02,-2.945601940155029297e-02,-2.955031394958496094e-02,-3.194439411163330078e-02,-3.273057937622070312e-02,-3.349483013153076172e-02,-3.573155403137207031e-02,-3.565847873687744141e-02,-3.855979442596435547e-02,-3.921043872833251953e-02,-4.278898239135742188e-02,-4.338943958282470703e-02,-4.249966144561767578e-02,-4.525661468505859375e-02,-4.630208015441894531e-02,-4.291367530822753906e-02,-4.554057121276855469e-02,-4.453039169311523438e-02
-7.357943058013916016e-02,-6.853914260864257812e-02,-6.770431995391845703e-02,-6.768786907196044922e-02,-7.263863086700439453e-02,-8.093023300170898438e-02,-8.166134357452392578e-02,-8.653473854064941406e-02,-7.861638069152832031e-02,-6.737530231475830078e-02,-4.372131824493408203e-02,-3.580105304718017578e-02,-3.880214691162109375e-02,-3.855466842651367188e-02,-3.561317920684814453e-02,-3.502821922302246094e-02,-3.359091281890869141e-02,-3.052318096160888672e-02,-3.173470497131347656e-02,-2.938580513000488281e-02,-2.976155281066894531e-02,-3.045904636383056641e-02,-3.311359882354736328e-02,-3.108429908752441406e-02,-2.803325653076171875e-02,-2.827191352844238281e-02,-2.696132659912109375e-02,-2.659320831298828125e-02,-2.600491046905517578e-02,-2.706050872802734375e-02,-2.718210220336914062e-02,-2.962636947631835938e-02,-3.043770790100097656e-02,-3.122746944427490234e-02,-3.199553489685058594e-02,-3.348982334136962891e-02,-3.416979312896728516e-02,-3.559362888336181641e-02,-3.625178337097167969e-02,-3.836405277252197266e-02,-3.809595108032226562e-02,-4.086375236511230469e-02,-4.067862033843994141e-02,-4.097998142242431641e-02,-4.140823334455490112e-02,-3.975725173950195312e-02,-3.846967220306396484e-02
-7.357561588287353516e-02,-6.853532791137695312e-02,-6.770086288452148438e-02,-6.936693191528320312e-02,-6.933057308197021484e-02,-7.423436641693115234e-02,-8.928692340850830078e-02,-8.916580677032470703e-02,-8.871376514434814453e-02,-7.496118545532226562e-02,-4.860401153564453125e-02,-4.573619365692138672e-02,-4.226911067962646484e-02,-4.499387741088867188e-02,-4.202353954315185547e-02,-4.137669876217842102e-02,-4.028475284576416016e-02,-3.483319282531738281e-02,-3.447401523590087891e-02,-3.330957889556884766e-02,-3.446006774902343750e-02,-3.715074062347412109e-02,-3.591597080230712891e-02,-3.291726112365722656e-02,-3.549802303314208984e-02,-3.188490867614746094e-02,-2.925968170166015625e-02,-2.888095378875732422e-02,-2.692067623138427734e-02,-2.857327461242675781e-02,-2.869141101837158203e-02,-2.954626083374023438e-02,-3.188145160675048828e-02,-3.422105312347412109e-02,-3.498196601867675781e-02,-3.348565101623535156e-02,-3.753064572811126709e-02,-3.484916687011718750e-02,-3.550899028778076172e-02,-3.676593303680419922e-02,-3.735852241516113281e-02,-3.793382644653320312e-02,-3.828775882720947266e-02,-3.807163238525390625e-02,-3.928828239440917969e-02,-3.659510612487792969e-02,-3.559017181396484375e-02
-7.271778583526611328e-02,-6.516194343566894531e-02,-6.601047515869140625e-02,-6.596815586090087891e-02,-6.592833995819091797e-02,-7.339453697204589844e-02,-7.581043243408203125e-02,-8.652710914611816406e-02,-8.456587791442871094e-02,-7.660424709320068359e-02,-5.613911151885986328e-02,-5.001401901245117188e-02,-4.792821407318115234e-02,-4.767358303070068359e-02,-4.708846658468246460e-02,-4.652154445648193359e-02,-5.018556118011474609e-02,-4.196417331695556641e-02,-4.079771041870117188e-02,-4.514241218566894531e-02,-3.959000110626220703e-02,-4.150962829589843750e-02,-3.700137138366699219e-02,-4.128219559788703918e-02,-4.453396797180175781e-02,-4.036307334899902344e-02,-3.616309165954589844e-02,-3.864467144012451172e-02,-3.651583194732666016e-02,-3.147840499877929688e-02,-3.095734119415283203e-02,-3.331649303436279297e-02,-3.714883327484130859e-02,-4.019582271575927734e-02,-4.096210002899169922e-02,-3.795671463012695312e-02,-3.565013408660888672e-02,-3.780674934387207031e-02,-3.614509105682373047e-02,-3.676164150238037109e-02,-3.662109375000000000e-02,-3.719830513000488281e-02,-3.682780265808105469e-02,-3.661537170410156250e-02,-3.541421890258789062e-02,-3.514969348907470703e-02,-3.414821624755859375e-02
-7.101309299468994141e-02,-6.262302398681640625e-02,-5.841696262359619141e-02,-6.176626682281494141e-02,-6.335818767547607422e-02,-6.496155261993408203e-02,-7.153952121734619141e-02,-7.308864593505859375e-02,-7.100439071655273438e-02,-6.061387062072753906e-02,-5.450296401977539062e-02,-5.082273483276367188e-02,-4.954230785369873047e-02,-5.089831352233886719e-02,-5.545997619628906250e-02,-5.516016483306884766e-02,-5.451738834381103516e-02,-5.620396137237548828e-02,-5.068027973175048828e-02,-4.949402809143066406e-02,-4.880023375153541565e-02,-4.822671413421630859e-02,-4.418420791625976562e-02,-5.196666277267716211e-02,-5.187283857882796917e-02,-6.890821456909179688e-02,-6.467247009277343750e-02,-4.920649528503417969e-02,-3.514194488525390625e-02,-3.755664825439453125e-02,-3.312003612518310547e-02,-3.901452571153640747e-02,-4.840958118438720703e-02,-4.213634878396987915e-02,-4.504820331931114197e-02,-4.170680046081542969e-02,-4.461693763732910156e-02,-4.009938240051269531e-02,-4.067111015319824219e-02,-3.749251365661621094e-02,-3.974394127726554871e-02,-3.719401359558105469e-02,-3.755128383636474609e-02,-3.733730316162109375e-02,-3.638291358947753906e-02,-3.658652305603027344e-02,-3.558158874511718750e-02
-6.595325469970703125e-02,-6.008422374725341797e-02,-5.420589447021484375e-02,-5.334949493408203125e-02,-5.583024024963378906e-02,-6.154668331146240234e-02,-6.228661537170410156e-02,-5.709481239318847656e-02,-5.436050891876220703e-02,-5.223846435546875000e-02,-5.123436450958251953e-02,-5.000627040863037109e-02,-5.058944225311279297e-02,-5.250883102416992188e-02,-6.109356880187988281e-02,-6.078124046325683594e-02,-6.091308593750000000e-02,-6.294810771942138672e-02,-6.257081031799316406e-02,-5.819046497344970703e-02,-5.259835720062255859e-02,-5.419363081455230713e-02,-6.550443172454833984e-02,-6.501352787017822266e-02,-5.730933642112895354e-02,-7.569420337677001953e-02,-7.611000537872314453e-02,-5.826222896575927734e-02,-4.936027526855468750e-02,-4.352068901062011719e-02,-4.070067405700683594e-02,-4.456913471221923828e-02,-4.699805006384849548e-02,-4.693448543548583984e-02,-5.070936679840087891e-02,-4.917919635772705078e-02,-5.361104011535644531e-02,-4.677534103393554688e-02,-4.630883783102035522e-02,-4.203116893768310547e-02,-3.881657123565673828e-02,-4.011547565460205078e-02,-4.066169261932373047e-02,-4.118621349334716797e-02,-3.855133056640625000e-02,-4.046249389648437500e-02,-3.965697437524795532e-02
-6.510102748870849609e-02,-5.587649345397949219e-02,-5.252277851104736328e-02,-5.081033706665039062e-02,-5.077219009399414062e-02,-5.397677421569824219e-02,-4.964792728424072266e-02,-4.776966571807861328e-02,-5.010247230529785156e-02,-4.732680320739746094e-02,-4.714953899383544922e-02,-4.675221443176269531e-02,-4.815328121185302734e-02,-5.277061462402343750e-02,-5.689506977796554565e-02,-6.350576877593994141e-02,-6.525909900665283203e-02,-6.490898132324218750e-02,-6.217908859252929688e-02,-6.256353855133056641e-02,-6.091713905334472656e-02,-6.046760082244873047e-02,-6.035384163260459900e-02,-6.949928402900695801e-02,-7.400821894407272339e-02,-6.198028827968397186e-02,-8.895206451416015625e-02,-8.464753627777099609e-02,-6.748974323272705078e-02,-5.484092235565185547e-02,-5.266165733337402344e-02,-4.979836940765380859e-02,-5.432797595858573914e-02,-5.821466445922851562e-02,-6.123852729797363281e-02,-5.969023704528808594e-02,-5.889439582824707031e-02,-5.434659495949745178e-02,-4.816460609436035156e-02,-4.583716392517089844e-02,-4.630434513092041016e-02,-4.247844219207763672e-02,-4.596269130706787109e-02,-4.514303058385848999e-02,-4.434061050415039062e-02,-4.503951966762542725e-02,-3.988981246948242188e-02
-6.424868106842041016e-02,-5.923175811767578125e-02,-5.335867404937744141e-02,-4.997062683105468750e-02,-4.905271530151367188e-02,-4.898917675018310547e-02,-4.716312885284423828e-02,-4.529571533203125000e-02,-4.502630233764648438e-02,-4.486894607543945312e-02,-4.469716548919677734e-02,-4.593575000762939453e-02,-4.733860492706298828e-02,-5.276679992675781250e-02,-5.756341665983200073e-02,-6.511270999908447266e-02,-6.605708599090576172e-02,-6.570506095886230469e-02,-6.495594978332519531e-02,-6.455874443054199219e-02,-6.328058242797851562e-02,-6.203842163085937500e-02,-6.622047722339630127e-02,-7.598161697387695312e-02,-7.988630980253219604e-02,-8.404874801635742188e-02,-9.518873691558837891e-02,-9.069287776947021484e-02,-7.659232616424560547e-02,-6.685066223144531250e-02,-5.951631069183349609e-02,-5.503487586975097656e-02,-5.364501476287841797e-02,-6.058890745043754578e-02,-6.500422954559326172e-02,-6.797993183135986328e-02,-6.718051433563232422e-02,-6.181108951568603516e-02,-5.948936939239501953e-02,-5.248069763183593750e-02,-5.381202697753906250e-02,-4.833996295928955078e-02,-5.006249248981475830e-02,-4.700422286987304688e-02,-4.749274253845214844e-02,-5.230259895324707031e-02,-4.666626453399658203e-02
-6.509351730346679688e-02,-6.091809272766113281e-02,-6.092643737792968750e-02,-5.755317211151123047e-02,-5.493581295013427734e-02,-4.981625080108642578e-02,-4.890775680541992188e-02,-4.705810546875000000e-02,-4.420256614685058594e-02,-4.404711723327636719e-02,-4.450929164886474609e-02,-4.674446582794189453e-02,-4.976713657379150391e-02,-5.276286602020263672e-02,-5.763524770736694336e-02,-6.510877609252929688e-02,-6.525123119354248047e-02,-6.533479690551757812e-02,-6.574833393096923828e-02,-6.572675704956054688e-02,-6.608796119689941406e-02,-6.518375873565673828e-02,-6.669292598962783813e-02,-8.199250698089599609e-02,-7.911241054534912109e-02,-8.394868671894073486e-02,-9.674501419067382812e-02,-9.535861015319824219e-02,-8.571612834930419922e-02,-7.221889495849609375e-02,-6.705462932586669922e-02,-6.111276149749755859e-02,-6.268405914306640625e-02,-6.120753288269042969e-02,-6.575211882591247559e-02,-7.553827762603759766e-02,-7.398581504821777344e-02,-7.159590721130371094e-02,-6.618154048919677734e-02,-6.148374080657958984e-02,-5.912423133850097656e-02,-5.615291371941566467e-02,-5.107820034027099609e-02,-5.670452117919921875e-02,-5.718910694122314453e-02,-5.692636966705322266e-02,-5.634653568267822266e-02
-6.678712368011474609e-02,-6.513965129852294922e-02,-6.767082214355468750e-02,-6.004106998443603516e-02,-6.417560577392578125e-02,-5.736947059631347656e-02,-5.470550060272216797e-02,-5.200552940368652344e-02,-4.844796657562255859e-02,-4.731535911560058594e-02,-4.531979560852050781e-02,-4.836583137512207031e-02,-4.976332187652587891e-02,-5.194997787475585938e-02,-5.648011714220046997e-02,-6.397998332977294922e-02,-6.364393234252929688e-02,-6.489717960357666016e-02,-6.574440002441406250e-02,-6.255173683166503906e-02,-6.133830547332763672e-02,-6.485092639923095703e-02,-6.332281231880187988e-02,-7.413327693939208984e-02,-6.407769740774081624e-02,-7.822941988706588745e-02,-9.674084186553955078e-02,-8.851790428161621094e-02,-8.262050151824951172e-02,-7.298231124877929688e-02,-6.705057621002197266e-02,-6.484246253967285156e-02,-6.343829631805419922e-02,-6.122589111328125000e-02,-6.737890094518661499e-02,-7.704007625579833984e-02,-7.623529434204101562e-02,-6.888015568256378174e-02,-7.149863243103027344e-02,-6.606078147888183594e-02,-6.355142593383789062e-02,-5.952608585357666016e-02,-6.061436608433723450e-02,-6.519532203674316406e-02,-7.155323028564453125e-02,-6.810200214385986328e-02,-6.243693828582763672e-02
-6.843960285186767578e-02,-6.848073005676269531e-02,-6.936132907867431641e-02,-6.765425205230712891e-02,-6.841552257537841797e-02,-7.244694232940673828e-02,-6.642091274261474609e-02,-6.464743614196777344e-02,-6.025373935699462891e-02,-5.403244495391845703e-02,-4.857349395751953125e-02,-4.998719692230224609e-02,-5.138099193572998047e-02,-5.275523662567138672e-02,-5.428138747811317444e-02,-6.156527996063232422e-02,-5.802774429321289062e-02,-5.618035793304443359e-02,-6.057417392730712891e-02,-5.579793453216552734e-02,-5.774474143981933594e-02,-5.213069915771484375e-02,-5.770587176084518433e-02,-7.962787151336669922e-02,-7.309103012084960938e-02,-7.801425457000732422e-02,-7.764256000518798828e-02,-7.488751411437988281e-02,-7.055056095123291016e-02,-7.067584991455078125e-02,-6.399095058441162109e-02,-6.331419944763183594e-02,-6.164271011948585510e-02,-7.103586196899414062e-02,-7.178974151611328125e-02,-7.101154327392578125e-02,-7.097244262695312500e-02,-7.383465766906738281e-02,-6.914913654327392578e-02,-6.828331947326660156e-02,-6.428611278533935547e-02,-6.338214874267578125e-02,-6.246185302734375000e-02,-6.508184224367141724e-02,-7.374322414398193359e-02,-7.274711132049560547e-02,-7.537555694580078125e-02
-6.928634643554687500e-02,-6.932568550109863281e-02,-7.611775398254394531e-02,-7.356977462768554688e-02,-7.937228679656982422e-02,-7.595217227935791016e-02,-7.650756835937500000e-02,-7.293176651000976562e-02,-6.257557868957519531e-02,-6.058716773986816406e-02,-5.529236793518066406e-02,-5.242097377777099609e-02,-5.218803882598876953e-02,-5.194222927093505859e-02,-5.543279647827148438e-02,-5.321335792541503906e-02,-5.095243453979492188e-02,-4.705917835235595703e-02,-4.906737804412841797e-02,-4.788470268249511719e-02,-4.584264755249023438e-02,-4.539668560028076172e-02,-4.962968826293945312e-02,-4.758191108703613281e-02,-5.253565311431884766e-02,-7.355368137359619141e-02,-5.999588966369628906e-02,-6.638169288635253906e-02,-6.362295150756835938e-02,-5.928957462310791016e-02,-5.721366405487060547e-02,-6.034016609191894531e-02,-6.343424320220947266e-02,-6.119513511657714844e-02,-6.498301029205322266e-02,-6.570935249328613281e-02,-7.091498374938964844e-02,-7.083988189697265625e-02,-6.616890430450439453e-02,-6.679463386535644531e-02,-6.354296207427978516e-02,-6.264114379882812500e-02,-6.172263622283935547e-02,-6.673353165388107300e-02,-7.618916034698486328e-02,-7.739603519439697266e-02,-7.147805392742156982e-02
-6.843221187591552734e-02,-7.017052173614501953e-02,-7.442390918731689453e-02,-7.440924644470214844e-02,-8.110964298248291016e-02,-8.265101909637451172e-02,-8.078539371490478516e-02,-8.053386211395263672e-02,-7.361233234405517578e-02,-6.733322143554687500e-02,-6.120967864990234375e-02,-5.404233932495117188e-02,-5.299472808837890625e-02,-5.086743831634521484e-02,-5.191493034362792969e-02,-4.839897155761718750e-02,-4.263496398925781250e-02,-4.069912433624267578e-02,-3.642666339874267578e-02,-3.524577617645263672e-02,-3.798353672027587891e-02,-4.258859157562255859e-02,-4.133713245391845703e-02,-4.552686214447021484e-02,-4.890418052673339844e-02,-4.837131500244140625e-02,-4.880881309509277344e-02,-5.361831188201904297e-02,-5.086302757263183594e-02,-4.882681369781494141e-02,-5.273354053497314453e-02,-4.825675487518310547e-02,-5.286777019500732422e-02,-5.482938885688781738e-02,-6.046056747436523438e-02,-5.891561508178710938e-02,-6.566488742828369141e-02,-6.253612041473388672e-02,-6.170046329498291016e-02,-6.146681308746337891e-02,-6.132304668426513672e-02,-6.116318702697753906e-02,-6.465840339660644531e-02,-6.574164330959320068e-02,-7.227182388305664062e-02,-7.639086246490478516e-02,-7.755458354949951172e-02
-6.672751903533935547e-02,-6.846964359283447266e-02,-7.780039310455322266e-02,-7.609200477600097656e-02,-8.188366889953613281e-02,-8.432292938232421875e-02,-8.338904380798339844e-02,-8.136057853698730469e-02,-7.691633701324462891e-02,-6.897246837615966797e-02,-6.365978717803955078e-02,-5.670583248138427734e-02,-5.461263656616210938e-02,-5.193459987640380859e-02,-4.789328575134277344e-02,-4.408299922943115234e-02,-3.751707077026367188e-02,-3.637588024139404297e-02,-3.326630592346191406e-02,-3.287982940673828125e-02,-3.363311290740966797e-02,-3.711128234863281250e-02,-3.977298736572265625e-02,-4.007482528686523438e-02,-4.216992855072021484e-02,-4.550576210021972656e-02,-4.340720176696777344e-02,-4.226291179656982422e-02,-4.259049892425537109e-02,-4.196417331695556641e-02,-4.142665863037109375e-02,-4.378390312194824219e-02,-4.082417488098144531e-02,-5.066680908203125000e-02,-5.067622661590576172e-02,-5.141699314117431641e-02,-5.886924266815185547e-02,-5.574417114257812500e-02,-5.862164497375488281e-02,-5.627965927124023438e-02,-5.614840984344482422e-02,-5.968523025512695312e-02,-5.951541662216186523e-02,-6.349074840545654297e-02,-6.535413116216659546e-02,-7.273840904235839844e-02,-7.288110256195068359e-02
-6.337034702301025391e-02,-6.764400005340576172e-02,-6.933856010437011719e-02,-7.100117206573486328e-02,-7.600259780883789062e-02,-7.669711112976074219e-02,-7.660293579101562500e-02,-7.540678977966308594e-02,-7.096624374389648438e-02,-6.650388240814208984e-02,-6.201994419097900391e-02,-5.833065509796142578e-02,-5.704104900360107422e-02,-5.167090892791748047e-02,-4.788947105407714844e-02,-4.327917098999023438e-02,-4.103446006774902344e-02,-3.557932376861572266e-02,-3.442728519439697266e-02,-3.404808044433593750e-02,-3.362917900085449219e-02,-3.241598606109619141e-02,-4.463050514459609985e-02,-4.007077217102050781e-02,-4.139125347137451172e-02,-4.163718223571777344e-02,-4.130172729492187500e-02,-4.013562202453613281e-02,-3.876709938049316406e-02,-3.814971446990966797e-02,-3.687179088592529297e-02,-3.780066967010498047e-02,-4.087316989898681641e-02,-4.165720939636230469e-02,-4.466807842254638672e-02,-4.540348052978515625e-02,-4.910266399383544922e-02,-4.978764057159423828e-02,-5.109262466430664062e-02,-5.171263217926025391e-02,-5.452346801757812500e-02,-5.509471893310546875e-02,-5.544102191925048828e-02,-5.594921112060546875e-02,-6.397914886474609375e-02,-6.590127944946289062e-02,-6.169104576110839844e-02
