-2.597606182098388672e-02,-2.515697479248046875e-02,-2.424800395965576172e-02,-2.437639236450195312e-02,-2.537024021148681641e-02,-2.820181846618652344e-02,-3.007125854492187500e-02,-3.272497653961181641e-02,-3.252840042114257812e-02,-3.121268749237060547e-02,-2.513432502746582031e-02,-2.292633056640625000e-02,-2.069032192230224609e-02,-2.027428150177001953e-02,-2.189564704895019531e-02,-2.416574954986572266e-02,-2.728557586669921875e-02,-2.942144870758056641e-02,-3.114295005798339844e-02,-3.041398525238037109e-02,-3.054022789001464844e-02,-2.792894840240478516e-02,-2.484655380249023438e-02,-2.216041088104248047e-02,-2.120983600616455078e-02,-2.071940898895263672e-02,-2.058315277099609375e-02,-2.214205265045166016e-02,-2.246177196502685547e-02,-2.305793762207031250e-02,-2.211773395538330078e-02,-2.171730995178222656e-02,-2.041029930114746094e-02,-1.906013488769531250e-02,-1.836872100830078125e-02,-1.864838600158691406e-02,-1.802599430084228516e-02,-1.819300651550292969e-02,-1.825404167175292969e-02,-1.752030849456787109e-02,-1.668882369995117188e-02,-1.415622234344482422e-02,-4.960894584655761719e-03,1.327812671661376953e-02,3.303992748260498047e-02,7.448315620422363281e-02,1.002571582794189453e-01
-2.695143222808837891e-02,-2.515554428100585938e-02,-2.430021762847900391e-02,-2.437496185302734375e-02,-2.633118629455566406e-02,-2.822899818420410156e-02,-3.006970882415771484e-02,-3.280448913574218750e-02,-3.347313404083251953e-02,-3.121125698089599609e-02,-2.809989452362060547e-02,-2.385663986206054688e-02,-2.161693572998046875e-02,-2.141261100769042969e-02,-2.281689643859863281e-02,-2.600085735321044922e-02,-2.911508083343505859e-02,-3.124368190765380859e-02,-3.204786777496337891e-02,-3.168737888336181641e-02,-3.053712844848632812e-02,-2.882158756256103516e-02,-2.484500408172607422e-02,-2.215874195098876953e-02,-2.120816707611083984e-02,-2.071785926818847656e-02,-2.145767211914062500e-02,-2.301442623138427734e-02,-2.420461177825927734e-02,-2.392494678497314453e-02,-2.297937870025634766e-02,-2.235376834869384766e-02,-2.040863037109375000e-02,-1.905858516693115234e-02,-1.766502857208251953e-02,-1.779973506927490234e-02,-1.802432537078857422e-02,-1.895582675933837891e-02,-1.909029483795166016e-02,-1.833355426788330078e-02,-1.668715476989746094e-02,-1.415455341339111328e-02,-4.959225654602050781e-03,7.506608963012695312e-03,3.304159641265869141e-02,7.369196414947509766e-02,9.947490692138671875e-02
-2.783715724945068359e-02,-2.612721920013427734e-02,-2.618801593780517578e-02,-2.533948421478271484e-02,-2.632963657379150391e-02,-2.918636798858642578e-02,-3.102350234985351562e-02,-3.272044658660888672e-02,-3.347170352935791016e-02,-3.215050697326660156e-02,-2.997124195098876953e-02,-2.571856975555419922e-02,-2.347171306610107422e-02,-2.304494380950927734e-02,-2.373814582824707031e-02,-2.783763408660888672e-02,-3.094303607940673828e-02,-3.246867656707763672e-02,-3.295278549194335938e-02,-3.221523761749267578e-02,-3.053557872772216797e-02,-2.882003784179687500e-02,-2.484345436096191406e-02,-2.215719223022460938e-02,-2.120661735534667969e-02,-2.071630954742431641e-02,-2.180552482604980469e-02,-2.388679981231689453e-02,-2.507531642913818359e-02,-2.566063404083251953e-02,-2.470409870147705078e-02,-2.257359027862548828e-02,-2.126300334930419922e-02,-1.990926265716552734e-02,-1.851212978363037109e-02,-1.864504814147949219e-02,-1.886606216430664062e-02,-1.895427703857421875e-02,-1.908874511718750000e-02,-1.833188533782958984e-02,-1.668548583984375000e-02,-1.415288448333740234e-02,-9.119629859924316406e-03,6.693840026855468750e-03,3.223776817321777344e-02,6.564998626708984375e-02,9.869277477264404297e-02
-2.783429622650146484e-02,-2.702772617340087891e-02,-2.715671062469482422e-02,-2.724277973175048828e-02,-2.824866771697998047e-02,-3.014373779296875000e-02,-3.191816806793212891e-02,-3.280150890350341797e-02,-3.347027301788330078e-02,-3.322732448577880859e-02,-3.184413909912109375e-02,-2.869689464569091797e-02,-2.532649040222167969e-02,-2.511501312255859375e-02,-2.650475502014160156e-02,-2.967441082000732422e-02,-3.185713291168212891e-02,-3.246724605560302734e-02,-3.295123577117919922e-02,-3.221356868743896484e-02,-3.053402900695800781e-02,-2.881848812103271484e-02,-2.484190464019775391e-02,-2.215564250946044922e-02,-2.120506763458251953e-02,-2.159595489501953125e-02,-2.320969104766845703e-02,-2.355551719665527344e-02,-2.594590187072753906e-02,-2.652764320373535156e-02,-2.556574344635009766e-02,-2.429115772247314453e-02,-2.211737632751464844e-02,-2.075994014739990234e-02,-1.935923099517822266e-02,-1.864349842071533203e-02,-1.886451244354248047e-02,-1.895260810852050781e-02,-1.908707618713378906e-02,-1.751530170440673828e-02,-1.668381690979003906e-02,-1.415121555328369141e-02,-9.939670562744140625e-03,9.096860885620117188e-04,1.832437515258789062e-02,4.299151897430419922e-02,9.308266639709472656e-02
-2.694571018218994141e-02,-2.702629566192626953e-02,-2.715528011322021484e-02,-2.724134922027587891e-02,-2.921140193939208984e-02,-3.014218807220458984e-02,-3.197419643402099609e-02,-3.279864788055419922e-02,-3.346717357635498047e-02,-3.416848182678222656e-02,-3.293979167938232422e-02,-3.056252002716064453e-02,-2.810943126678466797e-02,-2.789247035980224609e-02,-2.927148342132568359e-02,-3.085947036743164062e-02,-3.306567668914794922e-02,-3.429317474365234375e-02,-3.330206871032714844e-02,-3.221213817596435547e-02,-3.053247928619384766e-02,-2.881693840026855469e-02,-2.484035491943359375e-02,-2.304077148437500000e-02,-2.256858348846435547e-02,-2.247560024261474609e-02,-2.496349811553955078e-02,-2.442967891693115234e-02,-2.681648731231689453e-02,-2.739453315734863281e-02,-2.642714977264404297e-02,-2.493298053741455078e-02,-2.297174930572509766e-02,-2.229678630828857422e-02,-2.020633220672607422e-02,-2.033579349517822266e-02,-1.970624923706054688e-02,-1.902616024017333984e-02,-1.908540725708007812e-02,-1.751363277435302734e-02,-1.668214797973632812e-02,-1.332414150238037109e-02,-9.938001632690429688e-03,9.114742279052734375e-04,1.670777797698974609e-02,2.832579612731933594e-02,9.308421611785888672e-02
-2.674996852874755859e-02,-2.702486515045166016e-02,-2.715384960174560547e-02,-2.820634841918945312e-02,-2.920997142791748047e-02,-3.106391429901123047e-02,-3.191530704498291016e-02,-3.279709815979003906e-02,-3.346574306488037109e-02,-3.429400920867919922e-02,-3.575372695922851562e-02,-3.447890281677246094e-02,-3.296303749084472656e-02,-3.344738483428955078e-02,-3.388202190399169922e-02,-3.362071514129638672e-02,-3.489875793457031250e-02,-3.520524501800537109e-02,-3.420889377593994141e-02,-3.311336040496826172e-02,-3.053092956542968750e-02,-2.881538867950439453e-02,-2.617156505584716797e-02,-2.392590045928955078e-02,-2.433669567108154297e-02,-2.423655986785888672e-02,-2.460682392120361328e-02,-2.617990970611572266e-02,-2.768719196319580078e-02,-2.826166152954101562e-02,-2.728879451751708984e-02,-2.579283714294433594e-02,-2.468204498291015625e-02,-2.331387996673583984e-02,-2.190220355987548828e-02,-2.118098735809326172e-02,-2.054798603057861328e-02,-1.986420154571533203e-02,-1.992154121398925781e-02,-1.832699775695800781e-02,-1.585149765014648438e-02,-1.332247257232666016e-02,-9.114623069763183594e-03,5.884289741516113281e-03,1.670944690704345703e-02,2.752375602722167969e-02,9.308588504791259766e-02
-2.401101589202880859e-02,-2.409708499908447266e-02,-2.520799636840820312e-02,-2.626931667327880859e-02,-2.920842170715332031e-02,-3.106248378753662109e-02,-3.197133541107177734e-02,-3.279566764831542969e-02,-3.357005119323730469e-02,-3.523695468902587891e-02,-3.684687614440917969e-02,-3.652536869049072266e-02,-3.482139110565185547e-02,-3.622484207153320312e-02,-3.664863109588623047e-02,-3.610360622406005859e-02,-3.643000125885009766e-02,-3.611743450164794922e-02,-3.602230548858642578e-02,-3.311169147491455078e-02,-3.052937984466552734e-02,-2.881371974945068359e-02,-2.706205844879150391e-02,-2.661788463592529297e-02,-2.610492706298828125e-02,-2.649855613708496094e-02,-2.724194526672363281e-02,-2.880406379699707031e-02,-2.855777740478515625e-02,-2.912867069244384766e-02,-2.877700328826904297e-02,-2.665257453918457031e-02,-2.620625495910644531e-02,-2.485597133636474609e-02,-2.416467666625976562e-02,-2.202641963958740234e-02,-2.223300933837890625e-02,-2.154219150543212891e-02,-2.079987525939941406e-02,-1.915967464447021484e-02,-1.667881011962890625e-02,-1.249539852142333984e-02,-4.130959510803222656e-03,9.144067764282226562e-03,1.913845539093017578e-02,3.486990928649902344e-02,9.308755397796630859e-02
-2.303278446197509766e-02,-2.312052249908447266e-02,-2.423512935638427734e-02,-2.529990673065185547e-02,-2.824282646179199219e-02,-3.010261058807373047e-02,-3.095757961273193359e-02,-3.184258937835693359e-02,-3.356707096099853516e-02,-3.523552417755126953e-02,-3.684532642364501953e-02,-3.821718692779541016e-02,-3.802478313446044922e-02,-3.760957717895507812e-02,-3.849256038665771484e-02,-3.794038295745849609e-02,-3.764760494232177734e-02,-3.761625289916992188e-02,-3.692913055419921875e-02,-3.311026096343994141e-02,-3.142702579498291016e-02,-2.970778942108154297e-02,-2.884459495544433594e-02,-2.839672565460205078e-02,-2.787303924560546875e-02,-2.738010883331298828e-02,-2.846920490264892578e-02,-2.912306785583496094e-02,-2.942836284637451172e-02,-2.999556064605712891e-02,-2.964019775390625000e-02,-2.837216854095458984e-02,-2.706241607666015625e-02,-2.570855617523193359e-02,-2.501535415649414062e-02,-2.444517612457275391e-02,-2.382481098175048828e-02,-2.321994304656982422e-02,-2.247059345245361328e-02,-1.917374134063720703e-02,-1.667714118957519531e-02,-1.166844367980957031e-02,3.300905227661132812e-03,1.654064655303955078e-02,3.305327892303466797e-02,5.998337268829345703e-02,9.308922290802001953e-02
-2.303135395050048828e-02,-2.311909198760986328e-02,-2.326226234436035156e-02,-2.529847621917724609e-02,-2.727460861206054688e-02,-2.914416790008544922e-02,-3.000271320343017578e-02,-3.176045417785644531e-02,-3.261768817901611328e-02,-3.523397445678710938e-02,-3.684389591217041016e-02,-3.839528560638427734e-02,-3.875255584716796875e-02,-3.923952579498291016e-02,-3.900086879730224609e-02,-3.885793685913085938e-02,-3.856337070465087891e-02,-3.852665424346923828e-02,-3.783571720123291016e-02,-3.529381752014160156e-02,-3.142559528350830078e-02,-2.970623970031738281e-02,-2.884304523468017578e-02,-2.882397174835205078e-02,-2.835273742675781250e-02,-2.826154232025146484e-02,-2.934515476226806641e-02,-3.055250644683837891e-02,-3.117120265960693359e-02,-3.058791160583496094e-02,-2.963864803314208984e-02,-2.837061882019042969e-02,-2.791845798492431641e-02,-2.656114101409912109e-02,-2.586615085601806641e-02,-2.614128589630126953e-02,-2.551352977752685547e-02,-2.567672729492187500e-02,-2.494442462921142578e-02,-2.332627773284912109e-02,-1.667547225952148438e-02,-7.509112358093261719e-03,5.756735801696777344e-03,2.391910552978515625e-02,4.038763046264648438e-02,7.370340824127197266e-02,9.230518341064453125e-02
-2.302992343902587891e-02,-2.311766147613525391e-02,-2.326083183288574219e-02,-2.532660961151123047e-02,-2.727317810058593750e-02,-2.818572521209716797e-02,-2.910149097442626953e-02,-3.088796138763427734e-02,-3.261613845825195312e-02,-3.523254394531250000e-02,-3.684234619140625000e-02,-3.839373588562011719e-02,-3.895533084869384766e-02,-3.923797607421875000e-02,-3.874981403350830078e-02,-4.005944728851318359e-02,-4.069304466247558594e-02,-3.943705558776855469e-02,-3.783428668975830078e-02,-3.529226779937744141e-02,-3.142392635345458984e-02,-3.060042858123779297e-02,-2.973353862762451172e-02,-2.971112728118896484e-02,-2.923786640167236328e-02,-2.914297580718994141e-02,-3.022110462188720703e-02,-3.055095672607421875e-02,-3.116953372955322266e-02,-3.058636188507080078e-02,-2.963697910308837891e-02,-2.923035621643066406e-02,-2.857935428619384766e-02,-2.741360664367675781e-02,-2.756917476654052734e-02,-2.698826789855957031e-02,-2.720201015472412109e-02,-2.735817432403564453e-02,-2.661848068237304688e-02,-2.415895462036132812e-02,-1.833164691925048828e-02,-7.507443428039550781e-03,1.234805583953857422e-02,3.289794921875000000e-02,5.660247802734375000e-02,8.251881599426269531e-02,9.152114391326904297e-02
-2.390849590301513672e-02,-2.409136295318603516e-02,-2.423083782196044922e-02,-2.529418468475341797e-02,-2.631521224975585938e-02,-2.818429470062255859e-02,-2.814328670501708984e-02,-2.993357181549072266e-02,-3.166675567626953125e-02,-3.334081172943115234e-02,-3.495776653289794922e-02,-3.745508193969726562e-02,-3.781783580780029297e-02,-3.760349750518798828e-02,-3.874838352203369141e-02,-4.005801677703857422e-02,-4.069149494171142578e-02,-4.034578800201416016e-02,-3.874099254608154297e-02,-3.800308704376220703e-02,-3.452038764953613281e-02,-3.281009197235107422e-02,-3.151440620422363281e-02,-3.017246723175048828e-02,-2.963626384735107422e-02,-2.913975715637207031e-02,-3.021955490112304688e-02,-3.054940700531005859e-02,-3.116798400878906250e-02,-3.085947036743164062e-02,-3.050041198730468750e-02,-2.987039089202880859e-02,-2.877318859100341797e-02,-2.809786796569824219e-02,-2.841997146606445312e-02,-2.868413925170898438e-02,-2.879393100738525391e-02,-2.897167205810546875e-02,-2.661681175231933594e-02,-2.499163150787353516e-02,-1.832997798919677734e-02,-1.248872280120849609e-02,1.316595077514648438e-02,4.594576358795166016e-02,7.273173332214355469e-02,8.489358425140380859e-02,8.983373641967773438e-02
-2.477908134460449219e-02,-2.506494522094726562e-02,-2.520084381103515625e-02,-2.626061439514160156e-02,-2.727031707763671875e-02,-2.818286418914794922e-02,-2.814185619354248047e-02,-2.993202209472656250e-02,-3.071725368499755859e-02,-3.239488601684570312e-02,-3.401553630828857422e-02,-3.428316116333007812e-02,-3.501951694488525391e-02,-3.644907474517822266e-02,-3.782069683074951172e-02,-3.913557529449462891e-02,-4.039192199707031250e-02,-4.125607013702392578e-02,-3.964769840240478516e-02,-3.928267955780029297e-02,-3.632092475891113281e-02,-3.550100326538085938e-02,-3.240489959716796875e-02,-3.059625625610351562e-02,-2.963471412658691406e-02,-2.913820743560791016e-02,-2.933883666992187500e-02,-3.054773807525634766e-02,-3.116476535797119141e-02,-3.145372867584228516e-02,-3.049874305725097656e-02,-3.008842468261718750e-02,-2.962934970855712891e-02,-2.895224094390869141e-02,-2.927064895629882812e-02,-2.953135967254638672e-02,-2.963924407958984375e-02,-2.897000312805175781e-02,-2.661514282226562500e-02,-2.498996257781982422e-02,-2.166068553924560547e-02,-1.248705387115478516e-02,1.235127449035644531e-02,4.023849964141845703e-02,7.837927341461181641e-02,8.726835250854492188e-02,9.152448177337646484e-02
-2.477765083312988281e-02,-2.603709697723388672e-02,-2.616941928863525391e-02,-2.722704410552978516e-02,-2.822792530059814453e-02,-2.817988395690917969e-02,-2.904188632965087891e-02,-2.993059158325195312e-02,-3.061532974243164062e-02,-3.144907951354980469e-02,-3.292489051818847656e-02,-3.428173065185546875e-02,-3.501796722412109375e-02,-3.551936149597167969e-02,-3.781926631927490234e-02,-3.913402557373046875e-02,-4.039037227630615234e-02,-4.125452041625976562e-02,-4.146277904510498047e-02,-4.071414470672607422e-02,-3.902256488800048828e-02,-3.639698028564453125e-02,-3.329551219940185547e-02,-3.059470653533935547e-02,-2.874827384948730469e-02,-2.913665771484375000e-02,-2.899122238159179688e-02,-2.967035770416259766e-02,-3.029096126556396484e-02,-3.057992458343505859e-02,-3.049719333648681641e-02,-3.008675575256347656e-02,-2.962768077850341797e-02,-2.895069122314453125e-02,-2.926898002624511719e-02,-2.952969074249267578e-02,-2.879059314727783203e-02,-2.819478511810302734e-02,-2.661347389221191406e-02,-2.415394783020019531e-02,-1.832664012908935547e-02,-7.502436637878417969e-03,4.945397377014160156e-03,3.047561645507812500e-02,8.076500892639160156e-02,9.052121639251708984e-02,9.456169605255126953e-02
-2.575528621673583984e-02,-2.603566646575927734e-02,-2.713942527770996094e-02,-2.819335460662841797e-02,-2.918708324432373047e-02,-2.916741371154785156e-02,-2.999389171600341797e-02,-2.985203266143798828e-02,-2.976477146148681641e-02,-3.038179874420166016e-02,-3.182625770568847656e-02,-3.334665298461914062e-02,-3.315293788909912109e-02,-3.458964824676513672e-02,-3.689312934875488281e-02,-3.913247585296630859e-02,-4.038882255554199219e-02,-4.125297069549560547e-02,-4.181814193725585938e-02,-4.161727428436279297e-02,-3.992211818695068359e-02,-3.819036483764648438e-02,-3.329384326934814453e-02,-3.059303760528564453e-02,-2.786195278167724609e-02,-2.736914157867431641e-02,-2.811026573181152344e-02,-2.966868877410888672e-02,-3.028929233551025391e-02,-3.057825565338134766e-02,-3.049397468566894531e-02,-3.008520603179931641e-02,-2.962446212768554688e-02,-2.894902229309082031e-02,-2.841496467590332031e-02,-2.783048152923583984e-02,-2.804064750671386719e-02,-2.727997303009033203e-02,-2.577400207519531250e-02,-2.331793308258056641e-02,-1.666712760925292969e-02,-5.853652954101562500e-03,4.947066307067871094e-03,2.149486541748046875e-02,9.518206119537353516e-02,9.999537467956542969e-02,1.025282144546508789e-01
-2.585864067077636719e-02,-2.700912952423095703e-02,-2.810943126678466797e-02,-2.915978431701660156e-02,-3.014624118804931641e-02,-3.012478351593017578e-02,-3.004777431488037109e-02,-2.992761135101318359e-02,-3.050184249877929688e-02,-3.038036823272705078e-02,-3.104400634765625000e-02,-3.165638446807861328e-02,-3.315150737762451172e-02,-3.458821773529052734e-02,-3.596723079681396484e-02,-3.913092613220214844e-02,-4.038727283477783203e-02,-4.158580303192138672e-02,-4.181659221649169922e-02,-4.236626625061035156e-02,-4.082167148590087891e-02,-3.818881511688232422e-02,-3.329229354858398438e-02,-2.970159053802490234e-02,-2.697551250457763672e-02,-2.648437023162841797e-02,-2.722918987274169922e-02,-2.879130840301513672e-02,-3.028774261474609375e-02,-3.057670593261718750e-02,-3.111159801483154297e-02,-3.072535991668701172e-02,-2.962279319763183594e-02,-2.825796604156494141e-02,-2.755939960479736328e-02,-2.709341049194335938e-02,-2.719378471374511719e-02,-2.650821208953857422e-02,-2.493441104888916016e-02,-2.248191833496093750e-02,-1.500761508941650391e-02,-4.205107688903808594e-03,4.948735237121582031e-03,7.905530929565429688e-02,1.039432287216186523e-01,1.064579486846923828e-01,1.058807373046875000e-01
-2.771317958831787109e-02,-2.790403366088867188e-02,-2.907943725585937500e-02,-3.109252452850341797e-02,-3.111851215362548828e-02,-3.104639053344726562e-02,-3.094446659088134766e-02,-3.079891204833984375e-02,-3.050029277801513672e-02,-3.037881851196289062e-02,-3.104245662689208984e-02,-3.165495395660400391e-02,-3.314995765686035156e-02,-3.365850448608398438e-02,-3.596568107604980469e-02,-3.820693492889404297e-02,-3.946840763092041016e-02,-4.158425331115722656e-02,-4.145658016204833984e-02,-4.199445247650146484e-02,-4.081857204437255859e-02,-3.728806972503662109e-02,-3.239858150482177734e-02,-2.881145477294921875e-02,-2.697396278381347656e-02,-2.597999572753906250e-02,-2.634656429290771484e-02,-2.878963947296142578e-02,-3.028619289398193359e-02,-3.057503700256347656e-02,-3.049075603485107422e-02,-3.072369098663330078e-02,-3.028726577758789062e-02,-2.911055088043212891e-02,-2.755773067474365234e-02,-2.697670459747314453e-02,-2.643322944641113281e-02,-2.650666236877441406e-02,-2.493274211883544922e-02,-1.999294757843017578e-02,-9.197711944580078125e-03,1.585960388183593750e-03,5.768537521362304688e-03,9.908771514892578125e-02,1.071017980575561523e-01,1.096020936965942383e-01,1.097924709320068359e-01
-2.967274188995361328e-02,-2.985608577728271484e-02,-3.004944324493408203e-02,-3.205883502960205078e-02,-3.207945823669433594e-02,-3.110384941101074219e-02,-3.094291687011718750e-02,-3.079748153686523438e-02,-3.049743175506591797e-02,-2.930295467376708984e-02,-3.104102611541748047e-02,-3.165340423583984375e-02,-3.314840793609619141e-02,-3.458511829376220703e-02,-3.596413135528564453e-02,-3.820538520812988281e-02,-3.946530818939208984e-02,-4.066753387451171875e-02,-4.145503044128417969e-02,-4.070794582366943359e-02,-3.901481628417968750e-02,-3.549158573150634766e-02,-3.061294555664062500e-02,-2.703309059143066406e-02,-2.520263195037841797e-02,-2.559816837310791016e-02,-2.634489536285400391e-02,-2.791082859039306641e-02,-2.941226959228515625e-02,-2.997958660125732422e-02,-3.024160861968994141e-02,-3.072214126586914062e-02,-3.047716617584228516e-02,-2.910900115966796875e-02,-2.840840816497802734e-02,-2.709007263183593750e-02,-2.643156051635742188e-02,-2.566349506378173828e-02,-2.409315109252929688e-02,-1.915872097015380859e-02,-8.368849754333496094e-03,2.409338951110839844e-03,7.406353950500488281e-03,1.006749868392944336e-01,1.095293760299682617e-01,1.112586259841918945e-01,1.121401786804199219e-01
-3.261256217956542969e-02,-3.376066684722900391e-02,-3.388571739196777344e-02,-3.302514553070068359e-02,-3.207802772521972656e-02,-3.199899196624755859e-02,-3.189480304718017578e-02,-3.174579143524169922e-02,-3.155267238616943359e-02,-3.144013881683349609e-02,-3.182029724121093750e-02,-3.240561485290527344e-02,-3.314542770385742188e-02,-3.458368778228759766e-02,-3.596270084381103516e-02,-3.728306293487548828e-02,-3.946387767791748047e-02,-4.066598415374755859e-02,-4.145348072052001953e-02,-3.980004787445068359e-02,-3.721106052398681641e-02,-3.327333927154541016e-02,-2.971947193145751953e-02,-2.614307403564453125e-02,-2.479052543640136719e-02,-2.471363544464111328e-02,-2.546405792236328125e-02,-2.703320980072021484e-02,-2.941071987152099609e-02,-2.997791767120361328e-02,-3.023993968963623047e-02,-3.072059154510498047e-02,-3.114342689514160156e-02,-2.996134757995605469e-02,-2.939677238464355469e-02,-2.793538570404052734e-02,-2.803242206573486328e-02,-2.650332450866699219e-02,-2.492940425872802734e-02,-1.915705204010009766e-02,-7.540106773376464844e-03,4.054307937622070312e-03,1.317763328552246094e-02,1.006765365600585938e-01,1.103184223175048828e-01,1.120439767837524414e-01,1.129237413406372070e-01
-3.447258472442626953e-02,-3.571283817291259766e-02,-3.583073616027832031e-02,-3.399145603179931641e-02,-3.207504749298095703e-02,-3.104054927825927734e-02,-3.093850612640380859e-02,-3.079307079315185547e-02,-3.070402145385742188e-02,-3.143870830535888672e-02,-3.275597095489501953e-02,-3.333771228790283203e-02,-3.314399719238281250e-02,-3.458058834075927734e-02,-3.595960140228271484e-02,-3.728163242340087891e-02,-3.854501247406005859e-02,-4.033195972442626953e-02,-4.089868068695068359e-02,-3.979861736297607422e-02,-3.720951080322265625e-02,-3.237450122833251953e-02,-2.882421016693115234e-02,-2.614152431488037109e-02,-2.382898330688476562e-02,-2.421295642852783203e-02,-2.458298206329345703e-02,-2.703166007995605469e-02,-2.853691577911376953e-02,-3.084492683410644531e-02,-3.110516071319580078e-02,-3.158223628997802734e-02,-3.200161457061767578e-02,-3.150713443756103516e-02,-3.181469440460205078e-02,-3.036689758300781250e-02,-2.878069877624511719e-02,-2.811503410339355469e-02,-2.492773532867431641e-02,-1.915538311004638672e-02,-7.538437843322753906e-03,9.009242057800292969e-03,2.793824672698974609e-02,1.062663793563842773e-01,1.111091375350952148e-01,1.128294467926025391e-01,1.145946979522705078e-01
-3.545343875885009766e-02,-3.668832778930664062e-02,-3.587198257446289062e-02,-3.303718566894531250e-02,-3.013741970062255859e-02,-2.912521362304687500e-02,-2.903020381927490234e-02,-2.984178066253662109e-02,-3.060352802276611328e-02,-3.131401538848876953e-02,-3.275442123413085938e-02,-3.240263462066650391e-02,-3.314244747161865234e-02,-3.365099430084228516e-02,-3.503346443176269531e-02,-3.728008270263671875e-02,-3.854334354400634766e-02,-3.941845893859863281e-02,-3.998720645904541016e-02,-3.889226913452148438e-02,-3.630685806274414062e-02,-3.147733211517333984e-02,-2.793049812316894531e-02,-2.613985538482666016e-02,-2.382743358612060547e-02,-2.421128749847412109e-02,-2.458143234252929688e-02,-2.615439891815185547e-02,-2.853536605834960938e-02,-2.997469902038574219e-02,-3.023672103881835938e-02,-3.158056735992431641e-02,-3.199994564056396484e-02,-3.321743011474609375e-02,-3.337478637695312500e-02,-3.279566764831542969e-02,-3.131985664367675781e-02,-3.064334392547607422e-02,-2.907669544219970703e-02,-1.998627185821533203e-02,-8.363842964172363281e-03,1.065075397491455078e-02,8.142244815826416016e-02,1.094321012496948242e-01,1.134730577468872070e-01,1.159678697586059570e-01,1.152731180191040039e-01
-3.643286228179931641e-02,-3.668689727783203125e-02,-3.680109977722167969e-02,-3.206980228424072266e-02,-2.821481227874755859e-02,-2.627789974212646484e-02,-2.526032924652099609e-02,-2.706122398376464844e-02,-2.880525588989257812e-02,-3.117859363555908203e-02,-3.197252750396728516e-02,-3.240108489990234375e-02,-3.293740749359130859e-02,-3.342163562774658203e-02,-3.385615348815917969e-02,-3.543651103973388672e-02,-3.670728206634521484e-02,-3.792011737823486328e-02,-3.816533088684082031e-02,-3.708148002624511719e-02,-3.630530834197998047e-02,-3.147566318511962891e-02,-2.792894840240478516e-02,-2.613842487335205078e-02,-2.382421493530273438e-02,-2.420973777770996094e-02,-2.457988262176513672e-02,-2.615272998809814453e-02,-2.853381633758544922e-02,-2.910459041595458984e-02,-3.023517131805419922e-02,-3.157901763916015625e-02,-3.285789489746093750e-02,-3.407180309295654297e-02,-3.422725200653076172e-02,-3.449511528015136719e-02,-3.385913372039794922e-02,-3.232836723327636719e-02,-3.075432777404785156e-02,-2.497494220733642578e-02,-8.362174034118652344e-03,1.147234439849853516e-02,9.903240203857421875e-02,1.118068695068359375e-01,1.158952713012695312e-01,1.175371408462524414e-01,1.177204847335815430e-01
-3.544914722442626953e-02,-3.577148914337158203e-02,-3.202116489410400391e-02,-2.532422542572021484e-02,-2.533161640167236328e-02,-2.334845066070556641e-02,-2.521383762359619141e-02,-2.698957920074462891e-02,-2.965295314788818359e-02,-3.131103515625000000e-02,-3.197097778320312500e-02,-3.239965438842773438e-02,-3.220772743225097656e-02,-3.271996974945068359e-02,-3.293204307556152344e-02,-3.359329700469970703e-02,-3.487122058868408203e-02,-3.609132766723632812e-02,-3.599596023559570312e-02,-3.527057170867919922e-02,-3.320062160491943359e-02,-3.147423267364501953e-02,-2.881956100463867188e-02,-2.613675594329833984e-02,-2.478420734405517578e-02,-2.420818805694580078e-02,-2.457821369171142578e-02,-2.615118026733398438e-02,-2.853214740753173828e-02,-2.910304069519042969e-02,-3.023350238800048828e-02,-3.157734870910644531e-02,-3.285634517669677734e-02,-3.407013416290283203e-02,-3.507995605468750000e-02,-3.545451164245605469e-02,-3.555142879486083984e-02,-3.485679626464843750e-02,-3.327190876007080078e-02,-2.580749988555908203e-02,-8.360505104064941406e-03,1.723349094390869141e-02,1.046205759048461914e-01,1.142145395278930664e-01,1.174681186676025391e-01,1.183226108551025391e-01,1.185021400451660156e-01
-3.446543216705322266e-02,-3.284502029418945312e-02,-2.814126014709472656e-02,-2.339434623718261719e-02,-2.148640155792236328e-02,-2.146363258361816406e-02,-2.330422401428222656e-02,-2.698802947998046875e-02,-2.870523929595947266e-02,-3.117406368255615234e-02,-3.196799755096435547e-02,-3.239810466766357422e-02,-3.200292587280273438e-02,-3.156602382659912109e-02,-3.133094310760498047e-02,-3.147923946380615234e-02,-3.211629390716552734e-02,-3.334867954254150391e-02,-3.417801856994628906e-02,-3.382384777069091797e-02,-3.229987621307373047e-02,-3.099334239959716797e-02,-2.881801128387451172e-02,-2.613520622253417969e-02,-2.566921710968017578e-02,-2.508771419525146484e-02,-2.545607089996337891e-02,-2.702522277832031250e-02,-2.853059768676757812e-02,-2.910137176513671875e-02,-3.023195266723632812e-02,-3.157579898834228516e-02,-3.285467624664306641e-02,-3.406846523284912109e-02,-3.507828712463378906e-02,-3.619301319122314453e-02,-3.639662265777587891e-02,-3.563046455383300781e-02,-3.327023983001708984e-02,-2.664017677307128906e-02,-1.001310348510742188e-02,1.147568225860595703e-02,1.054168939590454102e-01,1.150054931640625000e-01,1.174697875976562500e-01,1.184060573577880859e-01,1.177237033843994141e-01
-3.162074089050292969e-02,-2.900969982147216797e-02,-2.430355548858642578e-02,-2.242863178253173828e-02,-2.052092552185058594e-02,-2.146208286285400391e-02,-2.330267429351806641e-02,-2.698516845703125000e-02,-2.870380878448486328e-02,-3.117263317108154297e-02,-3.180980682373046875e-02,-3.239512443542480469e-02,-3.200137615203857422e-02,-3.156447410583496094e-02,-3.108346462249755859e-02,-3.082597255706787109e-02,-3.090643882751464844e-02,-3.120386600494384766e-02,-3.200924396514892578e-02,-3.308224678039550781e-02,-3.229832649230957031e-02,-3.057539463043212891e-02,-2.970850467681884766e-02,-2.791059017181396484e-02,-2.695977687835693359e-02,-2.596735954284667969e-02,-2.633380889892578125e-02,-2.789962291717529297e-02,-2.940106391906738281e-02,-2.996826171875000000e-02,-3.023028373718261719e-02,-3.157413005828857422e-02,-3.199338912963867188e-02,-3.406679630279541016e-02,-3.422236442565917969e-02,-3.534078598022460938e-02,-3.639495372772216797e-02,-3.485345840454101562e-02,-3.078329563140869141e-02,-2.580416202545166016e-02,-1.416194438934326172e-02,9.017586708068847656e-03,1.054185628890991211e-01,1.110206842422485352e-01,1.159000396728515625e-01,1.159743070602416992e-01,1.168435811996459961e-01
-2.965855598449707031e-02,-2.706170082092285156e-02,-2.236640453338623047e-02,-2.146303653717041016e-02,-2.147853374481201172e-02,-2.146065235137939453e-02,-2.425456047058105469e-02,-2.698361873626708984e-02,-2.870237827301025391e-02,-3.117108345031738281e-02,-3.196501731872558594e-02,-3.146004676818847656e-02,-3.127014636993408203e-02,-3.063511848449707031e-02,-3.040182590484619141e-02,-3.055703639984130859e-02,-3.060305118560791016e-02,-3.120231628417968750e-02,-3.145003318786621094e-02,-3.164720535278320312e-02,-3.179228305816650391e-02,-3.057384490966796875e-02,-2.970695495605468750e-02,-2.790892124176025391e-02,-2.695822715759277344e-02,-2.735006809234619141e-02,-2.721178531646728516e-02,-2.877378463745117188e-02,-3.114235401153564453e-02,-3.056061267852783203e-02,-3.196227550506591797e-02,-3.243577480316162109e-02,-3.199183940887451172e-02,-3.320920467376708984e-02,-3.336668014526367188e-02,-3.363800048828125000e-02,-3.309166431427001953e-02,-3.153932094573974609e-02,-2.910578250885009766e-02,-2.496826648712158203e-02,-1.000976562500000000e-02,2.422690391540527344e-03,9.983527660369873047e-02,1.102312803268432617e-01,1.126936674118041992e-01,1.144083738327026367e-01,1.152812242507934570e-01
-2.593183517456054688e-02,-2.316617965698242188e-02,-2.226090431213378906e-02,-2.143514156341552734e-02,-2.147710323333740234e-02,-2.337312698364257812e-02,-2.429783344268798828e-02,-2.705395221710205078e-02,-2.879631519317626953e-02,-3.116953372955322266e-02,-3.196358680725097656e-02,-3.145849704742431641e-02,-3.126859664916992188e-02,-3.063356876373291016e-02,-3.015625476837158203e-02,-3.055548667907714844e-02,-3.060150146484375000e-02,-3.120076656341552734e-02,-3.144848346710205078e-02,-3.164410591125488281e-02,-3.179073333740234375e-02,-3.057229518890380859e-02,-2.970540523529052734e-02,-2.925550937652587891e-02,-2.872622013092041016e-02,-2.772665023803710938e-02,-2.896893024444580078e-02,-2.964794635772705078e-02,-3.288519382476806641e-02,-3.257083892822265625e-02,-3.282737731933593750e-02,-3.329718112945556641e-02,-3.284978866577148438e-02,-3.320753574371337891e-02,-3.336501121520996094e-02,-3.290164470672607422e-02,-3.139984607696533203e-02,-2.985465526580810547e-02,-2.659022808074951172e-02,-1.914203166961669922e-02,-9.181022644042968750e-03,3.246068954467773438e-03,1.054233312606811523e-01,1.102329492568969727e-01,1.126953363418579102e-01,1.136262416839599609e-01,1.146076917648315430e-01
-2.495348453521728516e-02,-2.316474914550781250e-02,-2.231657505035400391e-02,-2.143371105194091797e-02,-2.243816852569580078e-02,-2.528560161590576172e-02,-2.806520462036132812e-02,-2.895545959472656250e-02,-3.059172630310058594e-02,-3.142535686492919922e-02,-3.196203708648681641e-02,-3.239059448242187500e-02,-3.126704692840576172e-02,-3.063201904296875000e-02,-3.015482425689697266e-02,-3.055393695831298828e-02,-3.090178966522216797e-02,-3.178393840789794922e-02,-3.144693374633789062e-02,-3.217327594757080078e-02,-3.178918361663818359e-02,-3.057062625885009766e-02,-2.970373630523681641e-02,-2.968120574951171875e-02,-2.872455120086669922e-02,-2.860629558563232422e-02,-2.896738052368164062e-02,-3.052222728729248047e-02,-3.258550167083740234e-02,-3.403747081756591797e-02,-3.455770015716552734e-02,-3.415870666503906250e-02,-3.456723690032958984e-02,-3.389203548431396484e-02,-3.265392780303955078e-02,-3.205132484436035156e-02,-3.055298328399658203e-02,-2.816987037658691406e-02,-2.243733406066894531e-02,-1.664280891418457031e-02,-1.731395721435546875e-03,9.022593498229980469e-03,1.078088283538818359e-01,1.142241954803466797e-01,1.159065961837768555e-01,1.151955127716064453e-01,1.152859926223754883e-01
-2.690577507019042969e-02,-2.510964870452880859e-02,-2.328467369079589844e-02,-2.529478073120117188e-02,-2.532148361206054688e-02,-2.719819545745849609e-02,-2.997040748596191406e-02,-3.172802925109863281e-02,-3.153645992279052734e-02,-3.210735321044921875e-02,-3.196060657501220703e-02,-3.238916397094726562e-02,-3.126561641693115234e-02,-3.155696392059326172e-02,-3.107583522796630859e-02,-3.082001209259033203e-02,-3.210866451263427734e-02,-3.242576122283935547e-02,-3.200304508209228516e-02,-3.307449817657470703e-02,-3.268873691558837891e-02,-3.146481513977050781e-02,-3.059411048889160156e-02,-3.103291988372802734e-02,-3.049290180206298828e-02,-2.999436855316162109e-02,-3.160250186920166016e-02,-3.194451332092285156e-02,-3.345787525177001953e-02,-3.490626811981201172e-02,-3.628969192504882812e-02,-3.502023220062255859e-02,-3.522920608520507812e-02,-3.474819660186767578e-02,-3.336167335510253906e-02,-3.204965591430664062e-02,-2.970612049102783203e-02,-2.816820144653320312e-02,-2.159953117370605469e-02,-1.580870151519775391e-02,6.523847579956054688e-03,1.030253171920776367e-01,1.149653196334838867e-01,1.173827648162841797e-01,1.182649135589599609e-01,1.167646646499633789e-01,1.168516874313354492e-01
-2.877020835876464844e-02,-2.698481082916259766e-02,-2.522242069244384766e-02,-2.526390552520751953e-02,-2.820813655853271484e-02,-2.911067008972167969e-02,-3.097808361053466797e-02,-3.267621994018554688e-02,-3.258359432220458984e-02,-3.318417072296142578e-02,-3.289806842803955078e-02,-3.238761425018310547e-02,-3.199231624603271484e-02,-3.177976608276367188e-02,-3.224480152130126953e-02,-3.173935413360595703e-02,-3.302443027496337891e-02,-3.425168991088867188e-02,-3.416872024536132812e-02,-3.381454944610595703e-02,-3.358829021453857422e-02,-3.325295448303222656e-02,-3.237664699554443359e-02,-3.192150592803955078e-02,-3.137600421905517578e-02,-3.087580204010009766e-02,-3.248035907745361328e-02,-3.194296360015869141e-02,-3.345620632171630859e-02,-3.577506542205810547e-02,-3.628814220428466797e-02,-3.652298450469970703e-02,-3.542351722717285156e-02,-3.491461277008056641e-02,-3.421413898468017578e-02,-3.204798698425292969e-02,-2.970445156097412109e-02,-2.816653251647949219e-02,-2.159786224365234375e-02,-1.580703258514404297e-02,1.475644111633300781e-02,1.133829355239868164e-01,1.205226182937622070e-01,1.205412149429321289e-01,1.198378801345825195e-01,1.184173822402954102e-01,1.169530153274536133e-01
-3.072595596313476562e-02,-2.802634239196777344e-02,-2.808356285095214844e-02,-2.818989753723144531e-02,-2.820372581481933594e-02,-3.009855747222900391e-02,-3.282749652862548828e-02,-3.362452983856201172e-02,-3.437030315399169922e-02,-3.412389755249023438e-02,-3.367352485656738281e-02,-3.331959247589111328e-02,-3.292083740234375000e-02,-3.248012065887451172e-02,-3.291833400726318359e-02,-3.357803821563720703e-02,-3.485739231109619141e-02,-3.484213352203369141e-02,-3.507375717163085938e-02,-3.435194492340087891e-02,-3.397440910339355469e-02,-3.367483615875244141e-02,-3.326559066772460938e-02,-3.234159946441650391e-02,-3.225922584533691406e-02,-3.264009952545166016e-02,-3.247869014739990234e-02,-3.281891345977783203e-02,-3.520262241363525391e-02,-3.664386272430419922e-02,-3.802001476287841797e-02,-3.760492801666259766e-02,-3.694856166839599609e-02,-3.560268878936767578e-02,-3.435361385345458984e-02,-3.204631805419921875e-02,-2.970290184020996094e-02,-2.816486358642578125e-02,-2.243232727050781250e-02,-1.663780212402343750e-02,9.266328811645507812e-02,1.181439161300659180e-01,1.221063137054443359e-01,1.229399442672729492e-01,1.214107275009155273e-01,1.199032068252563477e-01,1.177350282669067383e-01
-3.268170356750488281e-02,-2.997136116027832031e-02,-3.002488613128662109e-02,-3.009855747222900391e-02,-3.013002872467041016e-02,-3.105580806732177734e-02,-3.282463550567626953e-02,-3.370594978332519531e-02,-3.436887264251708984e-02,-3.412234783172607422e-02,-3.367197513580322266e-02,-3.331816196441650391e-02,-3.312444686889648438e-02,-3.270483016967773438e-02,-3.316628932952880859e-02,-3.449749946594238281e-02,-3.485596179962158203e-02,-3.516232967376708984e-02,-3.507220745086669922e-02,-3.435039520263671875e-02,-3.397285938262939453e-02,-3.457069396972656250e-02,-3.326404094696044922e-02,-3.322851657867431641e-02,-3.363478183746337891e-02,-3.263854980468750000e-02,-3.247714042663574219e-02,-3.369498252868652344e-02,-3.520107269287109375e-02,-3.664219379425048828e-02,-3.777277469635009766e-02,-3.824961185455322266e-02,-3.780829906463623047e-02,-3.645873069763183594e-02,-3.520429134368896484e-02,-3.289341926574707031e-02,-2.970123291015625000e-02,-2.816319465637207031e-02,-2.490615844726562500e-02,-1.746869087219238281e-02,1.078433990478515625e-01,1.189401149749755859e-01,1.221079826354980469e-01,1.229121685028076172e-01,1.214122772216796875e-01,1.206886768341064453e-01,1.185168027877807617e-01
-3.365767002105712891e-02,-3.373622894287109375e-02,-3.103566169738769531e-02,-3.106510639190673828e-02,-3.109085559844970703e-02,-3.197562694549560547e-02,-3.192877769470214844e-02,-3.370451927185058594e-02,-3.436732292175292969e-02,-3.424954414367675781e-02,-3.477001190185546875e-02,-3.424870967864990234e-02,-3.384768962860107422e-02,-3.340351581573486328e-02,-3.408920764923095703e-02,-3.514015674591064453e-02,-3.547155857086181641e-02,-3.607451915740966797e-02,-3.507065773010253906e-02,-3.434884548187255859e-02,-3.397130966186523438e-02,-3.408277034759521484e-02,-3.326249122619628906e-02,-3.280556201934814453e-02,-3.225445747375488281e-02,-3.175246715545654297e-02,-3.247559070587158203e-02,-3.281581401824951172e-02,-3.519952297210693359e-02,-3.664064407348632812e-02,-3.777110576629638672e-02,-3.911304473876953125e-02,-3.866803646087646484e-02,-3.662168979644775391e-02,-3.520274162292480469e-02,-3.374040126800537109e-02,-3.138983249664306641e-02,-2.816152572631835938e-02,-2.574241161346435547e-02,-1.746702194213867188e-02,1.086450815200805664e-01,1.181471347808837891e-01,1.205275058746337891e-01,1.213352680206298828e-01,1.206282377243041992e-01,1.184222698211669922e-01,1.177382469177246094e-01
-3.444838523864746094e-02,-3.373479843139648438e-02,-3.200244903564453125e-02,-3.203141689300537109e-02,-3.109049797058105469e-02,-3.197419643402099609e-02,-3.288114070892333984e-02,-3.456842899322509766e-02,-3.531205654144287109e-02,-3.519237041473388672e-02,-3.570735454559326172e-02,-3.443241119384765625e-02,-3.477609157562255859e-02,-3.525316715240478516e-02,-3.501224517822265625e-02,-3.605782985687255859e-02,-3.668582439422607422e-02,-3.666126728057861328e-02,-3.597748279571533203e-02,-3.525197505950927734e-02,-3.448152542114257812e-02,-3.324663639068603516e-02,-3.281319141387939453e-02,-3.233695030212402344e-02,-3.136801719665527344e-02,-3.123891353607177734e-02,-3.071510791778564453e-02,-3.226268291473388672e-02,-3.432381153106689453e-02,-3.663897514343261719e-02,-3.776943683624267578e-02,-3.911137580871582031e-02,-3.952777385711669922e-02,-3.902721405029296875e-02,-3.605341911315917969e-02,-3.458750247955322266e-02,-3.223335742950439453e-02,-2.900135517120361328e-02,-2.574074268341064453e-02,-1.746535301208496094e-02,1.078466176986694336e-01,1.133892536163330078e-01,1.181446313858032227e-01,1.189692020416259766e-01,1.182730197906494141e-01,1.167743206024169922e-01,1.169595718383789062e-01
-3.346467018127441406e-02,-3.380131721496582031e-02,-3.200101852416992188e-02,-3.202998638153076172e-02,-3.108906745910644531e-02,-3.197121620178222656e-02,-3.192436695098876953e-02,-3.456699848175048828e-02,-3.531050682067871094e-02,-3.613531589508056641e-02,-3.664481639862060547e-02,-3.630161285400390625e-02,-3.570449352264404297e-02,-3.641116619110107422e-02,-3.778278827667236328e-02,-3.725564479827880859e-02,-3.760159015655517578e-02,-3.848195075988769531e-02,-3.688430786132812500e-02,-3.524887561798095703e-02,-3.447997570037841797e-02,-3.366696834564208984e-02,-3.325927257537841797e-02,-3.233540058135986328e-02,-3.136646747589111328e-02,-3.086626529693603516e-02,-3.071343898773193359e-02,-3.138530254364013672e-02,-3.344821929931640625e-02,-3.576695919036865234e-02,-3.801357746124267578e-02,-3.910982608795166016e-02,-3.952622413635253906e-02,-4.004049301147460938e-02,-3.775656223297119141e-02,-3.543460369110107422e-02,-3.307676315307617188e-02,-2.984130382537841797e-02,-2.573907375335693359e-02,-9.992361068725585938e-03,1.014733314514160156e-01,1.110016107559204102e-01,1.149749755859375000e-01,1.158139705657958984e-01,1.150720119476318359e-01,1.159178018569946289e-01,1.161825656890869141e-01
-3.258252143859863281e-02,-3.373193740844726562e-02,-3.199946880340576172e-02,-3.202712535858154297e-02,-3.108501434326171875e-02,-3.101277351379394531e-02,-3.192293643951416016e-02,-3.369867801666259766e-02,-3.541719913482666016e-02,-3.707659244537353516e-02,-3.852117061614990234e-02,-3.816914558410644531e-02,-3.777551651000976562e-02,-3.733777999877929688e-02,-3.870570659637451172e-02,-3.909575939178466797e-02,-3.943467140197753906e-02,-3.939223289489746094e-02,-3.779089450836181641e-02,-3.615188598632812500e-02,-3.486931324005126953e-02,-3.324353694915771484e-02,-3.281009197235107422e-02,-3.233218193054199219e-02,-3.136491775512695312e-02,-3.086471557617187500e-02,-3.071188926696777344e-02,-3.138363361358642578e-02,-3.344666957855224609e-02,-3.576540946960449219e-02,-3.776621818542480469e-02,-4.083800315856933594e-02,-4.124736785888671875e-02,-4.159724712371826172e-02,-3.860723972320556641e-02,-3.628170490264892578e-02,-3.392016887664794922e-02,-3.068113327026367188e-02,-2.158784866333007812e-02,-3.367781639099121094e-03,9.508395195007324219e-02,1.062310934066772461e-01,1.125980615615844727e-01,1.126220226287841797e-01,1.134988069534301758e-01,1.144262552261352539e-01,1.161842346191406250e-01
-3.258109092712402344e-02,-3.275227546691894531e-02,-3.199803829193115234e-02,-3.105783462524414062e-02,-3.010976314544677734e-02,-3.005445003509521484e-02,-3.096640110015869141e-02,-3.369712829589843750e-02,-3.541576862335205078e-02,-3.801953792572021484e-02,-3.867900371551513672e-02,-4.003846645355224609e-02,-3.870570659637451172e-02,-3.919255733489990234e-02,-3.895390033721923828e-02,-4.001510143280029297e-02,-4.035043716430664062e-02,-4.030263423919677734e-02,-3.869760036468505859e-02,-3.705513477325439453e-02,-3.537786006927490234e-02,-3.456139564514160156e-02,-3.325617313385009766e-02,-3.233063220977783203e-02,-3.224813938140869141e-02,-3.123414516448974609e-02,-3.158974647521972656e-02,-3.193020820617675781e-02,-3.344500064849853516e-02,-3.663420677185058594e-02,-3.776466846466064453e-02,-4.083645343780517578e-02,-4.210710525512695312e-02,-4.245328903198242188e-02,-4.018020629882812500e-02,-3.712892532348632812e-02,-3.637337684631347656e-02,-3.152108192443847656e-02,-2.075004577636718750e-02,5.725145339965820312e-03,9.267449378967285156e-02,1.046361923217773438e-01,1.086194515228271484e-01,1.118324995040893555e-01,1.127129793167114258e-01,1.136440038681030273e-01,1.154056787490844727e-01
-2.963709831237792969e-02,-3.087055683135986328e-02,-3.093302249908447266e-02,-3.010880947113037109e-02,-2.914774417877197266e-02,-2.912664413452148438e-02,-3.096342086791992188e-02,-3.369569778442382812e-02,-3.541421890258789062e-02,-3.896224498748779297e-02,-4.039609432220458984e-02,-4.097211360931396484e-02,-3.963589668273925781e-02,-3.919100761413574219e-02,-3.987848758697509766e-02,-4.028785228729248047e-02,-4.064714908599853516e-02,-4.030108451843261719e-02,-3.869605064392089844e-02,-3.705346584320068359e-02,-3.537631034851074219e-02,-3.455984592437744141e-02,-3.325462341308593750e-02,-3.279769420623779297e-02,-3.362369537353515625e-02,-3.211367130279541016e-02,-3.246760368347167969e-02,-3.313195705413818359e-02,-3.518986701965332031e-02,-3.750300407409667969e-02,-3.863155841827392578e-02,-4.169988632202148438e-02,-4.296672344207763672e-02,-4.245173931121826172e-02,-4.017853736877441406e-02,-3.712558746337890625e-02,-3.476202487945556641e-02,-3.151941299438476562e-02,-2.074837684631347656e-02,1.396751403808593750e-02,8.626461029052734375e-02,1.038397550582885742e-01,1.086210012435913086e-01,1.110430955886840820e-01,1.135020256042480469e-01,1.144294738769531250e-01,1.161874532699584961e-01
-2.865529060363769531e-02,-2.884232997894287109e-02,-3.001201152801513672e-02,-3.008699417114257812e-02,-2.914488315582275391e-02,-3.005146980285644531e-02,-3.191709518432617188e-02,-3.464579582214355469e-02,-3.635931015014648438e-02,-3.896081447601318359e-02,-4.133200645446777344e-02,-4.190599918365478516e-02,-4.056453704833984375e-02,-4.011750221252441406e-02,-3.987693786621093750e-02,-4.001057147979736328e-02,-4.003822803497314453e-02,-3.938758373260498047e-02,-3.869295120239257812e-02,-3.795659542083740234e-02,-3.537476062774658203e-02,-3.455817699432373047e-02,-3.369915485382080078e-02,-3.368628025054931641e-02,-3.362214565277099609e-02,-3.312981128692626953e-02,-3.299319744110107422e-02,-3.488206863403320312e-02,-3.693616390228271484e-02,-3.750133514404296875e-02,-3.863000869750976562e-02,-4.083311557769775391e-02,-4.124081134796142578e-02,-4.003393650054931641e-02,-3.774821758270263672e-02,-3.627514839172363281e-02,-3.476035594940185547e-02,-3.067624568939208984e-02,-1.409876346588134766e-02,1.561987400054931641e-02,7.822740077972412109e-02,1.030429601669311523e-01,1.070334911346435547e-01,1.110447645187377930e-01,1.127163171768188477e-01,1.144310235977172852e-01,1.161891222000122070e-01
-2.679455280303955078e-02,-2.884089946746826172e-02,-2.903914451599121094e-02,-2.911651134490966797e-02,-2.914345264434814453e-02,-3.008246421813964844e-02,-3.191554546356201172e-02,-3.464281558990478516e-02,-3.730559349060058594e-02,-3.895926475524902344e-02,-4.133045673370361328e-02,-4.190456867218017578e-02,-4.056298732757568359e-02,-3.918647766113281250e-02,-3.936183452606201172e-02,-3.880441188812255859e-02,-3.942704200744628906e-02,-3.938615322113037109e-02,-3.904449939727783203e-02,-3.795492649078369141e-02,-3.627419471740722656e-02,-3.545415401458740234e-02,-3.502702713012695312e-02,-3.414356708526611328e-02,-3.499102592468261719e-02,-3.489792346954345703e-02,-3.510248661041259766e-02,-3.663194179534912109e-02,-3.780865669250488281e-02,-3.837013244628906250e-02,-3.862833976745605469e-02,-4.083144664764404297e-02,-3.951632976531982422e-02,-3.832042217254638672e-02,-3.604185581207275391e-02,-3.457593917846679688e-02,-3.306674957275390625e-02,-2.983295917510986328e-02,-1.409709453582763672e-02,2.956485748291015625e-02,7.984340190887451172e-02,9.825742244720458984e-02,1.062403917312622070e-01,1.094642877578735352e-01,1.119303703308105469e-01,1.144326925277709961e-01,1.161906719207763672e-01
-2.679312229156494141e-02,-2.696478366851806641e-02,-2.806627750396728516e-02,-2.911496162414550781e-02,-2.915048599243164062e-02,-3.103983402252197266e-02,-3.280985355377197266e-02,-3.464138507843017578e-02,-3.730404376983642578e-02,-3.895771503448486328e-02,-4.132902622222900391e-02,-4.096770286560058594e-02,-4.056155681610107422e-02,-3.918492794036865234e-02,-3.843772411346435547e-02,-3.788375854492187500e-02,-3.759086132049560547e-02,-3.788638114929199219e-02,-3.868985176086425781e-02,-3.885805606842041016e-02,-3.717362880706787109e-02,-3.635001182556152344e-02,-3.592121601104736328e-02,-3.546357154846191406e-02,-3.676640987396240234e-02,-3.666591644287109375e-02,-3.685975074768066406e-02,-3.838205337524414062e-02,-3.955495357513427734e-02,-4.010760784149169922e-02,-3.949534893035888672e-02,-3.996503353118896484e-02,-3.865337371826171875e-02,-3.660690784454345703e-02,-3.433549404144287109e-02,-3.372561931610107422e-02,-3.137493133544921875e-02,-2.814662456512451172e-02,-1.409542560577392578e-02,6.051576137542724609e-02,8.626949787139892578e-02,9.745895862579345703e-02,1.054474115371704102e-01,1.086747646331787109e-01,1.103571653366088867e-01,1.128666400909423828e-01,1.161923408508300781e-01
-2.766907215118408203e-02,-2.696335315704345703e-02,-2.709352970123291016e-02,-2.911353111267089844e-02,-3.011262416839599609e-02,-3.103828430175781250e-02,-3.286790847778320312e-02,-3.463995456695556641e-02,-3.635489940643310547e-02,-3.895485401153564453e-02,-4.055142402648925781e-02,-4.096472263336181641e-02,-4.056000709533691406e-02,-3.918349742889404297e-02,-3.843462467193603516e-02,-3.788220882415771484e-02,-3.758931159973144531e-02,-3.788483142852783203e-02,-3.868830204010009766e-02,-3.885650634765625000e-02,-3.807330131530761719e-02,-3.634846210479736328e-02,-3.681504726409912109e-02,-3.724086284637451172e-02,-3.765320777893066406e-02,-3.843390941619873047e-02,-3.949630260467529297e-02,-4.037415981292724609e-02,-4.013192653656005859e-02,-4.158127307891845703e-02,-3.973567485809326172e-02,-3.931343555450439453e-02,-3.798103332519531250e-02,-3.574931621551513672e-02,-3.433382511138916016e-02,-3.287529945373535156e-02,-3.137326240539550781e-02,-2.814495563507080078e-02,-1.906788349151611328e-02,6.861114501953125000e-02,8.788192272186279297e-02,9.826052188873291016e-02,1.046543121337890625e-01,1.078854799270629883e-01,1.103588342666625977e-01,1.120845079421997070e-01,1.154137849807739258e-01
-2.776873111724853516e-02,-2.785825729370117188e-02,-2.806198596954345703e-02,-3.007972240447998047e-02,-3.107595443725585938e-02,-3.199565410614013672e-02,-3.286647796630859375e-02,-3.463840484619140625e-02,-3.635334968566894531e-02,-3.800916671752929688e-02,-3.960776329040527344e-02,-4.096317291259765625e-02,-4.055845737457275391e-02,-4.010987281799316406e-02,-3.843307495117187500e-02,-3.788077831268310547e-02,-3.728413581848144531e-02,-3.788328170776367188e-02,-3.868675231933593750e-02,-3.885495662689208984e-02,-3.846848011016845703e-02,-3.814184665679931641e-02,-3.816044330596923828e-02,-3.770530223846435547e-02,-3.765165805816650391e-02,-3.843224048614501953e-02,-4.091608524322509766e-02,-4.125201702117919922e-02,-4.188203811645507812e-02,-4.332399368286132812e-02,-4.146766662597656250e-02,-4.017484188079833984e-02,-3.797936439514160156e-02,-3.660356998443603516e-02,-3.433227539062500000e-02,-3.287363052368164062e-02,-3.137171268463134766e-02,-2.814328670501708984e-02,-1.990234851837158203e-02,6.780004501342773438e-02,8.869063854217529297e-02,9.826219081878662109e-02,1.054506301879882812e-01,1.086779832839965820e-01,1.103603839874267578e-01,1.120860576629638672e-01,1.154154539108276367e-01
-2.874588966369628906e-02,-2.883374691009521484e-02,-2.903187274932861328e-02,-3.007829189300537109e-02,-3.203713893890380859e-02,-3.297984600067138672e-02,-3.382015228271484375e-02,-3.463697433471679688e-02,-3.635036945343017578e-02,-3.706324100494384766e-02,-3.850615024566650391e-02,-3.927385807037353516e-02,-4.055702686309814453e-02,-4.103648662567138672e-02,-3.935432434082031250e-02,-3.787922859191894531e-02,-3.728258609771728516e-02,-3.755462169647216797e-02,-3.812670707702636719e-02,-3.885340690612792969e-02,-3.846681118011474609e-02,-3.856027126312255859e-02,-3.726518154144287109e-02,-3.634750843048095703e-02,-3.765010833740234375e-02,-3.754448890686035156e-02,-4.003334045410156250e-02,-4.125034809112548828e-02,-4.275608062744140625e-02,-4.358422756195068359e-02,-4.233121871948242188e-02,-4.103648662567138672e-02,-3.883731365203857422e-02,-3.660202026367187500e-02,-3.518295288085937500e-02,-3.372061252593994141e-02,-3.221511840820312500e-02,-2.898311614990234375e-02,-1.990067958831787109e-02,5.240499973297119141e-02,9.348940849304199219e-02,1.030509471893310547e-01,1.070414781570434570e-01,1.102634668350219727e-01,1.103620529174804688e-01,1.120877265930175781e-01,1.146368980407714844e-01
-2.962577342987060547e-02,-2.890908718109130859e-02,-3.000187873840332031e-02,-3.104341030120849609e-02,-3.299522399902343750e-02,-3.393900394439697266e-02,-3.482592105865478516e-02,-3.549897670745849609e-02,-3.529274463653564453e-02,-3.611743450164794922e-02,-3.756570816040039062e-02,-3.833520412445068359e-02,-3.796160221099853516e-02,-3.940594196319580078e-02,-4.053950309753417969e-02,-3.879678249359130859e-02,-3.819656372070312500e-02,-3.846502304077148438e-02,-3.868377208709716797e-02,-3.832054138183593750e-02,-3.846526145935058594e-02,-3.813707828521728516e-02,-3.726351261138916016e-02,-3.634595870971679688e-02,-3.676021099090576172e-02,-3.665804862976074219e-02,-3.826928138732910156e-02,-4.069340229034423828e-02,-4.100143909454345703e-02,-4.332077503204345703e-02,-4.232954978942871094e-02,-4.016995429992675781e-02,-3.883564472198486328e-02,-3.745615482330322266e-02,-3.603363037109375000e-02,-3.456771373748779297e-02,-3.136837482452392578e-02,-2.813994884490966797e-02,-1.906287670135498047e-02,2.219808101654052734e-02,9.429478645324707031e-02,1.046489477157592773e-01,1.086322069168090820e-01,1.118470430374145508e-01,1.127275228500366211e-01,1.128731966018676758e-01,1.146384477615356445e-01
-2.962434291839599609e-02,-2.980601787567138672e-02,-3.097176551818847656e-02,-3.200972080230712891e-02,-3.299844264984130859e-02,-3.486597537994384766e-02,-3.482306003570556641e-02,-3.549742698669433594e-02,-3.529131412506103516e-02,-3.598344326019287109e-02,-3.662526607513427734e-02,-3.721749782562255859e-02,-3.702676296234130859e-02,-3.847455978393554688e-02,-3.986477851867675781e-02,-3.971421718597412109e-02,-3.911054134368896484e-02,-3.846347332000732422e-02,-3.868210315704345703e-02,-3.831899166107177734e-02,-3.896641731262207031e-02,-3.813552856445312500e-02,-3.726196289062500000e-02,-3.456389904022216797e-02,-3.409171104431152344e-02,-3.400194644927978516e-02,-3.562414646148681641e-02,-3.837239742279052734e-02,-4.042088985443115234e-02,-4.070270061492919922e-02,-4.146111011505126953e-02,-4.016840457916259766e-02,-3.883409500122070312e-02,-3.745448589324951172e-02,-3.603196144104003906e-02,-3.371727466583251953e-02,-3.136670589447021484e-02,-2.483475208282470703e-02,-1.325285434722900391e-02,1.480603218078613281e-02,1.014925241470336914e-01,1.102243661880493164e-01,1.126085519790649414e-01,1.126396656036376953e-01,1.135165691375732422e-01,1.128747463226318359e-01,1.146401166915893555e-01
-2.962148189544677734e-02,-2.980458736419677734e-02,-3.091728687286376953e-02,-3.200829029083251953e-02,-3.395330905914306641e-02,-3.486454486846923828e-02,-3.470492362976074219e-02,-3.549599647521972656e-02,-3.434216976165771484e-02,-3.516864776611328125e-02,-3.474605083465576172e-02,-3.440845012664794922e-02,-3.496074676513671875e-02,-3.731811046600341797e-02,-3.893709182739257812e-02,-3.999686241149902344e-02,-4.002439975738525391e-02,-3.937375545501708984e-02,-3.868067264556884766e-02,-3.831744194030761719e-02,-3.896486759185791016e-02,-3.813397884368896484e-02,-3.636658191680908203e-02,-3.320169448852539062e-02,-3.183460235595703125e-02,-3.261160850524902344e-02,-3.297889232635498047e-02,-3.366780281066894531e-02,-3.779733180999755859e-02,-3.922748565673828125e-02,-3.948402404785156250e-02,-3.844046592712402344e-02,-3.711163997650146484e-02,-3.729033470153808594e-02,-3.603041172027587891e-02,-3.286707401275634766e-02,-2.638030052185058594e-02,-1.895344257354736328e-02,-3.289580345153808594e-03,1.480770111083984375e-02,1.022957563400268555e-01,1.118186712265014648e-01,1.142045259475708008e-01,1.142563819885253906e-01,1.143056154251098633e-01,1.136617660522460938e-01,1.146417856216430664e-01
-2.962005138397216797e-02,-3.078019618988037109e-02,-3.091585636138916016e-02,-3.297448158264160156e-02,-3.395187854766845703e-02,-3.486311435699462891e-02,-3.470337390899658203e-02,-3.359353542327880859e-02,-3.434073925018310547e-02,-3.315150737762451172e-02,-3.192627429962158203e-02,-3.253638744354248047e-02,-3.309583663940429688e-02,-3.546035289764404297e-02,-3.868448734283447266e-02,-4.091620445251464844e-02,-4.093825817108154297e-02,-4.028403759002685547e-02,-3.994083404541015625e-02,-3.922224044799804688e-02,-3.936183452606201172e-02,-3.813242912292480469e-02,-3.636491298675537109e-02,-3.320014476776123047e-02,-3.134429454803466797e-02,-3.084409236907958984e-02,-3.157067298889160156e-02,-3.191101551055908203e-02,-3.517377376556396484e-02,-3.661477565765380859e-02,-3.712403774261474609e-02,-3.671252727508544922e-02,-3.625047206878662109e-02,-3.557157516479492188e-02,-3.517639636993408203e-02,-3.201663494110107422e-02,-2.469193935394287109e-02,-1.314711570739746094e-02,4.983425140380859375e-03,1.563465595245361328e-02,1.030993461608886719e-01,1.118202209472656250e-01,1.149989366531372070e-01,1.150157451629638672e-01,1.143071651458740234e-01,1.144472360610961914e-01,1.146433353424072266e-01
