-3.166556358337402344e-03,-1.050698757171630859e-02,-1.494097709655761719e-02,-1.759457588195800781e-02,-1.780450344085693359e-02,-1.553261280059814453e-02,-1.115250587463378906e-02,-8.812069892883300781e-03,-7.351994514465332031e-03,-7.669806480407714844e-03,-8.261322975158691406e-03,-1.030397415161132812e-02,-1.228082180023193359e-02,-1.329886913299560547e-02,-1.382946968078613281e-02,-1.382267475128173828e-02,-1.288318634033203125e-02,-1.239848136901855469e-02,-1.314651966094970703e-02,-1.383626461029052734e-02,-1.415979862213134766e-02,-1.677334308624267578e-02,-1.814413070678710938e-02,-1.687717437744140625e-02,-1.471269130706787109e-02,-1.421189308166503906e-02,-1.027405261993408203e-02,-8.720278739929199219e-03,-7.371306419372558594e-03,-5.854606628417968750e-03,-5.915760993957519531e-03,-6.823658943176269531e-03,-7.665038108825683594e-03,-9.301066398620605469e-03,-9.265899658203125000e-03,-1.243531703948974609e-02,-1.316869258880615234e-02,-1.702630519866943359e-02,-1.851367950439453125e-02,-1.997935771942138672e-02,-2.526617050170898438e-02,-2.585589885711669922e-02,-2.723133563995361328e-02,-2.991569042205810547e-02,-2.932894229888916016e-02,-2.901494503021240234e-02,-2.913117408752441406e-02
-8.819341659545898438e-03,-1.238358020782470703e-02,-1.507508754730224609e-02,-1.759314537048339844e-02,-1.872944831848144531e-02,-1.645398139953613281e-02,-1.023375988006591797e-02,-7.896780967712402344e-03,-6.440281867980957031e-03,-6.153941154479980469e-03,-8.838653564453125000e-03,-8.500218391418457031e-03,-1.048421859741210938e-02,-1.150941848754882812e-02,-1.293933391571044922e-02,-1.205122470855712891e-02,-1.200032234191894531e-02,-1.239693164825439453e-02,-1.314496994018554688e-02,-1.383459568023681641e-02,-1.502871513366699219e-02,-1.909494400024414062e-02,-2.134954929351806641e-02,-2.158844470977783203e-02,-2.050530910491943359e-02,-1.506078243255615234e-02,-1.111936569213867188e-02,-8.842349052429199219e-03,-6.529808044433593750e-03,-5.016803741455078125e-03,-5.126357078552246094e-03,-5.991339683532714844e-03,-6.007313728332519531e-03,-7.648706436157226562e-03,-9.264230728149414062e-03,-1.161372661590576172e-02,-1.316690444946289062e-02,-1.702463626861572266e-02,-1.932477951049804688e-02,-2.078855037689208984e-02,-2.526438236236572266e-02,-2.746522426605224609e-02,-2.883708477020263672e-02,-3.071403503417968750e-02,-3.042614459991455078e-02,-2.980792522430419922e-02,-2.992057800292968750e-02
-1.070320606231689453e-02,-1.425874233245849609e-02,-1.507353782653808594e-02,-1.759159564971923828e-02,-1.780152320861816406e-02,-1.552963256835937500e-02,-9.314656257629394531e-03,-6.981492042541503906e-03,-5.242586135864257812e-03,-5.853772163391113281e-03,-7.031321525573730469e-03,-7.597565650939941406e-03,-8.687734603881835938e-03,-9.720087051391601562e-03,-1.027226448059082031e-02,-1.028001308441162109e-02,-1.023626327514648438e-02,-1.151573657989501953e-02,-1.139008998870849609e-02,-1.470541954040527344e-02,-1.763689517974853516e-02,-2.082693576812744141e-02,-2.368903160095214844e-02,-2.524900436401367188e-02,-2.307176589965820312e-02,-1.915299892425537109e-02,-1.281177997589111328e-02,-1.052737236022949219e-02,-7.368087768554687500e-03,-5.015134811401367188e-03,-4.292130470275878906e-03,-5.158782005310058594e-03,-5.176663398742675781e-03,-7.647037506103515625e-03,-8.438944816589355469e-03,-1.079213619232177734e-02,-1.316523551940917969e-02,-1.783752441406250000e-02,-2.013576030731201172e-02,-2.159798145294189453e-02,-2.606987953186035156e-02,-2.746355533599853516e-02,-2.883541584014892578e-02,-2.991223335266113281e-02,-3.012204170227050781e-02,-2.947413921356201172e-02,-2.833652496337890625e-02
-1.078498363494873047e-02,-1.331818103790283203e-02,-1.493513584136962891e-02,-1.632237434387207031e-02,-1.687359809875488281e-02,-1.368105411529541016e-02,-9.313225746154785156e-03,-6.066203117370605469e-03,-5.241036415100097656e-03,-4.637837409973144531e-03,-4.319310188293457031e-03,-6.891131401062011719e-03,-6.521821022033691406e-03,-8.429169654846191406e-03,-7.605195045471191406e-03,-8.508443832397460938e-03,-8.472084999084472656e-03,-9.755253791809082031e-03,-1.138854026794433594e-02,-1.557457447052001953e-02,-1.850593090057373047e-02,-2.255916595458984375e-02,-2.541756629943847656e-02,-2.761352062225341797e-02,-2.392458915710449219e-02,-2.000379562377929688e-02,-1.365721225738525391e-02,-1.052570343017578125e-02,-7.366418838500976562e-03,-5.013465881347656250e-03,-4.241943359375000000e-03,-4.326343536376953125e-03,-5.174994468688964844e-03,-7.643699645996093750e-03,-9.213685989379882812e-03,-1.161038875579833984e-02,-1.398169994354248047e-02,-1.783585548400878906e-02,-2.013409137725830078e-02,-2.240538597106933594e-02,-2.606821060180664062e-02,-2.746176719665527344e-02,-2.883362770080566406e-02,-2.831017971038818359e-02,-2.852737903594970703e-02,-2.788662910461425781e-02,-2.675259113311767578e-02
-1.078212261199951172e-02,-1.319468021392822266e-02,-1.399815082550048828e-02,-1.369726657867431641e-02,-1.521027088165283203e-02,-1.161539554595947266e-02,-8.394241333007812500e-03,-4.887461662292480469e-03,-3.422856330871582031e-03,-2.826929092407226562e-03,-2.511978149414062500e-03,-4.549860954284667969e-03,-4.728913307189941406e-03,-5.751371383666992188e-03,-5.826592445373535156e-03,-6.737112998962402344e-03,-7.589221000671386719e-03,-8.874058723449707031e-03,-1.138699054718017578e-02,-1.644515991210937500e-02,-1.850438117980957031e-02,-2.342450618743896484e-02,-2.541601657867431641e-02,-2.761197090148925781e-02,-2.392303943634033203e-02,-2.000224590301513672e-02,-1.365554332733154297e-02,-1.136755943298339844e-02,-8.204460144042968750e-03,-6.684303283691406250e-03,-5.074739456176757812e-03,-5.984663963317871094e-03,-5.173325538635253906e-03,-8.467435836791992188e-03,-1.003372669219970703e-02,-1.242852210998535156e-02,-1.479816436767578125e-02,-1.783406734466552734e-02,-2.013242244720458984e-02,-2.159273624420166016e-02,-2.525925636291503906e-02,-2.665448188781738281e-02,-2.722442150115966797e-02,-2.722764015197753906e-02,-2.772903442382812500e-02,-2.709186077117919922e-02,-2.560687065124511719e-02
-9.754657745361328125e-03,-1.143717765808105469e-02,-1.198399066925048828e-02,-1.276397705078125000e-02,-1.223719120025634766e-02,-9.771943092346191406e-03,-7.475495338439941406e-03,-3.973960876464843750e-03,-2.512931823730468750e-03,-1.920580863952636719e-03,-1.607537269592285156e-03,-2.749562263488769531e-03,-2.936005592346191406e-03,-3.965497016906738281e-03,-4.936575889587402344e-03,-5.850672721862792969e-03,-7.587552070617675781e-03,-8.870959281921386719e-03,-1.226127147674560547e-02,-1.731586456298828125e-02,-1.937305927276611328e-02,-2.227675914764404297e-02,-2.541434764862060547e-02,-2.674901485443115234e-02,-2.306532859802246094e-02,-1.914811134338378906e-02,-1.365387439727783203e-02,-1.136589050292968750e-02,-9.042739868164062500e-03,-7.518887519836425781e-03,-6.741881370544433594e-03,-6.785035133361816406e-03,-5.175232887268066406e-03,-1.011645793914794922e-02,-1.090466976165771484e-02,-1.406681537628173828e-02,-1.561462879180908203e-02,-1.714169979095458984e-02,-2.013063430786132812e-02,-2.077996730804443359e-02,-2.364277839660644531e-02,-2.504169940948486328e-02,-2.697277069091796875e-02,-2.562928199768066406e-02,-2.533769607543945312e-02,-2.550435066223144531e-02,-2.402651309967041016e-02
-8.719205856323242188e-03,-1.038014888763427734e-02,-1.011538505554199219e-02,-1.089882850646972656e-02,-1.038289070129394531e-02,-8.849382400512695312e-03,-5.637764930725097656e-03,-3.060460090637207031e-03,-1.603126525878906250e-03,-1.014351844787597656e-03,-7.029771804809570312e-04,-1.501321792602539062e-03,-2.038717269897460938e-03,-3.964066505432128906e-03,-4.935026168823242188e-03,-5.849123001098632812e-03,-7.586002349853515625e-03,-9.748935699462890625e-03,-1.313555240631103516e-02,-1.610946655273437500e-02,-2.111256122589111328e-02,-2.314364910125732422e-02,-2.541279792785644531e-02,-2.524089813232421875e-02,-2.220761775970458984e-02,-1.829385757446289062e-02,-1.365232467651367188e-02,-1.136422157287597656e-02,-9.880900382995605469e-03,-9.960174560546875000e-03,-9.189605712890625000e-03,-8.448600769042968750e-03,-8.486032485961914062e-03,-1.094019412994384766e-02,-1.172661781311035156e-02,-1.488506793975830078e-02,-1.643121242523193359e-02,-1.795625686645507812e-02,-2.012896537780761719e-02,-2.077829837799072266e-02,-2.364110946655273438e-02,-2.423441410064697266e-02,-2.536714076995849609e-02,-2.510631084442138672e-02,-2.374291419982910156e-02,-2.312386035919189453e-02,-2.437579631805419922e-02
-6.836175918579101562e-03,-7.678270339965820312e-03,-9.180307388305664062e-03,-9.806513786315917969e-03,-9.455084800720214844e-03,-7.926940917968750000e-03,-5.636215209960937500e-03,-3.059029579162597656e-03,-1.601576805114746094e-03,-1.012802124023437500e-03,-1.281976699829101562e-03,-1.499772071838378906e-03,-2.037167549133300781e-03,-3.962397575378417969e-03,-5.822062492370605469e-03,-6.732463836669921875e-03,-8.465766906738281250e-03,-1.062691211700439453e-02,-1.488578319549560547e-02,-1.785600185394287109e-02,-2.198135852813720703e-02,-2.401077747344970703e-02,-2.541112899780273438e-02,-2.351987361907958984e-02,-2.134990692138671875e-02,-1.829230785369873047e-02,-1.364898681640625000e-02,-1.293337345123291016e-02,-1.220607757568359375e-02,-1.071894168853759766e-02,-1.002418994903564453e-02,-9.279489517211914062e-03,-1.014220714569091797e-02,-1.096212863922119141e-02,-1.337206363677978516e-02,-1.413595676422119141e-02,-1.642954349517822266e-02,-1.713824272155761719e-02,-2.012717723846435547e-02,-2.077662944793701172e-02,-2.202463150024414062e-02,-2.262163162231445312e-02,-2.376151084899902344e-02,-2.403092384338378906e-02,-2.214825153350830078e-02,-2.153635025024414062e-02,-2.200067043304443359e-02
-5.893945693969726562e-03,-5.797147750854492188e-03,-7.444381713867187500e-03,-8.100628852844238281e-03,-9.261250495910644531e-03,-7.925391197204589844e-03,-6.552100181579589844e-03,-3.969550132751464844e-03,-2.508401870727539062e-03,-1.916050910949707031e-03,-2.505898475646972656e-03,-3.293156623840332031e-03,-4.347205162048339844e-03,-4.853010177612304688e-03,-5.820393562316894531e-03,-6.730914115905761719e-03,-8.047580718994140625e-03,-1.238429546356201172e-02,-1.576006412506103516e-02,-1.872861385345458984e-02,-2.285027503967285156e-02,-2.487790584564208984e-02,-2.540957927703857422e-02,-2.265870571136474609e-02,-1.963627338409423828e-02,-1.743829250335693359e-02,-1.520180702209472656e-02,-1.377689838409423828e-02,-1.230716705322265625e-02,-1.079487800598144531e-02,-1.085865497589111328e-02,-1.011037826538085938e-02,-1.096785068511962891e-02,-1.176214218139648438e-02,-1.337027549743652344e-02,-1.413428783416748047e-02,-1.642787456512451172e-02,-1.713657379150390625e-02,-1.931273937225341797e-02,-1.996386051177978516e-02,-2.121567726135253906e-02,-2.181446552276611328e-02,-2.190232276916503906e-02,-2.243256568908691406e-02,-2.105391025543212891e-02,-1.994872093200683594e-02,-2.086579799652099609e-02
-4.951596260070800781e-03,-5.795598030090332031e-03,-7.442951202392578125e-03,-8.099079132080078125e-03,-9.451985359191894531e-03,-8.844971656799316406e-03,-7.701754570007324219e-03,-6.055593490600585938e-03,-4.323601722717285156e-03,-4.934906959533691406e-03,-5.213022232055664062e-03,-6.339192390441894531e-03,-6.512641906738281250e-03,-6.635785102844238281e-03,-7.595896720886230469e-03,-8.940696716308593750e-03,-1.069378852844238281e-02,-1.326215267181396484e-02,-1.539707183837890625e-02,-2.047502994537353516e-02,-2.371895313262939453e-02,-2.487623691558837891e-02,-2.565133571624755859e-02,-2.265703678131103516e-02,-1.963472366333007812e-02,-1.743674278259277344e-02,-1.520013809204101562e-02,-1.377522945404052734e-02,-1.304614543914794922e-02,-1.163113117218017578e-02,-1.090562343597412109e-02,-1.094126701354980469e-02,-1.096630096435546875e-02,-1.176047325134277344e-02,-1.254498958587646484e-02,-1.488006114959716797e-02,-1.560783386230468750e-02,-1.713490486145019531e-02,-1.915132999420166016e-02,-1.978790760040283203e-02,-2.020156383514404297e-02,-2.078592777252197266e-02,-2.030026912689208984e-02,-2.003586292266845703e-02,-1.866805553436279297e-02,-1.756834983825683594e-02,-1.849615573883056641e-02
-5.032777786254882812e-03,-5.794167518615722656e-03,-7.439970970153808594e-03,-8.097529411315917969e-03,-1.037693023681640625e-02,-9.764432907104492188e-03,-1.021862030029296875e-02,-7.881641387939453125e-03,-7.614254951477050781e-03,-7.653117179870605469e-03,-7.920384407043457031e-03,-9.385943412780761719e-03,-9.198307991027832031e-03,-1.109313964843750000e-02,-9.371399879455566406e-03,-9.825825691223144531e-03,-1.157534122467041016e-02,-1.501953601837158203e-02,-1.715075969696044922e-02,-2.134752273559570312e-02,-2.341377735137939453e-02,-2.574336528778076172e-02,-2.478647232055664062e-02,-2.179574966430664062e-02,-1.963305473327636719e-02,-1.743352413177490234e-02,-1.604735851287841797e-02,-1.377356052398681641e-02,-1.388800144195556641e-02,-1.246750354766845703e-02,-1.090395450592041016e-02,-1.093959808349609375e-02,-1.096463203430175781e-02,-1.175880432128906250e-02,-1.254332065582275391e-02,-1.405835151672363281e-02,-1.478791236877441406e-02,-1.782393455505371094e-02,-1.833868026733398438e-02,-1.897704601287841797e-02,-1.879024505615234375e-02,-1.917672157287597656e-02,-1.869833469390869141e-02,-1.763916015625000000e-02,-1.628220081329345703e-02,-1.566660404205322266e-02,-1.577997207641601562e-02
-5.889534950256347656e-03,-6.731867790222167969e-03,-8.373856544494628906e-03,-9.027838706970214844e-03,-1.130187511444091797e-02,-1.203060150146484375e-02,-1.113438606262207031e-02,-1.153361797332763672e-02,-1.097440719604492188e-02,-1.158583164215087891e-02,-1.276683807373046875e-02,-1.298904418945312500e-02,-1.315987110137939453e-02,-1.287591457366943359e-02,-1.246070861816406250e-02,-1.159751415252685547e-02,-1.333999633789062500e-02,-1.677691936492919922e-02,-1.978063583374023438e-02,-2.309405803680419922e-02,-2.515518665313720703e-02,-2.574169635772705078e-02,-2.453958988189697266e-02,-2.179408073425292969e-02,-1.963150501251220703e-02,-1.828420162200927734e-02,-1.689457893371582031e-02,-1.461720466613769531e-02,-1.398539543151855469e-02,-1.246595382690429688e-02,-1.090228557586669922e-02,-1.010370254516601562e-02,-1.013386249542236328e-02,-1.095545291900634766e-02,-1.254165172576904297e-02,-1.405668258666992188e-02,-1.478624343872070312e-02,-1.700758934020996094e-02,-1.752603054046630859e-02,-1.816630363464355469e-02,-1.778173446655273438e-02,-1.653730869293212891e-02,-1.629626750946044922e-02,-1.497435569763183594e-02,-1.310157775878906250e-02,-1.329147815704345703e-02,-1.262819766998291016e-02
-6.915092468261718750e-03,-8.608341217041015625e-03,-1.024317741394042969e-02,-1.182019710540771484e-02,-1.241219043731689453e-02,-1.274335384368896484e-02,-1.229155063629150391e-02,-1.271212100982666016e-02,-1.308143138885498047e-02,-1.430928707122802734e-02,-1.457488536834716797e-02,-1.604223251342773438e-02,-1.585090160369873047e-02,-1.465845108032226562e-02,-1.380920410156250000e-02,-1.336956024169921875e-02,-1.422154903411865234e-02,-1.765334606170654297e-02,-1.977908611297607422e-02,-2.396488189697265625e-02,-2.515351772308349609e-02,-2.574002742767333984e-02,-2.478325366973876953e-02,-2.179253101348876953e-02,-1.962983608245849609e-02,-1.896119117736816406e-02,-1.759314537048339844e-02,-1.630437374114990234e-02,-1.482534408569335938e-02,-1.246428489685058594e-02,-1.168823242187500000e-02,-1.093471050262451172e-02,-1.013219356536865234e-02,-1.093006134033203125e-02,-1.248395442962646484e-02,-1.405501365661621094e-02,-1.478457450866699219e-02,-1.619148254394531250e-02,-1.671338081359863281e-02,-1.654624938964843750e-02,-1.616871356964111328e-02,-1.493179798126220703e-02,-1.284587383270263672e-02,-1.071572303771972656e-02,-1.122164726257324219e-02,-1.091659069061279297e-02,-1.105153560638427734e-02
-8.798837661743164062e-03,-9.545922279357910156e-03,-1.117718219757080078e-02,-1.181876659393310547e-02,-1.315021514892578125e-02,-1.274180412292480469e-02,-1.229000091552734375e-02,-1.362621784210205078e-02,-1.518559455871582031e-02,-1.643085479736328125e-02,-1.852548122406005859e-02,-1.874935626983642578e-02,-1.892220973968505859e-02,-1.644122600555419922e-02,-1.512849330902099609e-02,-1.468563079833984375e-02,-1.510298252105712891e-02,-1.726770401000976562e-02,-2.065515518188476562e-02,-2.483749389648437500e-02,-2.602422237396240234e-02,-2.687573432922363281e-02,-2.564489841461181641e-02,-2.351021766662597656e-02,-2.048408985137939453e-02,-1.913344860076904297e-02,-1.844215393066406250e-02,-1.630270481109619141e-02,-1.482367515563964844e-02,-1.330065727233886719e-02,-1.173329353332519531e-02,-1.012361049652099609e-02,-1.013052463531494141e-02,-1.092839241027832031e-02,-1.171493530273437500e-02,-1.405334472656250000e-02,-1.396489143371582031e-02,-1.537513732910156250e-02,-1.605331897735595703e-02,-1.555573940277099609e-02,-1.455605030059814453e-02,-1.332616806030273438e-02,-1.044917106628417969e-02,-8.329868316650390625e-03,-8.841156959533691406e-03,-9.332537651062011719e-03,-1.104974746704101562e-02
-1.068270206451416016e-02,-1.130414009094238281e-02,-1.196920871734619141e-02,-1.181733608245849609e-02,-1.222229003906250000e-02,-1.202464103698730469e-02,-1.251983642578125000e-02,-1.388049125671386719e-02,-1.518416404724121094e-02,-1.824951171875000000e-02,-1.943051815032958984e-02,-2.055394649505615234e-02,-2.033388614654541016e-02,-1.863765716552734375e-02,-1.558303833007812500e-02,-1.602482795715332031e-02,-1.645386219024658203e-02,-1.814734935760498047e-02,-2.240896224975585938e-02,-2.363181114196777344e-02,-2.776718139648437500e-02,-3.094720840454101562e-02,-2.736961841583251953e-02,-2.522790431976318359e-02,-2.219462394714355469e-02,-1.998424530029296875e-02,-1.858735084533691406e-02,-1.714634895324707031e-02,-1.482200622558593750e-02,-1.329898834228515625e-02,-1.089727878570556641e-02,-1.009869575500488281e-02,-1.012325286865234375e-02,-1.092672348022460938e-02,-1.165878772735595703e-02,-1.323163509368896484e-02,-1.396310329437255859e-02,-1.455879211425781250e-02,-1.523888111114501953e-02,-1.393926143646240234e-02,-1.274001598358154297e-02,-1.172053813934326172e-02,-8.850693702697753906e-03,-7.533431053161621094e-03,-8.046507835388183594e-03,-9.015917778015136719e-03,-1.104807853698730469e-02
-1.162230968475341797e-02,-1.223826408386230469e-02,-1.196777820587158203e-02,-1.165163516998291016e-02,-1.129448413848876953e-02,-1.202309131622314453e-02,-1.251685619354248047e-02,-1.387894153594970703e-02,-1.609623432159423828e-02,-1.915824413299560547e-02,-2.033555507659912109e-02,-2.109146118164062500e-02,-2.071762084960937500e-02,-1.993775367736816406e-02,-1.868498325347900391e-02,-1.735854148864746094e-02,-1.733720302581787109e-02,-1.990830898284912109e-02,-2.328503131866455078e-02,-2.538192272186279297e-02,-2.951002120971679688e-02,-3.067147731781005859e-02,-3.120684623718261719e-02,-3.017687797546386719e-02,-2.304899692535400391e-02,-2.083492279052734375e-02,-1.858568191528320312e-02,-1.714468002319335938e-02,-1.566195487976074219e-02,-1.329731941223144531e-02,-1.006126403808593750e-02,-1.009702682495117188e-02,-9.298443794250488281e-03,-1.009964942932128906e-02,-1.171147823333740234e-02,-1.322996616363525391e-02,-1.396143436431884766e-02,-1.455712318420410156e-02,-1.508808135986328125e-02,-1.313018798828125000e-02,-1.193475723266601562e-02,-9.888410568237304688e-03,-7.002353668212890625e-03,-7.531642913818359375e-03,-7.251858711242675781e-03,-9.014129638671875000e-03,-1.104629039764404297e-02
-1.162075996398925781e-02,-1.223683357238769531e-02,-1.196634769439697266e-02,-1.165020465850830078e-02,-1.129293441772460938e-02,-1.109707355499267578e-02,-1.251542568206787109e-02,-1.479482650756835938e-02,-1.792085170745849609e-02,-2.006673812866210938e-02,-2.180492877960205078e-02,-2.289211750030517578e-02,-2.212584018707275391e-02,-2.221012115478515625e-02,-2.046406269073486328e-02,-1.913392543792724609e-02,-1.998865604400634766e-02,-2.078807353973388672e-02,-2.503883838653564453e-02,-2.713203430175781250e-02,-3.212523460388183594e-02,-3.328132629394531250e-02,-3.404545783996582031e-02,-3.189814090728759766e-02,-2.475941181182861328e-02,-2.253818511962890625e-02,-1.943290233612060547e-02,-1.714301109313964844e-02,-1.566040515899658203e-02,-1.161801815032958984e-02,-1.005959510803222656e-02,-9.262919425964355469e-03,-8.467793464660644531e-03,-1.009798049926757812e-02,-1.170980930328369141e-02,-1.322829723358154297e-02,-1.395976543426513672e-02,-1.455545425415039062e-02,-1.427364349365234375e-02,-1.393592357635498047e-02,-1.193296909332275391e-02,-9.086608886718750000e-03,-8.847236633300781250e-03,-7.797122001647949219e-03,-8.043050765991210938e-03,-9.327292442321777344e-03,-1.183187961578369141e-02
-1.246345043182373047e-02,-1.223528385162353516e-02,-1.196336746215820312e-02,-1.071870326995849609e-02,-1.036500930786132812e-02,-1.109552383422851562e-02,-1.343488693237304688e-02,-1.571059226989746094e-02,-1.883304119110107422e-02,-2.097380161285400391e-02,-2.214395999908447266e-02,-2.325642108917236328e-02,-2.391922473907470703e-02,-2.399623394012451172e-02,-2.224302291870117188e-02,-2.134037017822265625e-02,-2.264177799224853516e-02,-2.519118785858154297e-02,-2.556073665618896484e-02,-3.150832653045654297e-02,-3.357172012329101562e-02,-3.702294826507568359e-02,-3.900372982025146484e-02,-3.361940383911132812e-02,-2.885615825653076172e-02,-2.253651618957519531e-02,-2.028000354766845703e-02,-1.714146137237548828e-02,-1.397550106048583984e-02,-1.161634922027587891e-02,-9.223461151123046875e-03,-8.455395698547363281e-03,-8.466124534606933594e-03,-1.092171669006347656e-02,-1.170814037322998047e-02,-1.404488086700439453e-02,-1.477611064910888672e-02,-1.536834239959716797e-02,-1.508295536041259766e-02,-1.393413543701171875e-02,-1.193130016326904297e-02,-9.884953498840332031e-03,-9.644031524658203125e-03,-9.388446807861328125e-03,-8.834242820739746094e-03,-1.011669635772705078e-02,-1.183021068572998047e-02
-1.246201992034912109e-02,-1.223385334014892578e-02,-1.196181774139404297e-02,-1.071727275848388672e-02,-1.128852367401123047e-02,-1.109409332275390625e-02,-1.435410976409912109e-02,-1.662492752075195312e-02,-1.974523067474365234e-02,-2.247369289398193359e-02,-2.395558357238769531e-02,-2.506077289581298828e-02,-2.481532096862792969e-02,-2.399468421936035156e-02,-2.313172817230224609e-02,-2.311217784881591797e-02,-2.440989017486572266e-02,-2.480757236480712891e-02,-2.819764614105224609e-02,-3.325831890106201172e-02,-3.531825542449951172e-02,-3.936970233917236328e-02,-3.875863552093505859e-02,-3.772044181823730469e-02,-3.057014942169189453e-02,-2.578520774841308594e-02,-2.112710475921630859e-02,-1.798486709594726562e-02,-1.481378078460693359e-02,-1.161468029022216797e-02,-9.221911430358886719e-03,-8.453726768493652344e-03,-9.293437004089355469e-03,-1.094210147857666016e-02,-1.335346698760986328e-02,-1.493918895721435547e-02,-1.559257507324218750e-02,-1.618123054504394531e-02,-1.523208618164062500e-02,-1.473987102508544922e-02,-1.273322105407714844e-02,-1.251566410064697266e-02,-1.123881340026855469e-02,-1.018321514129638672e-02,-1.041817665100097656e-02,-1.090610027313232422e-02,-1.182842254638671875e-02
-1.246047019958496094e-02,-1.223242282867431641e-02,-1.196038722991943359e-02,-1.164567470550537109e-02,-1.147222518920898438e-02,-1.201713085174560547e-02,-1.435267925262451172e-02,-1.754081249237060547e-02,-2.065753936767578125e-02,-2.279102802276611328e-02,-2.486050128936767578e-02,-2.505922317504882812e-02,-2.520656585693359375e-02,-2.530419826507568359e-02,-2.491080760955810547e-02,-2.445864677429199219e-02,-2.488243579864501953e-02,-2.657198905944824219e-02,-2.995336055755615234e-02,-3.325676918029785156e-02,-3.531503677368164062e-02,-3.936803340911865234e-02,-4.049420356750488281e-02,-3.858220577239990234e-02,-3.142631053924560547e-02,-2.578365802764892578e-02,-2.112555503845214844e-02,-1.798319816589355469e-02,-1.481211185455322266e-02,-1.161301136016845703e-02,-1.005458831787109375e-02,-1.009047031402587891e-02,-1.094961166381835938e-02,-1.259469985961914062e-02,-1.417553424835205078e-02,-1.658093929290771484e-02,-1.630151271820068359e-02,-1.617956161499023438e-02,-1.670134067535400391e-02,-1.554536819458007812e-02,-1.454579830169677734e-02,-1.331579685211181641e-02,-1.203536987304687500e-02,-1.149833202362060547e-02,-1.120948791503906250e-02,-1.090431213378906250e-02,-1.182663440704345703e-02
-1.349878311157226562e-02,-1.316809654235839844e-02,-1.303613185882568359e-02,-1.257419586181640625e-02,-1.239883899688720703e-02,-1.457536220550537109e-02,-1.619327068328857422e-02,-1.845669746398925781e-02,-2.065598964691162109e-02,-2.337741851806640625e-02,-2.451145648956298828e-02,-2.505612373352050781e-02,-2.558779716491699219e-02,-2.570807933807373047e-02,-2.401745319366455078e-02,-2.445709705352783203e-02,-2.488088607788085938e-02,-2.657043933868408203e-02,-2.819287776947021484e-02,-3.237938880920410156e-02,-3.443932533264160156e-02,-3.762567043304443359e-02,-3.899884223937988281e-02,-3.771722316741943359e-02,-3.142476081848144531e-02,-2.578198909759521484e-02,-2.112388610839843750e-02,-1.798152923583984375e-02,-1.481056213378906250e-02,-1.244938373565673828e-02,-1.088738441467285156e-02,-1.175391674041748047e-02,-1.260590553283691406e-02,-1.424729824066162109e-02,-1.582086086273193359e-02,-1.740097999572753906e-02,-1.804363727569580078e-02,-1.699233055114746094e-02,-1.751065254211425781e-02,-1.635098457336425781e-02,-1.615500450134277344e-02,-1.411604881286621094e-02,-1.203370094299316406e-02,-1.070177555084228516e-02,-1.120769977569580078e-02,-1.011145114898681641e-02,-1.024997234344482422e-02
-1.443982124328613281e-02,-1.422631740570068359e-02,-1.382458209991455078e-02,-1.366901397705078125e-02,-1.498949527740478516e-02,-1.549661159515380859e-02,-1.619184017181396484e-02,-1.845514774322509766e-02,-2.065289020538330078e-02,-2.246761322021484375e-02,-2.360522747039794922e-02,-2.324867248535156250e-02,-2.480912208557128906e-02,-2.398848533630371094e-02,-2.312552928924560547e-02,-2.310585975646972656e-02,-2.303493022918701172e-02,-2.568566799163818359e-02,-2.643215656280517578e-02,-3.150188922882080078e-02,-3.268957138061523438e-02,-3.588306903839111328e-02,-3.813040256500244141e-02,-3.771555423736572266e-02,-3.228092193603515625e-02,-2.663457393646240234e-02,-2.112221717834472656e-02,-1.882529258728027344e-02,-1.649212837219238281e-02,-1.405358314514160156e-02,-1.255452632904052734e-02,-1.341748237609863281e-02,-1.509118080139160156e-02,-1.755440235137939453e-02,-1.669251918792724609e-02,-1.904284954071044922e-02,-1.886010169982910156e-02,-1.943254470825195312e-02,-1.913082599639892578e-02,-1.814925670623779297e-02,-1.695883274078369141e-02,-1.411426067352294922e-02,-1.203191280364990234e-02,-9.905338287353515625e-03,-9.620189666748046875e-03,-9.003639221191406250e-03,-1.024830341339111328e-02
-1.538097858428955078e-02,-1.610267162322998047e-02,-1.569020748138427734e-02,-1.628959178924560547e-02,-1.498806476593017578e-02,-1.570940017700195312e-02,-1.710963249206542969e-02,-1.845371723175048828e-02,-1.973760128021240234e-02,-2.187633514404296875e-02,-2.122819423675537109e-02,-2.234423160552978516e-02,-2.301251888275146484e-02,-2.130532264709472656e-02,-2.088451385498046875e-02,-2.133095264434814453e-02,-2.126729488372802734e-02,-2.342081069946289062e-02,-2.590537071228027344e-02,-2.887260913848876953e-02,-3.211402893066406250e-02,-3.414058685302734375e-02,-3.726172447204589844e-02,-3.598749637603759766e-02,-3.142154216766357422e-02,-2.748548984527587891e-02,-2.352941036224365234e-02,-1.966881752014160156e-02,-1.808357238769531250e-02,-1.657128334045410156e-02,-1.585102081298828125e-02,-1.591360569000244141e-02,-1.757633686065673828e-02,-1.920688152313232422e-02,-1.993358135223388672e-02,-1.986289024353027344e-02,-2.049481868743896484e-02,-2.105987071990966797e-02,-2.009987831115722656e-02,-1.976561546325683594e-02,-1.776278018951416016e-02,-1.411259174346923828e-02,-1.123189926147460938e-02,-9.109020233154296875e-03,-8.525967597961425781e-03,-9.001970291137695312e-03,-9.459018707275390625e-03
-1.726472377777099609e-02,-1.610124111175537109e-02,-1.677167415618896484e-02,-1.721811294555664062e-02,-1.591134071350097656e-02,-1.570785045623779297e-02,-1.618731021881103516e-02,-1.753318309783935547e-02,-1.973617076873779297e-02,-2.064788341522216797e-02,-2.122676372528076172e-02,-2.053701877593994141e-02,-2.031838893890380859e-02,-1.902651786804199219e-02,-1.909887790679931641e-02,-1.955616474151611328e-02,-1.909124851226806641e-02,-2.165675163269042969e-02,-2.502620220184326172e-02,-2.711927890777587891e-02,-3.036797046661376953e-02,-3.239810466766357422e-02,-3.403246402740478516e-02,-3.447103500366210938e-02,-3.141987323760986328e-02,-2.662968635559082031e-02,-2.352786064147949219e-02,-2.124416828155517578e-02,-1.976883411407470703e-02,-1.824915409088134766e-02,-1.752161979675292969e-02,-1.757705211639404297e-02,-1.924371719360351562e-02,-1.923263072967529297e-02,-1.998901367187500000e-02,-2.068305015563964844e-02,-2.131116390228271484e-02,-2.105808258056640625e-02,-2.091097831726074219e-02,-1.976394653320312500e-02,-1.776099205017089844e-02,-1.411092281341552734e-02,-1.043188571929931641e-02,-8.312463760375976562e-03,-7.733106613159179688e-03,-9.000182151794433594e-03,-9.457230567932128906e-03
-1.820600032806396484e-02,-1.891529560089111328e-02,-1.864099502563476562e-02,-1.721656322479248047e-02,-1.683628559112548828e-02,-1.641345024108886719e-02,-1.710665225982666016e-02,-1.844918727874755859e-02,-1.790726184844970703e-02,-1.914155483245849609e-02,-1.941204071044921875e-02,-1.963233947753906250e-02,-1.890206336975097656e-02,-1.862061023712158203e-02,-1.777899265289306641e-02,-1.866769790649414062e-02,-1.820480823516845703e-02,-1.989257335662841797e-02,-2.326905727386474609e-02,-2.536606788635253906e-02,-2.862191200256347656e-02,-3.065538406372070312e-02,-3.292429447174072266e-02,-3.274667263031005859e-02,-2.970099449157714844e-02,-2.662801742553710938e-02,-2.437686920166015625e-02,-2.208971977233886719e-02,-1.976716518402099609e-02,-1.908731460571289062e-02,-1.919233798980712891e-02,-1.924049854278564453e-02,-2.007281780242919922e-02,-2.005994319915771484e-02,-2.081263065338134766e-02,-2.150297164916992188e-02,-2.130770683288574219e-02,-2.105641365051269531e-02,-2.090919017791748047e-02,-1.976215839385986328e-02,-1.775932312011718750e-02,-1.410913467407226562e-02,-9.631872177124023438e-03,-7.516026496887207031e-03,-7.731318473815917969e-03,-8.209109306335449219e-03,-8.668065071105957031e-03
-2.103066444396972656e-02,-1.985287666320800781e-02,-1.863956451416015625e-02,-1.832044124603271484e-02,-1.683473587036132812e-02,-1.641190052032470703e-02,-1.710510253906250000e-02,-1.661288738250732422e-02,-1.699185371398925781e-02,-1.822960376739501953e-02,-1.850402355194091797e-02,-1.782500743865966797e-02,-1.800119876861572266e-02,-1.772499084472656250e-02,-1.731145381927490234e-02,-1.689279079437255859e-02,-1.820325851440429688e-02,-1.900970935821533203e-02,-2.239000797271728516e-02,-2.448856830596923828e-02,-2.774798870086669922e-02,-3.005921840667724609e-02,-3.205597400665283203e-02,-3.188359737396240234e-02,-2.969944477081298828e-02,-2.662646770477294922e-02,-2.437520027160644531e-02,-2.293503284454345703e-02,-2.135419845581054688e-02,-2.069342136383056641e-02,-1.998293399810791016e-02,-2.005541324615478516e-02,-2.090191841125488281e-02,-2.085638046264648438e-02,-2.075207233428955078e-02,-2.150130271911621094e-02,-2.048802375793457031e-02,-2.024030685424804688e-02,-2.009475231170654297e-02,-1.976048946380615234e-02,-1.695191860198974609e-02,-1.330554485321044922e-02,-9.630203247070312500e-03,-6.719708442687988281e-03,-6.147384643554687500e-03,-7.418036460876464844e-03,-5.965352058410644531e-03
-2.302134037017822266e-02,-2.172935009002685547e-02,-1.957190036773681641e-02,-1.831901073455810547e-02,-1.683318614959716797e-02,-1.641047000885009766e-02,-1.686334609985351562e-02,-1.726424694061279297e-02,-1.670491695404052734e-02,-1.731801033020019531e-02,-1.635825634002685547e-02,-1.656579971313476562e-02,-1.620101928710937500e-02,-1.641786098480224609e-02,-1.688563823699951172e-02,-1.644980907440185547e-02,-1.731693744659423828e-02,-1.900815963745117188e-02,-2.151072025299072266e-02,-2.394092082977294922e-02,-2.600181102752685547e-02,-2.832043170928955078e-02,-3.032064437866210938e-02,-3.015744686126708984e-02,-2.883994579315185547e-02,-2.662479877471923828e-02,-2.437353134155273438e-02,-2.293336391448974609e-02,-2.219617366790771484e-02,-2.153337001800537109e-02,-2.081930637359619141e-02,-2.088820934295654297e-02,-2.090024948120117188e-02,-2.002739906311035156e-02,-1.992678642272949219e-02,-2.067792415618896484e-02,-1.966810226440429688e-02,-1.942408084869384766e-02,-1.912224292755126953e-02,-1.894962787628173828e-02,-1.533925533294677734e-02,-9.069323539733886719e-03,-6.186962127685546875e-03,-4.333853721618652344e-03,-3.772377967834472656e-03,-4.259228706359863281e-03,-5.516409873962402344e-03
-2.490866184234619141e-02,-2.266681194305419922e-02,-2.050590515136718750e-02,-1.924777030944824219e-02,-1.775813102722167969e-02,-1.733160018920898438e-02,-1.617968082427978516e-02,-1.543152332305908203e-02,-1.458609104156494141e-02,-1.487493515014648438e-02,-1.454734802246093750e-02,-1.386094093322753906e-02,-1.543748378753662109e-02,-1.593410968780517578e-02,-1.688420772552490234e-02,-1.644825935363769531e-02,-1.731526851654052734e-02,-1.900494098663330078e-02,-2.150905132293701172e-02,-2.393937110900878906e-02,-2.600026130676269531e-02,-2.831876277923583984e-02,-2.945220470428466797e-02,-2.993524074554443359e-02,-2.798032760620117188e-02,-2.662312984466552734e-02,-2.437186241149902344e-02,-2.293181419372558594e-02,-2.229082584381103516e-02,-2.237331867218017578e-02,-2.165555953979492188e-02,-2.088654041290283203e-02,-2.089858055114746094e-02,-1.919853687286376953e-02,-1.827812194824218750e-02,-1.812767982482910156e-02,-1.884829998016357422e-02,-1.873517036437988281e-02,-1.830959320068359375e-02,-1.633894443511962891e-02,-1.271772384643554688e-02,-7.467508316040039062e-03,-3.795742988586425781e-03,-3.587007522583007812e-04,2.056837081909179688e-03,-7.898807525634765625e-04,4.580497741699218750e-03
-2.585017681121826172e-02,-2.266538143157958984e-02,-2.143979072570800781e-02,-1.924633979797363281e-02,-1.683020591735839844e-02,-1.640594005584716797e-02,-1.593959331512451172e-02,-1.451444625854492188e-02,-1.367449760437011719e-02,-1.246380805969238281e-02,-1.273632049560546875e-02,-1.205718517303466797e-02,-1.402819156646728516e-02,-1.463055610656738281e-02,-1.599228382110595703e-02,-1.644670963287353516e-02,-1.819849014282226562e-02,-1.988470554351806641e-02,-2.150750160217285156e-02,-2.360641956329345703e-02,-2.599871158599853516e-02,-2.831721305847167969e-02,-2.969920635223388672e-02,-2.929282188415527344e-02,-2.797865867614746094e-02,-2.576732635498046875e-02,-2.437031269073486328e-02,-2.293014526367187500e-02,-2.228915691375732422e-02,-2.237164974212646484e-02,-2.085804939270019531e-02,-2.006471157073974609e-02,-2.006614208221435547e-02,-1.919686794281005859e-02,-1.745283603668212891e-02,-1.730620861053466797e-02,-1.721024513244628906e-02,-1.779150962829589844e-02,-1.749694347381591797e-02,-1.472270488739013672e-02,-9.501218795776367188e-03,-1.641988754272460938e-03,9.850263595581054688e-04,9.679436683654785156e-03,1.152980327606201172e-02,2.056741714477539062e-02,3.633379936218261719e-02
-2.595007419586181641e-02,-2.561402320861816406e-02,-2.237379550933837891e-02,-2.017652988433837891e-02,-1.682865619659423828e-02,-1.640439033508300781e-02,-1.593816280364990234e-02,-1.332938671112060547e-02,-1.213920116424560547e-02,-1.124572753906250000e-02,-1.092529296875000000e-02,-1.115453243255615234e-02,-1.223003864288330078e-02,-1.503717899322509766e-02,-1.599073410034179688e-02,-1.733350753784179688e-02,-1.819694042205810547e-02,-1.988315582275390625e-02,-2.150595188140869141e-02,-2.360475063323974609e-02,-2.599704265594482422e-02,-2.831554412841796875e-02,-2.944898605346679688e-02,-2.906870841979980469e-02,-2.711939811706542969e-02,-2.491140365600585938e-02,-2.436864376068115234e-02,-2.292847633361816406e-02,-2.228748798370361328e-02,-2.236998081207275391e-02,-2.169263362884521484e-02,-2.006304264068603516e-02,-1.839196681976318359e-02,-1.754093170166015625e-02,-1.580405235290527344e-02,-1.648449897766113281e-02,-1.639056205749511719e-02,-1.697528362274169922e-02,-1.587331295013427734e-02,-1.229906082153320312e-02,-2.873778343200683594e-03,6.562232971191406250e-03,1.180171966552734375e-02,3.602958690017869781e-02,5.470073223114013672e-02,4.899933789648227428e-02,5.356693267822265625e-02
-2.679157257080078125e-02,-2.561247348785400391e-02,-2.237069606781005859e-02,-2.017509937286376953e-02,-1.867854595184326172e-02,-1.640284061431884766e-02,-1.593661308288574219e-02,-1.332783699035644531e-02,-1.185131072998046875e-02,-1.033771038055419922e-02,-9.114265441894531250e-03,-9.350776672363281250e-03,-1.133108139038085938e-02,-1.414167881011962891e-02,-1.598918437957763672e-02,-1.733195781707763672e-02,-1.908028125762939453e-02,-2.076280117034912109e-02,-2.325809001922607422e-02,-2.360320091247558594e-02,-2.599549293518066406e-02,-2.831399440765380859e-02,-2.883100509643554688e-02,-2.906703948974609375e-02,-2.797544002532958984e-02,-2.576398849487304688e-02,-2.436697483062744141e-02,-2.292680740356445312e-02,-2.303469181060791016e-02,-2.320992946624755859e-02,-2.169096469879150391e-02,-2.171587944030761719e-02,-1.923203468322753906e-02,-1.585042476654052734e-02,-1.497876644134521484e-02,-1.566290855407714844e-02,-1.628112792968750000e-02,-1.697361469268798828e-02,-1.424980163574218750e-02,-5.666136741638183594e-03,1.113414764404296875e-02,2.211081981658935547e-02,3.543925285339355469e-02,4.039609432220458984e-02,8.545231819152832031e-02,9.778749942779541016e-02,7.269529524174603297e-02
-2.679014205932617188e-02,-2.560949325561523438e-02,-2.236926555633544922e-02,-2.017366886138916016e-02,-1.867699623107910156e-02,-1.732409000396728516e-02,-1.593506336212158203e-02,-1.241254806518554688e-02,-1.093947887420654297e-02,-9.429693222045898438e-03,-7.882237434387207031e-03,-8.448243141174316406e-03,-1.132953166961669922e-02,-1.413857936859130859e-02,-1.687633991241455078e-02,-1.821887493133544922e-02,-1.996362209320068359e-02,-2.164256572723388672e-02,-2.413427829742431641e-02,-2.535331249237060547e-02,-2.686607837677001953e-02,-2.918100357055664062e-02,-2.944409847259521484e-02,-2.992868423461914062e-02,-2.797377109527587891e-02,-2.576243877410888672e-02,-2.436530590057373047e-02,-2.365064620971679688e-02,-2.387833595275878906e-02,-2.404987812042236328e-02,-2.416121959686279297e-02,-2.254867553710937500e-02,-2.089190483093261719e-02,-1.753759384155273438e-02,-1.580071449279785156e-02,-1.491725444793701172e-02,-1.627945899963378906e-02,-1.534283161163330078e-02,-1.004087924957275391e-02,2.559542655944824219e-03,2.169895172119140625e-02,6.905865669250488281e-02,9.478199481964111328e-02,6.833134372144529511e-02,7.795885811958994105e-02,8.620255173587088038e-02,1.044729948043823242e-01
-2.584421634674072266e-02,-2.466738224029541016e-02,-2.330315113067626953e-02,-2.017211914062500000e-02,-1.867544651031494141e-02,-1.732254028320312500e-02,-1.593363285064697266e-02,-1.332485675811767578e-02,-1.002776622772216797e-02,-8.521676063537597656e-03,-8.783698081970214844e-03,-9.347677230834960938e-03,-1.222538948059082031e-02,-1.503098011016845703e-02,-1.640701293945312500e-02,-1.821732521057128906e-02,-1.996195316314697266e-02,-2.340340614318847656e-02,-2.465426921844482422e-02,-2.622759342193603516e-02,-2.773511409759521484e-02,-2.917945384979248047e-02,-2.969276905059814453e-02,-2.992713451385498047e-02,-2.883017063140869141e-02,-2.661502361297607422e-02,-2.506768703460693359e-02,-2.377045154571533203e-02,-2.387666702270507812e-02,-2.404820919036865234e-02,-2.499759197235107422e-02,-2.338135242462158203e-02,-2.089023590087890625e-02,-1.836311817169189453e-02,-1.662254333496093750e-02,-1.573717594146728516e-02,-1.546144485473632812e-02,-1.276838779449462891e-02,-7.611751556396484375e-03,2.391028404235839844e-02,3.064095973968505859e-02,9.381091594696044922e-02,1.100759506225585938e-01,1.230019330978393555e-01,1.288079023361206055e-01,1.333773136138916016e-01,1.362148523330688477e-01
-2.584278583526611328e-02,-2.466583251953125000e-02,-2.330172061920166016e-02,-2.203273773193359375e-02,-2.165663242340087891e-02,-1.916670799255371094e-02,-1.777040958404541016e-02,-1.450693607330322266e-02,-1.275527477264404297e-02,-1.033163070678710938e-02,-9.109735488891601562e-03,-1.024734973907470703e-02,-1.312136650085449219e-02,-1.592326164245605469e-02,-1.729750633239746094e-02,-1.910424232482910156e-02,-2.172863483428955078e-02,-2.340185642242431641e-02,-2.465271949768066406e-02,-2.710175514221191406e-02,-2.773356437683105469e-02,-3.004634380340576172e-02,-3.030776977539062500e-02,-3.014600276947021484e-02,-2.968633174896240234e-02,-2.746760845184326172e-02,-2.591848373413085938e-02,-2.461576461791992188e-02,-2.387499809265136719e-02,-2.488648891448974609e-02,-2.499592304229736328e-02,-2.421402931213378906e-02,-2.255010604858398438e-02,-1.918852329254150391e-02,-1.662087440490722656e-02,-1.647770404815673828e-02,-1.464331150054931641e-02,-1.195383071899414062e-02,-1.825094223022460938e-04,2.374660968780517578e-02,8.235704898834228516e-02,1.002075672149658203e-01,1.187409162521362305e-01,1.293361186981201172e-01,1.310907602310180664e-01,1.356440782546997070e-01,1.369678974151611328e-01
-2.489531040191650391e-02,-2.466440200805664062e-02,-2.330017089843750000e-02,-2.389478683471679688e-02,-2.351152896881103516e-02,-2.237796783447265625e-02,-2.052474021911621094e-02,-1.816618442535400391e-02,-1.457393169403076172e-02,-1.214313507080078125e-02,-1.091766357421875000e-02,-1.114690303802490234e-02,-1.401734352111816406e-02,-1.770937442779541016e-02,-1.818811893463134766e-02,-2.087819576263427734e-02,-2.261185646057128906e-02,-2.428162097930908203e-02,-2.465116977691650391e-02,-2.654886245727539062e-02,-2.773201465606689453e-02,-3.004467487335205078e-02,-3.030610084533691406e-02,-3.078699111938476562e-02,-2.968466281890869141e-02,-2.832019329071044922e-02,-2.676916122436523438e-02,-2.461421489715576172e-02,-2.471864223480224609e-02,-2.488481998443603516e-02,-2.499425411224365234e-02,-2.419114112854003906e-02,-2.254843711853027344e-02,-2.001392841339111328e-02,-1.744270324707031250e-02,-1.565611362457275391e-02,-1.382529735565185547e-02,-1.032674312591552734e-02,1.301276683807373047e-02,6.441974639892578125e-02,9.752237796783447266e-02,1.145014762878417969e-01,1.250832080841064453e-01,1.308621168136596680e-01,1.328535079956054688e-01,1.364006996154785156e-01,1.377209424972534180e-01
-2.489387989044189453e-02,-2.466285228729248047e-02,-2.423393726348876953e-02,-2.482497692108154297e-02,-2.443814277648925781e-02,-2.400791645050048828e-02,-2.353358268737792969e-02,-1.999557018280029297e-02,-1.668965816497802734e-02,-1.426970958709716797e-02,-1.419651508331298828e-02,-1.564919948577880859e-02,-1.581084728240966797e-02,-1.811063289642333984e-02,-1.907861232757568359e-02,-2.176499366760253906e-02,-2.349531650543212891e-02,-2.428007125854492188e-02,-2.552902698516845703e-02,-2.622282505035400391e-02,-2.773034572601318359e-02,-3.004312515258789062e-02,-2.968633174896240234e-02,-3.014278411865234375e-02,-3.054082393646240234e-02,-2.831852436065673828e-02,-2.691066265106201172e-02,-2.534174919128417969e-02,-2.471697330474853516e-02,-2.488327026367187500e-02,-2.499258518218994141e-02,-2.421069145202636719e-02,-2.254676818847656250e-02,-2.001225948333740234e-02,-1.744103431701660156e-02,-1.565444469451904297e-02,-1.300740242004394531e-02,-9.512305259704589844e-03,2.119338512420654297e-02,8.611416816711425781e-02,1.046873331069946289e-01,1.208529472351074219e-01,1.266164779663085938e-01,1.316260099411010742e-01,1.343723535537719727e-01,1.356474161148071289e-01,1.377226114273071289e-01
-2.583682537078857422e-02,-2.560067176818847656e-02,-2.532351016998291016e-02,-2.668702602386474609e-02,-2.629292011260986328e-02,-2.585554122924804688e-02,-2.537405490875244141e-02,-2.182519435882568359e-02,-1.942253112792968750e-02,-1.821136474609375000e-02,-1.667273044586181641e-02,-1.690375804901123047e-02,-1.850187778472900391e-02,-1.990044116973876953e-02,-2.086114883422851562e-02,-2.308070659637451172e-02,-2.349364757537841797e-02,-2.477598190307617188e-02,-2.552747726440429688e-02,-2.567160129547119141e-02,-2.685642242431640625e-02,-2.743399143218994141e-02,-2.968466281890869141e-02,-2.992057800292968750e-02,-3.120613098144531250e-02,-2.985978126525878906e-02,-2.775788307189941406e-02,-2.545619010925292969e-02,-2.471530437469482422e-02,-2.488160133361816406e-02,-2.499091625213623047e-02,-2.420902252197265625e-02,-2.337586879730224609e-02,-2.083623409271240234e-02,-1.743936538696289062e-02,-1.565277576446533203e-02,-1.300573348999023438e-02,-4.508614540100097656e-03,2.119517326354980469e-02,8.611583709716796875e-02,1.118352413177490234e-01,1.216239929199218750e-01,1.273840665817260742e-01,1.301032304763793945e-01,1.320998668670654297e-01,1.348940134048461914e-01,1.369729042053222656e-01
-2.583539485931396484e-02,-2.572309970855712891e-02,-2.640497684478759766e-02,-2.779996395111083984e-02,-2.721953392028808594e-02,-2.677857875823974609e-02,-2.629351615905761719e-02,-2.393054962158203125e-02,-2.124476432800292969e-02,-2.003014087677001953e-02,-1.939058303833007812e-02,-1.870787143707275391e-02,-2.157843112945556641e-02,-2.258598804473876953e-02,-2.309894561767578125e-02,-2.396595478057861328e-02,-2.437686920166015625e-02,-2.477443218231201172e-02,-2.464640140533447266e-02,-2.479600906372070312e-02,-2.511036396026611328e-02,-2.656376361846923828e-02,-2.881813049316406250e-02,-2.991902828216552734e-02,-3.034496307373046875e-02,-3.002190589904785156e-02,-2.775621414184570312e-02,-2.630162239074707031e-02,-2.480435371398925781e-02,-2.487993240356445312e-02,-2.498924732208251953e-02,-2.420735359191894531e-02,-2.337253093719482422e-02,-2.083456516265869141e-02,-1.743769645690917969e-02,-1.483106613159179688e-02,-1.218760013580322266e-02,-3.695964813232421875e-03,2.199864387512207031e-02,7.890379428863525391e-02,1.118367910385131836e-01,1.208561658859252930e-01,1.243239641189575195e-01,1.285804510116577148e-01,1.298257112503051758e-01,1.326305866241455078e-01,1.354717016220092773e-01
-2.583384513854980469e-02,-2.572154998779296875e-02,-2.734243869781494141e-02,-2.796959877014160156e-02,-2.814483642578125000e-02,-2.770006656646728516e-02,-2.721297740936279297e-02,-2.576363086700439453e-02,-2.306711673736572266e-02,-2.184879779815673828e-02,-2.267122268676757812e-02,-2.375459671020507812e-02,-2.337539196014404297e-02,-2.437579631805419922e-02,-2.531850337982177734e-02,-2.531421184539794922e-02,-2.526021003723144531e-02,-2.427375316619873047e-02,-2.412307262420654297e-02,-2.359044551849365234e-02,-2.423655986785888672e-02,-2.482497692108154297e-02,-2.795147895812988281e-02,-2.905404567718505859e-02,-3.034341335296630859e-02,-3.002035617828369141e-02,-2.860534191131591797e-02,-2.629995346069335938e-02,-2.480268478393554688e-02,-2.487826347351074219e-02,-2.498757839202880859e-02,-2.502059936523437500e-02,-2.420163154602050781e-02,-2.083289623260498047e-02,-1.743602752685546875e-02,-1.564931869506835938e-02,-1.218593120574951172e-02,-3.694295883178710938e-03,2.200031280517578125e-02,5.145919322967529297e-02,1.054705381393432617e-01,1.160523891448974609e-01,1.235598325729370117e-01,1.245415210723876953e-01,1.280573606491088867e-01,1.308461427688598633e-01,1.336709260940551758e-01
-2.498769760131835938e-02,-2.571856975555419922e-02,-2.733957767486572266e-02,-2.779543399810791016e-02,-2.761280536651611328e-02,-2.769851684570312500e-02,-2.720987796783447266e-02,-2.576208114624023438e-02,-2.456724643707275391e-02,-2.488934993743896484e-02,-2.425360679626464844e-02,-2.592647075653076172e-02,-2.555525302886962891e-02,-2.747046947479248047e-02,-2.842676639556884766e-02,-2.708959579467773438e-02,-2.525866031646728516e-02,-2.376377582550048828e-02,-2.271139621734619141e-02,-2.304470539093017578e-02,-2.336275577545166016e-02,-2.395462989807128906e-02,-2.708482742309570312e-02,-2.818930149078369141e-02,-3.034174442291259766e-02,-3.001868724822998047e-02,-2.860367298126220703e-02,-2.629828453063964844e-02,-2.480101585388183594e-02,-2.487659454345703125e-02,-2.577900886535644531e-02,-2.503848075866699219e-02,-2.503061294555664062e-02,-2.248537540435791016e-02,-1.825785636901855469e-02,-1.564764976501464844e-02,-1.300060749053955078e-02,-3.692626953125000000e-03,2.280390262603759766e-02,4.098367691040039062e-02,1.054722070693969727e-01,1.160539388656616211e-01,1.235615015029907227e-01,1.253072023391723633e-01,1.272987127304077148e-01,1.300909519195556641e-01,1.329194307327270508e-01
-2.403855323791503906e-02,-2.571713924407958984e-02,-2.719032764434814453e-02,-2.779400348663330078e-02,-2.721357345581054688e-02,-2.769696712493896484e-02,-2.720844745635986328e-02,-2.759516239166259766e-02,-2.610337734222412109e-02,-2.579987049102783203e-02,-2.606868743896484375e-02,-2.628707885742187500e-02,-2.915668487548828125e-02,-2.926397323608398438e-02,-3.066623210906982422e-02,-2.797651290893554688e-02,-2.525699138641357422e-02,-2.288115024566650391e-02,-2.183401584625244141e-02,-2.216899394989013672e-02,-2.248883247375488281e-02,-2.308440208435058594e-02,-2.621817588806152344e-02,-2.841031551361083984e-02,-2.948045730590820312e-02,-2.916300296783447266e-02,-2.775132656097412109e-02,-2.544963359832763672e-02,-2.555394172668457031e-02,-2.571654319763183594e-02,-2.577733993530273438e-02,-2.585339546203613281e-02,-2.502894401550292969e-02,-2.331089973449707031e-02,-1.907968521118164062e-02,-1.646590232849121094e-02,-1.381516456604003906e-02,-2.880096435546875000e-03,2.360749244689941406e-02,4.098534584045410156e-02,1.054738759994506836e-01,1.168267726898193359e-01,1.243288516998291016e-01,1.270608901977539062e-01,1.298307180404663086e-01,1.326355934143066406e-01,1.354767084121704102e-01
-2.403712272644042969e-02,-2.571570873260498047e-02,-2.733659744262695312e-02,-2.779245376586914062e-02,-2.721202373504638672e-02,-2.677106857299804688e-02,-2.720689773559570312e-02,-2.667641639709472656e-02,-2.701556682586669922e-02,-2.671027183532714844e-02,-2.697551250457763672e-02,-2.899801731109619141e-02,-3.005611896514892578e-02,-3.105723857879638672e-02,-3.199923038482666016e-02,-2.975201606750488281e-02,-2.702522277832031250e-02,-2.287948131561279297e-02,-2.095663547515869141e-02,-2.041935920715332031e-02,-2.192223072052001953e-02,-2.308285236358642578e-02,-2.535152435302734375e-02,-2.754712104797363281e-02,-2.861917018890380859e-02,-2.830708026885986328e-02,-2.774965763092041016e-02,-2.629494667053222656e-02,-2.555227279663085938e-02,-2.571487426757812500e-02,-2.577412128448486328e-02,-2.585184574127197266e-02,-2.502727508544921875e-02,-2.330911159515380859e-02,-1.990151405334472656e-02,-1.810395717620849609e-02,-1.462984085083007812e-02,2.921938896179199219e-03,3.176093101501464844e-02,5.067312717437744141e-02,1.110701560974121094e-01,1.216337680816650391e-01,1.258622407913208008e-01,1.285870075225830078e-01,1.321080923080444336e-01,1.333922147750854492e-01,1.362297534942626953e-01
-2.403557300567626953e-02,-2.571415901184082031e-02,-2.733504772186279297e-02,-2.796208858489990234e-02,-2.813875675201416016e-02,-2.769398689270019531e-02,-2.720534801483154297e-02,-2.575600147247314453e-02,-2.639210224151611328e-02,-2.670717239379882812e-02,-2.788066864013671875e-02,-2.899646759033203125e-02,-3.095579147338867188e-02,-3.195333480834960938e-02,-3.378534317016601562e-02,-3.241419792175292969e-02,-2.879166603088378906e-02,-2.287793159484863281e-02,-2.095508575439453125e-02,-2.041780948638916016e-02,-2.192056179046630859e-02,-2.221262454986572266e-02,-2.448487281799316406e-02,-2.668416500091552734e-02,-2.775800228118896484e-02,-2.745127677917480469e-02,-2.689754962921142578e-02,-2.702605724334716797e-02,-2.563941478729248047e-02,-2.655470371246337891e-02,-2.581894397735595703e-02,-2.586603164672851562e-02,-2.585625648498535156e-02,-2.500176429748535156e-02,-2.325832843780517578e-02,-2.147078514099121094e-02,-1.626074314117431641e-02,-3.687500953674316406e-03,4.481542110443115234e-02,7.404518127441406250e-02,1.141711473464965820e-01,1.231743097305297852e-01,1.281613111495971680e-01,1.301131248474121094e-01,1.328684091567993164e-01,1.341489553451538086e-01,1.369827985763549805e-01
-2.498042583465576172e-02,-2.665531635284423828e-02,-2.733361721038818359e-02,-2.872300148010253906e-02,-2.720749378204345703e-02,-2.584195137023925781e-02,-2.628290653228759766e-02,-2.483713626861572266e-02,-2.518355846405029297e-02,-2.579367160797119141e-02,-2.697086334228515625e-02,-2.899491786956787109e-02,-3.095424175262451172e-02,-3.374516963958740234e-02,-3.421890735626220703e-02,-3.330099582672119141e-02,-2.879011631011962891e-02,-2.287638187408447266e-02,-2.095353603363037109e-02,-2.041614055633544922e-02,-2.104866504669189453e-02,-2.221107482910156250e-02,-2.448332309722900391e-02,-2.582108974456787109e-02,-2.689671516418457031e-02,-2.744960784912109375e-02,-2.760517597198486328e-02,-2.702438831329345703e-02,-2.639412879943847656e-02,-2.732288837432861328e-02,-2.745032310485839844e-02,-2.668464183807373047e-02,-2.585458755493164062e-02,-2.582895755767822266e-02,-2.408194541931152344e-02,-2.311277389526367188e-02,-2.045738697052001953e-02,2.925276756286621094e-03,4.800307750701904297e-02,1.020594835281372070e-01,1.189763545989990234e-01,1.247147321701049805e-01,1.296945810317993164e-01,1.316391229629516602e-01,1.336286067962646484e-01,1.349055767059326172e-01,1.369844675064086914e-01
-2.592504024505615234e-02,-2.665388584136962891e-02,-2.733206748962402344e-02,-2.778649330139160156e-02,-2.627789974212646484e-02,-2.491593360900878906e-02,-2.443945407867431641e-02,-2.391839027404785156e-02,-2.426826953887939453e-02,-2.488029003143310547e-02,-2.662909030914306641e-02,-2.899336814880371094e-02,-3.095269203186035156e-02,-3.374350070953369141e-02,-3.421735763549804688e-02,-3.329944610595703125e-02,-2.878856658935546875e-02,-2.287471294403076172e-02,-2.095186710357666016e-02,-2.041304111480712891e-02,-2.104544639587402344e-02,-2.220952510833740234e-02,-2.361667156219482422e-02,-2.581954002380371094e-02,-2.623546123504638672e-02,-2.727854251861572266e-02,-2.845597267150878906e-02,-2.787160873413085938e-02,-2.808117866516113281e-02,-2.732133865356445312e-02,-2.744865417480468750e-02,-2.669703960418701172e-02,-2.585291862487792969e-02,-2.582728862762451172e-02,-2.490568161010742188e-02,-2.393269538879394531e-02,-2.045571804046630859e-02,2.926945686340332031e-03,6.824433803558349609e-02,1.084369421005249023e-01,1.205240488052368164e-01,1.262552738189697266e-01,1.314275264739990234e-01,1.324031352996826172e-01,1.336302757263183594e-01,1.341522932052612305e-01,1.354833841323852539e-01
-2.592217922210693359e-02,-2.665233612060546875e-02,-2.732908725738525391e-02,-2.667057514190673828e-02,-2.442014217376708984e-02,-2.306520938873291016e-02,-2.351701259613037109e-02,-2.208197116851806641e-02,-2.335298061370849609e-02,-2.365541458129882812e-02,-2.515113353729248047e-02,-2.718245983123779297e-02,-3.004992008209228516e-02,-3.284442424774169922e-02,-3.378069400787353516e-02,-3.152096271514892578e-02,-2.701735496520996094e-02,-2.249848842620849609e-02,-2.095031738281250000e-02,-2.041137218475341797e-02,-2.104389667510986328e-02,-2.248537540435791016e-02,-2.361500263214111328e-02,-2.581799030303955078e-02,-2.709174156188964844e-02,-2.727699279785156250e-02,-2.845430374145507812e-02,-2.798235416412353516e-02,-2.807950973510742188e-02,-2.739131450653076172e-02,-2.660715579986572266e-02,-2.668130397796630859e-02,-2.585124969482421875e-02,-2.582561969757080078e-02,-2.490401268005371094e-02,-2.310931682586669922e-02,-2.045404911041259766e-02,2.928733825683593750e-03,7.627689838409423828e-02,1.107740402221679688e-01,1.220718622207641602e-01,1.287413835525512695e-01,1.314291954040527344e-01,1.324046850204467773e-01,1.328732967376708984e-01,1.326439380645751953e-01,1.321778297424316406e-01
-2.592062950134277344e-02,-2.664935588836669922e-02,-2.638876438140869141e-02,-2.480542659759521484e-02,-2.256226539611816406e-02,-2.121460437774658203e-02,-1.866531372070312500e-02,-1.997578144073486328e-02,-2.152407169342041016e-02,-2.365386486053466797e-02,-2.514970302581787109e-02,-2.718102931976318359e-02,-3.004837036132812500e-02,-3.104794025421142578e-02,-2.976334095001220703e-02,-2.842342853546142578e-02,-2.387547492980957031e-02,-2.111279964447021484e-02,-2.007269859313964844e-02,-2.040982246398925781e-02,-2.104222774505615234e-02,-2.248370647430419922e-02,-2.361345291137695312e-02,-2.581632137298583984e-02,-2.709007263183593750e-02,-2.812969684600830078e-02,-2.859222888946533203e-02,-2.871716022491455078e-02,-2.807784080505371094e-02,-2.731800079345703125e-02,-2.660560607910156250e-02,-2.667963504791259766e-02,-2.584958076477050781e-02,-2.412796020507812500e-02,-2.490234375000000000e-02,-2.310764789581298828e-02,-1.963412761688232422e-02,1.033449172973632812e-02,6.824767589569091797e-02,1.163566112518310547e-01,1.220734119415283203e-01,1.270279884338378906e-01,1.289336681365966797e-01,1.306667327880859375e-01,1.298406124114990234e-01,1.285907030105590820e-01,1.303806304931640625e-01
