-3.370976448059082031e-02,-3.425884246826171875e-02,-3.388500213623046875e-02,-3.238546848297119141e-02,-3.212916851043701172e-02,-3.144752979278564453e-02,-3.018558025360107422e-02,-2.945804595947265625e-02,-2.383792400360107422e-02,-2.145934104919433594e-02,-9.899973869323730469e-03,8.096694946289062500e-04,8.709895610809326172e-02,9.668207168579101562e-02,9.829318523406982422e-02,1.014984846115112305e-01,1.040111780166625977e-01,1.041685342788696289e-01,1.082936525344848633e-01,1.085489988327026367e-01,1.079218387603759766e-01,1.082667112350463867e-01,1.076900959014892578e-01,1.081252098083496094e-01,1.060683727264404297e-01,1.070899963378906250e-01,1.053675413131713867e-01,1.059937477111816406e-01,1.063289642333984375e-01,9.833857417106628418e-02,9.254600852727890015e-02,8.943092823028564453e-02,8.762478828430175781e-02,8.957171440124511719e-02,9.965062141418457031e-02,1.107416152954101562e-01,1.161834001541137695e-01,1.187342405319213867e-01,1.206077337265014648e-01,1.212027072906494141e-01,1.238682270050048828e-01,1.237883567810058594e-01,1.244381666183471680e-01,1.250724792480468750e-01,1.250612735748291016e-01,1.236814260482788086e-01,1.223208904266357422e-01
-3.515851497650146484e-02,-3.512585163116455078e-02,-3.474843502044677734e-02,-3.410995006561279297e-02,-3.537702560424804688e-02,-3.315770626068115234e-02,-3.246080875396728516e-02,-3.200256824493408203e-02,-2.636623382568359375e-02,-2.397668361663818359e-02,-1.406967639923095703e-02,-8.295178413391113281e-03,7.100319862365722656e-02,9.028196334838867188e-02,9.268355369567871094e-02,9.915554523468017578e-02,9.920942783355712891e-02,1.009334325790405273e-01,9.788537025451660156e-02,1.021742820739746094e-01,1.023236513137817383e-01,1.034405231475830078e-01,1.059494018554687500e-01,1.050565242767333984e-01,1.030069589614868164e-01,1.055637598037719727e-01,1.030881404876708984e-01,1.029685735702514648e-01,1.033109426498413086e-01,9.372293204069137573e-02,8.257842063903808594e-02,8.450281620025634766e-02,8.568489551544189453e-02,8.929538726806640625e-02,9.891366958618164062e-02,1.092768907546997070e-01,1.139960289001464844e-01,1.187359094619750977e-01,1.171318292617797852e-01,1.177196502685546875e-01,1.224358081817626953e-01,1.209290027618408203e-01,1.230131387710571289e-01,1.243644952774047852e-01,1.222308874130249023e-01,1.222742795944213867e-01,1.223226785659790039e-01
-3.545105457305908203e-02,-3.599262237548828125e-02,-3.710782527923583984e-02,-3.583467006683349609e-02,-3.604245185852050781e-02,-3.486788272857666016e-02,-3.502166271209716797e-02,-3.369832038879394531e-02,-3.134763240814208984e-02,-2.727770805358886719e-02,-2.155041694641113281e-02,-1.659202575683593750e-02,3.854990005493164062e-02,7.824242115020751953e-02,8.788502216339111328e-02,6.119859899793352737e-02,7.303644398994306453e-02,1.009351015090942383e-01,9.457979351282119751e-02,9.656034409999847412e-02,9.281361103057861328e-02,9.376311302185058594e-02,9.976732730865478516e-02,1.025185585021972656e-01,1.019880771636962891e-01,1.017457246780395508e-01,1.012682914733886719e-01,9.960889816284179688e-02,1.006999015808105469e-01,8.803884907444912977e-02,8.352249860763549805e-02,8.074796199798583984e-02,8.118951320648193359e-02,8.632063865661621094e-02,9.249913692474365234e-02,1.050883531570434570e-01,1.083437204360961914e-01,1.138169765472412109e-01,1.143813133239746094e-01,1.183217763900756836e-01,1.160637140274047852e-01,1.181350946426391602e-01,1.194475889205932617e-01,1.215480566024780273e-01,1.186923980712890625e-01,1.196116805076599121e-01,1.202166080474853516e-01
-3.690314292907714844e-02,-3.833782672882080078e-02,-3.772819042205810547e-02,-3.820502758026123047e-02,-3.862488269805908203e-02,-3.743398189544677734e-02,-3.758227825164794922e-02,-3.624284267425537109e-02,-3.303611278533935547e-02,-2.980065345764160156e-02,-2.569830417633056641e-02,-1.908791065216064453e-02,-1.327633857727050781e-02,6.453490257263183594e-02,5.971896648406982422e-02,7.028615474700927734e-02,7.433748245239257812e-02,7.378733158111572266e-02,6.915283203125000000e-02,7.616446819156408310e-02,7.274806499481201172e-02,9.472334384918212891e-02,9.569454193115234375e-02,8.492251897328778609e-02,8.723339937361224150e-02,9.945547580718994141e-02,8.419780356102976593e-02,9.349287301301956177e-02,9.691798686981201172e-02,8.210341512195526437e-02,7.613503932952880859e-02,7.505059242248535156e-02,7.744359970092773438e-02,8.089864253997802734e-02,8.607029914855957031e-02,9.794974327087402344e-02,1.006797552108764648e-01,1.017621755599975586e-01,1.093004941940307617e-01,1.120637655258178711e-01,1.125581264495849609e-01,1.124004125595092773e-01,1.166393756866455078e-01,1.165683269500732422e-01,1.172695159912109375e-01,1.180083751678466797e-01,1.145292520523071289e-01
-3.690159320831298828e-02,-3.920638561248779297e-02,-3.859519958496093750e-02,-3.928411006927490234e-02,-3.948462009429931641e-02,-3.914439678192138672e-02,-3.843474388122558594e-02,-3.708994388580322266e-02,-3.472471237182617188e-02,-3.148198127746582031e-02,-2.821028232574462891e-02,-2.324199676513671875e-02,-1.659011840820312500e-02,8.368492126464843750e-04,3.616833686828613281e-02,5.654656887054443359e-02,4.240992829641875017e-02,5.137372179888188839e-02,5.703663555604796681e-02,6.116360181878353203e-02,6.384575053265220679e-02,6.351542472839355469e-02,6.853372603654861450e-02,7.038251175121829073e-02,7.286366075277328491e-02,6.913685798645019531e-02,7.589280605316162109e-02,6.971681952990335662e-02,6.906935438269473648e-02,7.267785072326660156e-02,7.002758979797363281e-02,6.858754158020019531e-02,6.978046894073486328e-02,7.491862773895263672e-02,7.739484310150146484e-02,8.783841133117675781e-02,9.480071067810058594e-02,1.023246049880981445e-01,9.251720859454228008e-02,9.768509864807128906e-02,1.025514602661132812e-01,1.020977664738893509e-01,1.094886064529418945e-01,1.130118370056152344e-01,1.108827590942382812e-01,1.158621311187744141e-01,1.137727499008178711e-01
-3.689992427825927734e-02,-3.920483589172363281e-02,-3.946220874786376953e-02,-3.928089141845703125e-02,-3.966808319091796875e-02,-3.914117813110351562e-02,-3.856515884399414062e-02,-3.708827495574951172e-02,-3.472304344177246094e-02,-3.148031234741210938e-02,-2.904653549194335938e-02,-2.574312686920166016e-02,-2.157950401306152344e-02,-1.405560970306396484e-02,2.226555347442626953e-02,1.826515870967081873e-02,4.441750049591064453e-02,3.450460312888026237e-02,3.978828896558092576e-02,4.286932296537120102e-02,4.527023905201962156e-02,4.825332805771252731e-02,3.637111186981201172e-02,4.078733921051025391e-02,4.912519454956054688e-02,4.890716075897216797e-02,5.799292507939614316e-02,5.806071262033480479e-02,5.834141021062221044e-02,5.170500278472900391e-02,6.816387176513671875e-02,6.783437728881835938e-02,6.676959991455078125e-02,6.422400474548339844e-02,7.167673110961914062e-02,6.474661827087402344e-02,7.731102034449578719e-02,8.044493228437439580e-02,8.291079680765829629e-02,8.686074425103301744e-02,8.899702003289913788e-02,9.132977810345198344e-02,9.362242519855500100e-02,9.407781543476241570e-02,9.361842338894976745e-02,9.535273164510726929e-02,9.739667896566719940e-02
-3.689837455749511719e-02,-3.920328617095947266e-02,-3.946053981781005859e-02,-3.927922248840332031e-02,-3.861832618713378906e-02,-3.742742538452148438e-02,-3.672158718109130859e-02,-3.623795509338378906e-02,-3.472137451171875000e-02,-3.310441970825195312e-02,-3.236544132232666016e-02,-2.824437618255615234e-02,-2.573120594024658203e-02,-1.904749870300292969e-02,-1.579046249389648438e-03,1.581799983978271484e-02,1.914227008819580078e-02,2.014017105102539062e-02,2.199220657348632812e-02,3.123629093170166016e-02,3.157842159271240234e-02,3.006456493689068504e-02,3.062057495117187500e-02,3.323552645040007969e-02,4.183053970336914062e-02,3.644405860377817469e-02,3.680139386023466297e-02,3.717428396614092662e-02,3.987083766948093522e-02,5.056464672088623047e-02,5.173218250274658203e-02,5.138993263244628906e-02,5.124540506832061387e-02,5.355774611234664917e-02,5.795967578887939453e-02,5.899798870086669922e-02,6.528925895690917969e-02,6.789529323577880859e-02,7.054448127746582031e-02,6.821799278259277344e-02,6.592130661010742188e-02,6.803143024444580078e-02,8.019614362945923225e-02,7.293212413787841797e-02,7.653009891510009766e-02,8.016502857208251953e-02,8.454787731170654297e-02
-3.864479064941406250e-02,-3.920161724090576172e-02,-3.945887088775634766e-02,-3.906345367431640625e-02,-3.794586658477783203e-02,-3.656995296478271484e-02,-3.515088558197021484e-02,-3.538751602172851562e-02,-3.378880023956298828e-02,-3.310120105743408203e-02,-3.236377239227294922e-02,-3.239464759826660156e-02,-2.824032306671142578e-02,-2.318120002746582031e-02,-1.812565326690673828e-02,-1.051414012908935547e-02,-7.970094680786132812e-03,1.194989681243896484e-02,1.783990859985351562e-02,2.052986621856689453e-02,1.607191562652587891e-02,1.210734957893347050e-02,1.670861244201660156e-02,1.329850964248180389e-02,1.470947829896913049e-02,6.451845169067382812e-03,1.716013767598372625e-02,2.906668186187744141e-02,2.115996098811073062e-02,2.408224447364253756e-02,2.830696105957031250e-02,3.144386485219002186e-02,3.893017768859863281e-02,3.886135345074668429e-02,4.469144344329833984e-02,5.398619174957275391e-02,5.581915378570556641e-02,5.770266056060791016e-02,5.903255939483642578e-02,5.641516160808111163e-02,5.891221131790768534e-02,6.723833084106445312e-02,6.791794300079345703e-02,6.507057608926998526e-02,6.932199001312255859e-02,7.440018653869628906e-02,7.019433351057879911e-02
-4.039108753204345703e-02,-4.007041454315185547e-02,-3.969836235046386719e-02,-3.841280937194824219e-02,-3.708469867706298828e-02,-3.571236133575439453e-02,-3.429687023162841797e-02,-3.368842601776123047e-02,-3.378713130950927734e-02,-3.394281864166259766e-02,-3.320181369781494141e-02,-3.323090076446533203e-02,-3.156852722167968750e-02,-2.984547615051269531e-02,-2.141773700714111328e-02,-1.633322238922119141e-02,-6.236791610717773438e-03,-5.181193351745605469e-03,-7.465243339538574219e-03,-5.689620971679687500e-03,-5.329489707946777344e-03,1.595806272950435597e-04,1.123859144557835810e-03,1.062214374542236328e-02,6.157159805297851562e-03,5.190491676330566406e-03,3.167152404785156250e-03,4.297137260437011719e-03,9.701848030090332031e-03,1.165342330932617188e-02,1.404654979705810547e-02,2.031087875366210938e-02,2.934193611145019531e-02,3.487014770507812500e-02,3.688478469848632812e-02,2.927875026944093406e-02,4.576313495635986328e-02,4.540348052978515625e-02,3.828995022922754288e-02,3.952491822603501626e-02,4.122456928545779192e-02,4.402124881744384766e-02,4.690444469451904297e-02,4.473450418342563017e-02,4.630001347798567979e-02,4.811670038849115427e-02,5.079473748516578208e-02
-4.301142692565917969e-02,-4.180943965911865234e-02,-4.143023490905761719e-02,-3.992521762847900391e-02,-3.708302974700927734e-02,-3.571081161499023438e-02,-3.429520130157470703e-02,-3.442180156707763672e-02,-3.378546237945556641e-02,-3.394114971160888672e-02,-3.399813175201416016e-02,-3.408014774322509766e-02,-3.239929676055908203e-02,-3.150165081024169922e-02,-2.896738052368164062e-02,-2.134132385253906250e-02,-1.449835300445556641e-02,-1.099574565887451172e-02,-1.004457473754882812e-02,-7.932186126708984375e-03,-9.345889091491699219e-03,-7.311701774597167969e-03,-1.026749610900878906e-02,-1.080620288848876953e-02,-1.450729370117187500e-02,-9.760632179677486420e-03,-5.469519119229047585e-03,-5.894328707889203746e-03,-5.383898586695713522e-03,-5.931481858715415348e-03,-2.494254145679659310e-03,-1.199436187744140625e-02,-1.106059551239013672e-02,1.057561092516955299e-02,2.224421501159667969e-02,1.564977352435772268e-02,3.472816944122314453e-02,4.184556007385253906e-02,2.508215170593992502e-02,3.040456771850585938e-02,3.252756595611572266e-02,2.431583404541015625e-02,2.623635727482346441e-02,2.422440052032470703e-02,2.756596792419001643e-02,3.306841850280761719e-02,3.753328323364257812e-02
-4.475772380828857422e-02,-4.354846477508544922e-02,-4.316222667694091797e-02,-4.165351390838623047e-02,-3.880059719085693359e-02,-3.656506538391113281e-02,-3.514587879180908203e-02,-3.368508815765380859e-02,-3.378379344940185547e-02,-3.478276729583740234e-02,-3.483796119689941406e-02,-3.490340709686279297e-02,-3.406262397766113281e-02,-3.403139114379882812e-02,-2.807831764221191406e-02,-2.462637424468994141e-02,-2.114546298980712891e-02,-1.763570308685302734e-02,-1.571869850158691406e-02,-1.231777667999267578e-02,-1.195752620697021484e-02,-1.234149932861328125e-02,-1.130998134613037109e-02,-1.338609028607606888e-02,-1.609468460083007812e-02,-1.785230636596679688e-02,-2.225232124328613281e-02,-2.346742153167724609e-02,-2.387452125549316406e-02,-3.680408000946044922e-02,-3.167247772216796875e-02,-3.777754306793212891e-02,-5.457851479747402937e-03,-9.301543235778808594e-03,-9.000301361083984375e-05,9.899854660034179688e-03,1.197397708892822266e-02,1.029062271118164062e-02,1.660406589508056641e-02,2.010560035705566406e-02,2.372562885284423828e-02,2.209686647568430418e-02,2.102583646774291992e-02,1.615142822265625000e-02,2.057301998138427734e-02,2.116604212482096903e-02,1.622796058654785156e-02
-4.562997817993164062e-02,-4.528772830963134766e-02,-4.402720928192138672e-02,-4.251682758331298828e-02,-4.051792621612548828e-02,-3.827536106109619141e-02,-3.599655628204345703e-02,-3.537929058074951172e-02,-3.462910652160644531e-02,-3.478109836578369141e-02,-3.483629226684570312e-02,-3.573966026306152344e-02,-3.406095504760742188e-02,-3.402960300445556641e-02,-2.972733974456787109e-02,-2.964735031127929688e-02,-2.441596984863281250e-02,-2.170622348785400391e-02,-1.896047592163085938e-02,-1.636123657226562500e-02,-1.598298549652099609e-02,-1.416599750518798828e-02,-1.505506038665771484e-02,-1.637947559356689453e-02,-1.927137374877929688e-02,-1.896405220031738281e-02,-2.540719509124755859e-02,-2.504050731658935547e-02,-2.791762351989746094e-02,-3.366720676422119141e-02,-3.136337548494338989e-02,-3.747045993804931641e-02,-3.806555271148681641e-02,-3.472256660461425781e-02,-1.491010189056396484e-02,-3.349065780639648438e-03,3.091096878051757812e-03,1.088559627532958984e-02,1.074540615081787109e-02,1.648640632629394531e-02,1.638698577880859375e-02,1.570870168507099152e-02,1.497585047036409378e-02,-5.269050598144531250e-05,9.400673809328250266e-03,8.830724681010012136e-03,1.701867580413818359e-02
-4.562842845916748047e-02,-4.589927196502685547e-02,-4.552900791168212891e-02,-4.424500465393066406e-02,-4.377651214599609375e-02,-3.998541831970214844e-02,-3.769958019256591797e-02,-3.537762165069580078e-02,-3.462743759155273438e-02,-3.477942943572998047e-02,-3.483462333679199219e-02,-3.490006923675537109e-02,-3.489172458648681641e-02,-3.485870361328125000e-02,-3.309774398803710938e-02,-3.137612342834472656e-02,-2.955305576324462891e-02,-2.592074871063232422e-02,-2.399289608001708984e-02,-1.959574222564697266e-02,-1.920306682586669922e-02,-1.737868785858154297e-02,-1.930677890777587891e-02,-1.824629306793212891e-02,-2.035975456237792969e-02,-2.292633056640625000e-02,-2.417671680450439453e-02,-2.976298332214355469e-02,-3.133814781904220581e-02,-3.644037246704101562e-02,-3.479850292205810547e-02,-3.512811660766601562e-02,-4.039347171783447266e-02,-3.703963756561279297e-02,-2.311372756958007812e-02,-1.151859760284423828e-02,-2.783894538879394531e-03,3.514289855957031250e-03,4.125475883483886719e-03,4.001498222351074219e-03,1.052093505859375000e-02,6.665084976702928543e-03,6.595849990844726562e-04,1.993954181671142578e-03,-2.275466918945312500e-03,-9.627580642700195312e-03,-8.771419525146484375e-03
-4.534077644348144531e-02,-4.502546787261962891e-02,-4.552733898162841797e-02,-4.575765132904052734e-02,-4.549753665924072266e-02,-4.240071773529052734e-02,-3.855025768280029297e-02,-3.622472286224365234e-02,-3.462576866149902344e-02,-3.393447399139404297e-02,-3.399145603179931641e-02,-3.406047821044921875e-02,-3.489005565643310547e-02,-3.485691547393798828e-02,-3.392302989959716797e-02,-3.293788433074951172e-02,-3.119456768035888672e-02,-2.918410301208496094e-02,-2.724182605743408203e-02,-2.363908290863037109e-02,-2.102029323577880859e-02,-2.139508724212646484e-02,-2.250504493713378906e-02,-2.143740653991699219e-02,-2.354359626770019531e-02,-2.562463283538818359e-02,-2.892100811004638672e-02,-3.250646591186523438e-02,-3.212344646453857422e-02,-3.722417354583740234e-02,-3.792476654052734375e-02,-3.824698925018310547e-02,-4.272139072418212891e-02,-3.678143024444580078e-02,-2.618205547332763672e-02,-1.970970630645751953e-02,-8.091688156127929688e-03,-5.644527263939380646e-03,-3.262042999267578125e-03,-2.634525299072265625e-03,9.058713912963867188e-04,-2.613127231597900391e-03,-2.988110994920134544e-03,6.812810897827148438e-04,-8.148968219757080078e-03,-1.114233769476413727e-02,-1.625764369964599609e-02
-4.358756542205810547e-02,-4.415166378021240234e-02,-4.552578926086425781e-02,-4.575598239898681641e-02,-4.703438282012939453e-02,-4.411447048187255859e-02,-4.183328151702880859e-02,-3.781557083129882812e-02,-3.470814228057861328e-02,-3.308951854705810547e-02,-3.319180011749267578e-02,-3.322088718414306641e-02,-3.405594825744628906e-02,-3.402459621429443359e-02,-3.392136096954345703e-02,-3.375947475433349609e-02,-3.283619880676269531e-02,-3.177332878112792969e-02,-3.066003322601318359e-02,-3.049063682556152344e-02,-2.505469322204589844e-02,-2.460777759552001953e-02,-2.356183528900146484e-02,-2.462852001190185547e-02,-2.593111991882324219e-02,-2.721226215362548828e-02,-3.050124645233154297e-02,-3.250467777252197266e-02,-3.448379039764404297e-02,-3.643679618835449219e-02,-3.870499134063720703e-02,-3.855037689208984375e-02,-3.806006908416748047e-02,-3.626310825347900391e-02,-3.056895732879638672e-02,-2.260759286582469940e-02,-1.657678931951522827e-02,-8.256316184997558594e-03,-6.893754005432128906e-03,-1.003813743591308594e-02,-6.414330098778009415e-03,8.010864257812500000e-05,-2.956151962280273438e-03,-1.264333724975585938e-02,-1.189696788787841797e-02,-1.476344931870698929e-02,-1.618862152099609375e-02
-4.095876216888427734e-02,-4.327785968780517578e-02,-4.552412033081054688e-02,-4.575431346893310547e-02,-4.703271389007568359e-02,-4.582834243774414062e-02,-4.353976249694824219e-02,-3.622138500213623047e-02,-3.301453590393066406e-02,-3.140127658843994141e-02,-3.151071071624755859e-02,-3.154361248016357422e-02,-3.155505657196044922e-02,-3.232038021087646484e-02,-3.309273719787597656e-02,-3.293442726135253906e-02,-3.271842002868652344e-02,-3.258979320526123047e-02,-3.310155868530273438e-02,-2.949619293212890625e-02,-2.908897399902343750e-02,-2.780395001173019409e-02,-2.676737308502197266e-02,-2.702128887176513672e-02,-2.831864356994628906e-02,-2.959430217742919922e-02,-3.005635738372802734e-02,-3.329205513000488281e-02,-3.448200225830078125e-02,-3.564941883087158203e-02,-3.870320320129394531e-02,-3.854858875274658203e-02,-3.883481025695800781e-02,-3.626132011413574219e-02,-3.287518024444580078e-02,-2.562510967254638672e-02,-1.989841461181640625e-02,-1.794910430908203125e-02,-1.293134689331054688e-02,-1.014590263366699219e-02,-1.023554801940917969e-02,-1.365241035819053650e-02,-1.259827613830566406e-02,-1.548718009144067764e-02,-2.154910564422607422e-02,-2.078092098236083984e-02,-2.067708969116210938e-02
-4.037654399871826172e-02,-4.240405559539794922e-02,-4.465401172637939453e-02,-4.575276374816894531e-02,-4.789423942565917969e-02,-4.668271541595458984e-02,-4.353809356689453125e-02,-3.621971607208251953e-02,-3.132283687591552734e-02,-2.809429168701171875e-02,-2.819025516510009766e-02,-2.821588516235351562e-02,-2.822351455688476562e-02,-2.986788749694824219e-02,-3.226375579833984375e-02,-3.136765956878662109e-02,-3.271663188934326172e-02,-3.258800506591796875e-02,-3.244388103485107422e-02,-3.192698955535888672e-02,-3.253328800201416016e-02,-2.966845035552978516e-02,-2.917110919952392578e-02,-2.953349985182285309e-02,-2.941417694091796875e-02,-3.118169307708740234e-02,-3.164017200469970703e-02,-3.338230028748512268e-02,-3.448021411895751953e-02,-3.564763069152832031e-02,-3.791940212249755859e-02,-3.824162483215332031e-02,-3.883302211761474609e-02,-3.625953197479248047e-02,-3.287327289581298828e-02,-2.792036533355712891e-02,-2.370738983154296875e-02,-2.158987522125244141e-02,-1.884675025939941406e-02,-1.530826091766357422e-02,-1.615452766418457031e-02,-1.479244232177734375e-02,-1.832592487335205078e-02,-1.709222793579101562e-02,-2.154163271188735962e-02,-2.221441268920898438e-02,-2.214908599853515625e-02
-3.862714767456054688e-02,-3.978443145751953125e-02,-4.378378391265869141e-02,-4.488432407379150391e-02,-4.702937602996826172e-02,-4.668116569519042969e-02,-4.353642463684082031e-02,-3.621804714202880859e-02,-3.132116794586181641e-02,-2.725112438201904297e-02,-2.562797069549560547e-02,-2.572143077850341797e-02,-2.738940715789794922e-02,-2.820479869842529297e-02,-3.060805797576904297e-02,-3.054070472717285156e-02,-3.189516067504882812e-02,-3.258633613586425781e-02,-3.228378295898437500e-02,-3.292512893676757812e-02,-3.334057331085205078e-02,-3.208291530609130859e-02,-3.263890743255615234e-02,-3.049981594085693359e-02,-3.100895881652832031e-02,-3.211946412920951843e-02,-3.243112564086914062e-02,-3.407955169677734375e-02,-3.526592254638671875e-02,-3.564584255218505859e-02,-3.713548183441162109e-02,-3.745961189270019531e-02,-3.727805614471435547e-02,-3.548479080200195312e-02,-3.287148475646972656e-02,-2.868449687957763672e-02,-2.522969245910644531e-02,-2.462935447692871094e-02,-2.173995971679687500e-02,-2.274167537689208984e-02,-2.133142948150634766e-02,-2.297365665435791016e-02,-1.930963993072509766e-02,-2.378714084625244141e-02,-2.674329280853271484e-02,-2.670311927795410156e-02,-2.664470672607421875e-02
-3.775155544281005859e-02,-3.891074657440185547e-02,-4.204511642456054688e-02,-4.423356056213378906e-02,-4.616463184356689453e-02,-4.667949676513671875e-02,-4.353475570678710938e-02,-3.536772727966308594e-02,-3.047442436218261719e-02,-2.640795707702636719e-02,-2.483546733856201172e-02,-2.486813068389892578e-02,-2.572262287139892578e-02,-2.734208106994628906e-02,-2.806317806243896484e-02,-2.963542938232421875e-02,-3.025376796722412109e-02,-3.094851970672607422e-02,-3.162431716918945312e-02,-3.373610973358154297e-02,-3.333890438079833984e-02,-3.369200229644775391e-02,-3.344070911407470703e-02,-3.209817409515380859e-02,-3.340172767639160156e-02,-3.197443485260009766e-02,-3.401505947113037109e-02,-3.407776355743408203e-02,-3.447675704956054688e-02,-3.485846519470214844e-02,-3.635179996490478516e-02,-3.667759895324707031e-02,-3.649961948394775391e-02,-3.470993041992187500e-02,-3.210031986236572266e-02,-2.944839000701904297e-02,-2.810561656951904297e-02,-2.614820003509521484e-02,-2.477216720581054688e-02,-2.565371990203857422e-02,-2.509498596191406250e-02,-2.666938304901123047e-02,-2.600419521331787109e-02,-2.676689624786376953e-02,-2.788062207400798798e-02,-3.040361404418945312e-02,-3.107500076293945312e-02
-3.774988651275634766e-02,-3.918063640594482422e-02,-4.054558277130126953e-02,-4.250216484069824219e-02,-4.443681240081787109e-02,-4.496228694915771484e-02,-4.267919063568115234e-02,-3.451728820800781250e-02,-2.962756156921386719e-02,-2.640628814697265625e-02,-2.483212947845458984e-02,-2.403032779693603516e-02,-2.488851547241210938e-02,-2.651154994964599609e-02,-2.806138992309570312e-02,-2.881038188934326172e-02,-2.861237525939941406e-02,-2.931058406829833984e-02,-3.065145015716552734e-02,-3.129482269287109375e-02,-3.252816200256347656e-02,-3.369033336639404297e-02,-3.424251079559326172e-02,-3.369641304016113281e-02,-3.499639034271240234e-02,-3.356206417083740234e-02,-3.480589389801025391e-02,-3.444731235504150391e-02,-3.526234626770019531e-02,-3.564226627349853516e-02,-3.635001182556152344e-02,-3.620624542236328125e-02,-3.444623947143554688e-02,-3.470814228057861328e-02,-3.132927417755126953e-02,-2.868080139160156250e-02,-2.734005451202392578e-02,-2.690672874450683594e-02,-2.628743648529052734e-02,-2.651453018188476562e-02,-2.885878086090087891e-02,-2.713843248784542084e-02,-2.746868133544921875e-02,-3.049457073211669922e-02,-2.973818778991699219e-02,-3.119325637817382812e-02,-3.262317180633544922e-02
-3.687417507171630859e-02,-3.830873966217041016e-02,-3.769743442535400391e-02,-4.011785984039306641e-02,-4.136097431182861328e-02,-4.152989387512207031e-02,-3.768646717071533203e-02,-3.281831741333007812e-02,-2.962589263916015625e-02,-2.724611759185791016e-02,-2.646267414093017578e-02,-2.570080757141113281e-02,-2.653837203979492188e-02,-2.650988101959228516e-02,-2.723455429077148438e-02,-2.798509597778320312e-02,-2.861058712005615234e-02,-2.835583686828613281e-02,-2.983522415161132812e-02,-2.966773509979248047e-02,-3.090834617614746094e-02,-3.230917453765869141e-02,-3.343713283538818359e-02,-3.397488594055175781e-02,-3.499460220336914062e-02,-3.435480594635009766e-02,-3.480422496795654297e-02,-3.486347198486328125e-02,-3.526055812835693359e-02,-3.485488891601562500e-02,-3.556621074676513672e-02,-3.542602062225341797e-02,-3.444445133209228516e-02,-3.470623493194580078e-02,-3.209662437438964844e-02,-2.944481372833251953e-02,-2.810204029083251953e-02,-2.751064300537109375e-02,-2.780258655548095703e-02,-2.792203426361083984e-02,-2.877724170684814453e-02,-2.967274188995361328e-02,-3.046500682830810547e-02,-3.048872947692871094e-02,-3.271257877349853516e-02,-3.416049480438232422e-02,-3.484284877777099609e-02
-3.687262535095214844e-02,-3.682732582092285156e-02,-3.707540035247802734e-02,-3.752672672271728516e-02,-3.773081302642822266e-02,-3.654539585113525391e-02,-3.256928920745849609e-02,-3.196799755096435547e-02,-2.962434291839599609e-02,-2.801811695098876953e-02,-2.650606632232666016e-02,-2.653527259826660156e-02,-2.821516990661621094e-02,-2.736759185791015625e-02,-2.729296684265136719e-02,-2.798342704772949219e-02,-2.778911590576171875e-02,-2.767109870910644531e-02,-2.739012241363525391e-02,-2.786254882812500000e-02,-2.928853034973144531e-02,-3.069317340850830078e-02,-3.263187408447265625e-02,-3.317141532897949219e-02,-3.419482707977294922e-02,-3.468108177185058594e-02,-3.400969505310058594e-02,-3.486168384552001953e-02,-3.447139263153076172e-02,-3.521871566772460938e-02,-3.556442260742187500e-02,-3.542423248291015625e-02,-3.494107723236083984e-02,-3.470444679260253906e-02,-3.286421298980712891e-02,-3.020858764648437500e-02,-3.039205074310302734e-02,-2.918398380279541016e-02,-2.855920791625976562e-02,-2.943348884582519531e-02,-3.028535842895507812e-02,-3.117346763610839844e-02,-3.271162509918212891e-02,-3.272998332977294922e-02,-3.568720817565917969e-02,-3.564333915710449219e-02,-3.521040081977844238e-02
-3.628766536712646484e-02,-3.569281101226806641e-02,-3.707373142242431641e-02,-3.644096851348876953e-02,-3.600656986236572266e-02,-3.397595882415771484e-02,-3.171527385711669922e-02,-3.026890754699707031e-02,-2.877748012542724609e-02,-2.885973453521728516e-02,-2.818024158477783203e-02,-2.820575237274169922e-02,-2.904582023620605469e-02,-2.899301052093505859e-02,-2.888166904449462891e-02,-2.798175811767578125e-02,-2.778732776641845703e-02,-2.753615379333496094e-02,-2.641379833221435547e-02,-2.704977989196777344e-02,-2.766883373260498047e-02,-2.885067462921142578e-02,-3.102278709411621094e-02,-3.236782550811767578e-02,-3.339469432830810547e-02,-3.435122966766357422e-02,-3.365099430084228516e-02,-3.407073020935058594e-02,-3.368222713470458984e-02,-3.485310077667236328e-02,-3.556263446807861328e-02,-3.511023521423339844e-02,-3.571581840515136719e-02,-3.547573089599609375e-02,-3.440105915069580078e-02,-3.307557106018066406e-02,-3.191792964935302734e-02,-3.131783008575439453e-02,-3.083288669586181641e-02,-3.094518184661865234e-02,-3.179335594177246094e-02,-3.186762332916259766e-02,-3.420877456665039062e-02,-3.497123718261718750e-02,-3.496623039245605469e-02,-3.642940521240234375e-02,-3.632199764251708984e-02
-3.424608707427978516e-02,-3.656160831451416016e-02,-3.620541095733642578e-02,-3.579735755920410156e-02,-3.294599056243896484e-02,-3.311836719512939453e-02,-2.929401397705078125e-02,-2.941846847534179688e-02,-2.867925167083740234e-02,-2.885806560516357422e-02,-2.901649475097656250e-02,-2.987623214721679688e-02,-3.070926666259765625e-02,-3.064906597137451172e-02,-2.977085113525390625e-02,-2.962696552276611328e-02,-2.860558032989501953e-02,-2.671825885772705078e-02,-2.641201019287109375e-02,-2.623724937438964844e-02,-2.685809135437011719e-02,-2.884900569915771484e-02,-3.021752834320068359e-02,-3.208935260772705078e-02,-3.228652477264404297e-02,-3.355503082275390625e-02,-3.242051601409912109e-02,-3.327953815460205078e-02,-3.249275684356689453e-02,-3.364753723144531250e-02,-3.354787826538085938e-02,-3.464233875274658203e-02,-3.493750095367431641e-02,-3.547394275665283203e-02,-3.571581840515136719e-02,-3.460896015167236328e-02,-3.344404697418212891e-02,-3.294376656413078308e-02,-3.222346305847167969e-02,-3.310668468475341797e-02,-3.405630588531494141e-02,-3.337204456329345703e-02,-3.645539283752441406e-02,-3.571701049804687500e-02,-3.645598888397216797e-02,-3.712582588195800781e-02,-3.706037998199462891e-02
-3.424441814422607422e-02,-3.655993938446044922e-02,-3.707051277160644531e-02,-3.579568862915039062e-02,-3.294444084167480469e-02,-3.071153163909912109e-02,-3.000736236572265625e-02,-2.941524982452392578e-02,-2.867758274078369141e-02,-2.885484695434570312e-02,-3.065443038940429688e-02,-3.071057796478271484e-02,-3.153991699218750000e-02,-3.151583671569824219e-02,-3.142321109771728516e-02,-3.044879436492919922e-02,-2.860379219055175781e-02,-2.671647071838378906e-02,-2.559769153594970703e-02,-2.542483806610107422e-02,-2.604734897613525391e-02,-2.804183959960937500e-02,-2.860856056213378906e-02,-3.208768367767333984e-02,-3.179490566253662109e-02,-3.196382522583007812e-02,-3.206551074981689453e-02,-3.248870372772216797e-02,-3.170549869537353516e-02,-3.286194801330566406e-02,-3.276598453521728516e-02,-3.386211395263671875e-02,-3.415918350219726562e-02,-3.521382808685302734e-02,-3.571391105651855469e-02,-3.460705280303955078e-02,-3.479766845703125000e-02,-3.360223770141601562e-02,-3.374230861663818359e-02,-3.472506999969482422e-02,-3.631913661956787109e-02,-3.638255596160888672e-02,-3.717851638793945312e-02,-3.721058368682861328e-02,-3.720009326934814453e-02,-3.712403774261474609e-02,-3.779900074005126953e-02
-3.424274921417236328e-02,-3.655827045440673828e-02,-3.706884384155273438e-02,-3.665721416473388672e-02,-3.447663784027099609e-02,-3.156411647796630859e-02,-3.014123439788818359e-02,-3.026235103607177734e-02,-2.952289581298828125e-02,-2.969634532928466797e-02,-3.065276145935058594e-02,-3.070890903472900391e-02,-3.153824806213378906e-02,-3.151404857635498047e-02,-3.224861621856689453e-02,-3.127038478851318359e-02,-2.942204475402832031e-02,-2.753102779388427734e-02,-2.640855312347412109e-02,-2.623379230499267578e-02,-2.604556083679199219e-02,-2.804005146026611328e-02,-2.860677242279052734e-02,-3.048586845397949219e-02,-3.179311752319335938e-02,-3.196215629577636719e-02,-3.206384181976318359e-02,-3.248703479766845703e-02,-3.170371055603027344e-02,-3.207647800445556641e-02,-3.242945671081542969e-02,-3.308188915252685547e-02,-3.415739536285400391e-02,-3.521203994750976562e-02,-3.494107723236083984e-02,-3.516674041748046875e-02,-3.556144237518310547e-02,-3.497028350830078125e-02,-3.602147102355957031e-02,-3.538048267364501953e-02,-3.699338436126708984e-02,-3.713369369506835938e-02,-3.792774677276611328e-02,-3.870415687561035156e-02,-3.794419765472412109e-02,-3.786456584930419922e-02,-3.779709339141845703e-02
-3.336727619171142578e-02,-3.568637371063232422e-02,-3.793418407440185547e-02,-3.665554523468017578e-02,-3.533458709716796875e-02,-3.156244754791259766e-02,-3.085625171661376953e-02,-3.099000453948974609e-02,-2.952122688293457031e-02,-2.969467639923095703e-02,-3.065109252929687500e-02,-3.154337406158447266e-02,-3.153657913208007812e-02,-3.151237964630126953e-02,-3.224682807922363281e-02,-3.126871585845947266e-02,-2.942025661468505859e-02,-2.834558486938476562e-02,-2.721953392028808594e-02,-2.704298496246337891e-02,-2.685284614562988281e-02,-2.803838253021240234e-02,-2.860510349273681641e-02,-3.048408031463623047e-02,-3.179132938385009766e-02,-3.275501728057861328e-02,-3.320801258087158203e-02,-3.248524665832519531e-02,-3.170192241668701172e-02,-3.207457065582275391e-02,-3.242766857147216797e-02,-3.308010101318359375e-02,-3.415560722351074219e-02,-3.546845912933349609e-02,-3.493928909301757812e-02,-3.516483306884765625e-02,-3.532902523875236511e-02,-3.573226928710937500e-02,-3.677988052368164062e-02,-3.689575195312500000e-02,-3.782701492309570312e-02,-3.939127922058105469e-02,-3.854551166296005249e-02,-3.870010375976562500e-02,-3.868818283081054688e-02,-3.786265850067138672e-02,-3.779518604278564453e-02
-3.249168395996093750e-02,-3.568470478057861328e-02,-3.706395626068115234e-02,-3.729772567749023438e-02,-3.619241714477539062e-02,-3.396773338317871094e-02,-3.255939483642578125e-02,-3.183889389038085938e-02,-2.961432933807373047e-02,-3.053629398345947266e-02,-3.064942359924316406e-02,-3.070557117462158203e-02,-3.070247173309326172e-02,-3.147125244140625000e-02,-3.224515914916992188e-02,-3.044366836547851562e-02,-3.023850917816162109e-02,-2.916014194488525391e-02,-2.819442749023437500e-02,-2.785217761993408203e-02,-2.745378017425537109e-02,-2.884209156036376953e-02,-2.940690517425537109e-02,-3.128254413604736328e-02,-3.258764743804931641e-02,-3.307771682739257812e-02,-3.285288810729980469e-02,-3.248345851898193359e-02,-3.288590908050537109e-02,-3.207290172576904297e-02,-3.242576122283935547e-02,-3.307831287384033203e-02,-3.337717056274414062e-02,-3.469359874725341797e-02,-3.493750095367431641e-02,-3.460156917572021484e-02,-3.555953502655029297e-02,-3.649437427520751953e-02,-3.753852844238281250e-02,-3.765237331390380859e-02,-3.850495815277099609e-02,-3.887107595801353455e-02,-3.942859172821044922e-02,-4.019737243652343750e-02,-4.017806053161621094e-02,-3.939831256866455078e-02,-3.853392601013183594e-02
-3.161621093750000000e-02,-3.394246101379394531e-02,-3.619575500488281250e-02,-3.729617595672607422e-02,-3.619086742401123047e-02,-3.567802906036376953e-02,-3.412139415740966797e-02,-3.280353546142578125e-02,-3.130292892456054688e-02,-3.144037723541259766e-02,-3.232717514038085938e-02,-3.070390224456787109e-02,-3.153324127197265625e-02,-3.146946430206298828e-02,-3.141641616821289062e-02,-3.044199943542480469e-02,-3.023672103881835938e-02,-2.915847301483154297e-02,-2.900707721710205078e-02,-2.802872657775878906e-02,-2.906656265258789062e-02,-2.964591979980468750e-02,-3.101229667663574219e-02,-3.128075599670410156e-02,-3.338420391082763672e-02,-3.307592868804931641e-02,-3.364217281341552734e-02,-3.327071666717529297e-02,-3.248560428619384766e-02,-3.285479545593261719e-02,-3.275883197784423828e-02,-3.307652473449707031e-02,-3.337538242340087891e-02,-3.391873836517333984e-02,-3.416442871093750000e-02,-3.383207321166992188e-02,-3.555774688720703125e-02,-3.649246692657470703e-02,-3.753662109375000000e-02,-3.840899467468261719e-02,-3.850317001342773438e-02,-4.014265537261962891e-02,-4.092919826507568359e-02,-4.094338417053222656e-02,-4.092204570770263672e-02,-4.014039039611816406e-02,-3.927242755889892578e-02
-3.104197978973388672e-02,-3.307044506072998047e-02,-3.532743453979492188e-02,-3.642952442169189453e-02,-3.618919849395751953e-02,-3.567636013031005859e-02,-3.511297702789306641e-02,-3.438723087310791016e-02,-3.299129009246826172e-02,-3.312158584594726562e-02,-3.400480747222900391e-02,-3.237450122833251953e-02,-3.236401081085205078e-02,-3.146779537200927734e-02,-3.224182128906250000e-02,-3.126358985900878906e-02,-3.105473518371582031e-02,-2.997279167175292969e-02,-2.981984615325927734e-02,-2.883970737457275391e-02,-2.906477451324462891e-02,-3.036165237426757812e-02,-3.181433677673339844e-02,-3.235566616058349609e-02,-3.418076038360595703e-02,-3.466701507568359375e-02,-3.478825092315673828e-02,-3.405821323394775391e-02,-3.326952457427978516e-02,-3.285300731658935547e-02,-3.275704383850097656e-02,-3.229641914367675781e-02,-3.259706497192382812e-02,-3.314411640167236328e-02,-3.339135646820068359e-02,-3.306281566619873047e-02,-3.479027748107910156e-02,-3.496289253234863281e-02,-3.753483295440673828e-02,-3.840708732604980469e-02,-3.925800323486328125e-02,-4.008626937866210938e-02,-4.092729091644287109e-02,-4.244208335876464844e-02,-4.166603088378906250e-02,-4.088246822357177734e-02,-4.001104831695556641e-02
-3.016829490661621094e-02,-3.132832050323486328e-02,-3.359234333038330078e-02,-3.664910793304443359e-02,-3.618586063385009766e-02,-3.567469120025634766e-02,-3.582644462585449219e-02,-3.523600101470947266e-02,-3.383481502532958984e-02,-3.474783897399902344e-02,-3.480291366577148438e-02,-3.320884704589843750e-02,-3.319478034973144531e-02,-3.316688537597656250e-02,-3.306734561920166016e-02,-3.290891647338867188e-02,-3.198730945587158203e-02,-3.174602985382080078e-02,-3.063249588012695312e-02,-3.027939796447753906e-02,-3.008210659027099609e-02,-3.044939041137695312e-02,-3.181254863739013672e-02,-3.315567970275878906e-02,-3.497707843780517578e-02,-3.466522693634033203e-02,-3.446260094642639160e-02,-3.405654430389404297e-02,-3.326773643493652344e-02,-3.285121917724609375e-02,-3.275525569915771484e-02,-3.307294845581054688e-02,-3.287863731384277344e-02,-3.314232826232910156e-02,-3.261852264404296875e-02,-3.229343891143798828e-02,-3.325688838958740234e-02,-3.419697284698486328e-02,-3.601229190826416016e-02,-3.764688968658447266e-02,-3.925609588623046875e-02,-4.008436203002929688e-02,-4.167687892913818359e-02,-4.244017601013183594e-02,-4.243505001068115234e-02,-4.236888885498046875e-02,-4.000914096832275391e-02
-2.842247486114501953e-02,-2.986121177673339844e-02,-3.185725212097167969e-02,-3.319323062896728516e-02,-3.446519374847412109e-02,-3.550612926483154297e-02,-3.497064113616943359e-02,-3.523445129394531250e-02,-3.544127941131591797e-02,-3.552329540252685547e-02,-3.648424148559570312e-02,-3.486824035644531250e-02,-3.654360771179199219e-02,-3.482663631439208984e-02,-3.471958637237548828e-02,-3.455400466918945312e-02,-3.362882137298583984e-02,-3.338027000427246094e-02,-3.225970268249511719e-02,-3.208673000335693359e-02,-3.088927268981933594e-02,-3.067576885223388672e-02,-3.181087970733642578e-02,-3.315401077270507812e-02,-3.497529029846191406e-02,-3.545975685119628906e-02,-3.637206554412841797e-02,-3.563296794891357422e-02,-3.405153751373291016e-02,-3.363323211669921875e-02,-3.275346755981445312e-02,-3.307116031646728516e-02,-3.259336948394775391e-02,-3.236746788024902344e-02,-3.130924701690673828e-02,-3.152394294738769531e-02,-3.248941898345947266e-02,-3.358936309814453125e-02,-3.448963165283203125e-02,-3.612780570983886719e-02,-3.774094581604003906e-02,-4.013705253601074219e-02,-4.167509078979492188e-02,-4.243826866149902344e-02,-4.241013526916503906e-02,-4.236710071563720703e-02,-4.156458377838134766e-02
-2.667486667633056641e-02,-2.899122238159179688e-02,-3.098893165588378906e-02,-3.232860565185546875e-02,-3.360402584075927734e-02,-3.464686870574951172e-02,-3.496909141540527344e-02,-3.523278236389160156e-02,-3.628635406494140625e-02,-3.636682033538818359e-02,-3.732407093048095703e-02,-3.738021850585937500e-02,-3.738594055175781250e-02,-3.731691837310791016e-02,-3.719913959503173828e-02,-3.794252872467041016e-02,-3.527033329010009766e-02,-3.501474857330322266e-02,-3.307223320007324219e-02,-3.108847141265869141e-02,-3.088760375976562500e-02,-3.067409992218017578e-02,-3.180909156799316406e-02,-3.235042095184326172e-02,-3.417551517486572266e-02,-3.625452518463134766e-02,-3.637027740478515625e-02,-3.563117980957031250e-02,-3.524100780487060547e-02,-3.441524505615234375e-02,-3.353178501129150391e-02,-3.306937217712402344e-02,-3.210031986236572266e-02,-3.236556053161621094e-02,-3.130733966827392578e-02,-3.075468540191650391e-02,-3.172183036804199219e-02,-3.206324577331542969e-02,-3.296732902526855469e-02,-3.536748886108398438e-02,-3.698217868804931641e-02,-4.088819026947021484e-02,-4.167318344116210938e-02,-4.243648052215576172e-02,-4.240822792053222656e-02,-4.236519336700439453e-02,-4.074788093566894531e-02
-2.667319774627685547e-02,-2.725231647491455078e-02,-2.950203418731689453e-02,-3.146386146545410156e-02,-3.274297714233398438e-02,-3.310036659240722656e-02,-3.411316871643066406e-02,-3.438055515289306641e-02,-3.628468513488769531e-02,-3.721022605895996094e-02,-3.816390037536621094e-02,-3.905427455902099609e-02,-3.904461860656738281e-02,-3.980720043182373047e-02,-3.974962234497070312e-02,-3.885138034820556641e-02,-3.773367404937744141e-02,-3.664898872375488281e-02,-3.469955921173095703e-02,-3.108680248260498047e-02,-3.088581562042236328e-02,-2.963721752166748047e-02,-3.020012378692626953e-02,-3.154683113098144531e-02,-3.177905082702636719e-02,-3.465998172760009766e-02,-3.557586669921875000e-02,-3.484034538269042969e-02,-3.404796123504638672e-02,-3.362965583801269531e-02,-3.274989128112792969e-02,-3.306758403778076172e-02,-3.258979320526123047e-02,-3.232676535844802856e-02,-3.130555152893066406e-02,-3.183672204613685608e-02,-3.095436096191406250e-02,-3.129947185516357422e-02,-3.220498561859130859e-02,-3.384876251220703125e-02,-3.781402111053466797e-02,-4.013323783874511719e-02,-4.091989994049072266e-02,-4.168498516082763672e-02,-4.242944717407226562e-02,-4.236328601837158203e-02,-4.148638248443603516e-02
-2.783882617950439453e-02,-2.725076675415039062e-02,-2.950048446655273438e-02,-3.059899806976318359e-02,-3.188192844390869141e-02,-3.224289417266845703e-02,-3.240346908569335938e-02,-3.267788887023925781e-02,-3.543627262115478516e-02,-3.636348247528076172e-02,-3.816223144531250000e-02,-3.989040851593017578e-02,-4.071152210235595703e-02,-4.234504699707031250e-02,-4.146683216094970703e-02,-4.133093357086181641e-02,-3.937518596649169922e-02,-3.746533393859863281e-02,-3.551220893859863281e-02,-3.189587593078613281e-02,-2.905619144439697266e-02,-2.802455425262451172e-02,-2.833795547485351562e-02,-2.726840972900390625e-02,-2.938270568847656250e-02,-3.274095058441162109e-02,-3.160834312438964844e-02,-3.404939174652099609e-02,-3.326058387756347656e-02,-3.284406661987304688e-02,-3.241324424743652344e-02,-3.228735923767089844e-02,-3.258800506591796875e-02,-3.313684463500976562e-02,-3.261125087738037109e-02,-3.152024745941162109e-02,-3.095257282257080078e-02,-3.129756450653076172e-02,-3.220319747924804688e-02,-3.308820724487304688e-02,-3.630244731903076172e-02,-3.862512111663818359e-02,-4.016673564910888672e-02,-4.093360900878906250e-02,-4.167997837066650391e-02,-4.103730246424674988e-02,-4.148447513580322266e-02
-2.870762348175048828e-02,-2.811777591705322266e-02,-2.924907207489013672e-02,-2.973437309265136719e-02,-3.102052211761474609e-02,-3.138530254364013672e-02,-3.169393539428710938e-02,-3.267621994018554688e-02,-3.374087810516357422e-02,-3.551673889160156250e-02,-3.731906414031982422e-02,-3.988873958587646484e-02,-4.072511196136474609e-02,-4.234337806701660156e-02,-4.306173324584960938e-02,-4.206526279449462891e-02,-4.101669788360595703e-02,-3.828167915344238281e-02,-3.551042079925537109e-02,-3.189420700073242188e-02,-2.905440330505371094e-02,-2.617871761322021484e-02,-2.673256397247314453e-02,-2.486681938171386719e-02,-2.589428424835205078e-02,-2.638065814971923828e-02,-2.809107303619384766e-02,-2.972209453582763672e-02,-3.168773651123046875e-02,-3.205859661102294922e-02,-3.162956237792968750e-02,-3.228557109832763672e-02,-3.258621692657470703e-02,-3.313505649566650391e-02,-3.284049034118652344e-02,-3.228616714477539062e-02,-3.113222122192382812e-02,-3.129577636718750000e-02,-3.144097328186035156e-02,-3.394985198974609375e-02,-3.479075431823730469e-02,-3.711688518524169922e-02,-3.791093826293945312e-02,-3.943276405334472656e-02,-4.165661334991455078e-02,-4.236137866973876953e-02,-4.074215888977050781e-02
-2.957630157470703125e-02,-2.985322475433349609e-02,-2.949726581573486328e-02,-3.059566020965576172e-02,-3.101897239685058594e-02,-3.138375282287597656e-02,-3.169238567352294922e-02,-3.182411193847656250e-02,-3.289222717285156250e-02,-3.389453887939453125e-02,-3.563439846038818359e-02,-3.820979595184326172e-02,-4.072344303131103516e-02,-4.150927066802978516e-02,-4.306006431579589844e-02,-4.288876056671142578e-02,-4.195654392242431641e-02,-4.088258743286132812e-02,-3.550875186920166016e-02,-3.189241886138916016e-02,-2.824544906616210938e-02,-2.537322044372558594e-02,-2.512717247009277344e-02,-2.299368381500244141e-02,-2.270710468292236328e-02,-2.446973323822021484e-02,-2.492535114288330078e-02,-2.735829353332519531e-02,-3.011476993560791016e-02,-3.048932552337646484e-02,-3.084576129913330078e-02,-3.228378295898437500e-02,-3.258442878723144531e-02,-3.313326835632324219e-02,-3.283870220184326172e-02,-3.228437900543212891e-02,-3.113031387329101562e-02,-3.129386901855468750e-02,-3.143918514251708984e-02,-3.243446350097656250e-02,-3.327894210815429688e-02,-3.560900688171386719e-02,-3.640663623809814453e-02,-3.943300247192382812e-02,-4.090893268585205078e-02,-4.087114334106445312e-02,-4.074025154113769531e-02
-3.189969062805175781e-02,-3.072011470794677734e-02,-3.122544288635253906e-02,-3.081262111663818359e-02,-3.101730346679687500e-02,-3.154277801513671875e-02,-3.083658218383789062e-02,-3.097200393676757812e-02,-3.204369544982910156e-02,-3.304970264434814453e-02,-3.394973278045654297e-02,-3.653228282928466797e-02,-3.903615474700927734e-02,-4.067516326904296875e-02,-4.140055179595947266e-02,-4.123485088348388672e-02,-4.101336002349853516e-02,-3.827822208404541016e-02,-3.469264507293701172e-02,-3.189074993133544922e-02,-2.824366092681884766e-02,-2.537143230438232422e-02,-2.166330814361572266e-02,-2.139556407928466797e-02,-2.111256122589111328e-02,-2.637708187103271484e-02,-2.220463752746582031e-02,-2.420699596405029297e-02,-2.539777755737304688e-02,-2.813625335693359375e-02,-2.962195873260498047e-02,-3.072535991668701172e-02,-3.180599212646484375e-02,-3.313148021697998047e-02,-3.283691406250000000e-02,-3.228247165679931641e-02,-3.036463260650634766e-02,-2.976763248443603516e-02,-2.991676330566406250e-02,-3.091931343078613281e-02,-3.176736831665039062e-02,-3.410089015960693359e-02,-3.568160533905029297e-02,-3.793573379516601562e-02,-3.941524028778076172e-02,-3.938126564025878906e-02,-3.999769687652587891e-02
-3.451454639434814453e-02,-3.158700466156005859e-02,-3.208875656127929688e-02,-3.167223930358886719e-02,-3.101563453674316406e-02,-3.154110908508300781e-02,-3.168737888336181641e-02,-3.024089336395263672e-02,-3.034651279449462891e-02,-3.136146068572998047e-02,-3.315019607543945312e-02,-3.401696681976318359e-02,-3.736603260040283203e-02,-3.900849819183349609e-02,-3.974115848541259766e-02,-3.958284854888916016e-02,-3.936839103698730469e-02,-3.745853900909423828e-02,-3.469097614288330078e-02,-3.188896179199218750e-02,-2.824199199676513672e-02,-2.536976337432861328e-02,-2.246153354644775391e-02,-1.951801776885986328e-02,-1.922428607940673828e-02,-2.017617225646972656e-02,-2.062451839447021484e-02,-2.184319496154785156e-02,-2.303934097290039062e-02,-2.693247795104980469e-02,-2.805995941162109375e-02,-2.994501590728759766e-02,-3.102767467498779297e-02,-3.235650062561035156e-02,-3.183293342590332031e-02,-3.228068351745605469e-02,-3.036272525787353516e-02,-2.915465831756591797e-02,-2.852976322174072266e-02,-2.940392494201660156e-02,-3.025567531585693359e-02,-3.183972835540771484e-02,-3.418064117431640625e-02,-3.569078445434570312e-02,-3.717553615570068359e-02,-3.858411312103271484e-02,-3.851497173309326172e-02
-3.771460056304931641e-02,-3.332245349884033203e-02,-3.295207023620605469e-02,-3.167068958282470703e-02,-3.187370300292968750e-02,-3.153944015502929688e-02,-3.168570995330810547e-02,-3.023922443389892578e-02,-3.034484386444091797e-02,-3.051650524139404297e-02,-3.230881690979003906e-02,-3.233957290649414062e-02,-3.402745723724365234e-02,-3.481137752532958984e-02,-3.553140163421630859e-02,-3.710532188415527344e-02,-3.772342205047607422e-02,-3.582072257995605469e-02,-3.468930721282958984e-02,-3.188729286193847656e-02,-2.904748916625976562e-02,-2.536797523498535156e-02,-2.351832389831542969e-02,-2.139210700988769531e-02,-1.922249794006347656e-02,-1.859223842620849609e-02,-1.983356475830078125e-02,-2.105402946472167969e-02,-2.225196361541748047e-02,-2.536654472351074219e-02,-2.727806568145751953e-02,-2.916502952575683594e-02,-3.053820133209228516e-02,-3.235471248626708984e-02,-3.183114528656005859e-02,-3.151118755340576172e-02,-2.959680557250976562e-02,-2.839243412017822266e-02,-2.852797508239746094e-02,-2.864551544189453125e-02,-2.949893474578857422e-02,-3.114175796508789062e-02,-3.193020820617675781e-02,-3.344571590423583984e-02,-3.493607044219970703e-02,-3.640115261077880859e-02,-3.703200817108154297e-02
-3.712928295135498047e-02,-3.505802154541015625e-02,-3.381526470184326172e-02,-3.253030776977539062e-02,-3.205895423889160156e-02,-3.223311901092529297e-02,-3.168416023254394531e-02,-3.023755550384521484e-02,-2.949655055999755859e-02,-2.889430522918701172e-02,-3.062772750854492188e-02,-3.151822090148925781e-02,-3.317797183990478516e-02,-3.314840793609619141e-02,-3.387558460235595703e-02,-3.462779521942138672e-02,-3.443336486816406250e-02,-3.418290615081787109e-02,-3.387296199798583984e-02,-3.188383579254150391e-02,-3.087365627288818359e-02,-2.881944179534912109e-02,-2.512025833129882812e-02,-2.298665046691894531e-02,-2.160441875457763672e-02,-1.970613002777099609e-02,-2.062106132507324219e-02,-2.105224132537841797e-02,-2.225017547607421875e-02,-2.536475658416748047e-02,-2.649605274200439453e-02,-2.838480472564697266e-02,-2.976167201995849609e-02,-3.158009052276611328e-02,-3.105807304382324219e-02,-3.150939941406250000e-02,-2.959501743316650391e-02,-2.763044834136962891e-02,-2.776753902435302734e-02,-2.864372730255126953e-02,-2.874207496643066406e-02,-2.963745594024658203e-02,-3.042948246002197266e-02,-3.269624710083007812e-02,-3.344237804412841797e-02,-3.486895561218261719e-02,-3.554904460906982422e-02
-4.033315181732177734e-02,-3.592479228973388672e-02,-3.381359577178955078e-02,-3.252875804901123047e-02,-3.205728530883789062e-02,-3.223145008087158203e-02,-3.168249130249023438e-02,-3.108465671539306641e-02,-2.874445915222167969e-02,-2.805113792419433594e-02,-2.810549736022949219e-02,-2.984440326690673828e-02,-2.984476089477539062e-02,-3.061699867248535156e-02,-3.139269351959228516e-02,-3.297579288482666016e-02,-3.278851509094238281e-02,-3.336310386657714844e-02,-3.387129306793212891e-02,-3.369474411010742188e-02,-3.168106079101562500e-02,-3.065848350524902344e-02,-2.752387523651123047e-02,-2.537953853607177734e-02,-2.508747577667236328e-02,-2.287542819976806641e-02,-2.298676967620849609e-02,-2.262532711029052734e-02,-2.342653274536132812e-02,-2.458119392395019531e-02,-2.649426460266113281e-02,-2.760469913482666016e-02,-2.975988388061523438e-02,-3.080534934997558594e-02,-3.052175045013427734e-02,-3.017389774322509766e-02,-2.959322929382324219e-02,-2.762854099273681641e-02,-2.776575088500976562e-02,-2.788507938385009766e-02,-2.882170677185058594e-02,-2.888429164886474609e-02,-2.967798709869384766e-02,-3.045129776000976562e-02,-3.342092037200927734e-02,-3.338253498077392578e-02,-3.398990631103515625e-02
-4.120540618896484375e-02,-3.679168224334716797e-02,-3.467714786529541016e-02,-3.317534923553466797e-02,-3.272676467895507812e-02,-3.222978115081787109e-02,-3.168082237243652344e-02,-3.108298778533935547e-02,-2.874279022216796875e-02,-2.882504463195800781e-02,-2.810382843017578125e-02,-2.817070484161376953e-02,-2.901053428649902344e-02,-2.982246875762939453e-02,-3.056406974792480469e-02,-3.123986721038818359e-02,-3.196513652801513672e-02,-3.336143493652343750e-02,-3.321552276611328125e-02,-3.269279003143310547e-02,-3.248834609985351562e-02,-3.042864799499511719e-02,-2.912580966949462891e-02,-2.777242660522460938e-02,-2.827131748199462891e-02,-2.683758735656738281e-02,-2.649688720703125000e-02,-2.498567104339599609e-02,-2.499222755432128906e-02,-2.536118030548095703e-02,-2.727270126342773438e-02,-2.760291099548339844e-02,-2.975809574127197266e-02,-3.003060817718505859e-02,-3.051984310150146484e-02,-3.017199039459228516e-02,-2.959132194519042969e-02,-2.823424339294433594e-02,-2.700555324554443359e-02,-2.712643146514892578e-02,-2.806687355041503906e-02,-2.813112735748291016e-02,-2.892673015594482422e-02,-3.044939041137695312e-02,-3.193104267120361328e-02,-3.263831138610839844e-02,-3.324925899505615234e-02
-4.120385646820068359e-02,-3.679013252258300781e-02,-3.467547893524169922e-02,-3.338682651519775391e-02,-3.272509574890136719e-02,-3.308403491973876953e-02,-3.324115276336669922e-02,-3.193008899688720703e-02,-3.043138980865478516e-02,-2.882337570190429688e-02,-2.814364433288574219e-02,-2.816903591156005859e-02,-2.900886535644531250e-02,-2.899014949798583984e-02,-2.973532676696777344e-02,-3.049659729003906250e-02,-3.185069561004638672e-02,-3.335964679718017578e-02,-3.321385383605957031e-02,-3.369128704071044922e-02,-3.329563140869140625e-02,-3.203773498535156250e-02,-3.259360790252685547e-02,-2.965450286865234375e-02,-3.096330165863037109e-02,-2.795755863189697266e-02,-3.000700473785400391e-02,-2.614164352416992188e-02,-2.617442607879638672e-02,-2.734172344207763672e-02,-2.883124351501464844e-02,-2.915787696838378906e-02,-2.975618839263916016e-02,-3.002882003784179688e-02,-3.051805496215820312e-02,-3.017020225524902344e-02,-2.882575988769531250e-02,-2.762675285339355469e-02,-2.700364589691162109e-02,-2.712452411651611328e-02,-2.806496620178222656e-02,-2.812922000885009766e-02,-2.892494201660156250e-02,-3.044760227203369141e-02,-3.118503093719482422e-02,-3.189408779144287109e-02,-3.176999092102050781e-02
-4.090726375579833984e-02,-3.678846359252929688e-02,-3.380882740020751953e-02,-3.317058086395263672e-02,-3.272342681884765625e-02,-3.308236598968505859e-02,-3.409349918365478516e-02,-3.277707099914550781e-02,-3.127479553222656250e-02,-3.050816059112548828e-02,-2.897977828979492188e-02,-2.900338172912597656e-02,-2.901339530944824219e-02,-2.981913089752197266e-02,-3.056073188781738281e-02,-3.132009506225585938e-02,-3.196167945861816406e-02,-3.335797786712646484e-02,-3.321206569671630859e-02,-3.368949890136718750e-02,-3.350031375885009766e-02,-3.284132480621337891e-02,-3.259181976318359375e-02,-3.125274181365966797e-02,-3.065872192382812500e-02,-3.033959865570068359e-02,-2.965891361236572266e-02,-2.929651737213134766e-02,-2.852928638458251953e-02,-2.969133853912353516e-02,-3.038966655731201172e-02,-2.993428707122802734e-02,-3.052914142608642578e-02,-3.002691268920898438e-02,-3.051626682281494141e-02,-2.940273284912109375e-02,-2.882385253906250000e-02,-2.762496471405029297e-02,-2.700185775756835938e-02,-2.712273597717285156e-02,-2.806317806243896484e-02,-2.812731266021728516e-02,-2.982591651380062103e-02,-3.044569492340087891e-02,-3.118312358856201172e-02,-3.189218044281005859e-02,-3.183937072753906250e-02
-4.032671451568603516e-02,-3.591668605804443359e-02,-3.380715847015380859e-02,-3.316891193389892578e-02,-3.272187709808349609e-02,-3.393661975860595703e-02,-3.494608402252197266e-02,-3.362405300140380859e-02,-3.296315670013427734e-02,-3.134977817535400391e-02,-3.065383434295654297e-02,-3.067386150360107422e-02,-3.068029880523681641e-02,-3.147876262664794922e-02,-3.304016590118408203e-02,-3.214371204376220703e-02,-3.360331058502197266e-02,-3.335630893707275391e-02,-3.386437892913818359e-02,-3.450047969818115234e-02,-3.349852561950683594e-02,-3.283965587615966797e-02,-3.339350223541259766e-02,-3.232765197753906250e-02,-3.224968910217285156e-02,-3.272163867950439453e-02,-3.159070014953613281e-02,-3.166234493255615234e-02,-3.128099441528320312e-02,-3.125691413879394531e-02,-3.161156177520751953e-02,-3.148937225341796875e-02,-3.130197525024414062e-02,-3.079807758331298828e-02,-3.105080127716064453e-02,-3.016662597656250000e-02,-2.958583831787109375e-02,-2.762305736541748047e-02,-2.851688861846923828e-02,-2.787768840789794922e-02,-2.873277664184570312e-02,-2.887678146362304688e-02,-2.967238426208496094e-02,-3.119134902954101562e-02,-3.192532062530517578e-02,-3.263258934020996094e-02,-3.331816196441650391e-02
-3.799021244049072266e-02,-3.504669666290283203e-02,-3.380548954010009766e-02,-3.251898288726806641e-02,-3.272020816802978516e-02,-3.393495082855224609e-02,-3.494441509246826172e-02,-3.520798683166503906e-02,-3.465163707733154297e-02,-3.303468227386474609e-02,-3.229713439941406250e-02,-3.232777118682861328e-02,-3.318130970001220703e-02,-3.479957580566406250e-02,-3.469240665435791016e-02,-3.370511531829833984e-02,-3.606641292572021484e-02,-3.499078750610351562e-02,-3.484117984771728516e-02,-3.531134128570556641e-02,-3.430747985839843750e-02,-3.364336490631103516e-02,-3.419542312622070312e-02,-3.284919261932373047e-02,-3.255438804626464844e-02,-3.304421901702880859e-02,-3.281927108764648438e-02,-3.244972229003906250e-02,-3.206646442413330078e-02,-3.282272815704345703e-02,-3.194820880889892578e-02,-3.226578235626220703e-02,-3.179156780242919922e-02,-3.234207630157470703e-02,-3.128194808959960938e-02,-3.073096275329589844e-02,-3.034806251525878906e-02,-2.838146686553955078e-02,-2.921916544437408447e-02,-2.863264083862304688e-02,-2.948594093322753906e-02,-3.037738800048828125e-02,-3.042018413543701172e-02,-3.193736076354980469e-02,-3.266739845275878906e-02,-3.337299823760986328e-02,-3.398227691650390625e-02
