-2.500128746032714844e-02,-2.411055564880371094e-02,-2.333414554595947266e-02,-2.437710762023925781e-02,-2.536940574645996094e-02,-2.727305889129638672e-02,-2.911901473999023438e-02,-3.090560436248779297e-02,-3.347682952880859375e-02,-3.121495246887207031e-02,-2.903938293457031250e-02,-2.386045455932617188e-02,-2.161991596221923828e-02,-2.027583122253417969e-02,-2.097451686859130859e-02,-2.324736118316650391e-02,-2.454066276550292969e-02,-2.577543258666992188e-02,-2.661287784576416016e-02,-2.590095996856689453e-02,-2.643013000488281250e-02,-2.654731273651123047e-02,-2.618253231048583984e-02,-2.393519878387451172e-02,-2.297818660736083984e-02,-2.248418331146240234e-02,-2.234005928039550781e-02,-2.389323711395263672e-02,-2.508163452148437500e-02,-2.566540241241455078e-02,-2.532970905303955078e-02,-2.407968044281005859e-02,-2.364504337310791016e-02,-2.230489253997802734e-02,-2.106320858001708984e-02,-2.203798294067382812e-02,-2.214753627777099609e-02,-2.148377895355224609e-02,-2.164852619171142578e-02,-2.000463008880615234e-02,-1.752030849456787109e-02,-1.333248615264892578e-02,-3.321886062622070312e-03,1.327574253082275391e-02,2.649378776550292969e-02,8.892154693603515625e-02,1.097639799118041992e-01
-2.597677707672119141e-02,-2.515697479248046875e-02,-2.434456348419189453e-02,-2.534162998199462891e-02,-2.536952495574951172e-02,-2.727162837982177734e-02,-3.007125854492187500e-02,-3.185439109802246094e-02,-3.347539901733398438e-02,-3.215420246124267578e-02,-2.997505664825439453e-02,-2.385890483856201172e-02,-2.254652976989746094e-02,-2.212357521057128906e-02,-2.281844615936279297e-02,-2.508401870727539062e-02,-2.637004852294921875e-02,-2.759754657745361328e-02,-2.842426300048828125e-02,-2.770543098449707031e-02,-2.784252166748046875e-02,-2.792811393737792969e-02,-2.707147598266601562e-02,-2.393376827239990234e-02,-2.209365367889404297e-02,-2.248108386993408203e-02,-2.409219741821289062e-02,-2.443528175354003906e-02,-2.595067024230957031e-02,-2.593576908111572266e-02,-2.557146549224853516e-02,-2.429592609405517578e-02,-2.297914028167724609e-02,-2.161729335784912109e-02,-2.106165885925292969e-02,-2.118921279907226562e-02,-2.130079269409179688e-02,-2.148211002349853516e-02,-2.081072330474853516e-02,-1.918625831604003906e-02,-1.751863956451416016e-02,-1.333081722259521484e-02,-3.320217132568359375e-03,1.409006118774414062e-02,3.223443031311035156e-02,9.611535072326660156e-02,1.097656488418579102e-01
-2.773809432983398438e-02,-2.612864971160888672e-02,-2.618873119354248047e-02,-2.531075477600097656e-02,-2.728772163391113281e-02,-2.822899818420410156e-02,-3.006970882415771484e-02,-3.185284137725830078e-02,-3.347241878509521484e-02,-3.215134143829345703e-02,-2.997350692749023438e-02,-2.478897571563720703e-02,-2.347326278686523438e-02,-2.326524257659912109e-02,-2.466225624084472656e-02,-2.692091464996337891e-02,-2.819979190826416016e-02,-2.850794792175292969e-02,-2.932918071746826172e-02,-2.897322177886962891e-02,-2.963781356811523438e-02,-2.882230281829833984e-02,-2.706992626190185547e-02,-2.393209934234619141e-02,-2.209198474884033203e-02,-2.247941493988037109e-02,-2.409064769744873047e-02,-2.530956268310546875e-02,-2.594912052154541016e-02,-2.653086185455322266e-02,-2.556979656219482422e-02,-2.429437637329101562e-02,-2.297747135162353516e-02,-2.161562442779541016e-02,-2.105998992919921875e-02,-2.034068107604980469e-02,-2.045392990112304688e-02,-2.063894271850585938e-02,-2.076697349548339844e-02,-1.918458938598632812e-02,-1.751697063446044922e-02,-1.332914829254150391e-02,-3.318548202514648438e-03,1.409173011779785156e-02,3.304159641265869141e-02,9.690439701080322266e-02,1.089851856231689453e-01
-2.773666381835937500e-02,-2.710044384002685547e-02,-2.813029289245605469e-02,-2.724504470825195312e-02,-2.824676036834716797e-02,-2.918636798858642578e-02,-3.102350234985351562e-02,-3.272044658660888672e-02,-3.262794017791748047e-02,-3.214979171752929688e-02,-3.090918064117431641e-02,-2.869832515716552734e-02,-2.532804012298583984e-02,-2.489411830902099609e-02,-2.558350563049316406e-02,-2.691936492919921875e-02,-2.911198139190673828e-02,-3.032875061035156250e-02,-3.023254871368408203e-02,-3.040933609008789062e-02,-2.963626384735107422e-02,-2.882087230682373047e-02,-2.796030044555664062e-02,-2.393054962158203125e-02,-2.297353744506835938e-02,-2.335917949676513672e-02,-2.496659755706787109e-02,-2.618384361267089844e-02,-2.711677551269531250e-02,-2.766609191894531250e-02,-2.643120288848876953e-02,-2.579772472381591797e-02,-2.383184432983398438e-02,-2.230000495910644531e-02,-2.176785469055175781e-02,-2.118587493896484375e-02,-2.055287361145019531e-02,-2.070903778076171875e-02,-2.076530456542968750e-02,-1.918292045593261719e-02,-1.751530170440673828e-02,-1.332747936248779297e-02,-4.136800765991210938e-03,1.328074932098388672e-02,3.223776817321777344e-02,9.611856937408447266e-02,1.074227094650268555e-01
-2.871441841125488281e-02,-2.890169620513916016e-02,-2.910029888153076172e-02,-2.917778491973876953e-02,-2.920448780059814453e-02,-3.014373779296875000e-02,-3.102207183837890625e-02,-3.271901607513427734e-02,-3.252327442169189453e-02,-3.214824199676513672e-02,-3.090775012969970703e-02,-2.963042259216308594e-02,-2.718269824981689453e-02,-2.674162387847900391e-02,-2.650475502014160156e-02,-2.783691883087158203e-02,-3.002607822418212891e-02,-3.032720088958740234e-02,-3.023111820220947266e-02,-3.040778636932373047e-02,-2.963471412658691406e-02,-2.881920337677001953e-02,-2.795875072479248047e-02,-2.616739273071289062e-02,-2.385497093200683594e-02,-2.512013912200927734e-02,-2.548944950103759766e-02,-2.793395519256591797e-02,-2.885603904724121094e-02,-3.000199794769287109e-02,-2.729284763336181641e-02,-2.665746212005615234e-02,-2.383029460906982422e-02,-2.315258979797363281e-02,-2.190554141998291016e-02,-2.203142642974853516e-02,-2.139461040496826172e-02,-2.147722244262695312e-02,-1.996958255767822266e-02,-1.918125152587890625e-02,-1.751363277435302734e-02,-1.332581043243408203e-02,-4.135131835937500000e-03,6.695508956909179688e-03,2.569317817687988281e-02,8.971726894378662109e-02,1.066422462463378906e-01
-2.871298789978027344e-02,-2.889883518218994141e-02,-2.909743785858154297e-02,-2.917635440826416016e-02,-2.921140193939208984e-02,-3.014075756072998047e-02,-3.096354007720947266e-02,-3.176784515380859375e-02,-3.252172470092773438e-02,-3.240752220153808594e-02,-3.184342384338378906e-02,-3.056252002716064453e-02,-2.924537658691406250e-02,-2.858912944793701172e-02,-2.834880352020263672e-02,-2.967369556427001953e-02,-3.063905239105224609e-02,-3.091228008270263672e-02,-3.057706356048583984e-02,-3.077661991119384766e-02,-3.053247928619384766e-02,-2.881765365600585938e-02,-2.795708179473876953e-02,-2.705430984497070312e-02,-2.570068836212158203e-02,-2.561938762664794922e-02,-2.724671363830566406e-02,-2.968394756317138672e-02,-3.030538558959960938e-02,-3.059518337249755859e-02,-3.026330471038818359e-02,-2.751719951629638672e-02,-2.468454837799072266e-02,-2.331554889678955078e-02,-2.261519432067871094e-02,-2.202975749969482422e-02,-2.139294147491455078e-02,-2.147555351257324219e-02,-2.080404758453369141e-02,-1.999640464782714844e-02,-1.751196384429931641e-02,-1.414942741394042969e-02,-4.133462905883789062e-03,6.697177886962890625e-03,1.913428306579589844e-02,8.171880245208740234e-02,1.058620214462280273e-01
-2.871155738830566406e-02,-2.792048454284667969e-02,-2.909600734710693359e-02,-2.917492389678955078e-02,-3.016221523284912109e-02,-3.106391429901123047e-02,-3.096199035644531250e-02,-3.176641464233398438e-02,-3.252029418945312500e-02,-3.322362899780273438e-02,-3.371465206146240234e-02,-3.336012363433837891e-02,-3.223550319671630859e-02,-3.252100944519042969e-02,-3.203654289245605469e-02,-3.085863590240478516e-02,-3.155124187469482422e-02,-3.123605251312255859e-02,-3.148388862609863281e-02,-3.130757808685302734e-02,-3.092467784881591797e-02,-2.971172332763671875e-02,-2.884781360626220703e-02,-2.794122695922851562e-02,-2.747237682342529297e-02,-2.738416194915771484e-02,-2.812457084655761719e-02,-3.055810928344726562e-02,-3.174841403961181641e-02,-3.146409988403320312e-02,-3.026175498962402344e-02,-2.837705612182617188e-02,-2.620863914489746094e-02,-2.485764026641845703e-02,-2.346396446228027344e-02,-2.287507057189941406e-02,-2.223467826843261719e-02,-2.154386043548583984e-02,-2.080237865447998047e-02,-2.001059055328369141e-02,-1.751029491424560547e-02,-1.332247257232666016e-02,-4.131793975830078125e-03,6.698846817016601562e-03,1.832687854766845703e-02,7.369768619537353516e-02,1.018338203430175781e-01
-2.576732635498046875e-02,-2.611863613128662109e-02,-2.715170383453369141e-02,-2.820563316345214844e-02,-2.920842170715332031e-02,-3.013789653778076172e-02,-3.096055984497070312e-02,-3.089249134063720703e-02,-3.251874446868896484e-02,-3.322207927703857422e-02,-3.387510776519775391e-02,-3.429222106933593750e-02,-3.316581249237060547e-02,-3.437221050262451172e-02,-3.388047218322753906e-02,-3.361845016479492188e-02,-3.368341922760009766e-02,-3.272962570190429688e-02,-3.203928470611572266e-02,-3.130602836608886719e-02,-3.092324733734130859e-02,-2.970850467681884766e-02,-2.928245067596435547e-02,-2.882802486419677734e-02,-2.924263477325439453e-02,-3.002989292144775391e-02,-3.110373020172119141e-02,-3.230822086334228516e-02,-3.262066841125488281e-02,-3.173446655273437500e-02,-3.050684928894042969e-02,-2.837383747100830078e-02,-2.620708942413330078e-02,-2.485597133636474609e-02,-2.416467666625976562e-02,-2.287340164184570312e-02,-2.223300933837890625e-02,-2.231383323669433594e-02,-2.163696289062500000e-02,-2.000892162322998047e-02,-1.750862598419189453e-02,-1.249539852142333984e-02,-3.310203552246093750e-03,9.144067764282226562e-03,1.913762092590332031e-02,7.370102405548095703e-02,1.010516881942749023e-01
-2.478539943695068359e-02,-2.417075634002685547e-02,-2.520728111267089844e-02,-2.626717090606689453e-02,-2.823662757873535156e-02,-2.914571762084960938e-02,-3.000414371490478516e-02,-3.089094161987304688e-02,-3.167259693145751953e-02,-3.322064876556396484e-02,-3.402376174926757812e-02,-3.558599948883056641e-02,-3.502774238586425781e-02,-3.529703617095947266e-02,-3.597939014434814453e-02,-3.610134124755859375e-02,-3.551292419433593750e-02,-3.488051891326904297e-02,-3.294432163238525391e-02,-3.220736980438232422e-02,-3.142702579498291016e-02,-3.102064132690429688e-02,-2.973663806915283203e-02,-2.971494197845458984e-02,-2.964258193969726562e-02,-3.091144561767578125e-02,-3.163754940032958984e-02,-3.285729885101318359e-02,-3.349316120147705078e-02,-3.260147571563720703e-02,-3.137028217315673828e-02,-2.923357486724853516e-02,-2.706158161163330078e-02,-2.485430240631103516e-02,-2.416300773620605469e-02,-2.359652519226074219e-02,-2.223134040832519531e-02,-2.231216430664062500e-02,-2.163529396057128906e-02,-2.166008949279785156e-02,-1.750695705413818359e-02,-1.249372959136962891e-02,-1.668572425842285156e-03,2.229654788970947266e-02,3.466415405273437500e-02,8.093261718750000000e-02,1.002694368362426758e-01
-2.391123771667480469e-02,-2.319622039794921875e-02,-2.423441410064697266e-02,-2.529776096343994141e-02,-2.727460861206054688e-02,-2.818715572357177734e-02,-2.910292148590087891e-02,-3.081071376800537109e-02,-3.072166442871093750e-02,-3.334450721740722656e-02,-3.496158123016357422e-02,-3.634440898895263672e-02,-3.595805168151855469e-02,-3.714811801910400391e-02,-3.782689571380615234e-02,-3.793799877166748047e-02,-3.734242916107177734e-02,-3.670287132263183594e-02,-3.601920604705810547e-02,-3.310859203338623047e-02,-3.232479095458984375e-02,-3.149688243865966797e-02,-3.062713146209716797e-02,-2.971339225769042969e-02,-3.012609481811523438e-02,-3.090989589691162109e-02,-3.251540660858154297e-02,-3.285562992095947266e-02,-3.349149227142333984e-02,-3.259992599487304688e-02,-3.136861324310302734e-02,-2.923202514648437500e-02,-2.791762351989746094e-02,-2.570688724517822266e-02,-2.501380443572998047e-02,-2.444350719451904297e-02,-2.382314205169677734e-02,-2.399361133575439453e-02,-2.410554885864257812e-02,-2.249276638031005859e-02,-1.750528812408447266e-02,-1.249206066131591797e-02,4.939556121826171875e-03,3.046977519989013672e-02,4.199504852294921875e-02,8.172523975372314453e-02,9.948718547821044922e-02
-2.390992641448974609e-02,-2.311837673187255859e-02,-2.423155307769775391e-02,-2.532589435577392578e-02,-2.631247043609619141e-02,-2.725565433502197266e-02,-2.814471721649169922e-02,-2.985942363739013672e-02,-3.072023391723632812e-02,-3.239858150482177734e-02,-3.496003150939941406e-02,-3.634297847747802734e-02,-3.595507144927978516e-02,-3.738164901733398438e-02,-3.874981403350830078e-02,-3.977465629577636719e-02,-4.039573669433593750e-02,-3.852510452270507812e-02,-3.692603111267089844e-02,-3.438758850097656250e-02,-3.232169151306152344e-02,-3.149521350860595703e-02,-3.062391281127929688e-02,-2.971184253692626953e-02,-3.012454509735107422e-02,-3.090822696685791016e-02,-3.251373767852783203e-02,-3.285408020019531250e-02,-3.348994255065917969e-02,-3.259825706481933594e-02,-3.136706352233886719e-02,-3.009164333343505859e-02,-2.791607379913330078e-02,-2.570521831512451172e-02,-2.515864372253417969e-02,-2.529084682464599609e-02,-2.551186084747314453e-02,-2.567517757415771484e-02,-2.573418617248535156e-02,-2.332544326782226562e-02,-2.166485786437988281e-02,-1.331579685211181641e-02,5.759358406066894531e-03,3.942871093750000000e-02,7.193362712860107422e-02,8.972716331481933594e-02,9.948885440826416016e-02
-2.390849590301513672e-02,-2.319335937500000000e-02,-2.423012256622314453e-02,-2.532434463500976562e-02,-2.631103992462158203e-02,-2.629530429840087891e-02,-2.718806266784667969e-02,-2.898192405700683594e-02,-3.071868419647216797e-02,-3.239715099334716797e-02,-3.401780128479003906e-02,-3.540611267089843750e-02,-3.595352172851562500e-02,-3.738009929656982422e-02,-3.874838352203369141e-02,-4.005873203277587891e-02,-4.131150245666503906e-02,-4.125761985778808594e-02,-3.874099254608154297e-02,-3.709852695465087891e-02,-3.542077541351318359e-02,-3.149366378784179688e-02,-3.062236309051513672e-02,-2.971029281616210938e-02,-3.012287616729736328e-02,-3.039491176605224609e-02,-3.163278102874755859e-02,-3.285253047943115234e-02,-3.348839282989501953e-02,-3.259670734405517578e-02,-3.136539459228515625e-02,-3.008997440338134766e-02,-2.877235412597656250e-02,-2.655780315399169922e-02,-2.586281299591064453e-02,-2.528917789459228516e-02,-2.551019191741943359e-02,-2.567350864410400391e-02,-2.494025230407714844e-02,-2.497303485870361328e-02,-2.166318893432617188e-02,-1.413941383361816406e-02,1.153337955474853516e-02,4.755675792694091797e-02,8.155715465545654297e-02,9.613335132598876953e-02,1.002743244171142578e-01
-2.390706539154052734e-02,-2.416503429412841797e-02,-2.520012855529785156e-02,-2.529346942901611328e-02,-2.630960941314697266e-02,-2.722585201263427734e-02,-2.809154987335205078e-02,-2.890670299530029297e-02,-2.976930141448974609e-02,-3.132808208465576172e-02,-3.276717662811279297e-02,-3.259694576263427734e-02,-3.502023220062255859e-02,-3.644907474517822266e-02,-3.874528408050537109e-02,-4.005718231201171875e-02,-4.160988330841064453e-02,-4.125607013702392578e-02,-3.964769840240478516e-02,-3.890621662139892578e-02,-3.722119331359863281e-02,-3.328347206115722656e-02,-3.151285648345947266e-02,-3.059542179107666016e-02,-3.012132644653320312e-02,-3.002202510833740234e-02,-3.075170516967773438e-02,-3.142273426055908203e-02,-3.173720836639404297e-02,-3.259503841400146484e-02,-3.222882747650146484e-02,-3.073108196258544922e-02,-2.877068519592285156e-02,-2.723944187164306641e-02,-2.600598335266113281e-02,-2.613627910614013672e-02,-2.550852298736572266e-02,-2.489113807678222656e-02,-2.493858337402343750e-02,-2.413523197174072266e-02,-1.832747459411621094e-02,-1.331245899200439453e-02,4.126548767089843750e-03,5.325138568878173828e-02,8.877348899841308594e-02,9.770977497100830078e-02,1.010597944259643555e-01
-2.477693557739257812e-02,-2.603781223297119141e-02,-2.714157104492187500e-02,-2.630579471588134766e-02,-2.726876735687255859e-02,-2.722442150115966797e-02,-2.809011936187744141e-02,-2.890372276306152344e-02,-2.976775169372558594e-02,-3.038406372070312500e-02,-3.089129924774169922e-02,-3.166019916534423828e-02,-3.408706188201904297e-02,-3.551936149597167969e-02,-3.781926631927490234e-02,-3.913319110870361328e-02,-4.068768024444580078e-02,-4.158818721771240234e-02,-4.055452346801757812e-02,-3.980946540832519531e-02,-3.902184963226318359e-02,-3.639614582061767578e-02,-3.329551219940185547e-02,-3.148233890533447266e-02,-2.963316440582275391e-02,-2.862930297851562500e-02,-2.933728694915771484e-02,-2.966952323913574219e-02,-3.203535079956054688e-02,-3.232169151306152344e-02,-3.136217594146728516e-02,-3.094828128814697266e-02,-2.876901626586914062e-02,-2.740871906280517578e-02,-2.600431442260742188e-02,-2.540266513824462891e-02,-2.550685405731201172e-02,-2.404975891113281250e-02,-2.409887313842773438e-02,-2.329742908477783203e-02,-1.666796207427978516e-02,-1.248538494110107422e-02,4.946231842041015625e-03,2.311587333679199219e-02,9.438860416412353516e-02,1.008611917495727539e-01,1.018452644348144531e-01
-2.477550506591796875e-02,-2.701127529144287109e-02,-2.811157703399658203e-02,-2.821815013885498047e-02,-2.918708324432373047e-02,-2.913546562194824219e-02,-2.909409999847412109e-02,-2.897751331329345703e-02,-2.955818176269531250e-02,-3.024888038635253906e-02,-3.010571002960205078e-02,-3.165864944458007812e-02,-3.315377235412597656e-02,-3.458964824676513672e-02,-3.689312934875488281e-02,-3.821074962615966797e-02,-4.038798809051513672e-02,-4.158651828765869141e-02,-4.055297374725341797e-02,-4.071259498596191406e-02,-3.992140293121337891e-02,-3.818953037261962891e-02,-3.552842140197753906e-02,-3.148078918457031250e-02,-2.874672412872314453e-02,-2.862775325775146484e-02,-2.898955345153808594e-02,-2.966797351837158203e-02,-3.116154670715332031e-02,-3.144967555999755859e-02,-3.198087215423583984e-02,-3.094661235809326172e-02,-2.962517738342285156e-02,-2.740705013275146484e-02,-2.600264549255371094e-02,-2.528429031372070312e-02,-2.550518512725830078e-02,-2.404808998107910156e-02,-2.245974540710449219e-02,-1.999557018280029297e-02,-1.500844955444335938e-02,-6.678104400634765625e-03,4.947900772094726562e-03,1.573872566223144531e-02,1.047309637069702148e-01,1.072419881820678711e-01,1.081192493438720703e-01
-2.575457096099853516e-02,-2.798354625701904297e-02,-2.908158302307128906e-02,-3.014862537384033203e-02,-3.015840053558349609e-02,-3.009092807769775391e-02,-2.999246120452880859e-02,-2.985060214996337891e-02,-2.976334095001220703e-02,-3.024744987487792969e-02,-2.995121479034423828e-02,-3.072178363800048828e-02,-3.128731250762939453e-02,-3.366005420684814453e-02,-3.504264354705810547e-02,-3.728842735290527344e-02,-3.946912288665771484e-02,-4.067134857177734375e-02,-4.181659221649169922e-02,-4.161572456359863281e-02,-4.172194004058837891e-02,-3.908550739288330078e-02,-3.552687168121337891e-02,-3.059065341949462891e-02,-2.874505519866943359e-02,-2.825117111206054688e-02,-2.898800373077392578e-02,-2.966630458831787109e-02,-3.115999698638916016e-02,-3.144800662994384766e-02,-3.197920322418212891e-02,-3.094494342803955078e-02,-2.962362766265869141e-02,-2.740383148193359375e-02,-2.600097656250000000e-02,-2.528262138366699219e-02,-2.474820613861083984e-02,-2.404642105102539062e-02,-2.245807647705078125e-02,-1.832878589630126953e-02,-1.251995563507080078e-02,-4.205942153930664062e-03,6.585717201232910156e-03,9.268879890441894531e-02,1.087387800216674805e-01,1.120399236679077148e-01,1.097899675369262695e-01
-2.673351764678955078e-02,-2.790331840515136719e-02,-3.102147579193115234e-02,-3.206098079681396484e-02,-3.208506107330322266e-02,-3.108203411102294922e-02,-3.094446659088134766e-02,-3.079891204833984375e-02,-3.049957752227783203e-02,-3.024590015411376953e-02,-2.994966506958007812e-02,-3.054296970367431641e-02,-3.128588199615478516e-02,-3.273046016693115234e-02,-3.504109382629394531e-02,-3.636586666107177734e-02,-3.855025768280029297e-02,-4.066979885101318359e-02,-4.145658016204833984e-02,-4.161417484283447266e-02,-4.122221469879150391e-02,-3.908395767211914062e-02,-3.552377223968505859e-02,-3.058910369873046875e-02,-2.785885334014892578e-02,-2.736508846282958984e-02,-2.810704708099365234e-02,-2.966475486755371094e-02,-3.028619289398193359e-02,-3.084981441497802734e-02,-3.135573863983154297e-02,-3.094327449798583984e-02,-3.047966957092285156e-02,-2.825641632080078125e-02,-2.684831619262695312e-02,-2.539777755737304688e-02,-2.390313148498535156e-02,-2.398204803466796875e-02,-2.162027359008789062e-02,-1.749455928802490234e-02,-9.198546409606933594e-03,2.407670021057128906e-03,7.405519485473632812e-03,1.070518493652343750e-01,1.118900775909423828e-01,1.143931150436401367e-01,1.129196882247924805e-01
-2.879154682159423828e-02,-3.083240985870361328e-02,-3.096902370452880859e-02,-3.302729129791259766e-02,-3.304791450500488281e-02,-3.200197219848632812e-02,-3.094291687011718750e-02,-3.079748153686523438e-02,-3.049814701080322266e-02,-3.024446964263916016e-02,-3.088533878326416016e-02,-3.054153919219970703e-02,-3.108441829681396484e-02,-3.180086612701416016e-02,-3.319060802459716797e-02,-3.544342517852783203e-02,-3.763151168823242188e-02,-3.884088993072509766e-02,-4.054677486419677734e-02,-4.108715057373046875e-02,-4.081773757934570312e-02,-3.818488121032714844e-02,-3.328919410705566406e-02,-2.969920635223388672e-02,-2.785718441009521484e-02,-2.736353874206542969e-02,-2.810394763946533203e-02,-2.878725528717041016e-02,-3.028452396392822266e-02,-3.057420253753662109e-02,-3.110921382904052734e-02,-3.158628940582275391e-02,-3.047800064086914062e-02,-2.979934215545654297e-02,-2.769720554351806641e-02,-2.539610862731933594e-02,-2.390146255493164062e-02,-2.320325374603271484e-02,-2.161860466003417969e-02,-1.666033267974853516e-02,-7.542610168457031250e-03,4.052758216857910156e-03,1.154339313507080078e-02,1.078444719314575195e-01,1.134666204452514648e-01,1.159622669219970703e-01,1.153715848922729492e-01
-3.359234333038330078e-02,-3.278458118438720703e-02,-3.393280506134033203e-02,-3.399360179901123047e-02,-3.400206565856933594e-02,-3.199899196624755859e-02,-3.189480304718017578e-02,-3.174579143524169922e-02,-3.155338764190673828e-02,-3.118371963500976562e-02,-3.182101249694824219e-02,-3.147351741790771484e-02,-3.128290176391601562e-02,-3.179776668548583984e-02,-3.318905830383300781e-02,-3.544187545776367188e-02,-3.671264648437500000e-02,-3.792560100555419922e-02,-3.908002376556396484e-02,-3.980004787445068359e-02,-3.901398181915283203e-02,-3.638839721679687500e-02,-3.150343894958496094e-02,-2.880907058715820312e-02,-2.745032310485839844e-02,-2.685880661010742188e-02,-2.722287178039550781e-02,-2.878570556640625000e-02,-3.028285503387451172e-02,-3.057265281677246094e-02,-3.110754489898681641e-02,-3.158462047576904297e-02,-3.133416175842285156e-02,-2.996134757995605469e-02,-2.854621410369873047e-02,-2.624142169952392578e-02,-2.558660507202148438e-02,-2.397871017456054688e-02,-2.161693572998046875e-02,-1.665866374969482422e-02,-6.713747978210449219e-03,5.697846412658691406e-03,1.399385929107666016e-02,1.078461408615112305e-01,1.134682893753051758e-01,1.159638166427612305e-01,1.177139282226562500e-01
-3.349041938781738281e-02,-3.473675251007080078e-02,-3.587412834167480469e-02,-3.497135639190673828e-02,-3.400063514709472656e-02,-3.199756145477294922e-02,-3.189182281494140625e-02,-3.174281120300292969e-02,-3.155052661895751953e-02,-3.143942356109619141e-02,-3.291523456573486328e-02,-3.333771228790283203e-02,-3.221297264099121094e-02,-3.249824047088623047e-02,-3.318607807159423828e-02,-3.451955318450927734e-02,-3.579390048980712891e-02,-3.792405128479003906e-02,-3.907859325408935547e-02,-3.889381885528564453e-02,-3.810989856719970703e-02,-3.548777103424072266e-02,-3.060984611511230469e-02,-2.791917324066162109e-02,-2.696931362152099609e-02,-2.647721767425537109e-02,-2.722132205963134766e-02,-2.878415584564208984e-02,-3.028130531311035156e-02,-3.056943416595458984e-02,-3.110599517822265625e-02,-3.158307075500488281e-02,-3.219032287597656250e-02,-3.236401081085205078e-02,-3.181469440460205078e-02,-2.793371677398681641e-02,-2.642834186553955078e-02,-2.487957477569580078e-02,-2.161526679992675781e-02,-1.748955249786376953e-02,-9.193420410156250000e-04,1.228976249694824219e-02,2.712464332580566406e-02,1.086386442184448242e-01,1.158920526504516602e-01,1.167492866516113281e-01,1.177155971527099609e-01
-3.348898887634277344e-02,-3.668761253356933594e-02,-3.680253028869628906e-02,-3.400254249572753906e-02,-3.303670883178710938e-02,-3.103911876678466797e-02,-3.093707561492919922e-02,-3.079152107238769531e-02,-3.060281276702880859e-02,-3.143644332885742188e-02,-3.291380405426025391e-02,-3.333616256713867188e-02,-3.293812274932861328e-02,-3.249680995941162109e-02,-3.201222419738769531e-02,-3.267467021942138672e-02,-3.395617008209228516e-02,-3.700876235961914062e-02,-3.816688060760498047e-02,-3.889226913452148438e-02,-3.720724582672119141e-02,-3.326940536499023438e-02,-3.060662746429443359e-02,-2.791607379913330078e-02,-2.696764469146728516e-02,-2.685570716857910156e-02,-2.809917926788330078e-02,-2.965843677520751953e-02,-3.027975559234619141e-02,-3.143846988677978516e-02,-3.196954727172851562e-02,-3.244459629058837891e-02,-3.371906280517578125e-02,-3.321826457977294922e-02,-3.351771831512451172e-02,-3.206288814544677734e-02,-2.962601184844970703e-02,-2.811336517333984375e-02,-2.492523193359375000e-02,-1.748788356781005859e-02,-9.176731109619140625e-04,1.722931861877441406e-02,9.823453426361083984e-02,1.102224588394165039e-01,1.174649000167846680e-01,1.199659109115600586e-01,1.200593709945678711e-01
-3.348612785339355469e-02,-3.570926189422607422e-02,-3.586971759796142578e-02,-3.303503990173339844e-02,-3.013598918914794922e-02,-2.912378311157226562e-02,-2.812576293945312500e-02,-2.896428108215332031e-02,-3.060138225555419922e-02,-3.143501281738281250e-02,-3.305923938751220703e-02,-3.445267677307128906e-02,-3.386652469635009766e-02,-3.249526023864746094e-02,-3.201067447662353516e-02,-3.175222873687744141e-02,-3.303742408752441406e-02,-3.426468372344970703e-02,-3.725540637969970703e-02,-3.798604011535644531e-02,-3.720557689666748047e-02,-3.326785564422607422e-02,-3.060519695281982422e-02,-2.880275249481201172e-02,-2.784931659698486328e-02,-2.773535251617431641e-02,-2.897691726684570312e-02,-3.053259849548339844e-02,-3.115034103393554688e-02,-3.230726718902587891e-02,-3.283464908599853516e-02,-3.416931629180908203e-02,-3.457701206207275391e-02,-3.476047515869140625e-02,-3.508150577545166016e-02,-3.449511528015136719e-02,-3.216516971588134766e-02,-2.979826927185058594e-02,-2.659940719604492188e-02,-1.915121078491210938e-02,-9.160041809082031250e-04,2.624475955963134766e-02,1.054145097732543945e-01,1.165807247161865234e-01,1.198234558105468750e-01,1.223137378692626953e-01,1.224015951156616211e-01
-3.358519077301025391e-02,-3.473103046417236328e-02,-3.299140930175781250e-02,-3.108167648315429688e-02,-2.725803852081298828e-02,-2.723526954650878906e-02,-2.621400356292724609e-02,-2.705979347229003906e-02,-2.975153923034667969e-02,-3.143346309661865234e-02,-3.305768966674804688e-02,-3.445112705230712891e-02,-3.386509418487548828e-02,-3.249371051788330078e-02,-3.108656406402587891e-02,-3.056228160858154297e-02,-3.274202346801757812e-02,-3.243577480316162109e-02,-3.508770465850830078e-02,-3.617513179779052734e-02,-3.540205955505371094e-02,-3.326630592346191406e-02,-3.149557113647460938e-02,-2.968978881835937500e-02,-2.833068370819091797e-02,-2.861499786376953125e-02,-2.932298183441162109e-02,-3.053104877471923828e-02,-3.202092647552490234e-02,-3.230559825897216797e-02,-3.369987010955810547e-02,-3.502929210662841797e-02,-3.523898124694824219e-02,-3.561663627624511719e-02,-3.607153892517089844e-02,-3.545451164245605469e-02,-3.385746479034423828e-02,-3.148341178894042969e-02,-2.827358245849609375e-02,-1.998221874237060547e-02,-1.739621162414550781e-03,2.624642848968505859e-02,1.117836236953735352e-01,1.173715591430664062e-01,1.213961839675903320e-01,1.223152875900268555e-01,1.217263936996459961e-01
-3.260326385498046875e-02,-3.277587890625000000e-02,-3.105080127716064453e-02,-2.628695964813232422e-02,-2.436816692352294922e-02,-2.433443069458007812e-02,-2.525734901428222656e-02,-2.705824375152587891e-02,-2.880227565765380859e-02,-3.130877017974853516e-02,-3.290784358978271484e-02,-3.426516056060791016e-02,-3.313720226287841797e-02,-3.249228000640869141e-02,-2.990746498107910156e-02,-2.936506271362304688e-02,-2.907693386077880859e-02,-3.303074836730957031e-02,-3.326964378356933594e-02,-3.473103046417236328e-02,-3.488957881927490234e-02,-3.236901760101318359e-02,-3.149402141571044922e-02,-3.057658672332763672e-02,-2.961575984954833984e-02,-3.000307083129882812e-02,-3.019881248474121094e-02,-3.140366077423095703e-02,-3.171956539154052734e-02,-3.317427635192871094e-02,-3.393924236297607422e-02,-3.502762317657470703e-02,-3.523731231689453125e-02,-3.561329841613769531e-02,-3.606986999511718750e-02,-3.545284271240234375e-02,-3.394019603729248047e-02,-3.154265880584716797e-02,-2.827191352844238281e-02,-1.998054981231689453e-02,-7.530927658081054688e-03,2.543199062347412109e-02,1.117851734161376953e-01,1.181622743606567383e-01,1.213978528976440430e-01,1.215348243713378906e-01,1.216247081756591797e-01
-3.064095973968505859e-02,-2.796781063079833984e-02,-2.523040771484375000e-02,-2.532136440277099609e-02,-2.340614795684814453e-02,-2.433300018310546875e-02,-2.430069446563720703e-02,-2.698516845703125000e-02,-2.870452404022216797e-02,-3.036475181579589844e-02,-3.180909156799316406e-02,-3.164064884185791016e-02,-3.200209140777587891e-02,-3.156447410583496094e-02,-2.898490428924560547e-02,-2.872097492218017578e-02,-2.907538414001464844e-02,-3.029191493988037109e-02,-3.326809406280517578e-02,-3.382313251495361328e-02,-3.359675407409667969e-02,-3.326153755187988281e-02,-3.149247169494628906e-02,-3.057491779327392578e-02,-3.010082244873046875e-02,-3.000152111053466797e-02,-3.073096275329589844e-02,-3.140199184417724609e-02,-3.171634674072265625e-02,-3.317272663116455078e-02,-3.393757343292236328e-02,-3.502595424652099609e-02,-3.523564338684082031e-02,-3.561174869537353516e-02,-3.593087196350097656e-02,-3.460240364074707031e-02,-3.309333324432373047e-02,-3.069949150085449219e-02,-2.827024459838867188e-02,-1.997888088226318359e-02,-8.356332778930664062e-03,1.805400848388671875e-02,1.062139272689819336e-01,1.165856122970581055e-01,1.198283433914184570e-01,1.206765174865722656e-01,1.192855834960937500e-01
-2.691066265106201172e-02,-2.601635456085205078e-02,-2.328968048095703125e-02,-2.240180969238281250e-02,-2.244043350219726562e-02,-2.339422702789306641e-02,-2.429926395416259766e-02,-2.698361873626708984e-02,-2.870154380798339844e-02,-3.036320209503173828e-02,-3.087043762207031250e-02,-3.052651882171630859e-02,-3.013932704925537109e-02,-2.855288982391357422e-02,-2.898347377777099609e-02,-2.871954441070556641e-02,-2.907383441925048828e-02,-3.029036521911621094e-02,-3.200685977935791016e-02,-3.255188465118408203e-02,-3.359520435333251953e-02,-3.236436843872070312e-02,-3.149092197418212891e-02,-3.057336807250976562e-02,-2.961266040802001953e-02,-2.999985218048095703e-02,-3.072941303253173828e-02,-3.140044212341308594e-02,-3.258860111236572266e-02,-3.317105770111083984e-02,-3.456175327301025391e-02,-3.437244892120361328e-02,-3.457045555114746094e-02,-3.475224971771240234e-02,-3.507494926452636719e-02,-3.448855876922607422e-02,-3.224658966064453125e-02,-2.985632419586181641e-02,-2.743065357208251953e-02,-1.997721195220947266e-02,-8.354663848876953125e-03,1.065993309020996094e-02,1.046262979507446289e-01,1.110230684280395508e-01,1.174730062484741211e-01,1.183266639709472656e-01,1.169465780258178711e-01
-2.495563030242919922e-02,-2.316617965698242188e-02,-2.139639854431152344e-02,-2.143442630767822266e-02,-2.243888378143310547e-02,-2.339279651641845703e-02,-2.525150775909423828e-02,-2.705395221710205078e-02,-2.870011329650878906e-02,-3.022801876068115234e-02,-3.008496761322021484e-02,-2.959144115447998047e-02,-2.920782566070556641e-02,-2.878105640411376953e-02,-2.806103229522705078e-02,-2.779889106750488281e-02,-2.877497673034667969e-02,-3.028881549835205078e-02,-3.144848346710205078e-02,-3.254878520965576172e-02,-3.319442272186279297e-02,-3.236281871795654297e-02,-3.148937225341796875e-02,-3.057181835174560547e-02,-2.961099147796630859e-02,-2.999675273895263672e-02,-3.072774410247802734e-02,-3.227460384368896484e-02,-3.258705139160156250e-02,-3.403985500335693359e-02,-3.479957580566406250e-02,-3.588593006134033203e-02,-3.523242473602294922e-02,-3.491878509521484375e-02,-3.421902656555175781e-02,-3.290164470672607422e-02,-3.055465221405029297e-02,-2.817153930664062500e-02,-2.659106254577636719e-02,-1.914298534393310547e-02,-6.698727607727050781e-03,9.841680526733398438e-03,1.046278476715087891e-01,1.102336645126342773e-01,1.134827136993408203e-01,1.159768104553222656e-01,1.152836084365844727e-01
-2.495419979095458984e-02,-2.316474914550781250e-02,-2.226018905639648438e-02,-2.239894866943359375e-02,-2.339994907379150391e-02,-2.435028553009033203e-02,-2.620530128479003906e-02,-2.705240249633789062e-02,-2.869856357574462891e-02,-3.022658824920654297e-02,-3.008341789245605469e-02,-2.959001064300537109e-02,-2.920639514923095703e-02,-2.877962589263916016e-02,-2.923214435577392578e-02,-2.935898303985595703e-02,-3.060066699981689453e-02,-3.087389469146728516e-02,-3.144693374633789062e-02,-3.254723548889160156e-02,-3.319275379180908203e-02,-3.278279304504394531e-02,-3.148782253265380859e-02,-3.057026863098144531e-02,-2.960944175720214844e-02,-2.999508380889892578e-02,-3.072619438171386719e-02,-3.139722347259521484e-02,-3.258550167083740234e-02,-3.403830528259277344e-02,-3.566288948059082031e-02,-3.674745559692382812e-02,-3.542673587799072266e-02,-3.560674190521240234e-02,-3.350615501403808594e-02,-3.205132484436035156e-02,-2.970778942108154297e-02,-2.732825279235839844e-02,-2.491354942321777344e-02,-1.747620105743408203e-02,-9.061098098754882812e-04,1.066327095031738281e-02,1.062188148498535156e-01,1.118172407150268555e-01,1.134843826293945312e-01,1.144124269485473633e-01,1.145032644271850586e-01
-2.495276927947998047e-02,-2.316331863403320312e-02,-2.225875854492187500e-02,-2.336347103118896484e-02,-2.436077594757080078e-02,-2.624118328094482422e-02,-2.806365489959716797e-02,-2.887880802154541016e-02,-2.964329719543457031e-02,-3.022515773773193359e-02,-3.086590766906738281e-02,-2.958846092224121094e-02,-2.920484542846679688e-02,-2.970433235168457031e-02,-2.989840507507324219e-02,-3.055167198181152344e-02,-3.090035915374755859e-02,-3.242504596710205078e-02,-3.235363960266113281e-02,-3.307449817657470703e-02,-3.358900547027587891e-02,-3.325533866882324219e-02,-3.237831592559814453e-02,-3.145718574523925781e-02,-3.049290180206298828e-02,-3.124761581420898438e-02,-3.072464466094970703e-02,-3.194451332092285156e-02,-3.345787525177001953e-02,-3.577744960784912109e-02,-3.715717792510986328e-02,-3.652620315551757812e-02,-3.628468513488769531e-02,-3.577148914337158203e-02,-3.265225887298583984e-02,-3.120088577270507812e-02,-2.886104583740234375e-02,-2.648508548736572266e-02,-2.243649959564208984e-02,-1.580965518951416016e-02,-7.903575897216796875e-05,9.503781795501708984e-02,1.086041927337646484e-01,1.150150299072265625e-01,1.159081459045410156e-01,1.151978969573974609e-01,1.145049333572387695e-01
-2.681303024291992188e-02,-2.510821819305419922e-02,-2.420008182525634766e-02,-2.432811260223388672e-02,-2.628409862518310547e-02,-2.815365791320800781e-02,-2.996897697448730469e-02,-3.077685832977294922e-02,-3.153419494628906250e-02,-3.129839897155761719e-02,-3.086447715759277344e-02,-3.052055835723876953e-02,-3.013324737548828125e-02,-2.970278263092041016e-02,-3.039586544036865234e-02,-3.146922588348388672e-02,-3.210628032684326172e-02,-3.393173217773437500e-02,-3.326046466827392578e-02,-3.381383419036865234e-02,-3.358745574951171875e-02,-3.325378894805908203e-02,-3.237664699554443359e-02,-3.145563602447509766e-02,-3.226077556610107422e-02,-3.212714195251464844e-02,-3.335964679718017578e-02,-3.282058238983154297e-02,-3.433024883270263672e-02,-3.664624691009521484e-02,-3.802251815795898438e-02,-3.847062587738037109e-02,-3.714263439178466797e-02,-3.576982021331787109e-02,-3.435528278350830078e-02,-3.119921684265136719e-02,-2.885937690734863281e-02,-2.486121654510498047e-02,-2.076256275177001953e-02,-1.580798625946044922e-02,6.524682044982910156e-03,1.101971864700317383e-01,1.157606840133666992e-01,1.173844337463378906e-01,1.174809932708740234e-01,1.167670488357543945e-01,1.152884960174560547e-01
-2.965068817138671875e-02,-2.802634239196777344e-02,-2.812898159027099609e-02,-2.719748020172119141e-02,-2.916789054870605469e-02,-3.009855747222900391e-02,-3.187417984008789062e-02,-3.267478942871093750e-02,-3.258216381072998047e-02,-3.318202495574951172e-02,-3.273725509643554688e-02,-3.238618373870849609e-02,-3.106188774108886719e-02,-3.155386447906494141e-02,-3.224337100982666016e-02,-3.265798091888427734e-02,-3.364360332489013672e-02,-3.484213352203369141e-02,-3.450965881347656250e-02,-3.435194492340087891e-02,-3.397440910339355469e-02,-3.457152843475341797e-02,-3.326559066772460938e-02,-3.280866146087646484e-02,-3.363645076751708984e-02,-3.314411640167236328e-02,-3.300678730010986328e-02,-3.369653224945068359e-02,-3.520262241363525391e-02,-3.751504421234130859e-02,-3.864288330078125000e-02,-3.933227062225341797e-02,-3.800070285797119141e-02,-3.662407398223876953e-02,-3.435361385345458984e-02,-3.204631805419921875e-02,-2.885770797729492188e-02,-2.485954761505126953e-02,-2.159535884857177734e-02,-1.580631732940673828e-02,8.625340461730957031e-02,1.125881671905517578e-01,1.173479557037353516e-01,1.181751489639282227e-01,1.182681322097778320e-01,1.175525188446044922e-01,1.160720586776733398e-01
-3.160858154296875000e-02,-2.990627288818359375e-02,-3.006684780120849609e-02,-3.009927272796630859e-02,-3.109300136566162109e-02,-3.297328948974609375e-02,-3.288555145263671875e-02,-3.457283973693847656e-02,-3.436958789825439453e-02,-3.425180912017822266e-02,-3.477227687835693359e-02,-3.331816196441650391e-02,-3.292000293731689453e-02,-3.270483016967773438e-02,-3.316628932952880859e-02,-3.357732295989990234e-02,-3.485512733459472656e-02,-3.575253486633300781e-02,-3.541815280914306641e-02,-3.525507450103759766e-02,-3.487551212310791016e-02,-3.498375415802001953e-02,-3.414618968963623047e-02,-3.322780132293701172e-02,-3.274798393249511719e-02,-3.314089775085449219e-02,-3.300511837005615234e-02,-3.369498252868652344e-02,-3.520107269287109375e-02,-3.751349449157714844e-02,-3.864133358001708984e-02,-3.997969627380371094e-02,-3.885853290557861328e-02,-3.747832775115966797e-02,-3.520429134368896484e-02,-3.204464912414550781e-02,-2.885603904724121094e-02,-2.485787868499755859e-02,-2.242982387542724609e-02,-1.663529872894287109e-02,1.006650924682617188e-01,1.125897169113159180e-01,1.173495054244995117e-01,1.189659833908081055e-01,1.182168722152709961e-01,1.167702674865722656e-01,1.160737276077270508e-01
-3.160715103149414062e-02,-3.178334236145019531e-02,-3.099405765533447266e-02,-3.106582164764404297e-02,-3.302180767059326172e-02,-3.392910957336425781e-02,-3.383779525756835938e-02,-3.465616703033447266e-02,-3.636968135833740234e-02,-3.600656986236572266e-02,-3.664851188659667969e-02,-3.723919391632080078e-02,-3.477835655212402344e-02,-3.432977199554443359e-02,-3.408920764923095703e-02,-3.541755676269531250e-02,-3.577101230621337891e-02,-3.666281700134277344e-02,-3.632676601409912109e-02,-3.615808486938476562e-02,-3.487408161163330078e-02,-3.498208522796630859e-02,-3.326249122619628906e-02,-3.233778476715087891e-02,-3.225445747375488281e-02,-3.123962879180908203e-02,-3.159606456756591797e-02,-3.281581401824951172e-02,-3.432548046112060547e-02,-3.751027584075927734e-02,-3.863966464996337891e-02,-3.997802734375000000e-02,-4.039084911346435547e-02,-3.833281993865966797e-02,-3.520274162292480469e-02,-3.289175033569335938e-02,-2.969956398010253906e-02,-2.732002735137939453e-02,-2.490365505218505859e-02,-1.746618747711181641e-02,1.006666421890258789e-01,1.117947101593017578e-01,1.149725914001464844e-01,1.173892021179199219e-01,1.167001724243164062e-01,1.152043342590332031e-01,1.152932643890380859e-01
-3.062522411346435547e-02,-3.178048133850097656e-02,-3.288662433624267578e-02,-3.396618366241455078e-02,-3.397583961486816406e-02,-3.392767906188964844e-02,-3.383636474609375000e-02,-3.465461730957031250e-02,-3.636813163757324219e-02,-3.802478313446044922e-02,-3.852486610412597656e-02,-3.910827636718750000e-02,-3.871107101440429688e-02,-3.618085384368896484e-02,-3.593683242797851562e-02,-3.633689880371093750e-02,-3.760397434234619141e-02,-3.757321834564208984e-02,-3.723526000976562500e-02,-3.615653514862060547e-02,-3.538334369659423828e-02,-3.498053550720214844e-02,-3.326094150543212891e-02,-3.233611583709716797e-02,-3.136801719665527344e-02,-3.035676479339599609e-02,-3.017961978912353516e-02,-3.193652629852294922e-02,-3.344976902008056641e-02,-3.663814067840576172e-02,-3.863799571990966797e-02,-3.997647762298583984e-02,-4.125058650970458984e-02,-4.004299640655517578e-02,-3.690576553344726562e-02,-3.373873233795166016e-02,-3.138816356658935547e-02,-2.815985679626464844e-02,-2.242648601531982422e-02,-1.663196086883544922e-02,1.014701128005981445e-01,1.078228950500488281e-01,1.125956773757934570e-01,1.142338514328002930e-01,1.134955883026123047e-01,1.144222021102905273e-01,1.145130395889282227e-01
-3.062379360198974609e-02,-3.177905082702636719e-02,-3.191196918487548828e-02,-3.396475315093994141e-02,-3.397440910339355469e-02,-3.392624855041503906e-02,-3.383481502532958984e-02,-3.551661968231201172e-02,-3.636670112609863281e-02,-3.802323341369628906e-02,-3.962194919586181641e-02,-4.097747802734375000e-02,-3.964114189147949219e-02,-4.012358188629150391e-02,-3.844833374023437500e-02,-3.817713260650634766e-02,-3.851962089538574219e-02,-3.881168365478515625e-02,-3.779244422912597656e-02,-3.615498542785644531e-02,-3.538179397583007812e-02,-3.497898578643798828e-02,-3.325927257537841797e-02,-3.233456611633300781e-02,-3.136646747589111328e-02,-2.947390079498291016e-02,-2.930057048797607422e-02,-2.963280677795410156e-02,-3.257429599761962891e-02,-3.576624393463134766e-02,-3.776788711547851562e-02,-3.997480869293212891e-02,-4.211032390594482422e-02,-4.159963130950927734e-02,-3.860890865325927734e-02,-3.543460369110107422e-02,-3.307676315307617188e-02,-2.984130382537841797e-02,-2.158868312835693359e-02,-1.082384586334228516e-02,1.006698608398437500e-01,1.070262193679809570e-01,1.094100475311279297e-01,1.118285655975341797e-01,1.119223833084106445e-01,1.120723485946655273e-01,1.129504442214965820e-01
-2.964067459106445312e-02,-3.080093860626220703e-02,-3.191053867340087891e-02,-3.204441070556640625e-02,-3.205168247222900391e-02,-3.196978569030761719e-02,-3.377068042755126953e-02,-3.465020656585693359e-02,-3.636515140533447266e-02,-3.896594047546386719e-02,-4.056119918823242188e-02,-4.116225242614746094e-02,-4.150164127349853516e-02,-4.105019569396972656e-02,-4.055476188659667969e-02,-3.973186016082763672e-02,-4.004275798797607422e-02,-3.939223289489746094e-02,-3.869915008544921875e-02,-3.615343570709228516e-02,-3.538024425506591797e-02,-3.497743606567382812e-02,-3.325772285461425781e-02,-3.233301639556884766e-02,-3.048026561737060547e-02,-2.947235107421875000e-02,-2.929902076721191406e-02,-2.963125705718994141e-02,-3.169870376586914062e-02,-3.576457500457763672e-02,-3.776621818542480469e-02,-4.083800315856933594e-02,-4.210877418518066406e-02,-4.245579242706298828e-02,-4.103767871856689453e-02,-3.713047504425048828e-02,-3.392016887664794922e-02,-3.068113327026367188e-02,-2.075088024139404297e-02,-1.709342002868652344e-03,9.427881240844726562e-02,1.038365364074707031e-01,1.078225374221801758e-01,1.102482080459594727e-01,1.110802888870239258e-01,1.112902164459228516e-01,1.121718883514404297e-01
-2.963924407958984375e-02,-3.079950809478759766e-02,-3.093457221984863281e-02,-3.107690811157226562e-02,-3.108286857604980469e-02,-3.104555606842041016e-02,-3.192150592803955078e-02,-3.369712829589843750e-02,-3.636372089385986328e-02,-3.896450996398925781e-02,-4.055964946746826172e-02,-4.209792613983154297e-02,-4.243183135986328125e-02,-4.197692871093750000e-02,-4.147756099700927734e-02,-4.093527793884277344e-02,-4.035127162933349609e-02,-4.030263423919677734e-02,-3.869760036468505859e-02,-3.705513477325439453e-02,-3.627812862396240234e-02,-3.545963764190673828e-02,-3.370153903961181641e-02,-3.233134746551513672e-02,-3.047859668731689453e-02,-2.947068214416503906e-02,-2.895152568817138672e-02,-3.050541877746582031e-02,-3.169548511505126953e-02,-3.576290607452392578e-02,-3.776466846466064453e-02,-4.083645343780517578e-02,-4.296839237213134766e-02,-4.314649105072021484e-02,-4.188847541809082031e-02,-3.957366943359375000e-02,-3.476369380950927734e-02,-3.067958354949951172e-02,-1.907694339752197266e-02,1.231527328491210938e-02,8.545756340026855469e-02,1.030397415161132812e-01,1.078240871429443359e-01,1.094585657119750977e-01,1.111381053924560547e-01,1.120755672454833984e-01,1.121734380722045898e-01
-2.963781356811523438e-02,-2.982103824615478516e-02,-3.093302249908447266e-02,-3.008770942687988281e-02,-3.010833263397216797e-02,-3.005290031433105469e-02,-3.096342086791992188e-02,-3.274416923522949219e-02,-3.541278839111328125e-02,-3.896296024322509766e-02,-4.055821895599365234e-02,-4.209494590759277344e-02,-4.243028163909912109e-02,-4.197537899017333984e-02,-4.147613048553466797e-02,-4.121029376983642578e-02,-4.095518589019775391e-02,-4.030108451843261719e-02,-3.869605064392089844e-02,-3.705346584320068359e-02,-3.627645969390869141e-02,-3.545653820037841797e-02,-3.325462341308593750e-02,-3.232979774475097656e-02,-3.047704696655273438e-02,-3.035044670104980469e-02,-2.982938289642333984e-02,-3.137958049774169922e-02,-3.256785869598388672e-02,-3.663170337677001953e-02,-3.776299953460693359e-02,-4.083478450775146484e-02,-4.296672344207763672e-02,-4.314494132995605469e-02,-4.017853736877441406e-02,-3.712558746337890625e-02,-3.637170791625976562e-02,-3.067791461944580078e-02,-1.326692104339599609e-02,1.479279994964599609e-02,7.741761207580566406e-02,1.030412912368774414e-01,1.078256368637084961e-01,1.102529764175415039e-01,1.119271516799926758e-01,1.120771169662475586e-01,1.146271228790283203e-01
-2.865588665008544922e-02,-2.786469459533691406e-02,-2.908563613891601562e-02,-2.815079689025878906e-02,-2.818429470062255859e-02,-2.912509441375732422e-02,-3.000676631927490234e-02,-3.274118900299072266e-02,-3.446328639984130859e-02,-3.801584243774414062e-02,-4.055666923522949219e-02,-4.096996784210205078e-02,-4.170620441436767578e-02,-4.197382926940917969e-02,-4.172956943511962891e-02,-4.120886325836181641e-02,-4.095375537872314453e-02,-4.029953479766845703e-02,-3.869295120239257812e-02,-3.705203533172607422e-02,-3.627490997314453125e-02,-3.545486927032470703e-02,-3.459227085113525391e-02,-3.232824802398681641e-02,-3.224503993988037109e-02,-3.123009204864501953e-02,-3.070712089538574219e-02,-3.192698955535888672e-02,-3.344023227691650391e-02,-3.663015365600585938e-02,-3.776133060455322266e-02,-4.083311557769775391e-02,-4.124081134796142578e-02,-4.159307479858398438e-02,-3.860068321228027344e-02,-3.542637825012207031e-02,-3.306841850280761719e-02,-2.983462810516357422e-02,-5.801081657409667969e-03,2.136409282684326172e-02,7.822656631469726562e-02,1.022447347640991211e-01,1.070326566696166992e-01,1.102546453475952148e-01,1.119288206100463867e-01,1.136463880538940430e-01,1.146287918090820312e-01
-2.688646316528320312e-02,-2.696692943572998047e-02,-2.709567546844482422e-02,-2.814936637878417969e-02,-2.914345264434814453e-02,-2.912366390228271484e-02,-3.000533580780029297e-02,-3.273975849151611328e-02,-3.540980815887451172e-02,-3.706991672515869141e-02,-3.961288928985595703e-02,-4.096841812133789062e-02,-4.056382179260253906e-02,-3.918647766113281250e-02,-4.054868221282958984e-02,-3.972411155700683594e-02,-3.942775726318359375e-02,-3.938615322113037109e-02,-3.869140148162841797e-02,-3.705036640167236328e-02,-3.627336025238037109e-02,-3.545331954956054688e-02,-3.459060192108154297e-02,-3.321516513824462891e-02,-3.362059593200683594e-02,-3.312814235687255859e-02,-3.299081325531005859e-02,-3.368055820465087891e-02,-3.518664836883544922e-02,-3.662848472595214844e-02,-3.775978088378906250e-02,-3.996670246124267578e-02,-4.037773609161376953e-02,-3.917729854583740234e-02,-3.604185581207275391e-02,-3.372716903686523438e-02,-3.053152561187744141e-02,-2.400493621826171875e-02,-4.966974258422851562e-03,3.120815753936767578e-02,7.984256744384765625e-02,9.825742244720458984e-02,1.062396764755249023e-01,1.086740493774414062e-01,1.111429929733276367e-01,1.136480569839477539e-01,1.154105663299560547e-01
-2.767121791839599609e-02,-2.696549892425537109e-02,-2.709424495697021484e-02,-2.814793586730957031e-02,-2.915048599243164062e-02,-3.004705905914306641e-02,-3.095901012420654297e-02,-3.273832798004150391e-02,-3.446042537689208984e-02,-3.612411022186279297e-02,-3.867089748382568359e-02,-4.003179073333740234e-02,-3.963053226470947266e-02,-3.918492794036865234e-02,-3.869664669036865234e-02,-3.788459300994873047e-02,-3.728723526000976562e-02,-3.788709640502929688e-02,-3.778159618377685547e-02,-3.614413738250732422e-02,-3.537094593048095703e-02,-3.455436229705810547e-02,-3.413045406341552734e-02,-3.457176685333251953e-02,-3.410196304321289062e-02,-3.401148319244384766e-02,-3.563296794891357422e-02,-3.631174564361572266e-02,-3.780698776245117188e-02,-3.836774826049804688e-02,-3.862512111663818359e-02,-3.845107555389404297e-02,-3.798270225524902344e-02,-3.489410877227783203e-02,-3.348314762115478516e-02,-3.033065795898437500e-02,-2.799439430236816406e-02,-2.316355705261230469e-02,-4.965305328369140625e-03,6.051576137542724609e-02,8.626949787139892578e-02,9.825897216796875000e-02,1.054465770721435547e-01,1.078847646713256836e-01,1.111446619033813477e-01,1.136496067047119141e-01,1.154122352600097656e-01
-2.766978740692138672e-02,-2.696406841278076172e-02,-2.709281444549560547e-02,-2.911424636840820312e-02,-2.914905548095703125e-02,-3.007948398590087891e-02,-3.095757961273193359e-02,-3.368830680847167969e-02,-3.540682792663574219e-02,-3.693282604217529297e-02,-3.772866725921630859e-02,-3.927767276763916016e-02,-3.962910175323486328e-02,-3.918349742889404297e-02,-3.843462467193603516e-02,-3.788304328918457031e-02,-3.728568553924560547e-02,-3.664588928222656250e-02,-3.721988201141357422e-02,-3.614246845245361328e-02,-3.536927700042724609e-02,-3.455269336700439453e-02,-3.412890434265136719e-02,-3.457021713256835938e-02,-3.498709201812744141e-02,-3.577935695648193359e-02,-3.651249408721923828e-02,-3.718793392181396484e-02,-3.867948055267333984e-02,-3.896462917327880859e-02,-3.949213027954101562e-02,-3.844940662384033203e-02,-3.626191616058349609e-02,-3.403651714324951172e-02,-3.020775318145751953e-02,-2.863156795501708984e-02,-2.554690837860107422e-02,-2.148258686065673828e-02,-4.963636398315429688e-03,6.861031055450439453e-02,9.348618984222412109e-02,1.022495031356811523e-01,1.054481267929077148e-01,1.078863143920898438e-01,1.103588342666625977e-01,1.128691434860229492e-01,1.154137849807739258e-01
-2.766835689544677734e-02,-2.696263790130615234e-02,-2.806270122528076172e-02,-2.911281585693359375e-02,-3.011178970336914062e-02,-3.103685379028320312e-02,-3.286647796630859375e-02,-3.368687629699707031e-02,-3.540384769439697266e-02,-3.598868846893310547e-02,-3.678643703460693359e-02,-3.909325599670410156e-02,-3.962600231170654297e-02,-3.918194770812988281e-02,-3.843307495117187500e-02,-3.787994384765625000e-02,-3.728413581848144531e-02,-3.664433956146240234e-02,-3.721833229064941406e-02,-3.614103794097900391e-02,-3.536784648895263672e-02,-3.455126285552978516e-02,-3.369057178497314453e-02,-3.456866741180419922e-02,-3.498554229736328125e-02,-3.577625751495361328e-02,-3.739225864410400391e-02,-3.806388378143310547e-02,-4.042565822601318359e-02,-4.010522365570068359e-02,-3.973329067230224609e-02,-3.844785690307617188e-02,-3.626024723052978516e-02,-3.317892551422119141e-02,-3.020608425140380859e-02,-2.789413928985595703e-02,-2.470195293426513672e-02,-2.064120769500732422e-02,-4.961967468261718750e-03,7.587325572967529297e-02,9.509515762329101562e-02,1.038477420806884766e-01,1.078352928161621094e-01,1.086788177490234375e-01,1.103603839874267578e-01,1.128706932067871094e-01,1.154154539108276367e-01
-2.864742279052734375e-02,-2.883303165435791016e-02,-2.903258800506591797e-02,-3.201329708099365234e-02,-3.203856945037841797e-02,-3.391015529632568359e-02,-3.382015228271484375e-02,-3.463697433471679688e-02,-3.540241718292236328e-02,-3.598725795745849609e-02,-3.678488731384277344e-02,-3.833603858947753906e-02,-3.983163833618164062e-02,-4.033815860748291016e-02,-3.935432434082031250e-02,-3.879749774932861328e-02,-3.728258609771728516e-02,-3.664278984069824219e-02,-3.686881065368652344e-02,-3.613793849945068359e-02,-3.485381603240966797e-02,-3.454959392547607422e-02,-3.324365615844726562e-02,-3.367674350738525391e-02,-3.409564495086669922e-02,-3.488993644714355469e-02,-3.739058971405029297e-02,-3.893971443176269531e-02,-4.012787342071533203e-02,-4.070591926574707031e-02,-4.059839248657226562e-02,-3.844618797302246094e-02,-3.625857830047607422e-02,-3.403329849243164062e-02,-3.177368640899658203e-02,-2.789258956909179688e-02,-2.470028400421142578e-02,-2.063953876495361328e-02,-4.960298538208007812e-03,6.861352920532226562e-02,1.006858348846435547e-01,1.054456233978271484e-01,1.094261407852172852e-01,1.110277175903320312e-01,1.110947132110595703e-01,1.120885610580444336e-01,1.146368980407714844e-01
-2.874445915222167969e-02,-3.078520298004150391e-02,-3.092157840728759766e-02,-3.297948837280273438e-02,-3.491938114166259766e-02,-3.393900394439697266e-02,-3.482592105865478516e-02,-3.549897670745849609e-02,-3.529202938079833984e-02,-3.598427772521972656e-02,-3.584110736846923828e-02,-3.739738464355468750e-02,-3.889513015747070312e-02,-4.103493690490722656e-02,-4.053950309753417969e-02,-3.971493244171142578e-02,-3.819656372070312500e-02,-3.755307197570800781e-02,-3.686726093292236328e-02,-3.613626956939697266e-02,-3.536307811737060547e-02,-3.322708606719970703e-02,-3.279364109039306641e-02,-3.231728076934814453e-02,-3.361260890960693359e-02,-3.311872482299804688e-02,-3.474366664886474609e-02,-3.806066513061523438e-02,-4.042243957519531250e-02,-4.070425033569335938e-02,-4.059684276580810547e-02,-3.930771350860595703e-02,-3.625690937042236328e-02,-3.403162956237792969e-02,-3.177201747894287109e-02,-2.789092063903808594e-02,-2.469861507415771484e-02,-2.063786983489990234e-02,-4.958748817443847656e-03,4.508686065673828125e-02,1.078673601150512695e-01,1.110191345214843750e-01,1.134078502655029297e-01,1.126371622085571289e-01,1.143023967742919922e-01,1.136577129364013672e-01,1.146384477615356445e-01
-3.158438205718994141e-02,-3.176045417785644531e-02,-3.092014789581298828e-02,-3.394591808319091797e-02,-3.492677211761474609e-02,-3.585851192474365234e-02,-3.578162193298339844e-02,-3.549742698669433594e-02,-3.529059886932373047e-02,-3.598272800445556641e-02,-3.568577766418457031e-02,-3.552162647247314453e-02,-3.702676296234130859e-02,-3.847372531890869141e-02,-4.146242141723632812e-02,-4.092001914978027344e-02,-3.911054134368896484e-02,-3.846347332000732422e-02,-3.777384757995605469e-02,-3.703963756561279297e-02,-3.536152839660644531e-02,-3.322565555572509766e-02,-3.145635128021240234e-02,-3.053879737854003906e-02,-3.006303310394287109e-02,-3.209853172302246094e-02,-3.421211242675781250e-02,-3.366947174072265625e-02,-3.779900074005126953e-02,-3.835809230804443359e-02,-4.035413265228271484e-02,-3.909027576446533203e-02,-3.711497783660888672e-02,-3.488600254058837891e-02,-3.262269496917724609e-02,-3.032243251800537109e-02,-2.469527721405029297e-02,-1.482534408569335938e-02,-2.457976341247558594e-03,2.875304222106933594e-02,1.086689233779907227e-01,1.126136779785156250e-01,1.149948835372924805e-01,1.142547130584716797e-01,1.150913238525390625e-01,1.151515245437622070e-01,1.146401166915893555e-01
-3.256332874298095703e-02,-3.273570537567138672e-02,-3.286516666412353516e-02,-3.488886356353759766e-02,-3.588950634002685547e-02,-3.774070739746093750e-02,-3.565824031829833984e-02,-3.549599647521972656e-02,-3.528904914855957031e-02,-3.503882884979248047e-02,-3.380644321441650391e-02,-3.515803813934326172e-02,-3.589332103729248047e-02,-3.731811046600341797e-02,-3.986322879791259766e-02,-4.091846942901611328e-02,-4.002439975738525391e-02,-3.937375545501708984e-02,-3.777229785919189453e-02,-3.794252872467041016e-02,-3.626096248626708984e-02,-3.232836723327636719e-02,-3.145480155944824219e-02,-2.964890003204345703e-02,-2.917480468750000000e-02,-2.907884120941162109e-02,-3.157222270965576172e-02,-3.191268444061279297e-02,-3.604936599731445312e-02,-3.661561012268066406e-02,-3.861534595489501953e-02,-3.822362422943115234e-02,-3.625202178955078125e-02,-3.574025630950927734e-02,-3.262102603912353516e-02,-3.032076358795166016e-02,-2.300703525543212891e-02,-8.189320564270019531e-03,4.150271415710449219e-03,2.220058441162109375e-02,1.102706193923950195e-01,1.142079830169677734e-01,1.165821552276611328e-01,1.181790828704833984e-01,1.166678667068481445e-01,1.159387826919555664e-01,1.146417856216430664e-01
