-5.836856365203857422e-02,-5.907011032104492188e-02,-5.666088312864303589e-02,-5.808150768280029297e-02,-6.240618228912353516e-02,-6.373834609985351562e-02,-6.044840812683105469e-02,-6.318390369415283203e-02,-5.857610702514648438e-02,-5.202889442443847656e-02,-5.248320102691650391e-02,-4.828631877899169922e-02,-4.653382301330566406e-02,-4.371166229248046875e-02,-4.263818264007568359e-02,-4.226219654083251953e-02,-3.933179378509521484e-02,-3.890717029571533203e-02,-3.800129890441894531e-02,-3.472113609313964844e-02,-3.232920169830322266e-02,-4.769794270396232605e-02,-4.858124256134033203e-02,-5.266795679926872253e-02,-4.860484600067138672e-02,-5.984540283679962158e-02,-6.045174598693847656e-02,-7.379017770290374756e-02,-8.010278642177581787e-02,-8.573256433010101318e-02,-9.187589585781097412e-02,-1.013279557228088379e-01,-1.024799346923828125e-01,-1.137969493865966797e-01,-1.215465813875198364e-01,-1.222680807113647461e-01,-1.402401626110076904e-01,-1.424023509025573730e-01,-1.538017100017321781e-01,-1.544214040040969849e-01,-1.627930104732513428e-01,-1.679419279098510742e-01,-1.782476752996444702e-01,-1.805887669324874878e-01,-1.911360030993819459e-01,-1.897252798080444336e-01,-2.039802819490432739e-01
-6.515252590179443359e-02,-6.056129932403564453e-02,-5.974996089935302734e-02,-5.659270286560058594e-02,-5.992620065808296204e-02,-6.832623481750488281e-02,-6.725406646728515625e-02,-6.632506847381591797e-02,-6.369233131408691406e-02,-5.955314636230468750e-02,-5.783307552337646484e-02,-5.291581153869628906e-02,-5.404746532440185547e-02,-5.193674564361572266e-02,-5.157518386840820312e-02,-5.048203468322753906e-02,-5.008602142333984375e-02,-4.711580276489257812e-02,-4.525876045227050781e-02,-4.032325744628906250e-02,-5.213766917586326599e-02,-3.859972953796386719e-02,-4.431998729705810547e-02,-5.827335268259048462e-02,-6.378710269927978516e-02,-6.108534336090087891e-02,-7.210965454578399658e-02,-7.653012871742248535e-02,-8.396840095520019531e-02,-7.911550998687744141e-02,-9.776854515075683594e-02,-1.025708913803100586e-01,-1.134845646963992677e-01,-1.205791234970092773e-01,-1.285706104976790387e-01,-1.397299170494079590e-01,-1.389495134353637695e-01,-1.482689231634140015e-01,-1.524645090103149414e-01,-1.582775861024856567e-01,-1.729850918054580688e-01,-1.753116846084594727e-01,-1.798710972070693970e-01,-1.918977499008178711e-01,-2.010006755590438843e-01,-2.004628032445907593e-01,-2.133471965789794922e-01
-6.439709663391113281e-02,-5.831384658813476562e-02,-5.742931365966796875e-02,-5.658841133117675781e-02,-6.067308038473129272e-02,-6.185792759060859680e-02,-6.742346286773681641e-02,-6.852614879608154297e-02,-6.588256359100341797e-02,-6.417477130889892578e-02,-6.145930290222167969e-02,-6.044149398803710938e-02,-5.796873569488525391e-02,-5.802702903747558594e-02,-5.838596820831298828e-02,-6.015384197235107422e-02,-5.933296680450439453e-02,-5.720138177275657654e-02,-6.056427955627441406e-02,-6.008541584014892578e-02,-6.381273269653320312e-02,-5.293369293212890625e-02,-5.798709392547607422e-02,-5.532848834991455078e-02,-6.464458256959915161e-02,-8.251535892486572266e-02,-7.435703277587890625e-02,-9.020805358886718750e-02,-9.021222591400146484e-02,-9.642314910888671875e-02,-1.003580242395401001e-01,-1.144031286239624023e-01,-1.159713268280029297e-01,-1.215437558824068870e-01,-1.346857696771621704e-01,-1.362970178462054593e-01,-1.529361009597778320e-01,-1.534302830696105957e-01,-1.644080877304077148e-01,-1.653919965028762817e-01,-1.700446456670761108e-01,-1.799151897430419922e-01,-1.818244457244873047e-01,-1.903874427080154419e-01,-1.980538368225097656e-01,-2.049652338027954102e-01,-2.100645899772644043e-01
-5.835604667663574219e-02,-5.307567119598388672e-02,-5.606333166360855103e-02,-5.584192276000976562e-02,-5.864192917943000793e-02,-6.758117675781250000e-02,-6.503486633300781250e-02,-6.558132171630859375e-02,-6.368374824523925781e-02,-6.125152111053466797e-02,-6.072890758514404297e-02,-5.898857116699218750e-02,-5.764210224151611328e-02,-5.658483505249023438e-02,-5.806651711463928223e-02,-6.698620319366455078e-02,-6.730198860168457031e-02,-6.830942630767822266e-02,-7.024657726287841797e-02,-6.834840774536132812e-02,-6.926202774047851562e-02,-7.085263729095458984e-02,-6.834757328033447266e-02,-6.776869297027587891e-02,-6.759680062532424927e-02,-7.344015687704086304e-02,-7.767665386199951172e-02,-8.761139959096908569e-02,-9.272469580173492432e-02,-9.927991032600402832e-02,-1.013716827881963739e-01,-1.144838333129882812e-01,-1.159713268280029297e-01,-1.303099393844604492e-01,-1.290911575779318810e-01,-1.423544883728027344e-01,-1.508612632751464844e-01,-1.528654396533966064e-01,-1.609622240066528320e-01,-1.673758178949356079e-01,-1.726134568452835083e-01,-1.812831163406372070e-01,-1.892124414443969727e-01,-1.909630745649337769e-01,-1.989120543003082275e-01,-2.070095837116241455e-01,-2.128608524799346924e-01
-5.160605907440185547e-02,-4.929435253143310547e-02,-5.370056629180908203e-02,-5.361080169677734375e-02,-6.165301799774169922e-02,-5.839848518371582031e-02,-5.896127223968505859e-02,-6.243777275085449219e-02,-5.929052829742431641e-02,-5.808460712432861328e-02,-5.782020092010498047e-02,-5.723762512207031250e-02,-5.403447151184082031e-02,-5.298638343811035156e-02,-5.881914496421813965e-02,-7.200145721435546875e-02,-6.944334506988525391e-02,-7.258582115173339844e-02,-7.213389873504638672e-02,-7.188403606414794922e-02,-7.208240032196044922e-02,-7.577908039093017578e-02,-7.381725311279296875e-02,-7.056033611297607422e-02,-7.274901866912841797e-02,-7.693302631378173828e-02,-8.212164789438247681e-02,-9.228968620300292969e-02,-9.553764015436172485e-02,-9.976291656494140625e-02,-1.102059036493301392e-01,-1.144791841506958008e-01,-1.214482784271240234e-01,-1.330723762512207031e-01,-1.342892646789550781e-01,-1.418081670999526978e-01,-1.474685221910476685e-01,-1.564241349697113037e-01,-1.610296517610549927e-01,-1.694530248641967773e-01,-1.751806288957595825e-01,-1.833374500274658203e-01,-1.880105584859848022e-01,-1.937477886676788330e-01,-2.007873058319091797e-01,-2.049919515848159790e-01,-2.124238759279251099e-01
-4.406869411468505859e-02,-4.402279853820800781e-02,-4.665684700012207031e-02,-5.054116249084472656e-02,-5.042481422424316406e-02,-5.102527141571044922e-02,-5.160617828369140625e-02,-5.197131633758544922e-02,-5.540990829467773438e-02,-5.298519134521484375e-02,-5.273354053497314453e-02,-5.217599868774414062e-02,-5.034922435879707336e-02,-5.119274556636810303e-02,-5.382524430751800537e-02,-5.828815326094627380e-02,-6.402015686035156250e-02,-6.928300857543945312e-02,-6.953215599060058594e-02,-6.833946704864501953e-02,-6.642806529998779297e-02,-6.682305037975311279e-02,-6.792418658733367920e-02,-7.114171981811523438e-02,-7.208588719367980957e-02,-7.762575149536132812e-02,-8.266495168209075928e-02,-8.916294574737548828e-02,-9.715306758880615234e-02,-1.007019281387329102e-01,-1.137809753417968750e-01,-1.146629750728607178e-01,-1.212479397654533386e-01,-1.289920806884765625e-01,-1.358122080564498901e-01,-1.387481242418289185e-01,-1.494764089584350586e-01,-1.556748151779174805e-01,-1.579326242208480835e-01,-1.657747030258178711e-01,-1.743899136781692505e-01,-1.797630786895751953e-01,-1.876187175512313843e-01,-1.932546347379684448e-01,-2.014669179916381836e-01,-2.054318785667419434e-01,-2.090090364217758179e-01
-3.735136985778808594e-02,-3.806579113006591797e-02,-4.544126987457275391e-02,-4.239141941070556641e-02,-4.454121738672256470e-02,-4.425096511840820312e-02,-4.776346683502197266e-02,-4.538381099700927734e-02,-4.570209980010986328e-02,-4.619443416595458984e-02,-4.566943645477294922e-02,-4.898548126220703125e-02,-5.082547664642333984e-02,-4.313081875443458557e-02,-4.655086994171142578e-02,-5.046624317765235901e-02,-5.003737192600965500e-02,-5.959010124206542969e-02,-5.441784858703613281e-02,-6.191591545939445496e-02,-6.090125441551208496e-02,-7.577455043792724609e-02,-6.833398342132568359e-02,-6.775975227355957031e-02,-7.080653309822082520e-02,-7.483243942260742188e-02,-8.308544009923934937e-02,-8.748379349708557129e-02,-9.436678886413574219e-02,-1.019849777221679688e-01,-1.069041341543197632e-01,-1.116721481084823608e-01,-1.185345947742462158e-01,-1.296085119247436523e-01,-1.367292553186416626e-01,-1.398455053567886353e-01,-1.460217237472534180e-01,-1.483710855245590210e-01,-1.609525680541992188e-01,-1.655481308698654175e-01,-1.709670871496200562e-01,-1.812733411788940430e-01,-1.850899606943130493e-01,-1.958387196063995361e-01,-1.994081735610961914e-01,-2.011713981628417969e-01,-2.076204866170883179e-01
-3.210878372192382812e-02,-3.727161884307861328e-02,-3.646326065063476562e-02,-3.785860538482666016e-02,-4.291510581970214844e-02,-4.115962982177734375e-02,-4.142955690622329712e-02,-4.226720333099365234e-02,-3.892946243286132812e-02,-4.231750965118408203e-02,-3.916311264038085938e-02,-4.249525070190429688e-02,-3.613984584808349609e-02,-4.010951519012451172e-02,-3.440821170806884766e-02,-3.758096694946289062e-02,-4.574390128254890442e-02,-5.275821685791015625e-02,-5.173935741186141968e-02,-5.393314361572265625e-02,-5.835068225860595703e-02,-5.437071248888969421e-02,-5.517315864562988281e-02,-6.440740078687667847e-02,-6.694928556680679321e-02,-7.039661705493927002e-02,-7.697713375091552734e-02,-8.581151068210601807e-02,-9.414029121398925781e-02,-9.533908963203430176e-02,-1.027984619140625000e-01,-1.130007505416870117e-01,-1.229877248406410217e-01,-1.223781779408454895e-01,-1.322171688079833984e-01,-1.299793720245361328e-01,-1.398963928222656250e-01,-1.480432989505621189e-01,-1.546260897929851996e-01,-1.689053624868392944e-01,-1.737183332443237305e-01,-1.740084588527679443e-01,-1.843986511230468750e-01,-1.886416375637054443e-01,-1.972655206918716431e-01,-1.962578296661376953e-01,-2.059350013732910156e-01
-2.689588069915771484e-02,-2.979469299316406250e-02,-3.120613098144531250e-02,-3.554201126098632812e-02,-3.689599037170410156e-02,-3.455579280853271484e-02,-3.569591045379638672e-02,-3.914701938629150391e-02,-3.597093746066093445e-02,-3.579497337341308594e-02,-3.528439998626708984e-02,-3.500199317932128906e-02,-3.470170497894287109e-02,-3.581368923187255859e-02,-3.582704067230224609e-02,-3.189778327941894531e-02,-4.000926017761230469e-02,-3.817021846771240234e-02,-4.419720172882080078e-02,-4.569923877716064453e-02,-4.730486869812011719e-02,-4.328536987304687500e-02,-4.693961143493652344e-02,-5.627226829528808594e-02,-6.396323442459106445e-02,-6.693972647190093994e-02,-7.412102818489074707e-02,-8.464050292968750000e-02,-8.456961810588836670e-02,-9.085881710052490234e-02,-9.995537251234054565e-02,-1.018709838390350342e-01,-1.140757203102111816e-01,-1.220339536666870117e-01,-1.226654052734375000e-01,-1.347903609275817871e-01,-1.368883699178695679e-01,-1.404962837696075439e-01,-1.584003716707229614e-01,-1.594538539648056030e-01,-1.716762185096740723e-01,-1.713355779647827148e-01,-1.787296384572982788e-01,-1.905349045991897583e-01,-1.923568993806838989e-01,-1.969356536865234375e-01,-2.046047151088714600e-01
-2.538657188415527344e-02,-2.534747123718261719e-02,-2.603113651275634766e-02,-2.964270114898681641e-02,-2.941870689392089844e-02,-3.220880031585693359e-02,-3.058385848999023438e-02,-3.331971168518066406e-02,-2.999663352966308594e-02,-3.193426132202148438e-02,-2.852809429168701172e-02,-2.896094322204589844e-02,-2.865695953369140625e-02,-2.833473682403564453e-02,-3.023965470492839813e-02,-3.221666812896728516e-02,-3.217373788356781006e-02,-3.701817989349365234e-02,-3.515541553497314453e-02,-4.029238224029541016e-02,-3.419387340545654297e-02,-4.275190830230712891e-02,-4.490627720952033997e-02,-5.139814689755439758e-02,-6.376004219055175781e-02,-6.919088959693908691e-02,-6.937670707702636719e-02,-7.475989311933517456e-02,-8.136872202157974243e-02,-8.591650426387786865e-02,-9.855453670024871826e-02,-1.002348288893699646e-01,-1.101328134536743164e-01,-1.214464083313941956e-01,-1.235024556517601013e-01,-1.306627988815307617e-01,-1.370869129896163940e-01,-1.380217075347900391e-01,-1.440522521734237671e-01,-1.578899323940277100e-01,-1.603776216506958008e-01,-1.719632893800735474e-01,-1.716628968715667725e-01,-1.839882330848024994e-01,-1.887372732162475586e-01,-1.979598850011825562e-01,-2.012759000062942505e-01
-2.241313457489013672e-02,-2.630172669887542725e-02,-2.595400810241699219e-02,-2.733135223388671875e-02,-2.648138999938964844e-02,-2.781558036804199219e-02,-2.693128585815429688e-02,-2.803003787994384766e-02,-2.564668655395507812e-02,-2.446591854095458984e-02,-2.349174022674560547e-02,-2.322030067443847656e-02,-2.333652973175048828e-02,-2.372062206268310547e-02,-2.550506591796875000e-02,-2.513206005096435547e-02,-2.615571022033691406e-02,-2.884678915143013000e-02,-2.832334302365779877e-02,-3.117740154266357422e-02,-3.481754288077354431e-02,-3.385341167449951172e-02,-4.062173888087272644e-02,-4.509549587965011597e-02,-5.524900555610656738e-02,-5.688762664794921875e-02,-7.037755101919174194e-02,-7.563495635986328125e-02,-7.601455599069595337e-02,-8.528876304626464844e-02,-9.392723092172720889e-02,-9.998466819524765015e-02,-1.029940620064735413e-01,-1.086362600326538086e-01,-1.205030009150505066e-01,-1.268960684537887573e-01,-1.318393945693969727e-01,-1.374679654836654663e-01,-1.459964513778686523e-01,-1.471585780382156372e-01,-1.632881313562393188e-01,-1.615784615278244019e-01,-1.697502583265304565e-01,-1.823816140623469306e-01,-1.956859827041625977e-01,-1.974573582410812378e-01,-2.012617588043212891e-01
-2.389371395111083984e-02,-2.386248111724853516e-02,-2.454960346221923828e-02,-2.585697174072265625e-02,-2.969700098037719727e-02,-2.619755268096923828e-02,-2.603256702423095703e-02,-2.584767341613769531e-02,-2.397871017456054688e-02,-2.229976654052734375e-02,-2.034783363342285156e-02,-2.006542682647705078e-02,-1.976513862609863281e-02,-1.944661140441894531e-02,-2.087962627410888672e-02,-2.191400527954101562e-02,-2.574324607849121094e-02,-2.601730823516845703e-02,-2.276349067687988281e-02,-2.580153942108154297e-02,-2.601039409637451172e-02,-3.315365314483642578e-02,-3.566969558596611023e-02,-4.170405864715576172e-02,-4.632501304149627686e-02,-5.141770839691162109e-02,-6.227912381291389465e-02,-6.924402713775634766e-02,-6.941449642181396484e-02,-8.293771743774414062e-02,-8.524353802204132080e-02,-9.349155426025390625e-02,-1.052751764655113220e-01,-1.084586381912231445e-01,-1.174209117889404297e-01,-1.202342063188552856e-01,-1.318550407886505127e-01,-1.352609843015670776e-01,-1.426854282617568970e-01,-1.550380289554595947e-01,-1.564417332410812378e-01,-1.662011146545410156e-01,-1.639203578233718872e-01,-1.814941630975620279e-01,-1.892903298139572144e-01,-1.954372376203536987e-01,-1.958092451095581055e-01
-2.539527416229248047e-02,-2.533924579620361328e-02,-2.528417110443115234e-02,-2.805805206298828125e-02,-2.647721767425537109e-02,-2.780723571777343750e-02,-2.602827548980712891e-02,-2.511739730834960938e-02,-2.252960205078125000e-02,-2.404483966529369354e-02,-2.232508361339569092e-02,-1.863074302673339844e-02,-1.730740070343017578e-02,-1.839804649353027344e-02,-1.733529567718505859e-02,-1.767253875732421875e-02,-1.939904689788818359e-02,-1.715254783630371094e-02,-1.880717277526855469e-02,-1.485073566436767578e-02,-2.542887628078460693e-02,-3.106307983398437500e-02,-2.983307838439941406e-02,-3.816191852092742920e-02,-4.726243019104003906e-02,-4.852090403437614441e-02,-6.048095226287841797e-02,-6.237751245498657227e-02,-7.217474281787872314e-02,-8.170398324728012085e-02,-8.524353802204132080e-02,-9.603151679039001465e-02,-1.047695502638816833e-01,-1.054587140679359436e-01,-1.126116514205932617e-01,-1.260080337524414062e-01,-1.287776827812194824e-01,-1.350297927856445312e-01,-1.405152082443237305e-01,-1.506424099206924438e-01,-1.588345319032669067e-01,-1.620997190475463867e-01,-1.648282706737518311e-01,-1.715508401393890381e-01,-1.852721273899078369e-01,-1.973387897014617920e-01,-2.015061229467391968e-01
-3.134405612945556641e-02,-3.125917911529541016e-02,-3.118944168090820312e-02,-3.404736518859863281e-02,-3.087270259857177734e-02,-3.219187259674072266e-02,-2.911186218261718750e-02,-2.729141712188720703e-02,-2.397024631500244141e-02,-2.157497406005859375e-02,-1.962649822235107422e-02,-2.220177091658115387e-02,-2.096374891698360443e-02,-1.697421073913574219e-02,-1.978603750467300415e-02,-1.657712459564208984e-02,-1.617193222045898438e-02,-1.574683189392089844e-02,-1.414918899536132812e-02,-2.186913602054119110e-02,-2.619075775146484375e-02,-2.427983283996582031e-02,-3.275942802429199219e-02,-3.329143300652503967e-02,-4.379916191101074219e-02,-5.399343371391296387e-02,-5.291686579585075378e-02,-6.595993041992187500e-02,-7.747546583414077759e-02,-7.757312804460525513e-02,-8.344493061304092407e-02,-8.935785293579101562e-02,-1.006344184279441833e-01,-1.068327650427818298e-01,-1.174821097622899546e-01,-1.232378706336021423e-01,-1.292758882045745850e-01,-1.377722024917602539e-01,-1.452392041683197021e-01,-1.517032682895660400e-01,-1.526933908462524414e-01,-1.634602546691894531e-01,-1.707510650157928467e-01,-1.718885600566864014e-01,-1.883348553148034565e-01,-1.944422721862792969e-01,-1.977108269929885864e-01
-4.254388809204101562e-02,-4.250121116638183594e-02,-3.865981101989746094e-02,-4.226565361022949219e-02,-6.693446636199951172e-02,-3.820121288299560547e-02,-3.421533107757568359e-02,-3.475439548492431641e-02,-2.780687808990478516e-02,-2.445316314697265625e-02,-2.177333831787109375e-02,-2.005684375762939453e-02,-1.801478862762451172e-02,-1.980912685394287109e-02,-1.733100414276123047e-02,-1.696193218231201172e-02,-1.757287979125976562e-02,-2.074666880071163177e-02,-1.670134067535400391e-02,-2.172220498323440552e-02,-2.329481579363346100e-02,-2.358186244964599609e-02,-3.289332240819931030e-02,-3.583872318267822266e-02,-4.448640346527099609e-02,-5.357997864484786987e-02,-5.527593940496444702e-02,-6.457555294036865234e-02,-7.818347960710525513e-02,-8.053432404994964600e-02,-8.866500854492187500e-02,-9.593994170427322388e-02,-9.966754913330078125e-02,-1.018249019980430603e-01,-1.112340688705444336e-01,-1.267430335283279419e-01,-1.295693218708038330e-01,-1.320960223674774170e-01,-1.384519338607788086e-01,-1.531061083078384399e-01,-1.585312485694885254e-01,-1.626658886671066284e-01,-1.672808229923248291e-01,-1.831552786486489448e-01,-1.913247108459472656e-01,-1.972678899765014648e-01,-1.978418827056884766e-01
-5.456256866455078125e-02,-6.349778175354003906e-02,-4.960380834527314264e-02,-6.556415557861328125e-02,-6.383228302001953125e-02,-6.072854995727539062e-02,-4.919612407684326172e-02,-4.150784015655517578e-02,-3.214800357818603516e-02,-3.479850292205810547e-02,-2.922558784484863281e-02,-2.822256088256835938e-02,-2.403295040130615234e-02,-2.370345592498779297e-02,-2.157473564147949219e-02,-2.048873901367187500e-02,-2.361261844635009766e-02,-1.854550838470458984e-02,-2.019202709197998047e-02,-1.693367958068847656e-02,-2.579740062355995178e-02,-2.757716178894042969e-02,-2.912628650665283203e-02,-4.096592962741851807e-02,-4.320177063345909119e-02,-5.898515232231305722e-02,-6.615599244832992554e-02,-7.446058839559555054e-02,-8.313791453838348389e-02,-7.975029945373535156e-02,-9.175508469343185425e-02,-9.337079524993896484e-02,-1.017358303070068359e-01,-1.161406487226486206e-01,-1.186408326029777527e-01,-1.183395683765411377e-01,-1.325067281723022461e-01,-1.427060216665267944e-01,-1.486841738224029541e-01,-1.565566365535442650e-01,-1.603533029556274414e-01,-1.680310517549514771e-01,-1.675519943237304688e-01,-1.856441348791122437e-01,-1.913247108459472656e-01,-1.961018294095993042e-01,-1.991989612579345703e-01
-6.055450439453125000e-02,-6.125044822692871094e-02,-5.986609309911727905e-02,-7.759273052215576172e-02,-7.225668430328369141e-02,-6.901133060455322266e-02,-6.645739078521728516e-02,-5.558609962463378906e-02,-4.784739017486572266e-02,-4.011070728302001953e-02,-4.274117946624755859e-02,-3.856623172760009766e-02,-3.825664520263671875e-02,-3.687024116516113281e-02,-3.650844097137451172e-02,-3.219056129455566406e-02,-2.966523170471191406e-02,-3.206098079681396484e-02,-2.204525470733642578e-02,-3.207063674926757812e-02,-2.340042591094970703e-02,-3.176099061965942383e-02,-3.686411678791046143e-02,-4.976541470264046058e-02,-5.628402956894466153e-02,-5.755865573883056641e-02,-7.502865791320800781e-02,-7.649546430911868811e-02,-8.460509777069091797e-02,-9.170182794332504272e-02,-9.246309846639633179e-02,-1.034929930675225207e-01,-1.073449850082397461e-01,-1.177387515367087772e-01,-1.196456924080848694e-01,-1.278816461563110352e-01,-1.429611742496490479e-01,-1.503834914183244109e-01,-1.565789133310317993e-01,-1.592702865600585938e-01,-1.735394895076751709e-01,-1.719805449247360229e-01,-1.747076362371444702e-01,-1.821555495262145996e-01,-1.954597961157560349e-01,-1.975884437561035156e-01,-2.079329490661621094e-01
-6.208467483520507812e-02,-6.204926967620849609e-02,-6.425891071557998657e-02,-7.012951374053955078e-02,-7.597303390502929688e-02,-7.270956039428710938e-02,-7.106161117553710938e-02,-6.091988086700439453e-02,-5.390346050262451172e-02,-4.978203773498535156e-02,-4.662466049194335938e-02,-4.678034782409667969e-02,-4.718792438507080078e-02,-4.685688018798828125e-02,-4.685378074645996094e-02,-4.504346847534179688e-02,-4.209840297698974609e-02,-3.954768180847167969e-02,-4.262268543243408203e-02,-3.255283832550048828e-02,-3.799810633063316345e-02,-3.604958206415176392e-02,-4.899561405181884766e-02,-5.260229110717773438e-02,-6.130235642194747925e-02,-6.720147972159526417e-02,-7.410776385894188301e-02,-8.177781722042709589e-02,-9.431397914886474609e-02,-9.082651138305664062e-02,-1.027300704270601300e-01,-1.048004180192947388e-01,-1.161010551159499110e-01,-1.237543996865466678e-01,-1.320235261977729391e-01,-1.374363303184509277e-01,-1.480361955060112977e-01,-1.559413407230749726e-01,-1.619448980147188411e-01,-1.719195842742919922e-01,-1.792971342802047729e-01,-1.805429458618164062e-01,-1.829388141632080078e-01,-1.937647046787398242e-01,-1.954319030046463013e-01,-2.058039456605911255e-01,-2.071422338485717773e-01
-5.907523632049560547e-02,-6.124627590179443359e-02,-6.042873859405517578e-02,-6.575473397970199585e-02,-8.043324947357177734e-02,-7.196474075317382812e-02,-6.866371631622314453e-02,-6.164884567260742188e-02,-5.535864830017089844e-02,-5.221009254455566406e-02,-4.879307746887207031e-02,-4.931291565299034119e-02,-5.614447593688964844e-02,-5.580961704254150391e-02,-5.508601665496826172e-02,-5.469715595245361328e-02,-5.357861518859863281e-02,-5.059015750885009766e-02,-4.872393608093261719e-02,-4.344724863767623901e-02,-4.796600341796875000e-02,-4.512428119778633118e-02,-5.319024811256421736e-02,-6.363140046596527100e-02,-6.500177830457687378e-02,-7.409000396728515625e-02,-7.953020322781342855e-02,-9.222406893968582153e-02,-9.640693664550781250e-02,-1.022836245962830820e-01,-1.090274565532559220e-01,-1.152991293178450699e-01,-1.219614347623240586e-01,-1.297680448740720915e-01,-1.371709108352661133e-01,-1.388108432292938232e-01,-1.521860361099243164e-01,-1.607595941195121281e-01,-1.717339903116226196e-01,-1.728895501448557970e-01,-1.788434386253356934e-01,-1.857922524213790894e-01,-1.925565548565076612e-01,-1.953019201755523682e-01,-2.028323585448199851e-01,-2.089470624923706055e-01,-2.168713212013244629e-01
-5.529546737670898438e-02,-5.825114250183105469e-02,-5.967867374420166016e-02,-6.852364540100097656e-02,-7.137095928192138672e-02,-6.440508365631103516e-02,-6.571197509765625000e-02,-5.797827243804931641e-02,-5.389499664306640625e-02,-5.050384998321533203e-02,-5.241012573242187500e-02,-5.429160594940185547e-02,-5.422354489564895630e-02,-6.406700611114501953e-02,-6.190574169158935547e-02,-6.151866912841796875e-02,-5.926704406738281250e-02,-5.599260330200195312e-02,-5.436921119689941406e-02,-4.636204242706298828e-02,-4.987864196300506592e-02,-5.744832754135131836e-02,-5.853313207626342773e-02,-7.248926162719726562e-02,-7.889425754547119141e-02,-7.566549628973007202e-02,-8.918007463216781616e-02,-1.005784273147583008e-01,-9.993130075080054742e-02,-1.076332596970386163e-01,-1.144609975277400410e-01,-1.297807693481445312e-01,-1.280753612518310547e-01,-1.380047798156738281e-01,-1.421117782592773438e-01,-1.508453189105284087e-01,-1.589444684130805197e-01,-1.754800677299499512e-01,-1.752138137817382812e-01,-1.807672232389450073e-01,-1.921994686126708984e-01,-1.898071765899658203e-01,-1.928512454032897949e-01,-2.018217109143733978e-01,-2.061791162233095054e-01,-2.182381004095077515e-01,-2.299561500549316406e-01
-5.091140791773796082e-02,-5.445301532745361328e-02,-5.586993694305419922e-02,-5.536227673292160034e-02,-5.640625953674316406e-02,-5.627524852752685547e-02,-5.284130573272705078e-02,-5.484175682067871094e-02,-5.097210407257080078e-02,-5.049955844879150391e-02,-5.023300647735595703e-02,-5.356490612030029297e-02,-5.609552562236785889e-02,-6.550395488739013672e-02,-6.333541870117187500e-02,-6.222951412200927734e-02,-6.110906600952148438e-02,-5.882740020751953125e-02,-5.766153335571289062e-02,-5.317997932434082031e-02,-5.057322978973388672e-02,-5.597396567463874817e-02,-6.082657352089881897e-02,-7.038235664367675781e-02,-7.396396994590759277e-02,-8.546227961778640747e-02,-8.841821035513511284e-02,-1.037764102220535278e-01,-1.032283753156661987e-01,-1.200950145721435547e-01,-1.265755444765090942e-01,-1.294328570365905762e-01,-1.383854448795318604e-01,-1.418006122112274170e-01,-1.485715886041269751e-01,-1.557445176800743569e-01,-1.690162271261215210e-01,-1.796147823333740234e-01,-1.830066442489624023e-01,-1.858637332916259766e-01,-1.973454952239990234e-01,-1.954821348190307617e-01,-1.988171786069869995e-01,-2.142735719680786133e-01,-2.208823412656784058e-01,-2.239314764738082886e-01,-2.313235998153686523e-01
-4.852271080017089844e-02,-4.549837112426757812e-02,-4.764043539762496948e-02,-4.825687408447265625e-02,-4.814565181732177734e-02,-5.096614360809326172e-02,-4.697084426879882812e-02,-4.658985137939453125e-02,-4.783034324645996094e-02,-4.686510562896728516e-02,-4.588329792022705078e-02,-5.139327049255371094e-02,-5.436995252966880798e-02,-6.082832813262939453e-02,-5.974590778350830078e-02,-5.864906311035156250e-02,-5.783522129058837891e-02,-5.811309814453125000e-02,-5.624103546142578125e-02,-5.387997627258300781e-02,-5.127131938934326172e-02,-5.485492199659347534e-02,-6.266292184591293335e-02,-7.048163563013076782e-02,-8.349148184061050415e-02,-8.645379543304443359e-02,-9.898364543914794922e-02,-1.047475337982177734e-01,-1.091952174901962280e-01,-1.188690662384033203e-01,-1.210514083504676819e-01,-1.367546617984771729e-01,-1.403366029262542725e-01,-1.476477086544036865e-01,-1.534163951873779297e-01,-1.664825081825256348e-01,-1.677767038345336914e-01,-1.782227754592895508e-01,-1.848987042903900146e-01,-1.858112961053848267e-01,-1.910042315721511841e-01,-2.004197090864181519e-01,-2.054703980684280396e-01,-2.178501784801483154e-01,-2.213322371244430542e-01,-2.216131836175918579e-01,-2.244551181793212891e-01
-3.728938102722167969e-02,-3.874766826629638672e-02,-4.010736942291259766e-02,-4.001617431640625000e-02,-4.433000087738037109e-02,-4.036736488342285156e-02,-4.386150836944580078e-02,-4.346821084618568420e-02,-4.345893859863281250e-02,-4.323053359985351562e-02,-4.560935497283935547e-02,-4.766992107033729553e-02,-5.038916319608688354e-02,-5.299162864685058594e-02,-5.378498509526252747e-02,-5.402987822890281677e-02,-5.347502231597900391e-02,-5.455970764160156250e-02,-5.052988231182098389e-02,-4.845654964447021484e-02,-5.046524852514266968e-02,-5.429983139038085938e-02,-6.399257481098175049e-02,-7.795567810535430908e-02,-8.162298053503036499e-02,-9.318438172340393066e-02,-9.705412387847900391e-02,-1.072306111454963684e-01,-1.100186929106712341e-01,-1.127627268433570862e-01,-1.298508644104003906e-01,-1.327611804008483887e-01,-1.456092298030853271e-01,-1.506302356719970703e-01,-1.551483422517776489e-01,-1.638560593128204346e-01,-1.666399985551834106e-01,-1.754435300827026367e-01,-1.806471794843673706e-01,-1.878924667835235596e-01,-1.987241506576538086e-01,-2.003606855869293213e-01,-2.063266485929489136e-01,-2.163385152816772461e-01,-2.198600769042968750e-01,-2.228436917066574097e-01,-2.251365184783935547e-01
-3.302972763776779175e-02,-3.498268127441406250e-02,-3.532487154006958008e-02,-3.622043132781982422e-02,-3.683722019195556641e-02,-3.753663226962089539e-02,-3.727412223815917969e-02,-3.763186931610107422e-02,-3.741800785064697266e-02,-4.008507728576660156e-02,-4.222864285111427307e-02,-4.921722412109375000e-02,-5.468583106994628906e-02,-5.363583564758300781e-02,-5.292284488677978516e-02,-5.182588100433349609e-02,-4.674744606018066406e-02,-4.748994112014770508e-02,-5.223739147186279297e-02,-4.423654079437255859e-02,-4.959674924612045288e-02,-5.453498661518096924e-02,-6.228409107629354763e-02,-7.738137245178222656e-02,-8.511531352996826172e-02,-8.555404841899871826e-02,-9.355449676513671875e-02,-1.012490019202232361e-01,-1.071271225810050964e-01,-1.207828521728515625e-01,-1.193713843822479248e-01,-1.317453384399414062e-01,-1.368633508682250977e-01,-1.483266502618789673e-01,-1.483266502618789673e-01,-1.569249927997589111e-01,-1.745089739561080933e-01,-1.753599494695663452e-01,-1.799663156270980835e-01,-1.897263526916503906e-01,-1.992758214473724365e-01,-2.006523758172988892e-01,-2.022354453802108765e-01,-2.163335084915161133e-01,-2.213850468397140503e-01,-2.217934578657150269e-01,-2.237880975008010864e-01
-2.755570411682128906e-02,-2.922608144581317902e-02,-3.195810317993164062e-02,-2.958440780639648438e-02,-3.021740913391113281e-02,-3.141820430755615234e-02,-3.490710258483886719e-02,-3.253269195556640625e-02,-3.305745124816894531e-02,-3.428685665130615234e-02,-3.982138633728027344e-02,-4.459273815155029297e-02,-4.500555992126464844e-02,-4.433596134185791016e-02,-4.397404193878173828e-02,-3.893518447875976562e-02,-4.160075634717941284e-02,-4.702818393707275391e-02,-4.118752479553222656e-02,-4.001677036285400391e-02,-4.563627019524574280e-02,-5.575579447815051659e-02,-5.989911407232284546e-02,-7.247126102447509766e-02,-7.802672684192657471e-02,-8.863604068756103516e-02,-8.925154060125350952e-02,-1.010497137904167175e-01,-1.040459871292114258e-01,-1.154679059982299805e-01,-1.213231235742568970e-01,-1.254858821630477905e-01,-1.322985944151878479e-01,-1.485394239425659180e-01,-1.495947390794754028e-01,-1.615673303604125977e-01,-1.588856726884841919e-01,-1.675848960876464844e-01,-1.752413362264633179e-01,-1.840762346982955933e-01,-1.899132579565048218e-01,-1.942496299743652344e-01,-2.032232284545898438e-01,-2.098814249038696289e-01,-2.141672819852828979e-01,-2.222526073455810547e-01,-2.244449853897094727e-01
-2.309787273406982422e-02,-2.603006362915039062e-02,-2.515900135040283203e-02,-2.580285072326660156e-02,-2.862691879272460938e-02,-2.775692939758300781e-02,-2.888929843902587891e-02,-3.014910221099853516e-02,-3.283405303955078125e-02,-3.187036514282226562e-02,-3.522026538848876953e-02,-3.565657138824462891e-02,-3.607106208801269531e-02,-3.612220287322998047e-02,-3.647387027740478516e-02,-3.254270553588867188e-02,-3.781986236572265625e-02,-3.413927555084228516e-02,-3.368902206420898438e-02,-3.672683238983154297e-02,-3.928655385971069336e-02,-4.603393375873565674e-02,-5.880500748753547668e-02,-6.723537296056747437e-02,-7.064070552587509155e-02,-7.876531779766082764e-02,-8.730900287628173828e-02,-9.810727834701538086e-02,-1.069595366716384888e-01,-1.082906574010848999e-01,-1.228058338165283203e-01,-1.245976250905257016e-01,-1.330029219388961792e-01,-1.345133781433105469e-01,-1.412931680679321289e-01,-1.487852185964584351e-01,-1.617082357406616211e-01,-1.640010923147201538e-01,-1.722751110792160034e-01,-1.826961338520050049e-01,-1.903318017721176147e-01,-1.936482787132263184e-01,-1.980404853820800781e-01,-2.078136950731277466e-01,-2.154797315597534180e-01,-2.193580567836761475e-01,-2.258126735687255859e-01
-1.938235759735107422e-02,-2.158319950103759766e-02,-2.220749855041503906e-02,-2.359342575073242188e-02,-2.568972110748291016e-02,-2.555835247039794922e-02,-2.687239646911621094e-02,-2.796673774719238281e-02,-2.920877933502197266e-02,-2.897632122039794922e-02,-3.017163276672363281e-02,-3.033077716827392578e-02,-3.002285957336425781e-02,-2.969717979431152344e-02,-2.935338020324707031e-02,-3.002762794494628906e-02,-3.033208847045898438e-02,-3.131541982293128967e-02,-3.510084748268127441e-02,-3.602170944213867188e-02,-3.972371667623519897e-02,-5.020868778228759766e-02,-5.241054296493530273e-02,-5.941748619079589844e-02,-6.785086542367935181e-02,-8.052174575053729078e-02,-8.359728008508682251e-02,-9.053154289722442627e-02,-9.985399246215820312e-02,-1.110688820481300354e-01,-1.105306595563888550e-01,-1.178628206253051758e-01,-1.304959654808044434e-01,-1.359646320343017578e-01,-1.396221667528152466e-01,-1.493366211652755737e-01,-1.579626798629760742e-01,-1.679123044013977051e-01,-1.700961589813232422e-01,-1.769889295101165771e-01,-1.854517906904220581e-01,-1.911540031433105469e-01,-1.974720209836959839e-01,-2.045737504959106445e-01,-2.117793112993240356e-01,-2.127670049667358398e-01,-2.242317646741867065e-01
-1.935768127441406250e-02,-2.005553245544433594e-02,-2.220344543457031250e-02,-2.358937263488769531e-02,-2.421891689300537109e-02,-2.701711654663085938e-02,-2.686822414398193359e-02,-2.941453456878662109e-02,-2.848029136657714844e-02,-3.090733103454113007e-02,-2.774095535278320312e-02,-2.674138545989990234e-02,-2.541244029998779297e-02,-2.507948875427246094e-02,-2.685987949371337891e-02,-2.435922622680664062e-02,-2.538454532623291016e-02,-2.806389331817626953e-02,-2.550554275512695312e-02,-3.369220718741416931e-02,-3.971970081329345703e-02,-4.292862117290496826e-02,-4.980208352208137512e-02,-5.662441253662109375e-02,-6.668267399072647095e-02,-7.295992225408554077e-02,-8.107435703277587891e-02,-9.079716354608535767e-02,-9.624656289815902710e-02,-1.056212782859802246e-01,-1.053740978240966797e-01,-1.209011226892471313e-01,-1.230143085122108459e-01,-1.315945535898208618e-01,-1.392130851745605469e-01,-1.488921940326690674e-01,-1.608193516731262207e-01,-1.633756607770919800e-01,-1.680214405059814453e-01,-1.759598255157470703e-01,-1.796999126672744751e-01,-1.890744566917419434e-01,-1.937640011310577393e-01,-2.013117372989654541e-01,-2.132194489240646362e-01,-2.204707413911819458e-01,-2.235169410705566406e-01
-2.308559417724609375e-02,-2.157497406005859375e-02,-2.588331699371337891e-02,-2.726054191589355469e-02,-2.714776992797851562e-02,-2.977714687585830688e-02,-2.905297279357910156e-02,-3.075726702809333801e-02,-3.209710121154785156e-02,-2.969467639923095703e-02,-2.917432785034179688e-02,-2.745413780212402344e-02,-2.326798439025878906e-02,-2.222859859466552734e-02,-2.010691165924072266e-02,-2.043688297271728516e-02,-2.426910400390625000e-02,-2.454662322998046875e-02,-2.480041980743408203e-02,-3.170876950025558472e-02,-3.691947460174560547e-02,-4.331534355878829956e-02,-5.023244023323059082e-02,-5.785169452428817749e-02,-6.668267399072647095e-02,-7.112765312194824219e-02,-8.037436008453369141e-02,-9.246387332677841187e-02,-9.468667209148406982e-02,-9.808975458145141602e-02,-1.067565679550170898e-01,-1.168577894568443298e-01,-1.205836758017539978e-01,-1.343659162521362305e-01,-1.382907181978225708e-01,-1.465085744857788086e-01,-1.610113012790680143e-01,-1.683639883995056152e-01,-1.659467220306396484e-01,-1.760728508234024048e-01,-1.801958233118057251e-01,-1.911489963531494141e-01,-1.970446854829788208e-01,-2.013033628463745117e-01,-2.093982249498367310e-01,-2.134481668472290039e-01,-2.229620516300201416e-01
-2.532947063446044922e-02,-2.675402164459228516e-02,-2.743387222290039062e-02,-3.132414817810058594e-02,-3.250813856720924377e-02,-3.067004680633544922e-02,-3.561556339263916016e-02,-3.324365615844726562e-02,-3.376650810241699219e-02,-3.330242633819580078e-02,-3.520309925079345703e-02,-3.103494644165039062e-02,-2.540385723114013672e-02,-2.046298980712890625e-02,-1.868665218353271484e-02,-2.113866806030273438e-02,-2.639110386371612549e-02,-2.919542789459228516e-02,-2.946043014526367188e-02,-3.463489562273025513e-02,-3.901195526123046875e-02,-4.511471465229988098e-02,-5.050272867083549500e-02,-5.592274665832519531e-02,-7.248411327600479126e-02,-7.475346326828002930e-02,-7.865478843450546265e-02,-8.523627370595932007e-02,-9.858767688274383545e-02,-1.130153238773345947e-01,-1.130153238773345947e-01,-1.205516234040260315e-01,-1.203506812453269958e-01,-1.311695128679275513e-01,-1.432446688413619995e-01,-1.545200315681663772e-01,-1.676691770553588867e-01,-1.705092936754226685e-01,-1.693916320800781250e-01,-1.781100481748580933e-01,-1.845700442790985107e-01,-1.918321847915649414e-01,-1.982671618461608887e-01,-2.037834376096725464e-01,-2.074510902166366577e-01,-2.134431600570678711e-01,-2.231403291225433350e-01
-3.053379058837890625e-02,-3.585560247302055359e-02,-3.711628913879394531e-02,-3.177416324615478516e-02,-3.240168094635009766e-02,-3.813803195953369141e-02,-3.634095191955566406e-02,-3.906214237213134766e-02,-3.979759663343429565e-02,-4.465270042419433594e-02,-4.268968105316162109e-02,-4.179119433347995571e-02,-4.250276088714599609e-02,-2.862441539764404297e-02,-2.258813381195068359e-02,-2.881795540452003479e-02,-2.895814552903175354e-02,-3.271305561065673828e-02,-3.437411785125732422e-02,-3.530752658843994141e-02,-4.315127059817314148e-02,-4.585967585444450378e-02,-4.994482919573783875e-02,-6.921625137329101562e-02,-7.614612579345703125e-02,-8.001124858856201172e-02,-8.433780074119567871e-02,-9.199255704879760742e-02,-1.114710271358489990e-01,-1.105281338095664978e-01,-1.183265224099159241e-01,-1.199295520782470703e-01,-1.284669637680053711e-01,-1.431459720070297759e-01,-1.374158859252929688e-01,-1.561549901962280273e-01,-1.728594303131103516e-01,-1.711312532424926758e-01,-1.727370470762252808e-01,-1.824849843978881836e-01,-1.860853135585784912e-01,-1.946865469217300415e-01,-1.966443061828613281e-01,-2.062516659498214722e-01,-2.105748653411865234e-01,-2.161837816238403320e-01,-2.237072885036468506e-01
-4.399943351745605469e-02,-4.689908027648925781e-02,-4.237616062164306641e-02,-4.441463947296142578e-02,-3.987538814544677734e-02,-4.048287868499755859e-02,-4.090178012847900391e-02,-4.447076097130775452e-02,-5.092942714691162109e-02,-5.579805374145507812e-02,-4.700826753217440812e-02,-6.425118446350097656e-02,-6.002354621887207031e-02,-4.496204896041980370e-02,-2.826225757598876953e-02,-3.690316155552864075e-02,-3.356111794710159302e-02,-3.808283805847167969e-02,-4.186570644378662109e-02,-4.445559158921241760e-02,-5.544686317443847656e-02,-5.981925568437275464e-02,-6.403505802154541016e-02,-7.185863101711639778e-02,-8.099465817213058472e-02,-8.164238929748535156e-02,-9.364984184503555298e-02,-9.426009654998779297e-02,-1.066458186507225209e-01,-1.138476266248806129e-01,-1.200010776519775391e-01,-1.304863393306732178e-01,-1.384162596643787602e-01,-1.340045630931854248e-01,-1.604096889495849609e-01,-1.684472113847732544e-01,-1.684472113847732544e-01,-1.777009218931198120e-01,-1.765536069869995117e-01,-1.791209429502487183e-01,-1.838757991790771484e-01,-1.949943602085113525e-01,-2.007724493741989136e-01,-2.050281465053558350e-01,-2.179227322340011597e-01,-2.216360270977020264e-01,-2.237220555543899536e-01
-5.072426795959472656e-02,-5.291545391082763672e-02,-4.905235767364501953e-02,-5.043601989746093750e-02,-5.105817317962646484e-02,-4.797649383544921875e-02,-4.759190231561660767e-02,-5.113768577575683594e-02,-5.266110599040985107e-02,-5.671679228544235229e-02,-5.833552777767181396e-02,-7.150709629058837891e-02,-6.612277030944824219e-02,-5.181944370269775391e-02,-3.644788265228271484e-02,-2.858996391296386719e-02,-3.242897987365722656e-02,-4.081972315907478333e-02,-4.275496676564216614e-02,-4.582361504435539246e-02,-5.375598371028900146e-02,-6.976308673620223999e-02,-7.334820181131362915e-02,-8.055160939693450928e-02,-8.785665035247802734e-02,-9.496719390153884888e-02,-9.546641260385513306e-02,-9.630493819713592529e-02,-1.116933822631835938e-01,-1.175808021547021104e-01,-1.267277449369430542e-01,-1.395713090896606445e-01,-1.356200724840164185e-01,-1.534635573625564575e-01,-1.561549901962280273e-01,-1.644841432571411133e-01,-1.728480458259582520e-01,-1.726330518722534180e-01,-1.819941848516464233e-01,-1.875360906124114990e-01,-1.931506395339965820e-01,-2.028022408485412598e-01,-2.039240896701812744e-01,-2.130277007818222046e-01,-2.131549119949340820e-01,-2.232307195663452148e-01,-2.244148254394531250e-01
-5.674016475677490234e-02,-5.520617961883544922e-02,-5.507552623748779297e-02,-5.350160598754882812e-02,-5.041758716106414795e-02,-5.239331722259521484e-02,-5.206108093261718750e-02,-5.186486244201660156e-02,-5.530297756195068359e-02,-5.967872962355613708e-02,-7.034599781036376953e-02,-6.815348565578460693e-02,-7.408499717712402344e-02,-6.905913352966308594e-02,-6.113624572753906250e-02,-4.427087306976318359e-02,-3.424942493438720703e-02,-4.986356943845748901e-02,-5.290389060974121094e-02,-5.317632481455802917e-02,-6.581008434295654297e-02,-6.916574388742446899e-02,-8.111042529344558716e-02,-8.111042529344558716e-02,-9.127378463745117188e-02,-9.176337718963623047e-02,-9.496719390153884888e-02,-1.049549579620361328e-01,-1.108302474021911621e-01,-1.290009021759033203e-01,-1.323488950729370117e-01,-1.328768283128738403e-01,-1.490545719861984253e-01,-1.544747799634933472e-01,-1.634530574083328247e-01,-1.709248870611190796e-01,-1.698757410049438477e-01,-1.818853020668029785e-01,-1.886932104825973511e-01,-1.925698209412490536e-01,-2.041573077440261841e-01,-2.114673852920532227e-01,-2.152819633483886719e-01,-2.204369306564331055e-01,-2.225682586431503296e-01,-2.262246608734130859e-01,-2.244096994400024414e-01
-5.673611164093017578e-02,-5.669736862182617188e-02,-5.334698781371116638e-02,-5.498206615447998047e-02,-5.400872230529785156e-02,-5.459964275360107422e-02,-5.443620681762695312e-02,-5.332350730895996094e-02,-5.781055986881256104e-02,-6.770241260528564453e-02,-6.899052113294601440e-02,-7.179737091064453125e-02,-7.093891501426696777e-02,-7.987439632415771484e-02,-7.156264781951904297e-02,-6.289196014404296875e-02,-5.494034290313720703e-02,-5.549470335245132446e-02,-5.619251728057861328e-02,-6.137976422905921936e-02,-6.374114006757736206e-02,-7.566678524017333984e-02,-7.984858006238937378e-02,-9.224568307399749756e-02,-9.197187423706054688e-02,-9.309934079647064209e-02,-1.060721874237060547e-01,-1.094613671302795410e-01,-1.238135322928428650e-01,-1.258661476140086888e-01,-1.357914805412292480e-01,-1.424434185028076172e-01,-1.517315357923507690e-01,-1.559747457504272461e-01,-1.646643877029418945e-01,-1.705832481384277344e-01,-1.769497245550155640e-01,-1.860505342483520508e-01,-1.818853020668029785e-01,-2.005680203437805176e-01,-2.016293406486511230e-01,-2.137161046266555786e-01,-2.191705703735351562e-01,-2.206398248672485352e-01,-2.238829135894775391e-01,-2.262196540832519531e-01,-2.244046926498413086e-01
-5.328663438558578491e-02,-5.519783496856689453e-02,-5.581545829772949219e-02,-5.423545837402343750e-02,-5.474305152893066406e-02,-5.385863780975341797e-02,-5.590188503265380859e-02,-5.498564243316650391e-02,-5.624496936798095703e-02,-6.842780113220214844e-02,-6.904713064432144165e-02,-7.265378534793853760e-02,-8.311486244201660156e-02,-8.059430122375488281e-02,-7.625651359558105469e-02,-6.973171234130859375e-02,-6.319212913513183594e-02,-5.522108078002929688e-02,-6.114411354064941406e-02,-6.487627327442169189e-02,-6.987184286117553711e-02,-7.612762600183486938e-02,-8.718367666006088257e-02,-9.115874767303466797e-02,-9.500882774591445923e-02,-1.021782830357551575e-01,-1.076450064979695004e-01,-1.221860945224761963e-01,-1.263837218284606934e-01,-1.312953233718872070e-01,-1.400955468416213989e-01,-1.424387693405151367e-01,-1.499982625246047974e-01,-1.603419780731201172e-01,-1.695398092269897461e-01,-1.778130531311035156e-01,-1.787564158439636230e-01,-1.794067919254302979e-01,-1.923040151596069336e-01,-2.026839405298233032e-01,-2.082865983247756958e-01,-2.170107364654541016e-01,-2.138936519622802734e-01,-2.217362821102142334e-01,-2.293975353240966797e-01,-2.243975251913070679e-01,-2.246242612600326538e-01
-5.220293998718261719e-02,-5.364871025085449219e-02,-5.283486843109130859e-02,-5.052018165588378906e-02,-5.252289772033691406e-02,-5.311751365661621094e-02,-5.369269847869873047e-02,-5.550932884216308594e-02,-5.820870399475097656e-02,-6.272456794977188110e-02,-6.715121865272521973e-02,-7.615983486175537109e-02,-8.020639419555664062e-02,-7.624459266662597656e-02,-7.083487510681152344e-02,-6.829321384429931641e-02,-6.390142440795898438e-02,-6.204748153686523438e-02,-6.515383720397949219e-02,-6.669840216636657715e-02,-6.998442113399505615e-02,-7.902371883392333984e-02,-8.634082227945327759e-02,-8.910316228866577148e-02,-1.017197370529174805e-01,-1.039957031607627869e-01,-1.141490191221237183e-01,-1.214753389358520508e-01,-1.301262825727462769e-01,-1.340864896774291992e-01,-1.389989852905273438e-01,-1.435141414403915405e-01,-1.566754877567291260e-01,-1.608170568943023682e-01,-1.675023287534713745e-01,-1.765065193176269531e-01,-1.824713945388793945e-01,-1.883518248796463013e-01,-1.923411637544631958e-01,-2.085969746112823486e-01,-2.103910893201828003e-01,-2.158318161964416504e-01,-2.173472642898559570e-01,-2.226952463388442993e-01,-2.293924093246459961e-01,-2.269027233123779297e-01,-2.250860929489135742e-01
-4.771280288696289062e-02,-4.991531372070312500e-02,-4.754698276519775391e-02,-4.967880249023437500e-02,-5.030274391174316406e-02,-5.016601085662841797e-02,-5.148339271545410156e-02,-5.262605845928192139e-02,-5.579254403710365295e-02,-6.039333343505859375e-02,-6.207200884819030762e-02,-7.469999790191650391e-02,-6.827378273010253906e-02,-6.615924835205078125e-02,-6.326985359191894531e-02,-6.371715664863586426e-02,-6.084068864583969116e-02,-6.101164966821670532e-02,-7.011783123016357422e-02,-6.538522243499755859e-02,-7.406124472618103027e-02,-8.396232128143310547e-02,-8.487202227115631104e-02,-9.249356389045715332e-02,-9.605772048234939575e-02,-1.125338673591613770e-01,-1.166565641760826111e-01,-1.244079321622848511e-01,-1.299015283584594727e-01,-1.341822147369384766e-01,-1.414700895547866821e-01,-1.466604620218276978e-01,-1.535211652517318726e-01,-1.606070995330810547e-01,-1.697959899902343750e-01,-1.738791316747665405e-01,-1.822887212038040161e-01,-1.903047561645507812e-01,-2.006228417158126831e-01,-2.034248113632202148e-01,-2.125163227319717407e-01,-2.176942825317382812e-01,-2.180340290069580078e-01,-2.234013676643371582e-01,-2.241505682468414307e-01,-2.262096405029296875e-01,-2.237082719802856445e-01
-4.322278499603271484e-02,-4.538595676422119141e-02,-4.457378387451171875e-02,-4.671299457550048828e-02,-4.647743701934814453e-02,-4.848360642790794373e-02,-5.057358741760253906e-02,-5.257928371429443359e-02,-5.382227897644042969e-02,-5.546735227108001709e-02,-6.377816200256347656e-02,-5.957901477813720703e-02,-5.894887447357177734e-02,-6.183431297540664673e-02,-5.978146940469741821e-02,-6.144857406616210938e-02,-5.706191062927246094e-02,-5.749677866697311401e-02,-6.020988151431083679e-02,-7.153284549713134766e-02,-7.546520233154296875e-02,-7.761287689208984375e-02,-8.678257465362548828e-02,-9.260216355323791504e-02,-9.765643626451492310e-02,-1.115763187408447266e-01,-1.189385652542114258e-01,-1.278901547193527222e-01,-1.291942596435546875e-01,-1.366567760705947876e-01,-1.453012228012084961e-01,-1.495349854230880737e-01,-1.585292369127273560e-01,-1.661938428878784180e-01,-1.715297549962997437e-01,-1.748697757720947266e-01,-1.834732294082641602e-01,-1.942844837903976440e-01,-1.962314099073410034e-01,-2.034199237823486328e-01,-2.110307365655899048e-01,-2.147899717092514038e-01,-2.181492596864700317e-01,-2.224425226449966431e-01,-2.280076742172241211e-01,-2.248282432556152344e-01,-2.218781709671020508e-01
-4.095661640167236328e-02,-4.166162014007568359e-02,-4.011607170104980469e-02,-4.300653934478759766e-02,-4.452972859144210815e-02,-4.780387878417968750e-02,-4.690313339233398438e-02,-4.891800880432128906e-02,-4.944038391113281250e-02,-5.431234836578369141e-02,-5.088412761688232422e-02,-5.493628978729248047e-02,-5.490386486053466797e-02,-5.788779258728027344e-02,-5.752944946289062500e-02,-5.604517459869384766e-02,-5.023515224456787109e-02,-4.980111122131347656e-02,-5.753039196133613586e-02,-6.420389562845230103e-02,-7.073982805013656616e-02,-8.175894618034362793e-02,-8.607184886932373047e-02,-9.455377608537673950e-02,-1.052324771881103516e-01,-1.034310683608055115e-01,-1.162386164069175720e-01,-1.159917650973960185e-01,-1.298922300338745117e-01,-1.370880901813507080e-01,-1.473988294601440430e-01,-1.526507586240768433e-01,-1.556347608566284180e-01,-1.675870418548583984e-01,-1.725609898567199707e-01,-1.745484173297882080e-01,-1.869542598724365234e-01,-1.929787248373031616e-01,-1.962596625089645386e-01,-2.089778184890747070e-01,-2.091849893331527710e-01,-2.142217159271240234e-01,-2.183562517166137695e-01,-2.221795320510864258e-01,-2.266227006912231445e-01,-2.232544422149658203e-01,-2.205041646957397461e-01
-3.722321987152099609e-02,-3.714275360107421875e-02,-4.004061222076416016e-02,-4.068779945373535156e-02,-4.352605342864990234e-02,-4.412448406219482422e-02,-4.323279857635498047e-02,-4.432868957519531250e-02,-4.702985286712646484e-02,-4.751837253570556641e-02,-4.436194896697998047e-02,-4.698550701141357422e-02,-4.997682571411132812e-02,-4.963827133178710938e-02,-4.928171634674072266e-02,-4.709112644195556641e-02,-4.313290119171142578e-02,-4.838061332702636719e-02,-5.271330475807189941e-02,-5.714907869696617126e-02,-7.053160667419433594e-02,-7.710683345794677734e-02,-8.582632243633270264e-02,-8.691430091857910156e-02,-9.630376845598220825e-02,-1.052978038787841797e-01,-1.050356924533843994e-01,-1.140261475701589838e-01,-1.221525204946865978e-01,-1.382858604192733765e-01,-1.480947732925415039e-01,-1.497301310300827026e-01,-1.582840532064437866e-01,-1.640874147415161133e-01,-1.727346032857894897e-01,-1.798682957887649536e-01,-1.827664375305175781e-01,-1.896117329597473145e-01,-1.950658559799194336e-01,-2.024090737104415894e-01,-2.059470117092132568e-01,-2.114425897598266602e-01,-2.200993299484252930e-01,-2.208108305931091309e-01,-2.252379655838012695e-01,-2.234469652175903320e-01,-2.198145389556884766e-01
-3.423559665679931641e-02,-3.491210937500000000e-02,-3.633427619934082031e-02,-3.699052333831787109e-02,-3.910076618194580078e-02,-3.956234455108642578e-02,-4.159522056579589844e-02,-3.994691371917724609e-02,-4.170596599578857422e-02,-4.212514683604240417e-02,-4.047966003417968750e-02,-4.308688640594482422e-02,-4.246389865875244141e-02,-4.212546348571777344e-02,-4.176878929138183594e-02,-3.816008567810058594e-02,-3.775668144226074219e-02,-4.298651218414306641e-02,-4.738362133502960205e-02,-5.343149602413177490e-02,-6.577885150909423828e-02,-7.114280760288238525e-02,-7.583664357662200928e-02,-8.000111579895019531e-02,-9.171316772699356079e-02,-9.879930317401885986e-02,-1.016253903508186340e-01,-1.110660433769226074e-01,-1.200828192805921818e-01,-1.298338174819946289e-01,-1.398723125457763672e-01,-1.437603333224989066e-01,-1.532418280839920044e-01,-1.601596623659133911e-01,-1.688185930252075195e-01,-1.781836748123168945e-01,-1.824907511472702026e-01,-1.901935338973999023e-01,-1.939579993486404419e-01,-1.940990686416625977e-01,-2.046243846416473389e-01,-2.104099988937377930e-01,-2.152883559465408325e-01,-2.202837318181991577e-01,-2.266126871109008789e-01,-2.216341495513916016e-01,-2.212930917739868164e-01
-3.348565101623535156e-02,-3.708770498633384705e-02,-3.558957576751708984e-02,-3.624761104583740234e-02,-3.750085830688476562e-02,-3.735852241516113281e-02,-3.866541385650634766e-02,-3.775382041931152344e-02,-3.807163238525390625e-02,-3.928828239440917969e-02,-3.686332702636718750e-02,-3.702986240386962891e-02,-3.672385215759277344e-02,-3.605747222900390625e-02,-3.569722175598144531e-02,-3.389728069305419922e-02,-3.751800581812858582e-02,-3.521442413330078125e-02,-4.238176345825195312e-02,-5.061919987201690674e-02,-5.681204795837402344e-02,-6.398422271013259888e-02,-7.401809841394424438e-02,-7.780885696411132812e-02,-9.143458306789398193e-02,-9.903252124786376953e-02,-1.003085598349571228e-01,-1.032691001892089844e-01,-1.146436557173728943e-01,-1.259839681757463081e-01,-1.340594516211264797e-01,-1.389994174242019653e-01,-1.458078622817993164e-01,-1.563925594091415405e-01,-1.606917828321456909e-01,-1.699365434012835852e-01,-1.808821260929107666e-01,-1.850561350584030151e-01,-1.903911381959915161e-01,-1.947876214981079102e-01,-2.026314735412597656e-01,-2.069463729858398438e-01,-2.142837047576904297e-01,-2.196799069643020630e-01,-2.222677767276763916e-01,-2.241250276565551758e-01,-2.204941511154174805e-01
-3.571915626525878906e-02,-3.490793704986572266e-02,-3.632593154907226562e-02,-3.614509105682373047e-02,-3.676164150238037109e-02,-3.662109375000000000e-02,-3.719830513000488281e-02,-3.682780265808105469e-02,-3.661537170410156250e-02,-3.613674640655517578e-02,-3.587245941162109375e-02,-3.486919403076171875e-02,-3.424966335296630859e-02,-3.319954872131347656e-02,-3.284657001495361328e-02,-3.500094637274742126e-02,-3.167927265167236328e-02,-3.266501426696777344e-02,-3.923837095499038696e-02,-4.565119743347167969e-02,-5.188989639282226562e-02,-6.096403300762176514e-02,-6.449409574270248413e-02,-7.380080223083496094e-02,-8.617836236953735352e-02,-9.223370999097824097e-02,-9.907078742980957031e-02,-1.062753573060035706e-01,-1.120385751128196716e-01,-1.148995757102966309e-01,-1.227973699569702148e-01,-1.339195668697357178e-01,-1.404320001602172852e-01,-1.484632492065429688e-01,-1.614596396684646606e-01,-1.681636869907379150e-01,-1.762818098068237305e-01,-1.753636598587036133e-01,-1.853832304477691650e-01,-1.926018893718719482e-01,-1.968433111906051636e-01,-2.086565196514129639e-01,-2.141940295696258545e-01,-2.186258435249328613e-01,-2.245377302169799805e-01,-2.235491573810577393e-01,-2.211735248565673828e-01
-4.168176651000976562e-02,-3.787279129028320312e-02,-3.928339481353759766e-02,-3.919374942779541016e-02,-3.749251365661621094e-02,-3.968902304768562317e-02,-3.792536258697509766e-02,-3.701984882354736328e-02,-3.806316852569580078e-02,-3.710711002349853516e-02,-3.586816787719726562e-02,-3.486490249633789062e-02,-3.424537181854248047e-02,-3.319525718688964844e-02,-3.284227848052978516e-02,-3.137636184692382812e-02,-3.167498111724853516e-02,-2.913880348205566406e-02,-3.917005285620689392e-02,-4.297354444861412048e-02,-4.907524585723876953e-02,-6.027620285749435425e-02,-6.354404985904693604e-02,-7.029235363006591797e-02,-8.272027969360351562e-02,-8.853968232870101929e-02,-9.487259387969970703e-02,-1.043013110756874084e-01,-1.090727075934410095e-01,-1.186097860336303711e-01,-1.190745830535888672e-01,-1.337980479001998901e-01,-1.367949694395065308e-01,-1.492551118135452271e-01,-1.618091762065887451e-01,-1.637703925371170044e-01,-1.718910932540893555e-01,-1.761523038148880005e-01,-1.865098029375076294e-01,-1.900372505187988281e-01,-2.025444954633712769e-01,-2.034826278686523438e-01,-2.132819145917892456e-01,-2.203931808471679688e-01,-2.217725366353988647e-01,-2.268725633621215820e-01,-2.243694067001342773e-01
-4.544079303741455078e-02,-4.988193511962890625e-02,-4.306423664093017578e-02,-4.520273208618164062e-02,-3.969335556030273438e-02,-3.881657123565673828e-02,-4.084682464599609375e-02,-3.920447826385498047e-02,-4.118621349334716797e-02,-3.999972343444824219e-02,-4.077270999550819397e-02,-3.845465183258056641e-02,-3.814470767974853516e-02,-3.675782680511474609e-02,-3.639578819274902344e-02,-3.388857841491699219e-02,-3.308284282684326172e-02,-3.124749660491943359e-02,-4.098134115338325500e-02,-4.624309763312339783e-02,-5.047583580017089844e-02,-6.104177236557006836e-02,-6.958723068237304688e-02,-6.992413103580474854e-02,-7.918461412191390991e-02,-8.775288611650466919e-02,-1.000380739569664001e-01,-1.031527519226074219e-01,-1.099996343255043030e-01,-1.158165931701660156e-01,-1.264707297086715698e-01,-1.292585134506225586e-01,-1.399093717336654663e-01,-1.435911655426025391e-01,-1.527923792600631714e-01,-1.650257408618927002e-01,-1.671840250492095947e-01,-1.756922006607055664e-01,-1.824933439493179321e-01,-1.957888305187225342e-01,-1.972520351409912109e-01,-2.056613713502883911e-01,-2.068659663200378418e-01,-2.134889364242553711e-01,-2.225136458873748779e-01,-2.239376306533813477e-01,-2.284823656082153320e-01
-5.896699428558349609e-02,-5.515611171722412109e-02,-5.132452026009559631e-02,-4.436016082763671875e-02,-4.497432708740234375e-02,-4.409921169281005859e-02,-4.247844219207763672e-02,-4.357779026031494141e-02,-4.463797807693481445e-02,-4.405722022056579590e-02,-4.262971878051757812e-02,-4.450678825378417969e-02,-4.420042037963867188e-02,-4.281890392303466797e-02,-4.246032238006591797e-02,-3.814280033111572266e-02,-3.703117370605468750e-02,-3.979649767279624939e-02,-5.533198868999114617e-02,-5.378258228302001953e-02,-6.076286733150482178e-02,-6.526850163936614990e-02,-6.830905377864837646e-02,-7.238566875457763672e-02,-8.121588826179504395e-02,-9.035861492156982422e-02,-9.416902065277099609e-02,-1.062749028205871582e-01,-1.102311015129089355e-01,-1.177709326148033142e-01,-1.247448325157165527e-01,-1.324883252382278442e-01,-1.415003538131713867e-01,-1.492322534322738647e-01,-1.522105783224105835e-01,-1.577742993831634521e-01,-1.670314073562622070e-01,-1.762624531984329224e-01,-1.828077137470245361e-01,-1.869263350963592529e-01,-1.924051046371459961e-01,-2.019699066877365112e-01,-2.079092413187026978e-01,-2.141921222209930420e-01,-2.216865867376327515e-01,-2.237111628055572510e-01,-2.277910709381103516e-01
