-1.169904750161744333e-01,-1.169904750161744333e-01,-1.169904750161744333e-01,-1.169904750161744333e-01,-1.169904750161744333e-01,-1.169904750161744333e-01,-1.169904750161744333e-01,-1.169904750161744333e-01,-1.169904750161744333e-01,-1.169904750161744333e-01,-1.169904750161744333e-01,-1.169904750161744333e-01,-1.169904750161744333e-01,-1.169904750161744333e-01,-1.169904750161744333e-01,-1.169904750161744333e-01,-1.169904750161744333e-01,-9.982232042659647253e-02,-8.353110035202572503e-02,-7.155456277382854502e-02,-7.404126909807436097e-02,-7.799365001078295556e-02,-8.194603092349153628e-02,-8.589841183620014475e-02,-8.998253877933236333e-02,-9.393491969204095793e-02,-9.788730060474955252e-02,-1.018396815174581471e-01,-1.057920624301667417e-01,-1.098761893732989603e-01,-1.138285702860075549e-01,-1.169904750161744333e-01,-1.169904750161744333e-01,-1.169904750161744333e-01,-1.169904750161744333e-01,-1.169904750161744333e-01,-1.169904750161744333e-01,-1.169904750161744333e-01,-1.169904750161744333e-01,-1.169904750161744333e-01,-1.169904750161744333e-01,-1.169904750161744333e-01,-1.169904750161744333e-01,-1.169904750161744333e-01,-1.169904750161744333e-01,-1.169904750161744333e-01,-1.169904750161744333e-01
-1.169904750161744333e-01,-1.169904750161744333e-01,-1.169904750161744333e-01,-1.169904750161744333e-01,-1.169904750161744333e-01,-1.169904750161744333e-01,-1.169904750161744333e-01,-1.169904750161744333e-01,-1.169904750161744333e-01,-1.169904750161744333e-01,-1.169904750161744333e-01,-1.169904750161744333e-01,-1.169904750161744333e-01,-1.169904750161744333e-01,-9.992936407631566875e-02,-7.881706270093058464e-02,-6.042202320303265151e-02,-6.073492002528875500e-02,-6.468730093799734959e-02,-6.863968185070594419e-02,-7.259206276341453878e-02,-7.654444367612314726e-02,-8.062857061925535196e-02,-8.458095153196394655e-02,-8.853333244467254115e-02,-9.248571335738113575e-02,-9.643809427008973034e-02,-1.005222212132219489e-01,-1.044746021259305435e-01,-1.084269830386391381e-01,-1.123793639513477327e-01,-1.163317448640563273e-01,-1.169904750161744333e-01,-1.169904750161744333e-01,-1.169904750161744333e-01,-1.169904750161744333e-01,-1.169904750161744333e-01,-1.169904750161744333e-01,-1.169904750161744333e-01,-1.169904750161744333e-01,-1.169904750161744333e-01,-1.169904750161744333e-01,-1.169904750161744333e-01,-1.169904750161744333e-01,-1.169904750161744333e-01,-1.169904750161744333e-01,-1.169904750161744333e-01
-1.169904750161744333e-01,-1.169904750161744333e-01,-1.169904750161744333e-01,-1.169904750161744333e-01,-1.169904750161744333e-01,-1.169904750161744333e-01,-1.169904750161744333e-01,-1.169904750161744333e-01,-1.169904750161744333e-01,-1.169904750161744333e-01,-1.169904750161744333e-01,-9.915123908412615261e-02,-7.576631868393363112e-02,-5.255019788522137525e-02,-4.742857095250314903e-02,-5.138095186521174362e-02,-5.533333277792033822e-02,-5.928571369062893281e-02,-6.323809460333754129e-02,-6.719047551604612201e-02,-7.127460245917835446e-02,-7.522698337188693518e-02,-7.917936428459554365e-02,-8.313174519730412437e-02,-8.708412611001271897e-02,-9.116825305314493755e-02,-9.512063396585354602e-02,-9.907301487856212674e-02,-1.030253957912707352e-01,-1.069777767039793159e-01,-1.109301576166879244e-01,-1.150142845598201291e-01,-1.169904750161744333e-01,-1.169904750161744333e-01,-1.169904750161744333e-01,-1.169904750161744333e-01,-1.169904750161744333e-01,-1.169904750161744333e-01,-1.169904750161744333e-01,-1.169904750161744333e-01,-1.169904750161744333e-01,-1.169904750161744333e-01,-1.169904750161744333e-01,-1.169904750161744333e-01,-1.169904750161744333e-01,-1.169904750161744333e-01,-1.169904750161744333e-01
-1.169904750161744333e-01,-1.169904750161744333e-01,-1.169904750161744333e-01,-1.169904750161744333e-01,-1.169904750161744333e-01,-1.169904750161744333e-01,-1.169904750161744333e-01,-1.169904750161744333e-01,-1.021690465935171932e-01,-7.153809452002557467e-02,-4.634166620150828586e-02,-3.399047584929391908e-02,-3.807460279242613765e-02,-4.202698370513474613e-02,-4.597936461784332685e-02,-4.993174553055192144e-02,-5.388412644326052992e-02,-5.783650735596911063e-02,-6.192063429910132921e-02,-6.587301521180992381e-02,-6.982539612451851840e-02,-7.377777703722711300e-02,-7.773015794993570760e-02,-8.181428489306792617e-02,-8.576666580577652077e-02,-8.971904671848512924e-02,-9.367142763119370996e-02,-9.762380854390231844e-02,-1.015761894566109130e-01,-1.056603163997431316e-01,-1.096126973124517262e-01,-1.135650782251603208e-01,-1.169904750161744333e-01,-1.169904750161744333e-01,-1.169904750161744333e-01,-1.169904750161744333e-01,-1.169904750161744333e-01,-1.169904750161744333e-01,-1.169904750161744333e-01,-1.169904750161744333e-01,-1.169904750161744333e-01,-1.169904750161744333e-01,-1.169904750161744333e-01,-1.169904750161744333e-01,-1.169904750161744333e-01,-1.169904750161744333e-01,-1.169904750161744333e-01
-1.169904750161744333e-01,-1.169904750161744333e-01,-1.169904750161744333e-01,-1.169904750161744333e-01,-1.169904750161744333e-01,-1.068501477370064345e-01,-7.139811436270049327e-02,-4.179642815189339722e-02,-2.068412677650829923e-02,-2.463650768921692158e-02,-2.872063463234914016e-02,-3.267301554505772088e-02,-3.662539645776632935e-02,-4.057777737047491007e-02,-4.453015828318351854e-02,-4.848253919589211314e-02,-5.256666613902431784e-02,-5.651904705173291243e-02,-6.047142796444150703e-02,-6.442380887715010163e-02,-6.837618978985871010e-02,-7.246031673299091480e-02,-7.641269764569952327e-02,-8.036507855840810399e-02,-8.431745947111671247e-02,-8.826984038382530706e-02,-9.222222129653390166e-02,-9.630634823966610636e-02,-1.002587291523747148e-01,-1.042111100650833094e-01,-1.081634909777919040e-01,-1.121158718905004986e-01,-1.161999988336327172e-01,-1.169904750161744333e-01,-1.169904750161744333e-01,-1.169904750161744333e-01,-1.169904750161744333e-01,-1.169904750161744333e-01,-1.169904750161744333e-01,-1.169904750161744333e-01,-1.169904750161744333e-01,-1.169904750161744333e-01,-1.169904750161744333e-01,-1.169904750161744333e-01,-1.169904750161744333e-01,-1.169904750161744333e-01,-1.169904750161744333e-01
-1.169904750161744333e-01,-1.169904750161744333e-01,-1.093903758861118625e-01,-7.292142783947358486e-02,-3.536557504184047185e-02,-7.377777703722707137e-03,-1.133015861643130173e-02,-1.528253952913989633e-02,-1.936666647227211491e-02,-2.331904738498072338e-02,-2.727142829768931798e-02,-3.122380921039791257e-02,-3.517619012310649329e-02,-3.912857103581510176e-02,-4.321269797894730647e-02,-4.716507889165591494e-02,-5.111745980436449566e-02,-5.506984071707309719e-02,-5.902222162978169873e-02,-6.310634857291391731e-02,-6.705872948562249802e-02,-7.101111039833109262e-02,-7.496349131103968721e-02,-7.891587222374829569e-02,-8.286825313645689028e-02,-8.695238007958910886e-02,-9.090476099229768958e-02,-9.485714190500629805e-02,-9.880952281771489265e-02,-1.027619037304234872e-01,-1.068460306735557058e-01,-1.107984115862643004e-01,-1.147507924989728950e-01,-1.169904750161744333e-01,-1.169904750161744333e-01,-1.169904750161744333e-01,-1.169904750161744333e-01,-1.169904750161744333e-01,-1.169904750161744333e-01,-1.169904750161744333e-01,-1.169904750161744333e-01,-1.169904750161744333e-01,-1.169904750161744333e-01,-1.169904750161744333e-01,-1.169904750161744333e-01,-1.169904750161744333e-01,-1.169904750161744333e-01
-7.606686431583752073e-02,-3.373110085189742757e-02,5.928571369062898833e-03,1.976190456354304237e-03,-1.976190456354304237e-03,-5.928571369062884955e-03,-1.001269831219511741e-02,-1.396507922490369813e-02,-1.791746013761229273e-02,-2.186984105032088732e-02,-2.582222196302949579e-02,-2.977460287573807651e-02,-3.385872981887030897e-02,-3.781111073157890357e-02,-4.176349164428748428e-02,-4.571587255699609276e-02,-4.966825346970468735e-02,-5.375238041283690593e-02,-5.770476132554549359e-02,-6.165714223825408818e-02,-6.560952315096268972e-02,-6.956190406367128432e-02,-7.351428497637987891e-02,-7.759841191951209749e-02,-8.155079283222069209e-02,-8.550317374492928668e-02,-8.945555465763788128e-02,-9.340793557034647587e-02,-9.749206251347869445e-02,-1.014444434261872890e-01,-1.053968243388958836e-01,-1.093492052516044782e-01,-1.133015861643130728e-01,-1.169904750161744333e-01,-1.169904750161744333e-01,-1.169904750161744333e-01,-1.169904750161744333e-01,-1.169904750161744333e-01,-1.169904750161744333e-01,-1.169904750161744333e-01,-1.169904750161744333e-01,-1.169904750161744333e-01,-1.169904750161744333e-01,-1.169904750161744333e-01,-1.169904750161744333e-01,-1.169904750161744333e-01,-1.169904750161744333e-01
1.528253952913988245e-02,1.133015861643127398e-02,7.377777703722707137e-03,3.425396791014126419e-03,-6.587301521180921604e-04,-4.611111064826700634e-03,-8.563491977535295230e-03,-1.251587289024388983e-02,-1.646825380295247054e-02,-2.042063471566107902e-02,-2.450476165879329760e-02,-2.845714257150189219e-02,-3.240952348421047291e-02,-3.636190439691908138e-02,-4.031428530962767598e-02,-4.439841225275989456e-02,-4.835079316546847528e-02,-5.230317407817708375e-02,-5.625555499088567835e-02,-6.020793590359427988e-02,-6.416031681630286754e-02,-6.824444375943508612e-02,-7.219682467214368071e-02,-7.614920558485227531e-02,-8.010158649756086990e-02,-8.405396741026946450e-02,-8.813809435340168308e-02,-9.209047526611027767e-02,-9.604285617881887227e-02,-9.999523709152746687e-02,-1.039476180042360615e-01,-1.080317449473682800e-01,-1.119841258600768746e-01,-1.159365067727854692e-01,-1.169904750161744333e-01,-1.169904750161744333e-01,-1.169904750161744333e-01,-1.169904750161744333e-01,-1.169904750161744333e-01,-1.169904750161744333e-01,-1.169904750161744333e-01,-1.169904750161744333e-01,-1.169904750161744333e-01,-1.169904750161744333e-01,-1.169904750161744333e-01,-1.169904750161744333e-01,-1.169904750161744333e-01
1.673174586379971851e-02,1.277936495109111004e-02,8.695238007958905335e-03,4.742857095250324617e-03,7.904761825417161436e-04,-3.161904730166892330e-03,-7.114285642875473048e-03,-1.106666655558406764e-02,-1.515079349871627235e-02,-1.910317441142488082e-02,-2.305555532413347541e-02,-2.700793623684208389e-02,-3.096031714955066461e-02,-3.504444409268288319e-02,-3.899682500539149166e-02,-4.294920591810007238e-02,-4.690158683080866697e-02,-5.085396774351726157e-02,-5.480634865622585616e-02,-5.889047559935807474e-02,-6.284285651206666934e-02,-6.679523742477526393e-02,-7.074761833748385853e-02,-7.469999925019246700e-02,-7.878412619332467171e-02,-8.273650710603326630e-02,-8.668888801874186090e-02,-9.064126893145046937e-02,-9.459364984415905009e-02,-9.867777678729126867e-02,-1.026301576999998633e-01,-1.065825386127084717e-01,-1.105349195254170663e-01,-1.144873004381256609e-01,-1.169904750161744333e-01,-1.169904750161744333e-01,-1.169904750161744333e-01,-1.169904750161744333e-01,-1.169904750161744333e-01,-1.169904750161744333e-01,-1.169904750161744333e-01,-1.169904750161744333e-01,-1.169904750161744333e-01,-1.169904750161744333e-01,-1.169904750161744333e-01,-1.169904750161744333e-01,-1.169904750161744333e-01
1.804920616803593059e-02,1.409682525532729436e-02,1.014444434261874139e-02,6.192063429910146799e-03,-2.772408248400320963e-01,-2.811932057527407047e-01,-2.852773326958729094e-01,-2.892297136085815179e-01,-2.931820945212900709e-01,-1.765396807676505864e-02,-2.160634898947365323e-02,-2.569047593260587181e-02,-2.964285684531448029e-02,-3.359523775802306100e-02,-3.754761867073165560e-02,-4.149999958344026407e-02,-4.545238049614885867e-02,-4.953650743928106337e-02,-5.348888835198967184e-02,-5.744126926469825256e-02,-6.139365017740685410e-02,-6.534603109011544175e-02,-6.943015803324766033e-02,-7.338253894595625493e-02,-7.733491985866484952e-02,-8.128730077137344412e-02,-8.523968168408205259e-02,-8.932380862721425729e-02,-9.327618953992285189e-02,-9.722857045263144649e-02,-1.011809513653400550e-01,-1.051333322780486496e-01,-1.090857131907572442e-01,-1.131698401338894627e-01,-1.169904750161744333e-01,-1.169904750161744333e-01,-1.169904750161744333e-01,-1.169904750161744333e-01,-1.169904750161744333e-01,-1.169904750161744333e-01,-1.169904750161744333e-01,-1.169904750161744333e-01,-1.169904750161744333e-01,-1.169904750161744333e-01,-1.169904750161744333e-01,-1.169904750161744333e-01,-1.169904750161744333e-01
1.949841250269573889e-02,1.554603158998713042e-02,1.159365067727854970e-02,7.641269764569941225e-03,-2.759233645357958564e-01,-2.798757454485044649e-01,-2.838281263612131289e-01,-2.877805072739216818e-01,-2.917328881866302903e-01,-1.633650777252887432e-02,-2.028888868523746891e-02,-2.424126959794604963e-02,-2.819365051065464423e-02,-3.214603142336323882e-02,-3.623015836649547128e-02,-4.018253927920405200e-02,-4.413492019191266047e-02,-4.808730110462125507e-02,-5.203968201732984966e-02,-5.599206293003843732e-02,-6.007618987317065590e-02,-6.402857078587924355e-02,-6.798095169858783815e-02,-7.193333261129644662e-02,-7.588571352400502734e-02,-7.996984046713725980e-02,-8.392222137984584052e-02,-8.787460229255444899e-02,-9.182698320526302971e-02,-9.577936411797163818e-02,-9.973174503068023278e-02,-1.038158719738124514e-01,-1.077682528865210460e-01,-1.117206337992296405e-01,-1.156730147119382351e-01,-1.169904750161744333e-01,-1.169904750161744333e-01,-1.169904750161744333e-01,-1.169904750161744333e-01,-1.169904750161744333e-01,-1.169904750161744333e-01,-1.169904750161744333e-01,-1.169904750161744333e-01,-1.169904750161744333e-01,-1.169904750161744333e-01,-1.169904750161744333e-01,-1.169904750161744333e-01
2.094761883735557495e-02,1.699523792464696648e-02,1.291111098151473402e-02,8.958730068806153302e-03,-2.744741582011360759e-01,-2.784265391138446288e-01,-2.823789200265532928e-01,-2.864630469696854975e-01,-2.904154278823940505e-01,-1.488730143786903826e-02,-1.883968235057764673e-02,-2.279206326328622745e-02,-2.687619020641845990e-02,-3.082857111912705450e-02,-3.478095203183563522e-02,-3.873333294454422981e-02,-4.268571385725283829e-02,-4.663809476996143288e-02,-5.072222171309365146e-02,-5.467460262580224606e-02,-5.862698353851083372e-02,-6.257936445121942137e-02,-6.653174536392802985e-02,-7.061587230706023455e-02,-7.456825321976884302e-02,-7.852063413247743762e-02,-8.247301504518603221e-02,-8.642539595789462681e-02,-9.037777687060322140e-02,-9.446190381373543998e-02,-9.841428472644403458e-02,-1.023666656391526292e-01,-1.063190465518612238e-01,-1.102714274645698184e-01,-1.143555544077020369e-01,-1.169904750161744333e-01,-1.169904750161744333e-01,-1.169904750161744333e-01,-1.169904750161744333e-01,-1.169904750161744333e-01,-1.169904750161744333e-01,-1.169904750161744333e-01,-1.169904750161744333e-01,-1.169904750161744333e-01,-1.169904750161744333e-01,-1.169904750161744333e-01,-1.169904750161744333e-01
2.226507914159175927e-02,1.831269822888317855e-02,1.436031731617454232e-02,1.040793640346596161e-02,-2.730249518664762398e-01,-2.771090788096084445e-01,-2.810614597223170530e-01,-2.850138406350256615e-01,-2.889662215477342144e-01,-1.343809510320922995e-02,-1.752222204634143465e-02,-2.147460295905004313e-02,-2.542698387175863772e-02,-2.937936478446721844e-02,-3.333174569717581304e-02,-3.728412660988442151e-02,-4.136825355301662621e-02,-4.532063446572523469e-02,-4.927301537843381540e-02,-5.322539629114242388e-02,-5.717777720385101153e-02,-6.126190414698323011e-02,-6.521428505969183165e-02,-6.916666597240042624e-02,-7.311904688510902084e-02,-7.707142779781761543e-02,-8.102380871052621003e-02,-8.510793565365842861e-02,-8.906031656636702321e-02,-9.301269747907561780e-02,-9.696507839178421240e-02,-1.009174593044928070e-01,-1.050015862476250256e-01,-1.089539671603336202e-01,-1.129063480730422148e-01,-1.168587289857508094e-01,-1.169904750161744333e-01,-1.169904750161744333e-01,-1.169904750161744333e-01,-1.169904750161744333e-01,-1.169904750161744333e-01,-1.169904750161744333e-01,-1.169904750161744333e-01,-1.169904750161744333e-01,-1.169904750161744333e-01,-1.169904750161744333e-01,-1.169904750161744333e-01
2.371428547625159533e-02,1.976190456354298686e-02,1.580952365083437838e-02,1.172539670770214593e-02,-2.717074915622400555e-01,-2.756598724749486085e-01,-2.796122533876572724e-01,-2.835646343003658254e-01,-2.876487612434980301e-01,-1.212063479897303175e-02,-1.607301571168161247e-02,-2.002539662439022095e-02,-1.452577263057339696e-01,-1.492101072184425503e-01,-1.532942341615747828e-01,-3.596666630564823719e-02,-3.991904721835681791e-02,-4.387142813106542638e-02,-4.782380904377400710e-02,-5.190793598690622568e-02,-5.586031689961482027e-02,-5.981269781232340793e-02,-6.376507872503200947e-02,-6.771745963774059018e-02,-7.166984055044919866e-02,-7.575396749358141724e-02,-7.970634840629001183e-02,-8.365872931899862031e-02,-8.761111023170720102e-02,-9.156349114441579562e-02,-9.564761808754801420e-02,-9.959999900025660879e-02,-1.035523799129652034e-01,-1.075047608256737980e-01,-1.114571417383823926e-01,-1.154095226510910011e-01,-1.169904750161744333e-01,-1.169904750161744333e-01,-1.169904750161744333e-01,-1.169904750161744333e-01,-1.169904750161744333e-01,-1.169904750161744333e-01,-1.169904750161744333e-01,-1.169904750161744333e-01,-1.169904750161744333e-01,-1.169904750161744333e-01,-1.169904750161744333e-01
2.516349181091140363e-02,2.107936486777917118e-02,1.712698395507059046e-02,1.317460304236198199e-02,9.222222129653373512e-03,5.269841216944806672e-03,1.185714273812588093e-03,-2.766666638896034258e-03,-6.719047551604601098e-03,-1.067142846431320957e-02,-1.462380937702180417e-02,-1.857619028973039876e-02,-1.439402660014977298e-01,-1.478926469142063382e-01,-1.518450278269149467e-01,-3.451745997098840113e-02,-3.846984088369699573e-02,-4.255396782682921430e-02,-4.650634873953782278e-02,-5.045872965224640350e-02,-5.441111056495499809e-02,-5.836349147766360657e-02,-6.231587239037218728e-02,-6.639999933350440586e-02,-7.035238024621300046e-02,-7.430476115892159505e-02,-7.825714207163018965e-02,-8.220952298433878425e-02,-8.629364992747100283e-02,-9.024603084017959742e-02,-9.419841175288819202e-02,-9.815079266559678661e-02,-1.021031735783053951e-01,-1.060555544910139897e-01,-1.101396814341461944e-01,-1.140920623468548029e-01,-1.169904750161744333e-01,-1.169904750161744333e-01,-1.169904750161744333e-01,-1.169904750161744333e-01,-1.169904750161744333e-01,-1.169904750161744333e-01,-1.169904750161744333e-01,-1.169904750161744333e-01,-1.169904750161744333e-01,-1.169904750161744333e-01,-1.169904750161744333e-01
2.648095211514758796e-02,2.252857120243900724e-02,1.857619028973039876e-02,1.462380937702179029e-02,1.053968243388958559e-02,6.587301521181004871e-03,2.634920608472410275e-03,-1.317460304236212076e-03,-5.269841216944792794e-03,-9.222222129653401268e-03,-1.330634907278560597e-02,-1.725872998549420057e-02,-1.424910596668379492e-01,-1.464434405795465022e-01,-1.503958214922551384e-01,-3.319999966675220293e-02,-3.715238057946079753e-02,-4.110476149216939212e-02,-4.505714240487798672e-02,-4.900952331758659519e-02,-5.296190423029517591e-02,-5.704603117342740143e-02,-6.099841208613599602e-02,-6.495079299884459756e-02,-6.890317391155319215e-02,-7.285555482426178675e-02,-7.693968176739399145e-02,-8.089206268010259993e-02,-8.484444359281118064e-02,-8.879682450551978912e-02,-9.274920541822836983e-02,-9.683333236136058841e-02,-1.007857132740691830e-01,-1.047380941867777915e-01,-1.086904750994863861e-01,-1.126428560121949807e-01,-1.165952369249035753e-01,-1.169904750161744333e-01,-1.169904750161744333e-01,-1.169904750161744333e-01,-1.169904750161744333e-01,-1.169904750161744333e-01,-1.169904750161744333e-01,-1.169904750161744333e-01,-1.169904750161744333e-01,-1.169904750161744333e-01,-1.169904750161744333e-01
2.793015844980739626e-02,2.397777753709881554e-02,1.989365059396658308e-02,1.594126968125797461e-02,1.198888876854939389e-02,8.036507855840813175e-03,4.084126943132218579e-03,1.317460304236239832e-04,-3.952380912708622351e-03,-7.904761825417175314e-03,-1.185714273812578379e-02,-1.580952365083437838e-02,-1.976190456354297298e-02,-2.384603150667519156e-02,-2.779841241938380003e-02,-3.175079333209238075e-02,-3.570317424480098922e-02,-3.965555515750958382e-02,-4.360793607021817841e-02,-4.769206301335038312e-02,-5.164444392605899159e-02,-5.559682483876757925e-02,-5.954920575147617384e-02,-6.350158666418476150e-02,-6.758571360731698008e-02,-7.153809452002557467e-02,-7.549047543273416927e-02,-7.944285634544276387e-02,-8.339523725815137234e-02,-8.747936420128357704e-02,-9.143174511399218551e-02,-9.538412602670078011e-02,-9.933650693940937471e-02,-1.032888878521179693e-01,-1.072412687648265639e-01,-1.113253957079587825e-01,-1.152777766206673771e-01,-1.169904750161744333e-01,-1.169904750161744333e-01,-1.169904750161744333e-01,-1.169904750161744333e-01,-1.169904750161744333e-01,-1.169904750161744333e-01,-1.169904750161744333e-01,-1.169904750161744333e-01,-1.169904750161744333e-01,-1.169904750161744333e-01
2.924761875404360834e-02,2.529523784133499986e-02,2.134285692862641914e-02,1.739047601591781067e-02,1.343809510320922995e-02,9.485714190500621479e-03,5.401587247368416778e-03,1.449206334659822182e-03,-2.503174578048800170e-03,-6.455555490757380888e-03,-1.040793640346596161e-02,-1.449206334659819406e-02,-1.844444425930677478e-02,-2.239682517201536938e-02,-2.634920608472396397e-02,-3.030158699743257245e-02,-3.425396791014115316e-02,-3.833809485327338562e-02,-4.229047576598196634e-02,-4.624285667869057481e-02,-5.019523759139915553e-02,-5.414761850410776400e-02,-5.823174544723996870e-02,-6.218412635994857024e-02,-6.613650727265715790e-02,-7.008888818536576637e-02,-7.404126909807436097e-02,-7.812539604120657954e-02,-8.207777695391516026e-02,-8.603015786662376874e-02,-8.998253877933236333e-02,-9.393491969204095793e-02,-9.788730060474955252e-02,-1.019714275478817711e-01,-1.059238084605903657e-01,-1.098761893732989603e-01,-1.138285702860075549e-01,-1.169904750161744333e-01,-1.169904750161744333e-01,-1.169904750161744333e-01,-1.169904750161744333e-01,-1.169904750161744333e-01,-1.169904750161744333e-01,-1.169904750161744333e-01,-1.169904750161744333e-01,-1.169904750161744333e-01,-1.169904750161744333e-01
3.069682508870341664e-02,2.674444417599480817e-02,2.279206326328622745e-02,1.883968235057764673e-02,1.475555540744538652e-02,1.080317449473683356e-02,6.850793582028225082e-03,2.898412669319658241e-03,-1.053968243388964110e-03,-5.138095186521182689e-03,-9.090476099229777285e-03,-1.304285701193837188e-02,-1.699523792464695260e-02,-2.094761883735556107e-02,-2.503174578048777965e-02,-2.898412669319637425e-02,-3.293650760590495497e-02,-3.688888851861356344e-02,-4.084126943132215803e-02,-4.479365034403075263e-02,-4.887777728716295733e-02,-5.283015819987156581e-02,-5.678253911258016040e-02,-6.073492002528875500e-02,-6.468730093799734959e-02,-6.877142788112955429e-02,-7.272380879383816277e-02,-7.667618970654675736e-02,-8.062857061925535196e-02,-8.458095153196394655e-02,-8.853333244467254115e-02,-9.261745938780475973e-02,-9.656984030051335433e-02,-1.005222212132219489e-01,-1.044746021259305435e-01,-1.084269830386391381e-01,-1.125111099817713567e-01,-1.164634908944799513e-01,-1.169904750161744333e-01,-1.169904750161744333e-01,-1.169904750161744333e-01,-1.169904750161744333e-01,-1.169904750161744333e-01,-1.169904750161744333e-01,-1.169904750161744333e-01,-1.169904750161744333e-01,-1.169904750161744333e-01
3.214603142336325270e-02,2.819365051065467198e-02,2.410952356752243952e-02,2.015714265481383105e-02,1.620476174210522258e-02,1.225238082939664186e-02,8.299999916688033386e-03,4.215872973555856440e-03,2.634920608472479664e-04,-3.688888851861360507e-03,-7.641269764569955103e-03,-1.159365067727854970e-02,-1.567777762041075440e-02,-1.963015853311936287e-02,-2.358253944582794359e-02,-2.753492035853655207e-02,-3.148730127124514666e-02,-3.543968218395374126e-02,-3.952380912708595984e-02,-4.347619003979454055e-02,-4.742857095250314903e-02,-5.138095186521174362e-02,-5.533333277792033822e-02,-5.941745972105254986e-02,-6.336984063376115139e-02,-6.732222154646974599e-02,-7.127460245917834059e-02,-7.522698337188693518e-02,-7.917936428459552978e-02,-8.326349122772774836e-02,-8.721587214043634295e-02,-9.116825305314493755e-02,-9.512063396585353214e-02,-9.907301487856212674e-02,-1.031571418216943453e-01,-1.071095227344029399e-01,-1.110619036471115345e-01,-1.150142845598201291e-01,-1.169904750161744333e-01,-1.169904750161744333e-01,-1.169904750161744333e-01,-1.169904750161744333e-01,-1.169904750161744333e-01,-1.169904750161744333e-01,-1.169904750161744333e-01,-1.169904750161744333e-01,-1.169904750161744333e-01
3.346349172759943702e-02,2.951111081489085630e-02,2.555872990218224783e-02,2.160634898947363935e-02,1.765396807676508639e-02,1.356984113363285394e-02,9.617460220924245462e-03,5.665079308215664744e-03,1.712698395507056270e-03,-2.239682517201552203e-03,-6.323809460333756904e-03,-1.027619037304233762e-02,-1.422857128575093222e-02,-1.818095219845952681e-02,-2.213333311116813529e-02,-2.608571402387672988e-02,-3.016984096700894846e-02,-3.412222187971754306e-02,-3.807460279242613765e-02,-4.202698370513473225e-02,-4.597936461784334072e-02,-5.006349156097554542e-02,-5.401587247368414002e-02,-5.796825338639273462e-02,-6.192063429910132921e-02,-6.587301521180992381e-02,-6.982539612451851840e-02,-7.390952306765073698e-02,-7.786190398035933158e-02,-8.181428489306792617e-02,-8.576666580577652077e-02,-8.971904671848512924e-02,-9.380317366161733394e-02,-9.775555457432592854e-02,-1.017079354870345231e-01,-1.056603163997431316e-01,-1.096126973124517262e-01,-1.135650782251603208e-01,-1.169904750161744333e-01,-1.169904750161744333e-01,-1.169904750161744333e-01,-1.169904750161744333e-01,-1.169904750161744333e-01,-1.169904750161744333e-01,-1.169904750161744333e-01,-1.169904750161744333e-01,-1.169904750161744333e-01
3.491269806225927308e-02,3.096031714955066461e-02,2.700793623684205613e-02,2.292380929370985143e-02,1.897142838100127071e-02,1.501904746829263448e-02,1.106666655558405377e-02,7.114285642875473048e-03,3.030158699743268347e-03,-9.222222129653540046e-04,-4.874603125673934723e-03,-8.826984038382529318e-03,-1.277936495109113779e-02,-1.673174586379971851e-02,-2.081587280693193709e-02,-2.476825371964053168e-02,-2.872063463234912628e-02,-3.267301554505772088e-02,-3.662539645776632935e-02,-4.070952340089853405e-02,-4.466190431360714252e-02,-4.861428522631572324e-02,-5.256666613902431784e-02,-5.651904705173292631e-02,-6.047142796444151397e-02,-6.455555490757372561e-02,-6.850793582028232021e-02,-7.246031673299091480e-02,-7.641269764569950940e-02,-8.036507855840811787e-02,-8.444920550154032257e-02,-8.840158641424891717e-02,-9.235396732695752564e-02,-9.630634823966610636e-02,-1.002587291523747148e-01,-1.042111100650833094e-01,-1.082952370082155280e-01,-1.122476179209241226e-01,-1.161999988336327172e-01,-1.169904750161744333e-01,-1.169904750161744333e-01,-1.169904750161744333e-01,-1.169904750161744333e-01,-1.169904750161744333e-01,-1.169904750161744333e-01,-1.169904750161744333e-01,-1.169904750161744333e-01
3.636190439691908138e-02,3.227777745378684893e-02,2.832539654107824045e-02,2.437301562836965974e-02,2.042063471566110677e-02,1.646825380295247054e-02,1.251587289024386207e-02,8.431745947111657369e-03,4.479365034403090529e-03,5.269841216944959328e-04,-3.425396791014140296e-03,-7.377777703722707137e-03,-1.146190464685492572e-02,-1.541428555956352031e-02,-1.936666647227211491e-02,-2.331904738498072338e-02,-2.727142829768931798e-02,-3.135555524082152268e-02,-3.530793615353011727e-02,-3.926031706623871187e-02,-4.321269797894730647e-02,-4.716507889165591494e-02,-5.111745980436449566e-02,-5.520158674749672117e-02,-5.915396766020530883e-02,-6.310634857291390343e-02,-6.705872948562249802e-02,-7.101111039833110650e-02,-7.509523734146331120e-02,-7.904761825417191967e-02,-8.299999916688050039e-02,-8.695238007958910886e-02,-9.090476099229768958e-02,-9.485714190500629805e-02,-9.894126884813851663e-02,-1.028936497608471112e-01,-1.068460306735557058e-01,-1.107984115862643004e-01,-1.147507924989728950e-01,-1.169904750161744333e-01,-1.169904750161744333e-01,-1.169904750161744333e-01,-1.169904750161744333e-01,-1.169904750161744333e-01,-1.169904750161744333e-01,-1.169904750161744333e-01,-1.169904750161744333e-01
3.767936470115529346e-02,3.372698378844668499e-02,2.977460287573807651e-02,2.582222196302946804e-02,2.173809501989729109e-02,1.778571410718865486e-02,1.383333319448007415e-02,9.880952281771493428e-03,5.928571369062898833e-03,1.976190456354304237e-03,-2.107936486777928220e-03,-6.060317399486508938e-03,-1.001269831219510353e-02,-1.396507922490369813e-02,-1.791746013761230660e-02,-2.200158708074451130e-02,-2.595396799345311978e-02,-2.990634890616170050e-02,-3.385872981887030897e-02,-3.781111073157890357e-02,-4.176349164428748428e-02,-4.584761858741973062e-02,-4.979999950012829746e-02,-5.375238041283690593e-02,-5.770476132554549359e-02,-6.165714223825408818e-02,-6.574126918138629982e-02,-6.969365009409489442e-02,-7.364603100680350289e-02,-7.759841191951208361e-02,-8.155079283222069209e-02,-8.550317374492927280e-02,-8.958730068806150526e-02,-9.353968160077009986e-02,-9.749206251347869445e-02,-1.014444434261872890e-01,-1.053968243388958836e-01,-1.094809512820281022e-01,-1.134333321947366968e-01,-1.169904750161744333e-01,-1.169904750161744333e-01,-1.169904750161744333e-01,-1.169904750161744333e-01,-1.169904750161744333e-01,-1.169904750161744333e-01,-1.169904750161744333e-01,-1.169904750161744333e-01
3.655952344255450348e-02,3.517619012310652105e-02,3.109206317997428859e-02,2.713968226726568012e-02,2.318730135455709940e-02,1.923492044184851868e-02,1.528253952913991021e-02,1.133015861643130173e-02,7.246031673299097031e-03,-2.262716626743856152e-01,-2.302240435870942237e-01,-2.341764244998028321e-01,-2.381288054125114129e-01,-1.264761892066749993e-02,-1.659999983337609453e-02,-2.055238074608470300e-02,-2.450476165879328372e-02,-2.845714257150189219e-02,-3.240952348421047291e-02,-3.649365042734270537e-02,-4.044603134005129996e-02,-4.439841225275989456e-02,-4.835079316546848915e-02,-5.230317407817708375e-02,-5.638730102130930233e-02,-6.033968193401788999e-02,-6.429206284672647764e-02,-6.824444375943508612e-02,-7.219682467214368071e-02,-7.614920558485227531e-02,-8.023333252798449389e-02,-8.418571344069308848e-02,-8.813809435340168308e-02,-9.209047526611027767e-02,-9.604285617881887227e-02,-1.001269831219510908e-01,-1.040793640346596854e-01,-1.080317449473682800e-01,-1.119841258600768746e-01,-1.159365067727854692e-01,-1.169904750161744333e-01,-1.169904750161744333e-01,-1.169904750161744333e-01,-1.169904750161744333e-01,-1.169904750161744333e-01,-1.169904750161744333e-01,-1.169904750161744333e-01
1.218650781418484375e-02,3.649365042734270537e-02,3.254126951463409689e-02,2.858888860192548842e-02,2.463650768921690770e-02,2.068412677650832698e-02,1.659999983337609453e-02,1.264761892066748605e-02,8.695238007958905335e-03,-2.248224563397258069e-01,-2.287748372524344154e-01,-2.328589641955666478e-01,-2.368113451082752285e-01,-1.119841258600769163e-02,-1.515079349871628622e-02,-1.910317441142488082e-02,-2.305555532413347541e-02,-2.713968226726569399e-02,-3.109206317997428859e-02,-3.504444409268288319e-02,-3.899682500539149166e-02,-4.294920591810007238e-02,-4.703333286123229096e-02,-5.098571377394088555e-02,-5.493809468664948015e-02,-5.889047559935807474e-02,-6.284285651206666934e-02,-6.679523742477527781e-02,-7.087936436790748251e-02,-7.483174528061607711e-02,-7.878412619332467171e-02,-8.273650710603326630e-02,-8.668888801874186090e-02,-9.077301496187407948e-02,-9.472539587458267407e-02,-9.867777678729128255e-02,-1.026301576999998633e-01,-1.065825386127084717e-01,-1.106666655558406764e-01,-1.146190464685492710e-01,-1.169904750161744333e-01,-1.169904750161744333e-01,-1.169904750161744333e-01,-1.169904750161744333e-01,-1.169904750161744333e-01,-1.169904750161744333e-01,-1.169904750161744333e-01
-1.462380937702179029e-02,3.794285676200251367e-02,3.399047584929393295e-02,3.003809493658532448e-02,2.595396799345309202e-02,2.200158708074451130e-02,1.804920616803593059e-02,1.409682525532732211e-02,1.014444434261871364e-02,-2.235049960354896226e-01,-2.274573769481982310e-01,-2.314097578609068395e-01,-2.353621387736153925e-01,-9.749206251347869445e-03,-1.370158716405646404e-02,-1.778571410718868262e-02,-2.173809501989726334e-02,-2.569047593260587181e-02,-2.964285684531448029e-02,-3.359523775802306100e-02,-3.767936470115527958e-02,-4.163174561386386030e-02,-4.558412652657248265e-02,-4.953650743928106337e-02,-5.348888835198967184e-02,-5.744126926469825256e-02,-6.152539620783046420e-02,-6.547777712053906574e-02,-6.943015803324766033e-02,-7.338253894595625493e-02,-7.733491985866486340e-02,-8.141904680179706810e-02,-8.537142771450566270e-02,-8.932380862721425729e-02,-9.327618953992285189e-02,-9.722857045263144649e-02,-1.013126973957636651e-01,-1.052650783084722597e-01,-1.092174592211808543e-01,-1.131698401338894627e-01,-1.169904750161744333e-01,-1.169904750161744333e-01,-1.169904750161744333e-01,-1.169904750161744333e-01,-1.169904750161744333e-01,-1.169904750161744333e-01,-1.169904750161744333e-01
-4.143412656822843820e-02,3.168492031688058264e-02,3.530793615353014503e-02,3.135555524082150880e-02,2.740317432811292808e-02,2.345079341540431961e-02,1.949841250269573889e-02,1.541428555956350643e-02,1.146190464685492572e-02,-2.220557897008297865e-01,-2.260081706135383950e-01,-2.299605515262470035e-01,-2.339129324389555842e-01,-8.431745947111657369e-03,-1.238412685982025196e-02,-1.633650777252886044e-02,-2.028888868523745503e-02,-2.424126959794604963e-02,-2.832539654107826821e-02,-3.227777745378687668e-02,-3.623015836649547128e-02,-4.018253927920405200e-02,-4.413492019191264659e-02,-4.821904713504486517e-02,-5.217142804775345977e-02,-5.612380896046206130e-02,-6.007618987317065590e-02,-6.402857078587924355e-02,-6.798095169858783815e-02,-7.206507864172005673e-02,-7.601745955442865132e-02,-7.996984046713725980e-02,-8.392222137984584052e-02,-8.787460229255444899e-02,-9.195872923568665369e-02,-9.591111014839526216e-02,-9.986349106110384288e-02,-1.038158719738124514e-01,-1.077682528865210460e-01,-1.117206337992296405e-01,-1.158047607423618591e-01,-1.169904750161744333e-01,-1.169904750161744333e-01,-1.169904750161744333e-01,-1.169904750161744333e-01,-1.169904750161744333e-01,-1.169904750161744333e-01
-6.580714219659811182e-02,7.311904688510895145e-03,3.675714248818992558e-02,3.280476157548134486e-02,2.885238066277273639e-02,2.476825371964053168e-02,2.081587280693192321e-02,1.686349189422334249e-02,1.291111098151473402e-02,8.958730068806125546e-03,5.006349156097572584e-03,9.222222129653401268e-04,-3.030158699743268347e-03,-6.982539612451849065e-03,-1.093492052516044366e-02,-1.488730143786903826e-02,-1.897142838100125684e-02,-2.292380929370985143e-02,-2.687619020641845990e-02,-3.082857111912704062e-02,-3.478095203183564910e-02,-3.886507897496785380e-02,-4.281745988767646227e-02,-4.676984080038505687e-02,-5.072222171309365146e-02,-5.467460262580224606e-02,-5.862698353851082678e-02,-6.271111048164304536e-02,-6.666349139435165383e-02,-7.061587230706023455e-02,-7.456825321976884302e-02,-7.852063413247743762e-02,-8.260476107560965620e-02,-8.655714198831825079e-02,-9.050952290102684539e-02,-9.446190381373543998e-02,-9.841428472644403458e-02,-1.023666656391526292e-01,-1.064507925822848478e-01,-1.104031734949934423e-01,-1.143555544077020369e-01,-1.169904750161744333e-01,-1.169904750161744333e-01,-1.169904750161744333e-01,-1.169904750161744333e-01,-1.169904750161744333e-01,-1.169904750161744333e-01
-9.261745938780475973e-02,-1.949841250269573889e-02,3.820634882284973388e-02,3.412222187971755694e-02,3.016984096700892071e-02,2.621746005430033999e-02,2.226507914159175927e-02,1.831269822888315080e-02,1.436031731617454232e-02,1.027619037304233762e-02,6.323809460333756904e-03,2.371428547625176186e-03,-1.580952365083446165e-03,-5.533333277792040761e-03,-9.617460220924245462e-03,-1.356984113363285394e-02,-1.752222204634143465e-02,-2.147460295905004313e-02,-2.542698387175862385e-02,-2.951111081489084242e-02,-3.346349172759943702e-02,-3.741587264030803162e-02,-4.136825355301662621e-02,-4.532063446572523469e-02,-4.927301537843381540e-02,-5.335714232156604786e-02,-5.730952323427464246e-02,-6.126190414698323011e-02,-6.521428505969183165e-02,-6.916666597240042624e-02,-7.325079291553263094e-02,-7.720317382824123942e-02,-8.115555474094983401e-02,-8.510793565365842861e-02,-8.906031656636702321e-02,-9.301269747907561780e-02,-9.709682442220783638e-02,-1.010492053349164310e-01,-1.050015862476250256e-01,-1.089539671603336202e-01,-1.129063480730422148e-01,-1.169904750161744333e-01,-1.169904750161744333e-01,-1.169904750161744333e-01,-1.169904750161744333e-01,-1.169904750161744333e-01,-1.169904750161744333e-01
-1.169904750161744333e-01,-4.387142813106541250e-02,2.924761875404360834e-02,3.557142821437733748e-02,3.161904730166875677e-02,2.766666638896017605e-02,2.371428547625156757e-02,1.963015853311936287e-02,1.567777762041075440e-02,1.172539670770214593e-02,7.773015794993565208e-03,3.820634882284998368e-03,-2.634920608472340886e-04,-4.215872973555856440e-03,-8.168253886264423280e-03,-1.212063479897303175e-02,-1.607301571168161247e-02,-2.015714265481384493e-02,-2.410952356752243952e-02,-2.806190448023102024e-02,-3.201428539293962872e-02,-3.596666630564822331e-02,-3.991904721835681791e-02,-4.400317416148902261e-02,-4.795555507419763108e-02,-5.190793598690622568e-02,-5.586031689961482027e-02,-5.981269781232341487e-02,-6.389682475545563345e-02,-6.784920566816422804e-02,-7.180158658087282264e-02,-7.575396749358140336e-02,-7.970634840629001183e-02,-8.365872931899860643e-02,-8.774285626213082501e-02,-9.169523717483941960e-02,-9.564761808754801420e-02,-9.959999900025660879e-02,-1.035523799129652034e-01,-1.076365068560974220e-01,-1.115888877688060166e-01,-1.155412686815146112e-01,-1.169904750161744333e-01,-1.169904750161744333e-01,-1.169904750161744333e-01,-1.169904750161744333e-01,-1.169904750161744333e-01
-1.169904750161744333e-01,-7.068174532227206042e-02,2.437301562836974300e-03,3.702063454903717354e-02,3.293650760590496884e-02,2.898412669319636037e-02,2.503174578048777965e-02,2.107936486777917118e-02,1.712698395507059046e-02,1.317460304236198199e-02,9.090476099229777285e-03,5.138095186521196567e-03,1.185714273812574215e-03,-2.766666638896034258e-03,-6.719047551604601098e-03,-1.080317449473683356e-02,-1.475555540744541427e-02,-1.870793632015402275e-02,-2.266031723286260346e-02,-2.661269814557121194e-02,-3.056507905827982041e-02,-3.464920600141202511e-02,-3.860158691412063359e-02,-4.255396782682921430e-02,-4.650634873953780890e-02,-5.045872965224640350e-02,-5.454285659537862208e-02,-5.849523750808721667e-02,-6.244761842079581127e-02,-6.639999933350440586e-02,-7.035238024621300046e-02,-7.430476115892159505e-02,-7.838888810205381363e-02,-8.234126901476240823e-02,-8.629364992747100283e-02,-9.024603084017959742e-02,-9.419841175288819202e-02,-9.828253869602041060e-02,-1.022349196087290052e-01,-1.061873005214375998e-01,-1.101396814341461944e-01,-1.140920623468548029e-01,-1.169904750161744333e-01,-1.169904750161744333e-01,-1.169904750161744333e-01,-1.169904750161744333e-01,-1.169904750161744333e-01
-1.169904750161744333e-01,-9.749206251347869445e-02,-2.193571406553271319e-02,3.833809485327335786e-02,3.438571394056480490e-02,3.043333302785614092e-02,2.648095211514758796e-02,2.252857120243900724e-02,1.844444425930680254e-02,1.449206334659816631e-02,1.053968243388958559e-02,6.587301521181004871e-03,2.634920608472396397e-03,-1.449206334659822182e-03,-5.401587247368416778e-03,-9.353968160076997496e-03,-1.330634907278560597e-02,-1.725872998549421444e-02,-2.121111089820279516e-02,-2.529523784133501374e-02,-2.924761875404360834e-02,-3.319999966675220293e-02,-3.715238057946081141e-02,-4.110476149216939212e-02,-4.518888843530161070e-02,-4.914126934801020530e-02,-5.309365026071879989e-02,-5.704603117342739449e-02,-6.099841208613598909e-02,-6.495079299884459756e-02,-6.903491994197680226e-02,-7.298730085468539686e-02,-7.693968176739399145e-02,-8.089206268010258605e-02,-8.484444359281118064e-02,-8.892857053594339922e-02,-9.288095144865199382e-02,-9.683333236136058841e-02,-1.007857132740691830e-01,-1.047380941867777915e-01,-1.088222211299099962e-01,-1.127746020426186047e-01,-1.167269829553271993e-01,-1.169904750161744333e-01,-1.169904750161744333e-01,-1.169904750161744333e-01,-1.169904750161744333e-01
-1.169904750161744333e-01,-1.169904750161744333e-01,-4.874603125673934723e-02,2.437301562836968749e-02,3.583492027522461321e-02,3.188253936251600473e-02,2.779841241938377228e-02,2.384603150667519156e-02,1.989365059396658308e-02,1.594126968125800237e-02,1.198888876854939389e-02,7.904761825417189192e-03,3.952380912708594596e-03,0.000000000000000000e+00,-3.952380912708608474e-03,-7.904761825417175314e-03,-1.185714273812578379e-02,-1.594126968125798849e-02,-1.989365059396659696e-02,-2.384603150667519156e-02,-2.779841241938380003e-02,-3.175079333209238075e-02,-3.583492027522459933e-02,-3.978730118793319392e-02,-4.373968210064178852e-02,-4.769206301335038312e-02,-5.164444392605897771e-02,-5.559682483876757925e-02,-5.968095178189979089e-02,-6.363333269460838548e-02,-6.758571360731699396e-02,-7.153809452002557467e-02,-7.549047543273416927e-02,-7.957460237586638785e-02,-8.352698328857498244e-02,-8.747936420128357704e-02,-9.143174511399218551e-02,-9.538412602670078011e-02,-9.946825296983299869e-02,-1.034206338825415794e-01,-1.073730147952501879e-01,-1.113253957079587825e-01,-1.152777766206673771e-01,-1.169904750161744333e-01,-1.169904750161744333e-01,-1.169904750161744333e-01,-1.169904750161744333e-01
-1.169904750161744333e-01,-1.169904750161744333e-01,-7.555634844794598126e-02,-2.437301562836960422e-03,3.715238057946079753e-02,3.319999966675218905e-02,2.924761875404360834e-02,2.529523784133499986e-02,2.134285692862641914e-02,1.725872998549421444e-02,1.330634907278557821e-02,9.353968160076997496e-03,5.401587247368416778e-03,1.449206334659836060e-03,-2.503174578048800170e-03,-6.587301521181004871e-03,-1.053968243388958559e-02,-1.449206334659818018e-02,-1.844444425930677478e-02,-2.239682517201538325e-02,-2.648095211514758796e-02,-3.043333302785619643e-02,-3.438571394056477715e-02,-3.833809485327338562e-02,-4.229047576598196634e-02,-4.624285667869057481e-02,-5.032698362182277951e-02,-5.427936453453138799e-02,-5.823174544723997564e-02,-6.218412635994856330e-02,-6.613650727265715790e-02,-7.022063421578939035e-02,-7.417301512849797107e-02,-7.812539604120657954e-02,-8.207777695391517414e-02,-8.603015786662376874e-02,-9.011428480975597344e-02,-9.406666572246458191e-02,-9.801904663517317651e-02,-1.019714275478817711e-01,-1.059238084605903657e-01,-1.098761893732989603e-01,-1.139603163164311789e-01,-1.169904750161744333e-01,-1.169904750161744333e-01,-1.169904750161744333e-01,-1.169904750161744333e-01
-1.169904750161744333e-01,-1.169904750161744333e-01,-9.992936407631566875e-02,-2.681031719120663404e-02,3.860158691412063359e-02,3.464920600141202511e-02,3.069682508870341664e-02,2.661269814557121194e-02,2.266031723286260346e-02,1.870793632015402275e-02,1.475555540744541427e-02,1.080317449473680580e-02,6.850793582028238959e-03,2.766666638896020380e-03,-1.185714273812588093e-03,-5.138095186521168811e-03,-9.090476099229777285e-03,-1.304285701193837188e-02,-1.712698395507057658e-02,-2.107936486777917118e-02,-2.503174578048777965e-02,-2.898412669319637425e-02,-3.293650760590495497e-02,-3.702063454903718742e-02,-4.097301546174576814e-02,-4.492539637445437661e-02,-4.887777728716295733e-02,-5.283015819987157968e-02,-5.678253911258015346e-02,-6.086666605571236510e-02,-6.481904696842097358e-02,-6.877142788112955429e-02,-7.272380879383816277e-02,-7.667618970654675736e-02,-8.076031664967897594e-02,-8.471269756238755666e-02,-8.866507847509616513e-02,-9.261745938780475973e-02,-9.656984030051335433e-02,-1.005222212132219489e-01,-1.046063481563541675e-01,-1.085587290690627621e-01,-1.125111099817713567e-01,-1.164634908944799513e-01,-1.169904750161744333e-01,-1.169904750161744333e-01,-1.169904750161744333e-01
-1.169904750161744333e-01,-1.169904750161744333e-01,-1.169904750161744333e-01,-5.362063438241328195e-02,1.949841250269573889e-02,3.596666630564820943e-02,3.201428539293962872e-02,2.806190448023099249e-02,2.410952356752243952e-02,2.015714265481383105e-02,1.620476174210522258e-02,1.212063479897301788e-02,8.168253886264437158e-03,4.215872973555856440e-03,2.634920608472479664e-04,-3.688888851861374385e-03,-7.773015794993565208e-03,-1.172539670770217368e-02,-1.567777762041075440e-02,-1.963015853311934900e-02,-2.358253944582794359e-02,-2.766666638896017605e-02,-3.161904730166877064e-02,-3.557142821437736524e-02,-3.952380912708595984e-02,-4.347619003979455443e-02,-4.742857095250314903e-02,-5.151269789563536761e-02,-5.546507880834396220e-02,-5.941745972105255680e-02,-6.336984063376115139e-02,-6.732222154646974599e-02,-7.140634848960196457e-02,-7.535872940231055916e-02,-7.931111031501915376e-02,-8.326349122772774836e-02,-8.721587214043634295e-02,-9.116825305314493755e-02,-9.525237999627715613e-02,-9.920476090898575072e-02,-1.031571418216943453e-01,-1.071095227344029399e-01,-1.110619036471115345e-01,-1.151460305902437531e-01,-1.169904750161744333e-01,-1.169904750161744333e-01,-1.169904750161744333e-01
-1.169904750161744333e-01,-1.169904750161744333e-01,-1.169904750161744333e-01,-7.799365001078295556e-02,-4.874603125673934723e-03,3.741587264030804549e-02,3.346349172759943702e-02,2.951111081489082855e-02,2.555872990218224783e-02,2.147460295905004313e-02,1.752222204634143465e-02,1.356984113363282618e-02,9.617460220924245462e-03,5.665079308215664744e-03,1.580952365083432287e-03,-2.371428547625162309e-03,-6.323809460333743027e-03,-1.027619037304233762e-02,-1.422857128575093222e-02,-1.831269822888315080e-02,-2.226507914159175927e-02,-2.621746005430033999e-02,-3.016984096700894846e-02,-3.412222187971754306e-02,-3.807460279242613765e-02,-4.215872973555835623e-02,-4.611111064826695083e-02,-5.006349156097554542e-02,-5.401587247368414002e-02,-5.796825338639273462e-02,-6.205238032952495320e-02,-6.600476124223354779e-02,-6.995714215494214239e-02,-7.390952306765073698e-02,-7.786190398035933158e-02,-8.181428489306792617e-02,-8.589841183620014475e-02,-8.985079274890873935e-02,-9.380317366161733394e-02,-9.775555457432592854e-02,-1.017079354870345231e-01,-1.057920624301667417e-01,-1.097444433428753363e-01,-1.136968242555839309e-01,-1.169904750161744333e-01,-1.169904750161744333e-01,-1.169904750161744333e-01
-1.169904750161744333e-01,-1.169904750161744333e-01,-1.169904750161744333e-01,-1.048039672019895896e-01,-3.168492031688058264e-02,3.886507897496785380e-02,3.491269806225927308e-02,3.082857111912701287e-02,2.687619020641843215e-02,2.292380929370985143e-02,1.897142838100127071e-02,1.501904746829266224e-02,1.093492052516042978e-02,6.982539612451849065e-03,3.030158699743268347e-03,-9.222222129653401268e-04,-4.874603125673948600e-03,-8.958730068806153302e-03,-1.291111098151476178e-02,-1.686349189422332862e-02,-2.081587280693193709e-02,-2.476825371964053168e-02,-2.872063463234912628e-02,-3.280476157548134486e-02,-3.675714248818993946e-02,-4.070952340089853405e-02,-4.466190431360712865e-02,-4.861428522631572324e-02,-5.269841216944794182e-02,-5.665079308215653642e-02,-6.060317399486513101e-02,-6.455555490757372561e-02,-6.850793582028232021e-02,-7.246031673299091480e-02,-7.654444367612313338e-02,-8.049682458883172798e-02,-8.444920550154032257e-02,-8.840158641424891717e-02,-9.235396732695752564e-02,-9.643809427008973034e-02,-1.003904751827983388e-01,-1.043428560955069195e-01,-1.082952370082155280e-01,-1.122476179209241226e-01,-1.161999988336327172e-01,-1.169904750161744333e-01,-1.169904750161744333e-01
-1.169904750161744333e-01,-1.169904750161744333e-01,-1.169904750161744333e-01,-1.169904750161744333e-01,-5.605793594525024237e-02,1.706111093985876459e-02,3.623015836649548516e-02,3.227777745378684893e-02,2.832539654107826821e-02,2.437301562836968749e-02,2.028888868523745503e-02,1.633650777252887432e-02,1.238412685982023809e-02,8.431745947111657369e-03,4.479365034403076651e-03,3.952380912708719496e-04,-3.557142821437764280e-03,-7.509523734146317242e-03,-1.146190464685492572e-02,-1.541428555956352031e-02,-1.936666647227211491e-02,-2.345079341540433349e-02,-2.740317432811292808e-02,-3.135555524082152268e-02,-3.530793615353011727e-02,-3.926031706623871187e-02,-4.334444400937093045e-02,-4.729682492207952504e-02,-5.124920583478811964e-02,-5.520158674749671424e-02,-5.915396766020532271e-02,-6.310634857291390343e-02,-6.719047551604612201e-02,-7.114285642875473048e-02,-7.509523734146331120e-02,-7.904761825417191967e-02,-8.299999916688050039e-02,-8.708412611001273285e-02,-9.103650702272131356e-02,-9.498888793542992204e-02,-9.894126884813851663e-02,-1.028936497608471112e-01,-1.069777767039793159e-01,-1.109301576166879244e-01,-1.148825385293965190e-01,-1.169904750161744333e-01,-1.169904750161744333e-01
-1.169904750161744333e-01,-1.169904750161744333e-01,-1.169904750161744333e-01,-1.169904750161744333e-01,-8.286825313645689028e-02,-9.749206251347869445e-03,3.767936470115529346e-02,3.372698378844668499e-02,2.964285684531445253e-02,2.569047593260587181e-02,2.173809501989729109e-02,1.778571410718868262e-02,1.383333319448007415e-02,9.749206251347869445e-03,5.796825338639288727e-03,1.844444425930680254e-03,-2.107936486777928220e-03,-6.060317399486508938e-03,-1.001269831219511741e-02,-1.409682525532732211e-02,-1.804920616803593059e-02,-2.200158708074452518e-02,-2.595396799345311978e-02,-2.990634890616171437e-02,-3.399047584929391908e-02,-3.794285676200251367e-02,-4.189523767471112214e-02,-4.584761858741971674e-02,-4.979999950012829746e-02,-5.375238041283690593e-02,-5.783650735596911063e-02,-6.178888826867771217e-02,-6.574126918138631370e-02,-6.969365009409490830e-02,-7.364603100680350289e-02,-7.773015794993570760e-02,-8.168253886264431607e-02,-8.563491977535289679e-02,-8.958730068806150526e-02,-9.353968160077009986e-02,-9.762380854390231844e-02,-1.015761894566109130e-01,-1.055285703693195076e-01,-1.094809512820281022e-01,-1.134333321947366968e-01,-1.169904750161744333e-01,-1.169904750161744333e-01
-1.169904750161744333e-01,-1.169904750161744333e-01,-1.169904750161744333e-01,-1.169904750161744333e-01,-1.096785703276635382e-01,-3.655952344255451736e-02,3.899682500539147778e-02,3.504444409268289706e-02,3.109206317997428859e-02,2.713968226726568012e-02,2.318730135455709940e-02,1.910317441142489470e-02,1.515079349871628622e-02,1.119841258600767775e-02,7.246031673299097031e-03,3.293650760590502435e-03,-6.587301521180921604e-04,-4.742857095250324617e-03,-8.695238007958905335e-03,-1.264761892066751381e-02,-1.659999983337609453e-02,-2.055238074608470300e-02,-2.463650768921690770e-02,-2.858888860192551618e-02,-3.254126951463409689e-02,-3.649365042734270537e-02,-4.044603134005128608e-02,-4.439841225275989456e-02,-4.848253919589209926e-02,-5.243492010860070773e-02,-5.638730102130930233e-02,-6.033968193401788999e-02,-6.429206284672649152e-02,-6.837618978985871010e-02,-3.221963474718625986e-01,-3.261487283845712071e-01,-3.301011092972798155e-01,-3.340534902099884240e-01,-8.826984038382529318e-02,-9.222222129653390166e-02,-9.617460220924249625e-02,-1.001269831219510908e-01,-1.077106139982107053e-01,-1.136309512403721328e-01,-1.166858123208198150e-01,-1.169904750161744333e-01,-1.169904750161744333e-01
-1.169904750161744333e-01,-1.169904750161744333e-01,-1.169904750161744333e-01,-1.169904750161744333e-01,-1.169904750161744333e-01,-6.093253907092418403e-02,1.218650781418484375e-02,3.649365042734270537e-02,3.254126951463412465e-02,2.845714257150189219e-02,2.450476165879331147e-02,2.055238074608467524e-02,1.659999983337609453e-02,1.264761892066748605e-02,8.695238007958905335e-03,4.611111064826714512e-03,6.587301521181199160e-04,-3.293650760590516313e-03,-7.246031673299083153e-03,-1.119841258600769163e-02,-1.528253952913991021e-02,-1.923492044184849092e-02,-2.318730135455709940e-02,-2.713968226726569399e-02,-3.109206317997428859e-02,-3.504444409268288319e-02,-3.912857103581508789e-02,-4.308095194852369636e-02,-4.703333286123229096e-02,-5.098571377394088555e-02,-5.493809468664948709e-02,-5.902222162978169873e-02,-6.297460254249029332e-02,-6.692698345519890180e-02,-3.207471411372028181e-01,-3.246995220499113710e-01,-3.287836489930435757e-01,-3.327360299057521842e-01,-8.682063404916548488e-02,-9.650808434875228492e-02,-1.072495028917280352e-01,-1.152736595572166345e-01,-1.169904750161744333e-01,-1.169904750161744333e-01,-1.169904750161744333e-01,-1.169904750161744333e-01,-1.169904750161744333e-01
-1.169904750161744333e-01,-1.169904750161744333e-01,-1.169904750161744333e-01,-1.169904750161744333e-01,-1.169904750161744333e-01,-8.774285626213082501e-02,-1.462380937702179029e-02,3.781111073157888969e-02,3.385872981887030897e-02,2.990634890616170050e-02,2.595396799345311978e-02,2.200158708074451130e-02,1.804920616803593059e-02,1.396507922490369813e-02,1.001269831219508966e-02,6.060317399486522816e-03,2.107936486777928220e-03,-1.844444425930694131e-03,-5.928571369062884955e-03,-9.880952281771493428e-03,-1.383333319448008802e-02,-1.778571410718868262e-02,-2.173809501989726334e-02,-2.582222196302949579e-02,-2.977460287573809039e-02,-3.372698378844668499e-02,-3.767936470115527958e-02,-4.163174561386387418e-02,-4.558412652657246877e-02,-4.966825346970467348e-02,-5.362063438241328195e-02,-5.757301529512187654e-02,-6.152539620783047114e-02,-6.547777712053906574e-02,-3.194296808329665782e-01,-3.233820617456751867e-01,-3.347451568697124014e-01,-3.490725376782810585e-01,-1.120499988752886866e-01,-1.169904750161744333e-01,-1.169904750161744333e-01,-1.169904750161744333e-01,-1.169904750161744333e-01,-1.169904750161744333e-01,-1.169904750161744333e-01,-1.169904750161744333e-01,-1.169904750161744333e-01
-1.169904750161744333e-01,-1.169904750161744333e-01,-1.169904750161744333e-01,-1.169904750161744333e-01,-1.169904750161744333e-01,-1.121158718905004986e-01,-3.899682500539147778e-02,3.412222187971752918e-02,3.530793615353014503e-02,3.135555524082150880e-02,2.740317432811292808e-02,2.331904738498069563e-02,1.936666647227214266e-02,1.541428555956353419e-02,1.146190464685492572e-02,7.509523734146331120e-03,3.425396791014126419e-03,-5.269841216944820550e-04,-4.479365034403090529e-03,-8.431745947111671247e-03,-1.238412685982026584e-02,-1.646825380295247054e-02,-2.042063471566107902e-02,-2.437301562836968749e-02,-2.832539654107826821e-02,-3.227777745378684893e-02,-3.623015836649545740e-02,-4.031428530962767598e-02,-4.426666622233627058e-02,-4.821904713504487905e-02,-5.217142804775345977e-02,-5.612380896046206130e-02,-6.020793590359427294e-02,-7.076408659128681500e-02,-3.408919326016643936e-01,-3.570308213285578458e-01,-3.668582517854697134e-01,-3.668582517854697134e-01,-1.169904750161744333e-01,-1.169904750161744333e-01,-1.169904750161744333e-01,-1.169904750161744333e-01,-1.169904750161744333e-01,-1.169904750161744333e-01,-1.169904750161744333e-01,-1.169904750161744333e-01,-1.169904750161744333e-01
-1.169904750161744333e-01,-1.169904750161744333e-01,-1.169904750161744333e-01,-1.169904750161744333e-01,-1.169904750161744333e-01,-1.169904750161744333e-01,-6.580714219659811182e-02,7.311904688510895145e-03,3.675714248818995333e-02,3.267301554505772088e-02,2.872063463234914016e-02,2.476825371964053168e-02,2.081587280693192321e-02,1.686349189422334249e-02,1.277936495109111004e-02,8.826984038382529318e-03,4.874603125673948600e-03,9.222222129653262490e-04,-3.030158699743268347e-03,-7.114285642875473048e-03,-1.106666655558406764e-02,-1.501904746829266224e-02,-1.897142838100125684e-02,-2.292380929370985143e-02,-2.687619020641845990e-02,-3.096031714955066461e-02,-3.491269806225927308e-02,-3.886507897496785380e-02,-4.281745988767644839e-02,-4.676984080038504299e-02,-5.498749944805833567e-02,-8.006864998995497085e-02,-1.024325386543644412e-01,-1.169904750161744333e-01,-1.169904750161744333e-01,-1.169904750161744333e-01,-1.169904750161744333e-01,-1.169904750161744333e-01,-1.169904750161744333e-01,-1.169904750161744333e-01,-1.169904750161744333e-01,-1.169904750161744333e-01,-1.169904750161744333e-01,-1.169904750161744333e-01,-1.169904750161744333e-01,-1.169904750161744333e-01,-1.169904750161744333e-01
-1.169904750161744333e-01,-1.169904750161744333e-01,-1.169904750161744333e-01,-1.169904750161744333e-01,-1.169904750161744333e-01,-1.169904750161744333e-01,-9.261745938780475973e-02,-1.706111093985877847e-02,3.807460279242613765e-02,3.412222187971755694e-02,3.016984096700894846e-02,2.621746005430033999e-02,2.213333311116813529e-02,1.818095219845955457e-02,1.422857128575094610e-02,1.027619037304233762e-02,6.323809460333756904e-03,2.239682517201552203e-03,-1.712698395507070148e-03,-5.665079308215650866e-03,-9.617460220924259340e-03,-1.356984113363285394e-02,-1.752222204634143465e-02,-2.160634898947366711e-02,-2.555872990218226171e-02,-2.951111081489084242e-02,-3.346349172759943702e-02,-3.990257896455386144e-02,-6.744985051344262739e-02,-9.463482047866644820e-02,-1.169904750161744333e-01,-1.169904750161744333e-01,-1.169904750161744333e-01,-1.169904750161744333e-01,-1.169904750161744333e-01,-1.169904750161744333e-01,-1.169904750161744333e-01,-1.169904750161744333e-01,-1.169904750161744333e-01,-1.169904750161744333e-01,-1.169904750161744333e-01,-1.169904750161744333e-01,-1.169904750161744333e-01,-1.169904750161744333e-01,-1.169904750161744333e-01,-1.169904750161744333e-01,-1.169904750161744333e-01
