1.086377993100701017e-01,1.086377993100701017e-01,1.086377993100701017e-01,1.086377993100701017e-01,1.086377993100701017e-01,1.086377993100701017e-01,1.086377993100701017e-01,1.086377993100701017e-01,1.086377993100701017e-01,1.086377993100701017e-01,1.086377993100701017e-01,1.086377993100701017e-01,1.086377993100701017e-01,1.086377993100701017e-01,1.086377993100701017e-01,1.086377993100701017e-01,1.078911477684201398e-01,1.011712838935704406e-01,9.445142001872074144e-02,8.735823037304606131e-02,8.063836649819636215e-02,7.391850262334666299e-02,6.719863874849696384e-02,6.047877487364726468e-02,5.375891099879757246e-02,4.703904712394787330e-02,4.031918324909818108e-02,3.359931937424846804e-02,2.687945549939878276e-02,2.015959162454908360e-02,1.306640197887440347e-02,6.346538104024704308e-03,-3.733257708249948514e-04,-7.093189645674680133e-03,-1.381305352052437929e-02,-2.053291739537409233e-02,7.041857352186245422e-02,1.086377993100701017e-01,1.086377993100701017e-01,1.086377993100701017e-01,1.086377993100701017e-01,1.086377993100701017e-01,1.086377993100701017e-01,1.086377993100701017e-01,1.086377993100701017e-01,1.086377993100701017e-01,1.086377993100701017e-01
1.086377993100701017e-01,1.086377993100701017e-01,1.086377993100701017e-01,1.086377993100701017e-01,1.086377993100701017e-01,1.086377993100701017e-01,1.086377993100701017e-01,1.086377993100701017e-01,1.086377993100701017e-01,1.086377993100701017e-01,1.086377993100701017e-01,1.086377993100701017e-01,1.086377993100701017e-01,1.086377993100701017e-01,1.086377993100701017e-01,1.045312158309952832e-01,9.781135195614558409e-02,9.109148808129588493e-02,8.437162420644619965e-02,7.765176033159648661e-02,7.093189645674680133e-02,6.421203258189710217e-02,5.749216870704740301e-02,5.077230483219771079e-02,4.405244095734801857e-02,3.733257708249830553e-02,3.023938743682362540e-02,2.351952356197392624e-02,1.679965968712424096e-02,1.007979581227454180e-02,3.359931937424828763e-03,-3.359931937424856518e-03,-1.007979581227455568e-02,-1.679965968712425484e-02,-2.351952356197394012e-02,-3.023938743682365315e-02,-1.420971215202593285e-02,1.086377993100701017e-01,1.086377993100701017e-01,1.086377993100701017e-01,1.086377993100701017e-01,1.086377993100701017e-01,1.086377993100701017e-01,1.086377993100701017e-01,1.086377993100701017e-01,1.086377993100701017e-01,1.086377993100701017e-01
1.086377993100701017e-01,1.086377993100701017e-01,1.086377993100701017e-01,1.086377993100701017e-01,1.086377993100701017e-01,1.086377993100701017e-01,1.086377993100701017e-01,1.086377993100701017e-01,1.086377993100701017e-01,1.086377993100701017e-01,1.086377993100701017e-01,1.086377993100701017e-01,1.086377993100701017e-01,1.082644735392451207e-01,1.015446096643954216e-01,9.482474578954572242e-02,8.810488191469602326e-02,8.138501803984632410e-02,7.466515416499663882e-02,6.794529029014692578e-02,6.122542641529723356e-02,5.413223676962256037e-02,4.741237289477286121e-02,4.069250901992316205e-02,3.397264514507346289e-02,2.725278127022377761e-02,2.053291739537406457e-02,1.381305352052437929e-02,7.093189645674666255e-03,3.733257708249809737e-04,-6.346538104024718185e-03,-1.306640197887441734e-02,-1.978626585372410263e-02,-2.687945549939881051e-02,-3.359931937424849580e-02,-4.031918324909818108e-02,-4.703904712394786636e-02,1.221475256417990651e-02,1.086377993100701017e-01,1.086377993100701017e-01,1.086377993100701017e-01,1.086377993100701017e-01,1.086377993100701017e-01,1.086377993100701017e-01,1.086377993100701017e-01,1.086377993100701017e-01,1.086377993100701017e-01
1.086377993100701017e-01,1.086377993100701017e-01,1.086377993100701017e-01,1.086377993100701017e-01,1.086377993100701017e-01,1.086377993100701017e-01,1.086377993100701017e-01,1.086377993100701017e-01,1.086377993100701017e-01,1.086377993100701017e-01,1.086377993100701017e-01,1.086377993100701017e-01,1.052778673726452591e-01,9.855800349779555991e-02,9.183813962294586075e-02,8.511827574809616159e-02,7.839841187324646243e-02,7.130522222757178230e-02,6.458535835272208314e-02,5.786549447787238398e-02,5.114563060302269176e-02,4.442576672817298566e-02,3.770590285332328651e-02,3.098603897847358735e-02,2.426617510362390207e-02,1.754631122877420291e-02,1.082644735392450375e-02,4.106583479074818466e-03,-2.986606166599875545e-03,-9.706470041449560826e-03,-1.642633391629925999e-02,-2.314619779114897302e-02,-2.986606166599865830e-02,-3.658592554084837134e-02,-4.330578941569805662e-02,-5.002565329054774190e-02,-5.674551716539745494e-02,-6.346538104024714022e-02,5.275559798970543002e-02,1.086377993100701017e-01,1.086377993100701017e-01,1.086377993100701017e-01,1.086377993100701017e-01,1.086377993100701017e-01,1.086377993100701017e-01,1.086377993100701017e-01,1.086377993100701017e-01
1.086377993100701017e-01,1.086377993100701017e-01,1.086377993100701017e-01,1.086377993100701017e-01,1.086377993100701017e-01,1.086377993100701017e-01,1.086377993100701017e-01,1.086377993100701017e-01,1.086377993100701017e-01,1.086377993100701017e-01,1.086377993100701017e-01,1.022912612060453835e-01,9.557139733119568437e-02,8.847820768552100423e-02,8.175834381067131895e-02,7.503847993582160592e-02,6.831861606097192063e-02,6.159875218612221454e-02,5.487888831127252232e-02,4.815902443642282316e-02,4.143916056157312400e-02,3.471929668672342484e-02,2.799943281187373956e-02,2.127956893702402652e-02,1.418637929134934639e-02,7.466515416499661106e-03,7.466515416499619473e-04,-5.973212333199737212e-03,-1.269307620804943637e-02,-1.941294008289910777e-02,-2.613280395774882081e-02,-3.285266783259853385e-02,-3.957253170744824688e-02,-4.629239558229790441e-02,-5.301225945714761745e-02,-6.010544910282229758e-02,-6.682531297767198286e-02,-7.354517685252166814e-02,-5.665218572269119235e-02,9.641138031555190890e-02,1.086377993100701017e-01,1.086377993100701017e-01,1.086377993100701017e-01,1.086377993100701017e-01,1.086377993100701017e-01,1.086377993100701017e-01,1.086377993100701017e-01
1.086377993100701017e-01,1.086377993100701017e-01,1.086377993100701017e-01,1.086377993100701017e-01,1.086377993100701017e-01,1.086377993100701017e-01,1.086377993100701017e-01,1.086377993100701017e-01,1.086377993100701017e-01,1.056511931434702400e-01,9.893132926862054088e-02,9.221146539377084173e-02,8.549160151892114257e-02,7.877173764407144341e-02,7.205187376922174425e-02,6.533200989437204509e-02,5.861214601952235287e-02,5.189228214467266065e-02,4.517241826982296149e-02,3.807922862414828136e-02,3.135936474929856832e-02,2.463950087444886916e-02,1.791963699959919776e-02,1.119977312474948472e-02,4.479909249899785562e-03,-2.239954624949899720e-03,-8.959818499799598879e-03,-1.567968237464929804e-02,-2.239954624949901107e-02,-2.911941012434869636e-02,-3.621259977002337649e-02,-4.293246364487308953e-02,-4.965232751972277481e-02,-5.637219139457246009e-02,-6.309205526942214537e-02,-6.981191914427183065e-02,-7.653178301912157144e-02,-8.325164689397125672e-02,-8.997151076882099752e-02,-1.969293441101786779e-02,1.086377993100701017e-01,1.086377993100701017e-01,1.086377993100701017e-01,1.086377993100701017e-01,1.086377993100701017e-01,1.086377993100701017e-01,1.086377993100701017e-01
1.086377993100701017e-01,1.086377993100701017e-01,1.086377993100701017e-01,1.086377993100701017e-01,1.086377993100701017e-01,1.086377993100701017e-01,1.086377993100701017e-01,1.086377993100701017e-01,1.026645869768703645e-01,9.594472310202067922e-02,8.922485922717098006e-02,8.250499535232128090e-02,7.578513147747158174e-02,6.906526760262188258e-02,6.234540372777218342e-02,5.525221408209750329e-02,4.853235020724781107e-02,4.181248633239810497e-02,3.509262245754841969e-02,2.837275858269872053e-02,2.165289470784902137e-02,1.493303083299932221e-02,8.213166958149609176e-03,1.493303083299923895e-03,-5.226560791549761387e-03,-1.194642466639946055e-02,-1.903961431207416843e-02,-2.575947818692385372e-02,-3.247934206177353900e-02,-3.919920593662325203e-02,-4.591906981147293731e-02,-5.263893368632265035e-02,-5.935879756117233563e-02,-6.607866143602204867e-02,-7.279852531087173395e-02,-7.951838918572144699e-02,-8.623825306057113227e-02,-9.333144270624584016e-02,-1.000513065810955254e-01,-1.067711704559451830e-01,2.533948669474572757e-02,1.086377993100701017e-01,1.086377993100701017e-01,1.086377993100701017e-01,1.086377993100701017e-01,1.086377993100701017e-01,1.086377993100701017e-01
1.086377993100701017e-01,1.086377993100701017e-01,1.086377993100701017e-01,1.086377993100701017e-01,1.086377993100701017e-01,1.086377993100701017e-01,1.063978446851202020e-01,9.967798081027050283e-02,9.295811693542080367e-02,8.623825306057111839e-02,7.951838918572140535e-02,7.242519954004672522e-02,6.570533566519703994e-02,5.898547179034734078e-02,5.226560791549764856e-02,4.554574404064794246e-02,3.882588016579824330e-02,3.210601629094854415e-02,2.538615241609884499e-02,1.866628854124914583e-02,1.194642466639944667e-02,5.226560791549761387e-03,-1.866628854124918746e-03,-8.586492728974617905e-03,-1.530635660382431706e-02,-2.202622047867401622e-02,-2.874608435352370150e-02,-3.546594822837341454e-02,-4.218581210322309982e-02,-4.890567597807281286e-02,-5.562553985292249814e-02,-6.234540372777221118e-02,-6.906526760262192421e-02,-7.615845724829657659e-02,-8.287832112314628963e-02,-8.959818499799597491e-02,-9.631804887284568795e-02,-1.030379127476953732e-01,-1.097577766225450585e-01,-1.164776404973947715e-01,-1.087077978920997917e-01,8.627325235158594952e-02,1.086377993100701017e-01,1.086377993100701017e-01,1.086377993100701017e-01,1.086377993100701017e-01,1.086377993100701017e-01
1.086377993100701017e-01,1.086377993100701017e-01,1.086377993100701017e-01,1.086377993100701017e-01,1.086377993100701017e-01,1.034112385185203403e-01,9.631804887284566019e-02,8.959818499799596103e-02,8.287832112314626187e-02,7.615845724829656271e-02,6.943859337344687743e-02,6.271872949859716440e-02,5.599886562374747218e-02,4.927900174889777302e-02,4.255913787404806692e-02,3.583927399919836776e-02,2.911941012434866860e-02,2.202622047867400235e-02,1.530635660382428931e-02,8.586492728974604027e-03,1.866628854124904868e-03,-4.853235020724794291e-03,-1.157309889557449345e-02,-1.829296277042417873e-02,-2.501282664527389177e-02,-3.173269052012360480e-02,-3.845255439497329009e-02,-4.517241826982297537e-02,-5.226560791549768326e-02,-5.898547179034736854e-02,-6.570533566519705382e-02,-7.242519954004673910e-02,-7.914506341489645214e-02,-8.586492728974616517e-02,-9.258479116459585045e-02,-9.930465503944553574e-02,-1.060245189142952210e-01,-1.127443827891449063e-01,-1.194642466639946193e-01,-1.265574363096693133e-01,-1.332773001845189986e-01,-6.229873800641906600e-02,1.086377993100701017e-01,1.086377993100701017e-01,1.086377993100701017e-01,1.086377993100701017e-01,1.086377993100701017e-01
1.086377993100701017e-01,1.086377993100701017e-01,1.086377993100701017e-01,1.067711704559451830e-01,1.000513065810954838e-01,9.333144270624579852e-02,8.661157883139608549e-02,7.989171495654640021e-02,7.317185108169668717e-02,6.645198720684700189e-02,5.973212333199730273e-02,5.301225945714761051e-02,4.629239558229791829e-02,3.919920593662322428e-02,3.247934206177352512e-02,2.575947818692382596e-02,1.903961431207412680e-02,1.231975043722442764e-02,5.599886562374742360e-03,-1.119977312474970677e-03,-7.839841187324655958e-03,-1.455970506217434124e-02,-2.127956893702405428e-02,-2.799943281187376731e-02,-3.509262245754841969e-02,-4.181248633239813273e-02,-4.853235020724781801e-02,-5.525221408209753104e-02,-1.449936968066630194e-01,-1.517135606815127602e-01,-1.584334245563624455e-01,-8.213166958149632768e-02,-8.885153345634601296e-02,-9.557139733119572600e-02,-1.022912612060453835e-01,-1.093844508517200914e-01,-1.161043147265697767e-01,-1.228241786014194620e-01,-1.295440424762691611e-01,-1.362639063511188464e-01,-1.429837702259685872e-01,-1.497036341008182725e-01,9.566472877390180818e-04,1.086377993100701017e-01,1.086377993100701017e-01,1.086377993100701017e-01,1.086377993100701017e-01
1.086377993100701017e-01,1.086377993100701017e-01,1.037845642893453213e-01,9.706470041449562214e-02,9.034483653964592298e-02,8.362497266479623770e-02,7.690510878994652466e-02,7.018524491509683938e-02,6.346538104024712634e-02,5.637219139457245315e-02,4.965232751972275399e-02,4.293246364487306177e-02,3.621259977002336261e-02,2.949273589517366345e-02,2.277287202032396429e-02,1.605300814547426513e-02,9.333144270624565975e-03,2.613280395774880693e-03,-4.106583479074818466e-03,-1.082644735392451762e-02,-1.791963699959921164e-02,-2.463950087444889692e-02,-3.135936474929858220e-02,-3.807922862414832299e-02,-4.479909249899798052e-02,-5.151895637384769355e-02,-5.823882024869737883e-02,-6.495868412354709187e-02,-1.547001668481126080e-01,-1.614200307229622933e-01,-1.681398945978119785e-01,-9.221146539377085560e-02,-9.893132926862056864e-02,-1.056511931434702262e-01,-1.123710570183199392e-01,-1.190909208931696245e-01,-1.258107847680193236e-01,-1.325306486428690089e-01,-1.392505125177187497e-01,-1.459703763925684350e-01,-1.526902402674181203e-01,-1.594101041422678056e-01,-1.579051346286295399e-01,6.459702478306036944e-02,1.086377993100701017e-01,1.086377993100701017e-01,1.086377993100701017e-01
1.075178219975951588e-01,1.007979581227454596e-01,9.407809424789576047e-02,8.735823037304606131e-02,8.026504072737138118e-02,7.354517685252168202e-02,6.682531297767198286e-02,6.010544910282228370e-02,5.338558522797259148e-02,4.666572135312289232e-02,3.994585747827318623e-02,3.322599360342350094e-02,2.650612972857378791e-02,1.978626585372410263e-02,1.306640197887440347e-02,5.973212333199723334e-03,-7.466515416499758251e-04,-7.466515416499661106e-03,-1.418637929134937414e-02,-2.090624316619905942e-02,-2.762610704104874471e-02,-3.434597091589845774e-02,-4.106583479074817078e-02,-4.778569866559785606e-02,-5.450556254044756910e-02,-6.122542641529725438e-02,-6.831861606097190676e-02,-7.503847993582164755e-02,-1.647799626603871359e-01,-1.714998265352368212e-01,-1.782196904100865620e-01,-1.019179354352204442e-01,-1.086377993100701295e-01,-1.153576631849198147e-01,-1.220775270597695000e-01,-1.287973909346191714e-01,-1.355172548094689122e-01,-1.426104444551435924e-01,-1.493303083299932776e-01,-1.560501722048429074e-01,-1.627700360796926482e-01,-1.694898999545423335e-01,-1.762097638293920743e-01,-1.009262888564665533e-01,1.086377993100701017e-01,1.086377993100701017e-01,1.086377993100701017e-01
9.743802618532060311e-02,9.071816231047091783e-02,8.399829843562120479e-02,7.727843456077151951e-02,7.055857068592180648e-02,6.383870681107212119e-02,5.711884293622242204e-02,5.039897906137272288e-02,4.367911518652302372e-02,3.695925131167332456e-02,3.023938743682362540e-02,2.314619779114894527e-02,1.642633391629925999e-02,9.706470041449560826e-03,2.986606166599847789e-03,-3.733257708249823614e-03,-1.045312158309953665e-02,-1.717298545794922193e-02,-2.389284933279893497e-02,-3.061271320764862025e-02,-3.733257708249833329e-02,-4.405244095734801857e-02,-5.114563060302269870e-02,-5.786549447787241174e-02,-6.458535835272209702e-02,-7.130522222757181006e-02,-7.802508610242149534e-02,-8.474494997727118062e-02,-9.146481385212089366e-02,-9.818467772697060669e-02,-1.049045416018202920e-01,-1.116244054766699773e-01,-1.183442693515196625e-01,-1.254374589971943288e-01,-1.321573228720440696e-01,-1.388771867468937549e-01,-1.455970506217434401e-01,-1.523169144965931254e-01,-1.590367783714428107e-01,-1.657566422462924960e-01,-1.724765061211422368e-01,-1.791963699959919221e-01,-1.859162338708416629e-01,-1.900228173499164397e-01,-3.135936474929860995e-02,1.086377993100701017e-01,1.086377993100701017e-01
8.773155614387104229e-02,8.101169226902134313e-02,7.429182839417164397e-02,6.757196451932194481e-02,6.085210064447225259e-02,5.413223676962256037e-02,4.741237289477286121e-02,4.031918324909818108e-02,3.359931937424846804e-02,2.687945549939876888e-02,2.015959162454908360e-02,1.343972774969937056e-02,6.719863874849685281e-03,0.000000000000000000e+00,-6.719863874849713037e-03,-1.343972774969938444e-02,-2.015959162454909748e-02,-2.687945549939881051e-02,-3.397264514507349065e-02,-4.069250901992317593e-02,-4.741237289477286121e-02,-5.413223676962257425e-02,-6.085210064447225953e-02,-6.757196451932194481e-02,-7.429182839417165785e-02,-8.101169226902137088e-02,-8.773155614387105616e-02,-9.445142001872076920e-02,-1.011712838935704545e-01,-1.082644735392451346e-01,-1.149843374140948199e-01,-1.217042012889445052e-01,-1.284240651637942321e-01,-1.351439290386439174e-01,-1.418637929134936027e-01,-1.485836567883433434e-01,-1.553035206631929732e-01,-1.620233845380426585e-01,-1.687432484128923438e-01,-1.754631122877420846e-01,-1.825563019334167647e-01,-1.892761658082664500e-01,-1.900228173499164397e-01,-1.900228173499164397e-01,-1.900228173499164397e-01,5.263893368632262260e-02,1.086377993100701017e-01
7.802508610242148146e-02,7.130522222757178230e-02,6.421203258189710217e-02,5.749216870704740995e-02,5.077230483219771079e-02,4.405244095734801857e-02,3.733257708249830553e-02,3.061271320764860637e-02,2.389284933279892109e-02,1.717298545794920805e-02,1.045312158309952277e-02,3.733257708249823614e-03,-2.986606166599861667e-03,-1.007979581227455568e-02,-1.679965968712425484e-02,-2.351952356197394012e-02,-3.023938743682362540e-02,-3.695925131167333844e-02,-4.367911518652305147e-02,-5.039897906137270900e-02,-5.711884293622242204e-02,-6.383870681107213507e-02,-7.055857068592182035e-02,-7.727843456077150563e-02,-8.437162420644621352e-02,-9.109148808129592656e-02,-9.781135195614561184e-02,-1.045312158309952971e-01,-1.112510797058449824e-01,-1.179709435806946677e-01,-1.246908074555443807e-01,-1.314106713303940799e-01,-1.381305352052438207e-01,-1.448503990800934504e-01,-1.515702629549431912e-01,-1.586634526006178714e-01,-1.653833164754675566e-01,-1.721031803503172419e-01,-1.788230442251669272e-01,-1.855429081000166125e-01,-1.900228173499164397e-01,-1.900228173499164397e-01,-1.900228173499164397e-01,-1.900228173499164397e-01,-1.900228173499164397e-01,-1.153576631849198147e-01,1.086377993100701017e-01
6.794529029014692578e-02,6.122542641529723356e-02,5.450556254044754134e-02,4.778569866559784218e-02,4.106583479074814302e-02,3.434597091589844386e-02,2.762610704104875858e-02,2.090624316619905942e-02,1.418637929134934639e-02,7.093189645674666255e-03,3.733257708249809737e-04,-6.346538104024718185e-03,-1.306640197887441734e-02,-1.978626585372410263e-02,-2.650612972857381566e-02,-3.322599360342350094e-02,-3.994585747827321398e-02,-3.166699520396279999e-01,-3.233898159144776852e-01,-3.301096797893274259e-01,-6.719863874849697771e-02,-7.391850262334666299e-02,-8.063836649819640379e-02,-8.735823037304606131e-02,-9.407809424789580210e-02,-1.007979581227454874e-01,-1.436619696005340119e-01,-1.503818334753836972e-01,-1.571016973502334380e-01,-1.638215612250831232e-01,-1.705414250999328085e-01,-1.414904671426686633e-01,-1.482103310175183486e-01,-1.549301948923680339e-01,-1.616500587672177192e-01,-1.683699226420674044e-01,-1.750897865169170897e-01,-1.818096503917667750e-01,-1.885295142666165158e-01,-1.900228173499164397e-01,-1.900228173499164397e-01,-1.900228173499164397e-01,-1.900228173499164397e-01,-1.900228173499164397e-01,-1.900228173499164397e-01,-1.900228173499164397e-01,-4.069250901992317593e-02
5.823882024869737190e-02,5.151895637384767274e-02,4.479909249899798052e-02,3.807922862414826748e-02,3.098603897847358735e-02,2.426617510362388819e-02,1.754631122877420291e-02,1.082644735392450375e-02,4.106583479074818466e-03,-2.613280395774894571e-03,-9.333144270624579852e-03,-1.605300814547427901e-02,-2.277287202032397817e-02,-2.949273589517369121e-02,-3.621259977002337649e-02,-4.293246364487308953e-02,-5.002565329054774190e-02,-3.267497478519025833e-01,-3.334696117267522686e-01,-3.401894756016019539e-01,-7.690510878994656629e-02,-8.362497266479625158e-02,-9.034483653964593686e-02,-9.706470041449564989e-02,-1.037845642893453352e-01,-1.105044281641950205e-01,-1.533684396419835450e-01,-1.604616292876582806e-01,-1.671814931625079659e-01,-1.739013570373577067e-01,-1.806212209122073920e-01,-1.511969371841181964e-01,-1.579168010589678817e-01,-1.646366649338175114e-01,-1.713565288086672522e-01,-1.780763926835169930e-01,-1.847962565583666783e-01,-1.900228173499164397e-01,-1.900228173499164397e-01,-1.900228173499164397e-01,-1.900228173499163842e-01,-1.900228173499164397e-01,-1.900228173499164397e-01,-1.900228173499164397e-01,-1.900228173499164397e-01,-1.900228173499164397e-01,-1.900228173499164397e-01
4.815902443642282316e-02,4.143916056157312400e-02,3.471929668672342484e-02,2.799943281187373956e-02,2.127956893702402652e-02,1.455970506217434124e-02,7.839841187324628202e-03,1.119977312474942921e-03,-5.599886562374742360e-03,-1.231975043722444152e-02,-1.903961431207414068e-02,-2.613280395774882081e-02,-3.285266783259853385e-02,-3.957253170744824688e-02,-4.629239558229790441e-02,-5.301225945714761745e-02,-5.973212333199730273e-02,-3.364562178933521719e-01,-3.431760817682018572e-01,-3.498959456430515425e-01,-8.661157883139609936e-02,-9.333144270624584016e-02,-1.004246323519204925e-01,-1.071444962267701778e-01,-1.138643601016198909e-01,-1.205842239764695761e-01,-1.634482354542581284e-01,-1.701680993291078137e-01,-1.768879632039574989e-01,-1.836078270788072397e-01,-1.903276909536569250e-01,-1.609034072255677295e-01,-1.676232711004174147e-01,-1.747164607460921504e-01,-1.814363246209418357e-01,-1.881561884957915209e-01,-1.900228173499164397e-01,-1.900228173499164397e-01,-1.900228173499164397e-01,-1.900228173499164397e-01,-1.900228173499164397e-01,-1.900228173499164397e-01,-1.900228173499164397e-01,-1.900228173499164397e-01,-1.900228173499164397e-01,-1.900228173499164397e-01,-1.888561743160883655e-01
3.845255439497326233e-02,3.173269052012354929e-02,2.501282664527386401e-02,1.829296277042417873e-02,1.157309889557446569e-02,4.853235020724766535e-03,-1.866628854124932624e-03,-8.959818499799598879e-03,-1.567968237464929804e-02,-2.239954624949901107e-02,-2.911941012434866860e-02,-3.583927399919838164e-02,-4.255913787404809467e-02,-4.927900174889777996e-02,-5.599886562374749299e-02,-6.271872949859717827e-02,-6.943859337344686355e-02,-7.615845724829657659e-02,-8.325164689397125672e-02,-8.997151076882096976e-02,-9.669137464367065504e-02,-1.034112385185203681e-01,-1.101311023933700534e-01,-1.168509662682197109e-01,-1.235708301430694517e-01,-1.302906940179191508e-01,-1.731547054957076615e-01,-1.798745693705574022e-01,-1.865944332454070875e-01,-1.936876228910817677e-01,-2.004074867659314529e-01,-1.709832030378423129e-01,-1.777030669126920537e-01,-1.844229307875416835e-01,-1.900228173499164397e-01,-1.900228173499164397e-01,-1.900228173499164397e-01,-1.900228173499164397e-01,-1.900228173499164397e-01,-1.900228173499163842e-01,-1.900228173499163842e-01,-1.900228173499164397e-01,-1.900228173499164397e-01,-1.900228173499164397e-01,-1.900228173499164397e-01,-1.841896021807760686e-01,-1.736898148763234007e-01
2.874608435352370150e-02,2.202622047867400235e-02,1.493303083299930833e-02,8.213166958149623054e-03,1.493303083299923895e-03,-5.226560791549775264e-03,-1.194642466639946055e-02,-1.866628854124917358e-02,-2.538615241609885886e-02,-3.210601629094857190e-02,-3.882588016579825718e-02,-4.554574404064794246e-02,-5.226560791549765550e-02,-5.935879756117233563e-02,-6.607866143602204867e-02,-7.279852531087170620e-02,-7.951838918572144699e-02,-8.623825306057116002e-02,-9.295811693542084531e-02,-9.967798081027053059e-02,-1.063978446851202159e-01,-1.131177085599699011e-01,-1.198375724348195864e-01,-1.265574363096693133e-01,-1.332773001845189986e-01,-1.403704898301936788e-01,-1.832345013079822449e-01,-1.899543651828319857e-01,-1.966742290576816710e-01,-2.033940929325313562e-01,-2.101139568073810415e-01,-1.806896730792918460e-01,-1.874095369541415312e-01,-1.900228173499164397e-01,-1.900228173499163842e-01,-1.900228173499164397e-01,-1.900228173499164952e-01,-1.900228173499163842e-01,-1.900228173499164397e-01,-1.900228173499164397e-01,-1.900228173499164397e-01,-1.900228173499164397e-01,-1.900228173499164397e-01,-1.900228173499164397e-01,-1.795230300454637717e-01,-1.690232427410111038e-01,-1.585234554365584914e-01
1.866628854124914583e-02,1.194642466639944667e-02,5.226560791549761387e-03,-1.493303083299937772e-03,-8.213166958149636931e-03,-1.493303083299933609e-02,-2.165289470784904913e-02,-2.837275858269873441e-02,-3.509262245754844745e-02,-4.218581210322309982e-02,-4.890567597807278510e-02,-5.562553985292249814e-02,-6.234540372777221118e-02,-6.906526760262189646e-02,-7.578513147747158174e-02,-8.250499535232129478e-02,-8.922485922717100781e-02,-9.594472310202069310e-02,-1.026645869768704061e-01,-1.093844508517200637e-01,-1.164776404973947715e-01,-1.231975043722444291e-01,-1.299173682470941560e-01,-1.366372321219438413e-01,-1.433570959967935265e-01,-1.500769598716432118e-01,-1.567968237464929526e-01,-1.635166876213426379e-01,-1.702365514961923232e-01,-1.769564153710420640e-01,-1.836762792458916937e-01,-1.900228173499164397e-01,-1.900228173499164397e-01,-1.900228173499164397e-01,-1.900228173499164397e-01,-1.900228173499164397e-01,-1.900228173499164397e-01,-1.900228173499164397e-01,-1.900228173499164397e-01,-1.900228173499164397e-01,-1.900228173499164397e-01,-1.900228173499164397e-01,-1.847729236976901057e-01,-1.742731363932374378e-01,-1.637733490887847698e-01,-1.532735617843321019e-01,-1.427737744798794894e-01
8.959818499799585001e-03,2.239954624949899720e-03,-4.479909249899813317e-03,-1.119977312474949860e-02,-1.791963699959921164e-02,-2.501282664527386401e-02,-3.173269052012357705e-02,-3.845255439497326233e-02,-4.517241826982297537e-02,-5.189228214467268840e-02,-5.861214601952237369e-02,-6.533200989437205897e-02,-7.205187376922174425e-02,-7.877173764407145728e-02,-8.549160151892117032e-02,-9.221146539377085560e-02,-9.930465503944553574e-02,-1.060245189142952210e-01,-1.127443827891449063e-01,-1.194642466639946193e-01,-1.261841105388443185e-01,-1.329039744136940038e-01,-1.396238382885437446e-01,-1.463437021633934298e-01,-1.530635660382431151e-01,-1.597834299130928004e-01,-1.665032937879424857e-01,-1.735964834336172213e-01,-1.803163473084669066e-01,-1.870362111833165919e-01,-1.900228173499164397e-01,-1.900228173499164397e-01,-1.900228173499164397e-01,-1.900228173499164397e-01,-1.900228173499164397e-01,-1.900228173499164397e-01,-1.900228173499164952e-01,-1.900228173499164397e-01,-1.900228173499163842e-01,-1.900228173499164397e-01,-1.900228173499163842e-01,-1.801063515623778089e-01,-1.696065642579251964e-01,-1.591067769534725285e-01,-1.486069896490198605e-01,-1.381072023445672481e-01,-1.276074150401145801e-01
-1.119977312474970677e-03,-7.839841187324642080e-03,-1.455970506217434124e-02,-2.127956893702405428e-02,-2.799943281187376731e-02,-3.471929668672345259e-02,-4.143916056157313788e-02,-4.815902443642285091e-02,-5.487888831127253619e-02,-6.159875218612222147e-02,-6.831861606097193451e-02,-7.541180570664661464e-02,-8.213166958149632768e-02,-8.885153345634604072e-02,-9.557139733119572600e-02,-1.022912612060453835e-01,-1.090111250808950966e-01,-1.157309889557447818e-01,-1.224508528305944671e-01,-1.291707167054442218e-01,-1.358905805802938516e-01,-1.426104444551435924e-01,-1.497036341008182725e-01,-1.564234979756679578e-01,-1.631433618505176431e-01,-1.698632257253673838e-01,-1.765830896002170691e-01,-1.833029534750668099e-01,-1.900228173499164397e-01,-1.900228173499164397e-01,-1.900228173499164397e-01,-1.900228173499164397e-01,-1.900228173499164397e-01,-1.900228173499164397e-01,-1.900228173499164397e-01,-1.900228173499163842e-01,-1.900228173499164397e-01,-1.900228173499164397e-01,-1.900228173499164397e-01,-1.859395667315182354e-01,-1.754397794270655120e-01,-1.649399921226128440e-01,-1.544402048181602316e-01,-1.439404175137075637e-01,-1.334406302092549512e-01,-1.223575213878882323e-01,-1.118577340834355921e-01
-1.082644735392451762e-02,-1.754631122877421678e-02,-2.426617510362390207e-02,-3.098603897847361510e-02,-3.770590285332332814e-02,-4.442576672817301342e-02,-5.114563060302269870e-02,-5.823882024869737883e-02,-6.495868412354706412e-02,-7.167854799839677715e-02,-7.839841187324649019e-02,-8.511827574809617547e-02,-9.183813962294588851e-02,-9.855800349779557379e-02,-1.052778673726452868e-01,-1.119977312474949721e-01,-1.187175951223446296e-01,-1.254374589971943288e-01,-1.325306486428690644e-01,-1.392505125177187497e-01,-1.459703763925684350e-01,-1.526902402674181758e-01,-1.594101041422678056e-01,-1.661299680171174908e-01,-1.728498318919672316e-01,-1.795696957668169169e-01,-1.862895596416666022e-01,-1.900228173499164397e-01,-1.900228173499164397e-01,-1.900228173499164397e-01,-1.900228173499163842e-01,-1.900228173499164397e-01,-1.900228173499164397e-01,-1.900228173499164397e-01,-1.900228173499164397e-01,-1.900228173499164397e-01,-1.900228173499164397e-01,-1.900228173499164952e-01,-1.812729945962058831e-01,-1.707732072917532151e-01,-1.596900984703865101e-01,-1.491903111659339531e-01,-1.386905238614812852e-01,-1.281907365570286172e-01,-1.176909492525759632e-01,-1.071911619481233230e-01,-9.669137464367065504e-02
-2.053291739537409233e-02,-2.725278127022377761e-02,-3.397264514507346289e-02,-4.106583479074817078e-02,-4.778569866559785606e-02,-5.450556254044756910e-02,-6.122542641529725438e-02,-6.794529029014693966e-02,-7.466515416499665270e-02,-8.138501803984636573e-02,-8.810488191469605102e-02,-9.482474578954576405e-02,-1.015446096643954216e-01,-1.082644735392451346e-01,-1.153576631849198147e-01,-1.220775270597695000e-01,-1.287973909346192269e-01,-1.355172548094689122e-01,-1.422371186843185975e-01,-1.489569825591682828e-01,-1.556768464340179681e-01,-1.623967103088677089e-01,-1.691165741837173941e-01,-1.758364380585670794e-01,-1.825563019334167647e-01,-1.896494915790914448e-01,-1.900228173499164397e-01,-1.900228173499164397e-01,-1.900228173499164397e-01,-1.900228173499164397e-01,-1.900228173499164397e-01,-1.900228173499164397e-01,-1.900228173499164397e-01,-1.900228173499164397e-01,-1.900228173499164397e-01,-1.900228173499164397e-01,-1.865228882484322170e-01,-1.760231009439795491e-01,-1.655233136395268811e-01,-1.550235263350742687e-01,-1.445237390306216008e-01,-1.340239517261689883e-01,-1.235241644217163065e-01,-1.130243771172636663e-01,-1.025245898128109984e-01,-9.202480250835835818e-02,-8.152501520390571799e-02
-3.061271320764862025e-02,-3.733257708249833329e-02,-4.405244095734799081e-02,-5.077230483219770385e-02,-1.129013882785092210e-01,-1.196212521533589063e-01,-1.263411160282085777e-01,-1.330609799030582630e-01,-8.437162420644624128e-02,-9.146481385212089366e-02,-9.818467772697060669e-02,-1.049045416018202642e-01,-1.116244054766699773e-01,-1.183442693515196625e-01,-1.250641332263693895e-01,-1.317839971012190747e-01,-1.385038609760687600e-01,-1.452237248509184453e-01,-1.519435887257681306e-01,-1.586634526006178714e-01,-1.657566422462924960e-01,-1.724765061211422368e-01,-1.791963699959919776e-01,-1.859162338708416629e-01,-1.900228173499164397e-01,-1.900228173499164952e-01,-1.900228173499164397e-01,-1.900228173499164397e-01,-1.900228173499164397e-01,-1.900228173499164397e-01,-1.900228173499164397e-01,-1.900228173499164397e-01,-1.900228173499164397e-01,-1.900228173499164397e-01,-1.900228173499164397e-01,-1.818563161131199202e-01,-1.713565288086672522e-01,-1.608567415042145843e-01,-1.503569541997619718e-01,-1.398571668953093039e-01,-1.293573795908566915e-01,-1.188575922864040374e-01,-1.083578049819513694e-01,-9.727469616058471991e-02,-8.677490885613205196e-02,-7.627512155167938401e-02,-6.577533424722671607e-02
-4.031918324909818108e-02,-4.703904712394789411e-02,-5.375891099879757939e-02,-6.047877487364729243e-02,-1.226078583199587541e-01,-1.297010479656334203e-01,-1.364209118404831056e-01,-1.431407757153327909e-01,-9.445142001872076920e-02,-1.011712838935704545e-01,-1.078911477684201398e-01,-1.146110116432698250e-01,-1.213308755181195103e-01,-1.280507393929692372e-01,-1.347706032678189225e-01,-1.414904671426686078e-01,-1.485836567883432879e-01,-1.553035206631929732e-01,-1.620233845380426585e-01,-1.687432484128923993e-01,-1.754631122877420846e-01,-1.821829761625918254e-01,-1.889028400374414551e-01,-1.900228173499164397e-01,-1.900228173499164397e-01,-1.900228173499164397e-01,-1.900228173499164397e-01,-1.900228173499164397e-01,-1.900228173499164397e-01,-1.900228173499164397e-01,-1.900228173499164397e-01,-1.900228173499164397e-01,-1.900228173499164397e-01,-1.876895312822602913e-01,-1.771897439778076233e-01,-1.666899566733549554e-01,-1.561901693689022874e-01,-1.456903820644496750e-01,-1.346072732430830254e-01,-1.241074859386303714e-01,-1.136076986341777034e-01,-1.031079113297250910e-01,-9.260812402527239529e-02,-8.210833672081975509e-02,-7.160854941636711490e-02,-6.110876211191444696e-02,-5.060897480746180677e-02
-5.002565329054774190e-02,-5.711884293622244979e-02,-6.383870681107213507e-02,-7.055857068592182035e-02,-1.326876541322332681e-01,-1.394075180070829534e-01,-1.461273818819326942e-01,-1.528472457567823795e-01,-1.041578900601703300e-01,-1.108777539350199876e-01,-1.175976178098697006e-01,-1.243174816847193859e-01,-1.314106713303940799e-01,-1.381305352052438207e-01,-1.448503990800934504e-01,-1.515702629549431912e-01,-1.582901268297928210e-01,-1.650099907046425618e-01,-1.717298545794922471e-01,-1.784497184543419879e-01,-1.851695823291916732e-01,-1.900228173499164397e-01,-1.900228173499164397e-01,-1.900228173499164397e-01,-1.900228173499164397e-01,-1.900228173499164397e-01,-1.900228173499164397e-01,-1.900228173499164397e-01,-1.900228173499164397e-01,-1.900228173499163842e-01,-1.900228173499164397e-01,-1.900228173499164397e-01,-1.830229591469479944e-01,-1.725231718424953264e-01,-1.614400630211286214e-01,-1.509402757166760090e-01,-1.404404884122233410e-01,-1.299407011077707286e-01,-1.194409138033180745e-01,-1.089411264988654343e-01,-9.844133919441276637e-02,-8.794155188996009842e-02,-7.744176458550745823e-02,-1.678867257395476598e-01,-1.573869384350949918e-01,-1.463038296137283423e-01,-3.485929385078280485e-02
-6.010544910282229758e-02,-6.682531297767201062e-02,-7.354517685252169590e-02,-8.026504072737140894e-02,-1.423941241736828567e-01,-1.491139880485325420e-01,-1.558338519233822272e-01,-1.629270415690569074e-01,-1.142376858724448579e-01,-1.209575497472945432e-01,-1.276774136221442424e-01,-1.343972774969939277e-01,-1.411171413718436685e-01,-1.478370052466932982e-01,-1.545568691215430390e-01,-1.612767329963927243e-01,-1.679965968712424096e-01,-1.747164607460921504e-01,-1.818096503917667750e-01,-1.885295142666164603e-01,-1.900228173499164397e-01,-1.900228173499164397e-01,-1.900228173499164397e-01,-1.900228173499164397e-01,-1.900228173499164397e-01,-1.900228173499164397e-01,-1.900228173499164397e-01,-1.900228173499164397e-01,-1.900228173499164952e-01,-1.900228173499164397e-01,-1.882728527991743284e-01,-1.777730654947216604e-01,-1.672732781902690480e-01,-1.567734908858163800e-01,-1.462737035813637121e-01,-1.357739162769110441e-01,-1.252741289724584317e-01,-1.147743416680057776e-01,-1.042745543635531374e-01,-9.377476705910049726e-02,-8.269165823773381996e-02,-7.219187093328112426e-02,-6.169208362882845631e-02,-1.521370447828687134e-01,-1.416372574784160454e-01,-1.311374701739633775e-01,-1.969293441101786779e-02
-6.981191914427185841e-02,-7.653178301912154369e-02,-8.325164689397125672e-02,-9.034483653964593686e-02,-9.706470041449562214e-02,-1.037845642893453352e-01,-1.105044281641950205e-01,-1.172242920390447057e-01,-1.239441559138944188e-01,-1.306640197887440902e-01,-1.373838836635938310e-01,-1.441037475384435163e-01,-1.508236114132932015e-01,-1.575434752881428868e-01,-1.646366649338175669e-01,-1.713565288086672522e-01,-1.780763926835169930e-01,-1.847962565583666783e-01,-1.900228173499164397e-01,-1.900228173499163842e-01,-1.900228173499164397e-01,-1.900228173499164397e-01,-1.900228173499164397e-01,-1.900228173499164397e-01,-1.900228173499164397e-01,-1.900228173499164397e-01,-1.900228173499164397e-01,-1.900228173499164397e-01,-1.900228173499164397e-01,-1.836062806638620315e-01,-1.731064933594094191e-01,-1.626067060549567511e-01,-1.521069187505040832e-01,-1.416071314460514152e-01,-1.311073441415988028e-01,-1.206075568371461210e-01,-1.095244480157794437e-01,-9.902466071132683123e-02,-8.852487340687413553e-02,-7.802508610242149534e-02,-6.752529879796882739e-02,-5.702551149351618720e-02,-4.652572418906354701e-02,-1.369706853431037485e-01,-1.264708980386511361e-01,-1.159711107341984820e-01,-4.526574971252930735e-03
-7.989171495654641408e-02,-8.661157883139609936e-02,-9.333144270624581240e-02,-1.000513065810955254e-01,-1.067711704559452107e-01,-1.134910343307948960e-01,-1.202108982056445813e-01,-1.269307620804942527e-01,-1.336506259553439935e-01,-1.403704898301936788e-01,-1.474636794758683589e-01,-1.541835433507180442e-01,-1.609034072255677295e-01,-1.676232711004174147e-01,-1.743431349752671555e-01,-1.810629988501168408e-01,-1.877828627249665816e-01,-1.900228173499164397e-01,-1.900228173499164397e-01,-1.900228173499164397e-01,-1.900228173499164397e-01,-1.900228173499164397e-01,-1.900228173499164397e-01,-1.900228173499164397e-01,-1.900228173499164397e-01,-1.900228173499164952e-01,-1.900228173499164397e-01,-1.894394958330024026e-01,-1.789397085285497346e-01,-1.684399212240970667e-01,-1.579401339196444543e-01,-1.474403466151917863e-01,-1.363572377938251368e-01,-1.258574504893724688e-01,-1.153576631849198147e-01,-1.048578758804671746e-01,-9.435808857601453437e-02,-8.385830127156186642e-02,-7.335851396710919847e-02,-6.285872666265655828e-02,-5.235893935820389034e-02,-4.185915205375122239e-02,-3.135936474929858220e-02,-2.027625592793190490e-02,-9.776468623479264708e-03,7.233186809734032385e-04,1.122310598542604343e-02
9.519807156037063400e-03,-9.631804887284568795e-02,-1.030379127476953732e-01,-1.097577766225450585e-01,-1.164776404973947438e-01,-1.235708301430694239e-01,-1.302906940179191508e-01,-1.370105578927688361e-01,-1.437304217676185214e-01,-1.504502856424682067e-01,-1.571701495173178920e-01,-1.638900133921675772e-01,-1.706098772670173180e-01,-1.773297411418670588e-01,-1.840496050167167441e-01,-1.900228173499164397e-01,-1.900228173499164397e-01,-1.900228173499164397e-01,-1.900228173499164397e-01,-1.900228173499164397e-01,-1.900228173499164397e-01,-1.900228173499164397e-01,-1.900228173499164397e-01,-1.900228173499164397e-01,-1.900228173499164397e-01,-1.900228173499164397e-01,-1.847729236976901057e-01,-1.736898148763234007e-01,-1.631900275718707327e-01,-1.526902402674181203e-01,-1.421904529629655078e-01,-1.316906656585128399e-01,-1.211908783540601858e-01,-1.106910910496075179e-01,-1.001913037451548777e-01,-8.969151644070223750e-02,-7.919172913624956955e-02,-6.869194183179690161e-02,-5.760883301043022431e-02,-4.710904570597755636e-02,-3.660925840152491617e-02,-2.610947109707227598e-02,-1.560968379261962191e-02,-5.109896488166967843e-03,5.389890816285686226e-03,1.588967812073834029e-02,2.638946542519099436e-02
1.086377993100701017e-01,-5.263893368632262260e-02,-1.131177085599699289e-01,-1.198375724348195864e-01,-1.265574363096693133e-01,-1.332773001845189986e-01,-1.399971640593687394e-01,-1.467170279342183692e-01,-1.534368918090680545e-01,-1.601567556839177953e-01,-1.668766195587674250e-01,-1.735964834336172213e-01,-1.806896730792918460e-01,-1.874095369541415868e-01,-1.900228173499164397e-01,-1.900228173499164397e-01,-1.900228173499164397e-01,-1.900228173499164397e-01,-1.900228173499164952e-01,-1.900228173499164397e-01,-1.900228173499164397e-01,-1.900228173499164397e-01,-1.900228173499163842e-01,-1.900228173499164952e-01,-1.900228173499164397e-01,-1.795230300454637717e-01,-1.690232427410111038e-01,-1.585234554365584914e-01,-1.480236681321058234e-01,-1.375238808276532110e-01,-1.270240935232005430e-01,-1.165243062187479167e-01,-1.060245189142952210e-01,-9.552473160984260858e-02,-8.444162278847590353e-02,-7.394183548402323558e-02,-6.344204817957059539e-02,-5.294226087511795520e-02,-4.244247357066528725e-02,-3.194268626621261931e-02,-2.144289896175997912e-02,-1.094311165730733892e-02,-4.433243528546709777e-04,1.005646295159798309e-02,2.055625025605063716e-02,3.163935907741731446e-02,4.213914638186996853e-02
1.086377993100701017e-01,6.649865292820011931e-02,-1.228241786014194620e-01,-1.295440424762691611e-01,-1.362639063511188464e-01,-1.429837702259685872e-01,-1.497036341008182725e-01,-1.564234979756679023e-01,-1.635166876213426379e-01,-1.702365514961923232e-01,-1.769564153710420640e-01,-1.836762792458917493e-01,-1.900228173499164397e-01,-1.900228173499164397e-01,-1.900228173499164397e-01,-1.900228173499163842e-01,-1.900228173499164397e-01,-1.900228173499164397e-01,-1.900228173499164397e-01,-1.900228173499164397e-01,-1.900228173499164397e-01,-1.900228173499164397e-01,-1.900228173499164397e-01,-1.853562452146041428e-01,-1.748564579101514749e-01,-1.643566706056988069e-01,-1.538568833012461945e-01,-1.433570959967935265e-01,-1.328573086923409141e-01,-1.223575213878882045e-01,-1.112744125665215550e-01,-1.007746252620688870e-01,-9.027483795761624685e-02,-7.977505065316360666e-02,-6.927526334871096647e-02,-5.877547604425829852e-02,-4.827568873980565833e-02,-3.777590143535299039e-02,-2.727611413090035020e-02,-1.677632682644768225e-02,-6.276539521995042059e-03,4.806569299371662995e-03,1.530635660382430319e-02,2.580614390827695726e-02,3.630593121272961132e-02,4.680571851718225151e-02,5.730550582163491252e-02
1.086377993100701017e-01,1.086377993100701017e-01,-4.409910667870123313e-03,-1.396238382885437446e-01,-1.463437021633934298e-01,-1.530635660382430596e-01,-1.597834299130928004e-01,-1.665032937879424857e-01,-1.732231576627921710e-01,-1.799430215376419118e-01,-1.866628854124915415e-01,-1.900228173499164397e-01,-1.900228173499164397e-01,-1.900228173499164397e-01,-1.900228173499164397e-01,-1.900228173499164397e-01,-1.900228173499164397e-01,-1.900228173499164952e-01,-1.900228173499164397e-01,-1.900228173499164397e-01,-1.900228173499164397e-01,-1.900228173499164397e-01,-1.806896730792918460e-01,-1.701898857748391780e-01,-1.596900984703865656e-01,-1.486069896490198605e-01,-1.381072023445672481e-01,-1.276074150401145801e-01,-1.171076277356619261e-01,-1.066078404312092581e-01,-9.610805312675659018e-02,-8.560826582230394999e-02,-7.510847851785130980e-02,-6.460869121339866961e-02,-5.410890390894600166e-02,-4.360911660449336147e-02,-3.252600778312668417e-02,-2.202622047867401622e-02,-1.152643317422137603e-02,-1.026645869768721964e-03,9.473141434683945983e-03,1.997292873913658617e-02,3.047271604358924024e-02,4.097250334804189431e-02,5.147229065249455532e-02,6.197207795694720245e-02,7.247186526139985652e-02
1.086377993100701017e-01,1.086377993100701017e-01,1.086377993100701017e-01,-7.677677805622547258e-02,-1.560501722048429629e-01,-1.627700360796926482e-01,-1.694898999545423335e-01,-1.762097638293920743e-01,-1.829296277042417596e-01,-1.896494915790914448e-01,-1.900228173499164397e-01,-1.900228173499164397e-01,-1.900228173499164397e-01,-1.900228173499164397e-01,-1.900228173499164397e-01,-1.900228173499164397e-01,-1.900228173499164952e-01,-1.900228173499164397e-01,-1.900228173499164397e-01,-1.900228173499164397e-01,-1.865228882484322170e-01,-1.754397794270655120e-01,-1.649399921226128440e-01,-1.544402048181602316e-01,-1.439404175137075637e-01,-1.334406302092549512e-01,-1.229408429048022972e-01,-1.124410556003496292e-01,-1.019412682958969613e-01,-9.144148099144434882e-02,-8.094169368699168088e-02,-7.044190638253904069e-02,-5.935879756117233563e-02,-4.885901025671966769e-02,-3.835922295226702750e-02,-2.785943564781438730e-02,-1.735964834336171936e-02,-6.859861038909065289e-03,3.639926265543588779e-03,1.413971356999624285e-02,2.463950087444888304e-02,3.513928817890153711e-02,4.563907548335419118e-02,5.672218430472087541e-02,6.722197160917352254e-02,7.772175891362617661e-02,8.822154621807883068e-02
1.086377993100701017e-01,1.086377993100701017e-01,1.086377993100701017e-01,6.681364654733371045e-02,-1.571818159476561783e-01,-1.724765061211421813e-01,-1.795696957668169169e-01,-1.862895596416666022e-01,-1.900228173499164397e-01,-1.900228173499164397e-01,-1.900228173499164397e-01,-1.900228173499164397e-01,-1.900228173499164397e-01,-1.900228173499164397e-01,-1.900228173499164397e-01,-1.900228173499164397e-01,-1.900228173499164397e-01,-1.900228173499164397e-01,-1.900228173499163842e-01,-1.812729945962058831e-01,-1.707732072917532151e-01,-1.602734199873006027e-01,-1.497736326828479347e-01,-1.392738453783952668e-01,-1.287740580739426544e-01,-1.182742707694900003e-01,-1.077744834650373323e-01,-9.727469616058466440e-02,-8.619158733921801485e-02,-7.569180003476534691e-02,-6.519201273031270671e-02,-5.469222542586003877e-02,-4.419243812140739858e-02,-3.369265081695473063e-02,-2.319286351250209044e-02,-1.269307620804943637e-02,-2.193288903596782302e-03,8.306498400855857889e-03,1.880628570530852584e-02,2.988939452667521701e-02,4.038918183112785720e-02,5.088896913558051821e-02,6.138875644003316534e-02,7.188854374448581941e-02,8.238833104893847348e-02,9.288811835339112755e-02,1.033879056578437816e-01
1.086377993100701017e-01,1.086377993100701017e-01,1.086377993100701017e-01,1.086377993100701017e-01,-6.929859620938755294e-03,-1.825563019334167647e-01,-1.892761658082664500e-01,-1.900228173499164397e-01,-1.900228173499164397e-01,-1.900228173499164397e-01,-1.900228173499164397e-01,-1.900228173499164397e-01,-1.900228173499164397e-01,-1.900228173499164397e-01,-1.900228173499164397e-01,-1.900228173499164397e-01,-1.900228173499164397e-01,-1.871062097653462541e-01,-1.766064224608935862e-01,-1.661066351564409183e-01,-1.556068478519883058e-01,-1.451070605475356379e-01,-1.346072732430830254e-01,-1.235241644217163065e-01,-1.130243771172636663e-01,-1.025245898128109984e-01,-9.202480250835838593e-02,-8.152501520390571799e-02,-7.102522789945305004e-02,-6.052544059500038209e-02,-5.002565329054774190e-02,-3.952586598609510171e-02,-2.902607868164243377e-02,-1.852629137718979357e-02,-7.443182555823102398e-03,3.056604748629551671e-03,1.355639205308219186e-02,2.405617935753483205e-02,3.455596666198750000e-02,4.505575396644015407e-02,5.555554127089280814e-02,6.605532857534546221e-02,7.655511587979810240e-02,8.705490318425077034e-02,9.755469048870341053e-02,1.086377993100701017e-01,1.086377993100701017e-01
1.086377993100701017e-01,1.086377993100701017e-01,1.086377993100701017e-01,1.086377993100701017e-01,1.086377993100701017e-01,-8.735823037304606131e-02,-1.900228173499164397e-01,-1.900228173499164397e-01,-1.900228173499164397e-01,-1.900228173499164397e-01,-1.900228173499164397e-01,-1.900228173499164397e-01,-1.900228173499164397e-01,-1.900228173499164397e-01,-1.900228173499164397e-01,-1.900228173499163842e-01,-1.824396376300339573e-01,-1.719398503255812893e-01,-1.614400630211286769e-01,-1.503569541997619718e-01,-1.398571668953093594e-01,-1.293573795908566915e-01,-1.188575922864040096e-01,-1.083578049819513694e-01,-9.785801767749872926e-02,-8.735823037304608907e-02,-7.685844306859342112e-02,-6.635865576414075317e-02,-5.585886845968811298e-02,-4.535908115523544504e-02,-3.427597233386876774e-02,-2.377618502941612755e-02,-1.327639772496345960e-02,-2.776610420510819410e-03,7.723176883941834658e-03,1.822296418839448873e-02,2.872275149284712892e-02,3.922253879729979686e-02,4.972232610175243706e-02,6.022211340620509806e-02,7.072190071065774519e-02,8.180500953202443637e-02,9.230479683647709044e-02,1.028045841409297445e-01,1.086377993100701017e-01,1.086377993100701017e-01,1.086377993100701017e-01
1.086377993100701017e-01,1.086377993100701017e-01,1.086377993100701017e-01,1.086377993100701017e-01,1.086377993100701017e-01,8.063836649819636215e-02,-1.713565288086672522e-01,-1.900228173499164397e-01,-1.900228173499164397e-01,-1.900228173499164397e-01,-1.900228173499164397e-01,-1.900228173499164397e-01,-1.900228173499164397e-01,-1.900228173499164397e-01,-1.882728527991743284e-01,-1.771897439778075678e-01,-1.666899566733549554e-01,-1.561901693689023429e-01,-1.456903820644496750e-01,-1.351905947599970625e-01,-1.246908074555444085e-01,-1.141910201510917405e-01,-1.036912328466390726e-01,-9.319144554218643239e-02,-8.269165823773376445e-02,-7.219187093328112426e-02,-6.110876211191444696e-02,-5.060897480746177901e-02,-4.010918750300913882e-02,-2.960940019855649863e-02,-1.910961289410383068e-02,-8.609825589651190492e-03,1.889961714801477455e-03,1.238974901925411765e-02,2.288953632370677171e-02,3.338932362815942578e-02,4.388911093261207985e-02,5.497221975397876409e-02,6.547200705843142510e-02,7.597179436288406529e-02,8.647158166733673323e-02,9.697136897178937343e-02,1.074711562762420275e-01,1.086377993100701017e-01,1.086377993100701017e-01,1.086377993100701017e-01,1.086377993100701017e-01
1.086377993100701017e-01,1.086377993100701017e-01,1.086377993100701017e-01,1.086377993100701017e-01,1.086377993100701017e-01,1.086377993100701017e-01,-3.359931937424856518e-03,-1.900228173499164397e-01,-1.900228173499164397e-01,-1.900228173499164397e-01,-1.900228173499164397e-01,-1.900228173499164397e-01,-1.900228173499164397e-01,-1.830229591469479944e-01,-1.725231718424953820e-01,-1.620233845380427140e-01,-1.515235972335900461e-01,-1.410238099291374336e-01,-1.305240226246847657e-01,-1.200242353202321116e-01,-1.095244480157794714e-01,-9.844133919441276637e-02,-8.794155188996007066e-02,-7.744176458550745823e-02,-6.694197728105481804e-02,-5.644218997660215009e-02,-4.594240267214948215e-02,-3.544261536769684195e-02,-2.494282806324420176e-02,-1.444304075879154770e-02,-3.943253454338893627e-03,6.556533850113760442e-03,1.763964267148045162e-02,2.813942997593309181e-02,3.863921728038574588e-02,4.913900458483840689e-02,5.963879188929105402e-02,7.013857919374372196e-02,8.063836649819636215e-02,9.113815380264901622e-02,1.016379411071016703e-01,1.086377993100701017e-01,1.086377993100701017e-01,1.086377993100701017e-01,1.086377993100701017e-01,1.086377993100701017e-01,1.086377993100701017e-01
1.086377993100701017e-01,1.086377993100701017e-01,1.086377993100701017e-01,1.086377993100701017e-01,1.086377993100701017e-01,1.086377993100701017e-01,1.086377993100701017e-01,-7.802508610242149534e-02,-1.900228173499164397e-01,-1.900228173499164397e-01,-1.900228173499164397e-01,-1.888561743160883655e-01,-1.783563870116356975e-01,-1.678565997071830296e-01,-1.573568124027304171e-01,-1.468570250982778047e-01,-1.363572377938251368e-01,-1.252741289724584317e-01,-1.147743416680058054e-01,-1.042745543635531374e-01,-9.377476705910049726e-02,-8.327497975464782931e-02,-7.277519245019516136e-02,-6.227540514574249342e-02,-5.177561784128982547e-02,-4.127583053683721304e-02,-3.077604323238454509e-02,-2.027625592793190490e-02,-9.193147106565213722e-03,1.306640197887440347e-03,1.180642750234008054e-02,2.230621480679274848e-02,3.280600211124538867e-02,4.330578941569804274e-02,5.380557672015069681e-02,6.430536402460335088e-02,7.480515132905599107e-02,8.530493863350865902e-02,9.580472593796129921e-02,1.068878347593279904e-01,1.086377993100701017e-01,1.086377993100701017e-01,1.086377993100701017e-01,1.086377993100701017e-01,1.086377993100701017e-01,1.086377993100701017e-01,1.086377993100701017e-01
1.086377993100701017e-01,1.086377993100701017e-01,1.086377993100701017e-01,1.086377993100701017e-01,1.086377993100701017e-01,1.086377993100701017e-01,1.086377993100701017e-01,8.997151076882094201e-02,-1.526902402674181203e-01,-1.900228173499163842e-01,-1.841896021807760686e-01,-1.736898148763234007e-01,-1.626067060549567511e-01,-1.521069187505040832e-01,-1.416071314460514152e-01,-1.311073441415988028e-01,-1.206075568371461210e-01,-1.101077695326934808e-01,-9.960798222824084058e-02,-8.910819492378820039e-02,-7.860840761933550469e-02,-1.276721333778809697e-01,-1.171723460734283712e-01,-1.066725587689757032e-01,-3.602593688461087906e-02,-2.552614958015823887e-02,-1.502636227570558480e-02,-4.526574971252916857e-03,5.973212333199723334e-03,1.647299963765237740e-02,2.697278694210501759e-02,3.747257424655768554e-02,4.797236155101033267e-02,5.847214885546297980e-02,6.897193615991563387e-02,8.005504498128232505e-02,9.055483228573497911e-02,1.010546195901876332e-01,1.086377993100701017e-01,1.086377993100701017e-01,1.086377993100701017e-01,1.086377993100701017e-01,1.086377993100701017e-01,1.086377993100701017e-01,1.086377993100701017e-01,1.086377993100701017e-01,1.086377993100701017e-01
1.086377993100701017e-01,1.086377993100701017e-01,1.086377993100701017e-01,1.086377993100701017e-01,1.086377993100701017e-01,1.086377993100701017e-01,1.086377993100701017e-01,1.086377993100701017e-01,1.548864457785995019e-02,-1.789397085285497346e-01,-1.684399212240970667e-01,-1.579401339196444543e-01,-1.474403466151917863e-01,-1.369405593107391184e-01,-1.264407720062865059e-01,-1.159409847018338796e-01,-1.054411973973811839e-01,-9.494141009292854372e-02,-8.444162278847590353e-02,-7.335851396710919847e-02,-6.285872666265655828e-02,-1.119224524212020372e-01,-1.014226651167493137e-01,-9.092287781229670129e-02,-2.085957744484594201e-02,-1.035979014039328794e-02,1.399971640593661304e-04,1.063978446851202020e-02,2.113957177296466039e-02,3.163935907741731446e-02,4.272246789878400564e-02,5.322225520323665970e-02,6.372204250768931377e-02,7.422182981214195396e-02,8.472161711659462191e-02,9.522140442104726210e-02,1.057211917254999162e-01,1.086377993100701017e-01,1.086377993100701017e-01,1.086377993100701017e-01,1.086377993100701017e-01,1.086377993100701017e-01,1.086377993100701017e-01,1.086377993100701017e-01,1.086377993100701017e-01,1.086377993100701017e-01,1.086377993100701017e-01
1.086377993100701017e-01,1.086377993100701017e-01,1.086377993100701017e-01,1.086377993100701017e-01,1.086377993100701017e-01,1.086377993100701017e-01,1.086377993100701017e-01,1.086377993100701017e-01,1.086377993100701017e-01,-5.310632005174999171e-02,-1.532735617843321574e-01,-1.427737744798794894e-01,-1.322739871754268770e-01,-1.217741998709742229e-01,-1.112744125665215827e-01,-1.001913037451548499e-01,-8.969151644070220974e-02,-7.919172913624956955e-02,-6.869194183179690161e-02,-5.819215452734428917e-02,-4.769236722289162123e-02,-9.675609298143707238e-02,-8.625630567698440443e-02,-7.575651837253176424e-02,-5.693218005080991073e-03,4.806569299371649118e-03,1.588967812073834029e-02,2.638946542519099436e-02,3.688925272964364843e-02,4.738904003409629556e-02,5.788882733854894963e-02,6.838861464300161064e-02,7.888840194745425083e-02,8.938818925190690490e-02,9.988797655635955897e-02,1.086377993100701017e-01,1.086377993100701017e-01,1.086377993100701017e-01,1.086377993100701017e-01,1.086377993100701017e-01,1.086377993100701017e-01,1.086377993100701017e-01,1.086377993100701017e-01,1.086377993100701017e-01,1.086377993100701017e-01,1.086377993100701017e-01,1.086377993100701017e-01
1.086377993100701017e-01,1.086377993100701017e-01,1.086377993100701017e-01,1.086377993100701017e-01,1.086377993100701017e-01,1.086377993100701017e-01,1.086377993100701017e-01,1.086377993100701017e-01,1.086377993100701017e-01,1.086377993100701017e-01,-9.906111830613391345e-02,-1.270240935232005430e-01,-1.165243062187479167e-01,-1.060245189142952210e-01,-9.552473160984255307e-02,-8.502494430538994064e-02,-7.452515700093727269e-02,-6.402536969648463250e-02,-5.352558239203199231e-02,-4.302579508757932436e-02,-3.252600778312665641e-02,-2.144289896175997912e-02,-1.094311165730733892e-02,-4.433243528546848555e-04,1.005646295159796921e-02,2.055625025605063716e-02,3.105603756050327735e-02,4.155582486495593142e-02,5.205561216940857855e-02,6.255539947386123956e-02,7.305518677831389363e-02,8.355497408276654769e-02,9.405476138721918788e-02,1.051378702085858791e-01,1.086377993100701017e-01,1.086377993100701017e-01,1.086377993100701017e-01,1.086377993100701017e-01,1.086377993100701017e-01,1.086377993100701017e-01,1.086377993100701017e-01,1.086377993100701017e-01,1.086377993100701017e-01,1.086377993100701017e-01,1.086377993100701017e-01,1.086377993100701017e-01,1.086377993100701017e-01
1.086377993100701017e-01,1.086377993100701017e-01,1.086377993100701017e-01,1.086377993100701017e-01,1.086377993100701017e-01,1.086377993100701017e-01,1.086377993100701017e-01,1.086377993100701017e-01,1.086377993100701017e-01,1.086377993100701017e-01,4.367036536376930900e-02,-1.118577340834355921e-01,-1.013579467789829519e-01,-9.085815947453028396e-02,-8.035837217007764377e-02,-6.985858486562497582e-02,-5.935879756117233563e-02,-4.827568873980565833e-02,-3.777590143535299039e-02,-2.727611413090035020e-02,-1.677632682644768225e-02,-6.276539521995042059e-03,4.223247782457625887e-03,1.472303508691026608e-02,2.522282239136293402e-02,3.572260969581557422e-02,4.622239700026822828e-02,5.672218430472087541e-02,6.780529312608757353e-02,7.830508043054021372e-02,8.880486773499286779e-02,9.930465503944552186e-02,1.086377993100701017e-01,1.086377993100701017e-01,1.086377993100701017e-01,1.086377993100701017e-01,1.086377993100701017e-01,1.086377993100701017e-01,1.086377993100701017e-01,1.086377993100701017e-01,1.086377993100701017e-01,1.086377993100701017e-01,1.086377993100701017e-01,1.086377993100701017e-01,1.086377993100701017e-01,1.086377993100701017e-01,1.086377993100701017e-01
