-2.036255949053263625e-01,-2.036255949053263625e-01,-2.036255949053263625e-01,-2.036255949053263625e-01,-2.036255949053263625e-01,-2.036255949053263625e-01,-2.036255949053263625e-01,-2.036255949053263625e-01,-2.036255949053263625e-01,-1.551385758059623532e-01,-7.954124800989312294e-02,-9.651004758533697492e-02,-1.134788471607808408e-01,-1.304476467362247205e-01,-1.474164463116685586e-01,-1.643852458871124245e-01,-1.824145954360215371e-01,-1.993833950114654030e-01,-2.036255949053263625e-01,-2.036255949053263625e-01,-2.036255949053263625e-01,-2.036255949053263625e-01,-2.036255949053263625e-01,-2.036255949053263625e-01,-2.036255949053263625e-01,-2.036255949053263625e-01,-2.036255949053263625e-01,-2.036255949053263625e-01,-2.036255949053263625e-01,-2.036255949053263625e-01,-2.036255949053263625e-01,-2.036255949053263625e-01,-2.036255949053263625e-01,-2.036255949053263625e-01,-2.036255949053263625e-01,-2.036255949053263625e-01,-2.036255949053263625e-01,-2.036255949053263625e-01,-2.036255949053263625e-01,-2.036255949053263625e-01,-2.036255949053263625e-01,-2.036255949053263625e-01,-2.036255949053263625e-01,-2.036255949053263625e-01,-2.036255949053263625e-01,-2.036255949053263625e-01,-2.036255949053263625e-01
-2.036255949053263625e-01,-2.036255949053263625e-01,-2.036255949053263625e-01,-2.036255949053263625e-01,-2.036255949053263625e-01,-2.036255949053263625e-01,-2.036255949053263625e-01,-2.036255949053263625e-01,-2.036255949053263625e-01,-5.955650944740747965e-02,-4.984584875286637851e-02,-6.681464832831021661e-02,-8.484399787721931541e-02,-1.018127974526631951e-01,-1.187815970281070471e-01,-1.357503966035509269e-01,-1.527191961789947650e-01,-1.696879957544386308e-01,-1.866567953298824967e-01,-2.036255949053263625e-01,-2.036255949053263625e-01,-2.036255949053263625e-01,-2.036255949053263625e-01,-2.036255949053263625e-01,-2.036255949053263625e-01,-2.036255949053263625e-01,-2.036255949053263625e-01,-2.036255949053263625e-01,-2.036255949053263625e-01,-2.036255949053263625e-01,-2.036255949053263625e-01,-2.036255949053263625e-01,-2.036255949053263625e-01,-2.036255949053263625e-01,-2.036255949053263625e-01,-2.036255949053263625e-01,-2.036255949053263625e-01,-2.036255949053263625e-01,-2.036255949053263625e-01,-2.036255949053263625e-01,-2.036255949053263625e-01,-2.036255949053263625e-01,-2.036255949053263625e-01,-2.036255949053263625e-01,-2.036255949053263625e-01,-2.036255949053263625e-01,-2.036255949053263625e-01
-2.036255949053263625e-01,-2.036255949053263625e-01,-2.036255949053263625e-01,-2.036255949053263625e-01,-2.036255949053263625e-01,-2.036255949053263625e-01,-2.036255949053263625e-01,-2.036255949053263625e-01,-1.081760972934546483e-01,-4.242199893860987281e-03,-2.121099946930488089e-02,-3.817979904474874675e-02,-5.514859862019258485e-02,-7.211739819563642295e-02,-8.908619777108028881e-02,-1.060549973465241547e-01,-1.230237969219680066e-01,-1.399925964974118864e-01,-1.569613960728557522e-01,-1.739301956482995903e-01,-1.919595451972087030e-01,-2.036255949053263625e-01,-2.036255949053263625e-01,-2.036255949053263625e-01,-2.036255949053263625e-01,-2.036255949053263625e-01,-2.036255949053263625e-01,-2.036255949053263625e-01,-2.036255949053263625e-01,-2.036255949053263625e-01,-2.036255949053263625e-01,-2.036255949053263625e-01,-2.036255949053263625e-01,-2.036255949053263625e-01,-2.036255949053263625e-01,-2.036255949053263625e-01,-2.036255949053263625e-01,-2.036255949053263625e-01,-2.036255949053263625e-01,-2.036255949053263625e-01,-2.036255949053263625e-01,-2.036255949053263625e-01,-2.036255949053263625e-01,-2.036255949053263625e-01,-2.036255949053263625e-01,-2.036255949053263625e-01,-2.036255949053263625e-01
-2.036255949053263625e-01,-2.036255949053263625e-01,-2.036255949053263625e-01,-2.036255949053263625e-01,-2.036255949053263625e-01,-2.036255949053263625e-01,-2.036255949053263625e-01,-1.787508773458688915e-01,-7.857711167037956246e-03,-2.775557561562891351e-17,0.000000000000000000e+00,-8.484399787721946806e-03,-2.545319936316581266e-02,-4.242199893860967852e-02,-5.939079851405357213e-02,-7.635959808949738248e-02,-9.438894763840649516e-02,-1.113577472138503610e-01,-1.283265467892942269e-01,-1.452953463647380927e-01,-1.622641459401819586e-01,-1.792329455156257967e-01,-1.962017450910696625e-01,-2.036255949053263625e-01,-2.036255949053263625e-01,-2.036255949053263625e-01,-2.036255949053263625e-01,-2.036255949053263625e-01,-2.036255949053263625e-01,-2.036255949053263625e-01,-2.036255949053263625e-01,-2.036255949053263625e-01,-2.036255949053263625e-01,-2.036255949053263625e-01,-2.036255949053263625e-01,-2.036255949053263625e-01,-2.036255949053263625e-01,-2.036255949053263625e-01,-2.036255949053263625e-01,-2.036255949053263625e-01,-2.036255949053263625e-01,-2.036255949053263625e-01,-2.036255949053263625e-01,-2.036255949053263625e-01,-2.036255949053263625e-01,-2.036255949053263625e-01,-2.036255949053263625e-01
-2.036255949053263625e-01,-2.036255949053263625e-01,-2.036255949053263625e-01,-2.036255949053263625e-01,-2.036255949053263625e-01,-2.036255949053263625e-01,-2.036255949053263625e-01,-8.262648429633745462e-02,-6.941781644499767090e-03,-3.856545358055435413e-03,-7.713090716111037359e-04,-5.551115123125782702e-17,0.000000000000000000e+00,-1.378714965504815315e-02,-3.075594923049201901e-02,-4.772474880593588487e-02,-6.469354838137975072e-02,-8.166234795682361658e-02,-9.863114753226746856e-02,-1.155999471077113205e-01,-1.325687466831551864e-01,-1.495375462585990523e-01,-1.665063458340429181e-01,-1.845356953829520030e-01,-2.015044949583958689e-01,-2.036255949053263625e-01,-2.036255949053263625e-01,-2.036255949053263625e-01,-2.036255949053263625e-01,-2.036255949053263625e-01,-2.036255949053263625e-01,-2.036255949053263625e-01,-2.036255949053263625e-01,-2.036255949053263625e-01,-2.036255949053263625e-01,-2.036255949053263625e-01,-2.036255949053263625e-01,-2.036255949053263625e-01,-2.036255949053263625e-01,-2.036255949053263625e-01,-2.036255949053263625e-01,-2.036255949053263625e-01,-2.036255949053263625e-01,-2.036255949053263625e-01,-2.036255949053263625e-01,-2.036255949053263625e-01,-2.036255949053263625e-01
-2.036255949053263625e-01,-2.036255949053263625e-01,-2.036255949053263625e-01,-2.036255949053263625e-01,-2.036255949053263625e-01,-2.036255949053263625e-01,-1.573470506086612763e-01,-1.542618143222171390e-02,-1.214811787787459241e-02,-9.062881591430260730e-03,-5.977645304985929053e-03,-2.892409018541569621e-03,-2.775557561562891351e-17,-2.775557561562891351e-17,-1.060549973465274576e-03,-1.802934954890914043e-02,-3.499814912435300629e-02,-5.196694869979687215e-02,-6.893574827524071025e-02,-8.696509782414980905e-02,-1.039338973995936749e-01,-1.209026969750375269e-01,-1.378714965504813927e-01,-1.548402961259252586e-01,-1.718090957013691245e-01,-1.887778952768129903e-01,-2.036255949053263625e-01,-2.036255949053263625e-01,-2.036255949053263625e-01,-2.036255949053263625e-01,-2.036255949053263625e-01,-2.036255949053263625e-01,-2.036255949053263625e-01,-2.036255949053263625e-01,-2.036255949053263625e-01,-2.036255949053263625e-01,-2.036255949053263625e-01,-2.036255949053263625e-01,-2.036255949053263625e-01,-2.036255949053263625e-01,-2.036255949053263625e-01,-2.036255949053263625e-01,-2.036255949053263625e-01,-2.036255949053263625e-01,-2.036255949053263625e-01,-2.036255949053263625e-01,-2.036255949053263625e-01
-2.036255949053263625e-01,-2.036255949053263625e-01,-2.036255949053263625e-01,-2.036255949053263625e-01,-2.036255949053263625e-01,-2.036255949053263625e-01,-6.869471419036224380e-02,-2.063251766559656697e-02,-1.754728137915220754e-02,-1.446204509270787586e-02,-1.137680880626351643e-02,-8.291572519819156994e-03,-5.206336233374825317e-03,-2.121099946930493640e-03,-2.775557561562891351e-17,-2.775557561562891351e-17,-6.363299840791480921e-03,-2.333209941623534678e-02,-4.030089899167918488e-02,-5.726969856712305074e-02,-7.423849814256691659e-02,-9.120729771801076857e-02,-1.081760972934546206e-01,-1.251448968688984864e-01,-1.421136964443423523e-01,-3.804946152224457645e-01,-3.974634147978896026e-01,-4.154927643467987153e-01,-4.250377141079859089e-01,-2.036255949053263625e-01,-2.036255949053263625e-01,-2.036255949053263625e-01,-2.036255949053263625e-01,-2.036255949053263625e-01,-2.036255949053263625e-01,-2.036255949053263625e-01,-2.036255949053263625e-01,-2.036255949053263625e-01,-2.036255949053263625e-01,-2.036255949053263625e-01,-2.036255949053263625e-01,-2.036255949053263625e-01,-2.036255949053263625e-01,-2.036255949053263625e-01,-2.036255949053263625e-01,-2.036255949053263625e-01,-2.036255949053263625e-01
-2.036255949053263625e-01,-2.036255949053263625e-01,-2.036255949053263625e-01,-2.036255949053263625e-01,-2.036255949053263625e-01,-1.339848219318161560e-01,-2.911691745331845826e-02,-2.603168116687412659e-02,-2.294644488042982267e-02,-1.986120859398546323e-02,-1.677597230754110380e-02,-1.369073602109679988e-02,-1.041267246674965063e-02,-7.327436180305318958e-03,-4.242199893860987281e-03,-1.156963607416655604e-03,-2.775557561562891351e-17,-2.775557561562891351e-17,-1.060549973465244045e-02,-2.757429931009633406e-02,-4.454309888554017216e-02,-6.151189846098401026e-02,-7.848069803642787612e-02,-9.651004758533696104e-02,-1.134788471607808269e-01,-3.518597659388842391e-01,-3.688285655143280772e-01,-3.857973650897719708e-01,-4.027661646652158645e-01,-1.983228450380001562e-01,-2.036255949053263625e-01,-2.036255949053263625e-01,-2.036255949053263625e-01,-2.036255949053263625e-01,-2.036255949053263625e-01,-2.036255949053263625e-01,-2.036255949053263625e-01,-2.036255949053263625e-01,-2.036255949053263625e-01,-2.036255949053263625e-01,-2.036255949053263625e-01,-2.036255949053263625e-01,-2.036255949053263625e-01,-2.036255949053263625e-01,-2.036255949053263625e-01,-2.036255949053263625e-01,-2.036255949053263625e-01
-2.036255949053263625e-01,-2.036255949053263625e-01,-2.036255949053263625e-01,-2.036255949053263625e-01,-1.985337498622688213e-01,-5.316609327206719970e-02,-3.451608095459604564e-02,-3.143084466815174172e-02,-2.815278111380459247e-02,-2.506754482736026080e-02,-2.198230854091595687e-02,-1.889707225447159744e-02,-1.581183596802729352e-02,-1.272659968158296184e-02,-9.641363395138574655e-03,-6.556127108694242978e-03,-3.470890822249911301e-03,-3.856545358055796235e-04,-2.775557561562891351e-17,-2.775557561562891351e-17,-1.590824960197864679e-02,-3.287704917742251265e-02,-4.984584875286637851e-02,-6.681464832831021661e-02,-8.378344790375409634e-02,-3.221643666818574947e-01,-3.391331662573013883e-01,-3.561019658327452264e-01,-3.730707654081890645e-01,-1.686274457809733840e-01,-1.866567953298824967e-01,-2.036255949053263625e-01,-2.036255949053263625e-01,-2.036255949053263625e-01,-2.036255949053263625e-01,-2.036255949053263625e-01,-2.036255949053263625e-01,-2.036255949053263625e-01,-2.036255949053263625e-01,-2.036255949053263625e-01,-2.036255949053263625e-01,-2.036255949053263625e-01,-2.036255949053263625e-01,-2.036255949053263625e-01,-2.036255949053263625e-01,-2.036255949053263625e-01,-2.036255949053263625e-01
-2.036255949053263625e-01,-2.036255949053263625e-01,-2.036255949053263625e-01,-2.036255949053263625e-01,-1.198300952973283817e-01,-4.280765347441525814e-02,-3.972241718797087096e-02,-3.663718090152653928e-02,-3.355194461508217985e-02,-3.046670832863787592e-02,-2.738147204219351649e-02,-2.429623575574921257e-02,-2.121099946930488089e-02,-1.812576318286054922e-02,-1.504052689641618978e-02,-1.195529060997185811e-02,-8.677227055624708862e-03,-5.591990769180377185e-03,-2.506754482736073264e-03,-2.775557561562891351e-17,-5.551115123125782702e-17,-3.181649920395740461e-03,-2.015044949583963407e-02,-3.711924907128347217e-02,-5.408804864672733803e-02,-2.924689674248307503e-01,-3.094377670002745884e-01,-3.274671165491837010e-01,-3.444359161246275391e-01,-1.399925964974118586e-01,-1.569613960728557522e-01,-1.739301956482995903e-01,-1.908989952237434562e-01,-2.036255949053263625e-01,-2.036255949053263625e-01,-2.036255949053263625e-01,-2.036255949053263625e-01,-2.036255949053263625e-01,-2.036255949053263625e-01,-2.036255949053263625e-01,-2.036255949053263625e-01,-2.036255949053263625e-01,-2.036255949053263625e-01,-2.036255949053263625e-01,-2.036255949053263625e-01,-2.036255949053263625e-01,-2.036255949053263625e-01
-2.036255949053263625e-01,-2.036255949053263625e-01,-2.036255949053263625e-01,-1.756415376509367077e-01,-5.129205326213717719e-02,-4.820681697569281776e-02,-4.512158068924848608e-02,-4.203634440280415441e-02,-3.895110811635979498e-02,-3.586587182991546330e-02,-3.278063554347113162e-02,-2.969539925702677219e-02,-2.641733570267965070e-02,-2.333209941623534678e-02,-2.024686312979098735e-02,-1.716162684334668342e-02,-1.407639055690232399e-02,-1.099115427045799231e-02,-7.905917984013605126e-03,-4.820681697569301205e-03,-1.735445411124969528e-03,-2.775557561562891351e-17,-2.775557561562891351e-17,-8.484399787721946806e-03,-2.545319936316584042e-02,-4.242199893860967852e-02,-5.939079851405354438e-02,-7.635959808949741023e-02,-9.332839766494126221e-02,-1.102971972403851142e-01,-1.272659968158290078e-01,-1.442347963912728459e-01,-1.612035959667167118e-01,-1.781723955421605776e-01,-1.962017450910696625e-01,-2.036255949053263625e-01,-2.036255949053263625e-01,-2.036255949053263625e-01,-2.036255949053263625e-01,-2.036255949053263625e-01,-2.036255949053263625e-01,-2.036255949053263625e-01,-2.036255949053263625e-01,-2.036255949053263625e-01,-2.036255949053263625e-01,-2.036255949053263625e-01,-2.036255949053263625e-01
-2.036255949053263625e-01,-2.036255949053263625e-01,-2.036255949053263625e-01,-1.047293098796926170e-01,-5.669121676341473681e-02,-5.360598047697037738e-02,-5.052074419052607346e-02,-4.743550790408174178e-02,-4.415744434973462029e-02,-4.107220806329028862e-02,-3.798697177684595694e-02,-3.490173549040162526e-02,-3.181649920395723807e-02,-2.873126291751293415e-02,-2.564602663106860247e-02,-2.256079034462427080e-02,-1.947555405817991137e-02,-1.639031777173557969e-02,-1.330508148529124801e-02,-1.002701793094409877e-02,-6.941781644499794846e-03,-3.856545358055435413e-03,-7.713090716111037359e-04,-2.775557561562891351e-17,-2.775557561562891351e-17,-1.272659968158293409e-02,-2.969539925702679994e-02,-4.666419883247066580e-02,-6.363299840791450390e-02,-8.060179798335835588e-02,-9.863114753226746856e-02,-1.155999471077113205e-01,-1.325687466831551864e-01,-1.495375462585990523e-01,-1.665063458340429181e-01,-1.834751454094867840e-01,-2.004439449849306498e-01,-2.036255949053263625e-01,-2.036255949053263625e-01,-2.036255949053263625e-01,-2.036255949053263625e-01,-2.036255949053263625e-01,-2.036255949053263625e-01,-2.036255949053263625e-01,-2.036255949053263625e-01,-2.036255949053263625e-01,-2.036255949053263625e-01
-2.036255949053263625e-01,-2.036255949053263625e-01,-1.613241130091559450e-01,-6.517561655113668362e-02,-6.189755299678958989e-02,-5.881231671034523045e-02,-5.572708042390089878e-02,-5.264184413745653934e-02,-4.955660785101220767e-02,-4.647137156456790374e-02,-4.338613527812354431e-02,-4.030089899167918488e-02,-3.721566270523485320e-02,-3.413042641879052153e-02,-3.104519013234616209e-02,-2.776712657799906836e-02,-2.468189029155473668e-02,-2.159665400511040501e-02,-1.851141771866607333e-02,-1.542618143222171390e-02,-1.234094514577738222e-02,-9.255708859333050542e-03,-6.170472572888691110e-03,-3.085236286444359433e-03,-2.775557561562891351e-17,-2.775557561562891351e-17,-1.060549973465274576e-03,-1.802934954890914043e-02,-3.499814912435300629e-02,-5.196694869979684439e-02,-6.893574827524071025e-02,-8.590454785068456223e-02,-1.028733474261284142e-01,-1.198421470015722801e-01,-1.368109465770161459e-01,-1.537797461524600118e-01,-1.707485457279038776e-01,-1.887778952768129903e-01,-2.036255949053263625e-01,-2.036255949053263625e-01,-2.036255949053263625e-01,-2.036255949053263625e-01,-2.036255949053263625e-01,-2.036255949053263625e-01,-2.036255949053263625e-01,-2.036255949053263625e-01,-2.036255949053263625e-01
-2.036255949053263625e-01,-2.036255949053263625e-01,-9.787189016490030480e-02,-7.038195278451150894e-02,-6.729671649806714950e-02,-6.421148021162281783e-02,-6.112624392517848615e-02,-5.804100763873415447e-02,-5.495577135228979504e-02,-5.187053506584546336e-02,-4.878529877940113169e-02,-4.550723522505403795e-02,-4.242199893860967852e-02,-3.933676265216537460e-02,-3.625152636572101517e-02,-3.316629007927665573e-02,-3.008105379283232406e-02,-2.699581750638799238e-02,-2.391058121994363295e-02,-2.082534493349932903e-02,-1.774010864705499735e-02,-1.465487236061066567e-02,-1.137680880626354418e-02,-8.291572519819156994e-03,-5.206336233374853073e-03,-2.121099946930521396e-03,-2.775557561562891351e-17,-5.551115123125782702e-17,-5.302749867326234101e-03,-2.227154944277009996e-02,-3.924034901821396581e-02,-5.620914859365783167e-02,-7.317794816910166977e-02,-9.014674774454553563e-02,-1.081760972934546344e-01,-1.251448968688985142e-01,-1.421136964443423523e-01,-1.590824960197862181e-01,-1.760512955952300840e-01,-1.930200951706739498e-01,-2.036255949053263625e-01,-2.036255949053263625e-01,-2.036255949053263625e-01,-2.036255949053263625e-01,-2.036255949053263625e-01,-2.036255949053263625e-01,-2.036255949053263625e-01
-2.036255949053263625e-01,-1.465909045709598291e-01,-7.886635257223344186e-02,-7.578111628578909631e-02,-7.269587999934473688e-02,-6.961064371290040520e-02,-6.652540742645607352e-02,-6.344017114001174185e-02,-6.016210758566462036e-02,-5.707687129922026092e-02,-5.399163501277592925e-02,-5.090639872633159757e-02,-4.782116243988726589e-02,-4.473592615344293422e-02,-4.165068986699863030e-02,-3.856545358055427086e-02,-3.548021729410991143e-02,-3.239498100766560751e-02,-2.930974472122124808e-02,-2.603168116687412659e-02,-2.294644488042979491e-02,-1.986120859398549099e-02,-1.677597230754110380e-02,-1.369073602109679988e-02,-1.060549973465244045e-02,-7.520263448208108770e-03,-4.435027161763777093e-03,-1.349790875319389905e-03,-2.775557561562891351e-17,-2.775557561562891351e-17,-1.060549973465244045e-02,-2.757429931009630630e-02,-4.454309888554017216e-02,-6.151189846098401026e-02,-7.848069803642787612e-02,-9.544949761187174198e-02,-1.124182971873155940e-01,-1.293870967627594459e-01,-1.463558963382033395e-01,-1.633246959136471776e-01,-1.802934954890910435e-01,-1.983228450380001562e-01,-2.036255949053263625e-01,-2.036255949053263625e-01,-2.036255949053263625e-01,-2.036255949053263625e-01,-2.036255949053263625e-01
-1.930140693185520007e-01,-9.098434118949820515e-02,-8.426551607351101536e-02,-8.118027978706666981e-02,-7.790221623271956219e-02,-7.481697994627523052e-02,-7.173174365983089884e-02,-6.864650737338656716e-02,-6.556127108694220773e-02,-6.247603480049787605e-02,-5.939079851405354438e-02,-5.630556222760918494e-02,-5.322032594116485327e-02,-5.013508965472052159e-02,-4.704985336827621767e-02,-4.377178981392912394e-02,-4.068655352748476450e-02,-3.760131724104043283e-02,-3.451608095459604564e-02,-3.143084466815171396e-02,-2.834560838170738228e-02,-2.526037209526302285e-02,-2.217513580881871893e-02,-1.908989952237435950e-02,-1.600466323593005558e-02,-1.291942694948566839e-02,-9.641363395138574655e-03,-6.556127108694215222e-03,-3.470890822249911301e-03,-3.856545358055796235e-04,-2.775557561562891351e-17,0.000000000000000000e+00,-1.484769962851342773e-02,-3.181649920395726583e-02,-4.878529877940113169e-02,-6.575409835484496979e-02,-8.272289793028884952e-02,-1.007522474791979483e-01,-1.177210470546418003e-01,-1.346898466300856523e-01,-1.516586462055295459e-01,-1.686274457809733840e-01,-1.855962453564172498e-01,-2.025650449318611157e-01,-2.036255949053263625e-01,-2.036255949053263625e-01,-2.036255949053263625e-01
-1.395105283276549535e-01,-9.255708859333018623e-02,-8.947185230688584068e-02,-8.638661602044149512e-02,-8.330137973399717732e-02,-8.021614344755283177e-02,-7.713090716110848621e-02,-7.404567087466415454e-02,-7.096043458821979510e-02,-6.787519830177546343e-02,-6.478996201533113175e-02,-6.151189846098401026e-02,-5.842666217453970634e-02,-5.534142588809534691e-02,-5.225618960165101523e-02,-4.917095331520668355e-02,-4.608571702876232412e-02,-4.300048074231799244e-02,-3.991524445587366077e-02,-3.683000816942932909e-02,-3.374477188298496966e-02,-3.065953559654061022e-02,-2.738147204219351649e-02,-2.429623575574921257e-02,-2.121099946930485314e-02,-1.812576318286052146e-02,-1.504052689641618978e-02,-1.195529060997183035e-02,-8.870054323527470919e-03,-5.784818037083166997e-03,-2.699581750638807565e-03,-2.775557561562891351e-17,-2.775557561562891351e-17,-2.121099946930521396e-03,-2.015044949583963407e-02,-3.711924907128347217e-02,-5.408804864672733803e-02,-7.105684822217120389e-02,-8.802564779761504199e-02,-1.049944473730589078e-01,-1.219632469485027598e-01,-1.389320465239466396e-01,-1.559008460993905054e-01,-1.728696456748343713e-01,-1.898384452502782094e-01,-2.036255949053263625e-01,-2.036255949053263625e-01
-1.010414883810521053e-01,-9.795625209460775973e-02,-9.487101580816342805e-02,-9.178577952171909637e-02,-8.870054323527473694e-02,-8.561530694883040526e-02,-8.253007066238607359e-02,-7.944483437594175579e-02,-7.616677082159464818e-02,-7.308153453515028874e-02,-6.999629824870595707e-02,-6.691106196226162539e-02,-6.382582567581729371e-02,-6.074058938937293428e-02,-5.765535310292860260e-02,-5.457011681648424317e-02,-5.148488053003991149e-02,-4.839964424359557982e-02,-4.531440795715124814e-02,-4.203634440280415441e-02,-3.895110811635982273e-02,-3.586587182991549105e-02,-3.278063554347110387e-02,-2.969539925702677219e-02,-2.661016297058244051e-02,-2.352492668413810883e-02,-2.043969039769377716e-02,-1.735445411124944548e-02,-1.426921782480508605e-02,-1.118398153836075437e-02,-7.905917984013632882e-03,-4.820681697569301205e-03,-1.735445411124941772e-03,-2.775557561562891351e-17,0.000000000000000000e+00,-7.423849814256727742e-03,-2.439264938970059360e-02,-4.136144896514445946e-02,-5.833024854058829756e-02,-7.529904811603213566e-02,-9.226784769147600151e-02,-1.102971972403851142e-01,-1.272659968158289800e-01,-1.442347963912728459e-01,-1.612035959667167118e-01,-1.781723955421605776e-01,-1.951411951176044435e-01
-1.064406518823296927e-01,-1.033554155958853610e-01,-1.002701793094410154e-01,-9.718494302299668375e-02,-9.390687946864957614e-02,-9.082164318220523058e-02,-8.773640689576088503e-02,-8.465117060931655335e-02,-8.156593432287222167e-02,-7.848069803642790387e-02,-7.539546174998354444e-02,-7.231022546353921276e-02,-6.922498917709485333e-02,-6.613975289065052166e-02,-6.305451660420618998e-02,-5.977645304985909624e-02,-5.669121676341473681e-02,-5.360598047697040514e-02,-5.052074419052607346e-02,-4.743550790408174178e-02,-4.435027161763741010e-02,-4.126503533119307843e-02,-3.817979904474871899e-02,-3.509456275830438732e-02,-3.200932647186002789e-02,-2.892409018541569621e-02,-2.564602663106857472e-02,-2.256079034462424304e-02,-1.947555405817991137e-02,-1.639031777173557969e-02,-1.330508148529124801e-02,-1.021984519884688858e-02,-7.134608912402529146e-03,-4.049372625958197469e-03,-9.641363395138935477e-04,-2.775557561562891351e-17,-2.775557561562891351e-17,-1.272659968158293409e-02,-2.969539925702679994e-02,-4.666419883247066580e-02,-6.363299840791450390e-02,-8.060179798335834200e-02,-9.757059755880223562e-02,-1.145393971342460737e-01,-1.315081967096899396e-01,-1.484769962851338054e-01,-1.654457958605776713e-01
-1.116469881157045319e-01,-1.085617518292602002e-01,-1.054765155428158407e-01,-1.023912792563715091e-01,-9.930604296992714963e-02,-9.622080668348281796e-02,-9.313557039703850016e-02,-9.005033411059416848e-02,-8.696509782414982292e-02,-8.387986153770547737e-02,-8.079462525126114569e-02,-7.751656169691401033e-02,-7.443132541046970641e-02,-7.134608912402534697e-02,-6.826085283758098754e-02,-6.517561655113665586e-02,-6.209038026469235194e-02,-5.900514397824799251e-02,-5.591990769180363308e-02,-5.283467140535932915e-02,-4.974943511891499748e-02,-4.666419883247066580e-02,-4.338613527812354431e-02,-4.030089899167921264e-02,-3.721566270523488096e-02,-3.413042641879052153e-02,-3.104519013234616209e-02,-2.250897041977775181e-01,-2.220044679113331865e-01,-2.189192316248888825e-01,-2.158339953384445509e-01,-2.127487590520001914e-01,-1.253377241368014428e-02,-9.255708859333050542e-03,-6.170472572888691110e-03,-3.085236286444359433e-03,-2.775557561562891351e-17,-2.775557561562891351e-17,-2.775557561562891351e-17,-1.696879957544389361e-02,-3.393759915088775947e-02,-5.090639872633159757e-02,-6.787519830177546343e-02,-8.484399787721932928e-02,-1.028733474261284281e-01,-1.198421470015722939e-01,-1.368109465770161459e-01
-1.170461516169821053e-01,-1.139609153305377737e-01,-1.108756790440934420e-01,-1.077904427576490964e-01,-1.047052064712047648e-01,-1.016199701847604192e-01,-9.853473389831608753e-02,-9.525667034396897992e-02,-9.217143405752464824e-02,-8.908619777108028881e-02,-8.600096148463595713e-02,-8.291572519819161158e-02,-7.983048891174727990e-02,-7.674525262530296210e-02,-7.366001633885860267e-02,-7.057478005241427099e-02,-6.748954376596991156e-02,-6.440430747952557988e-02,-6.112624392517848615e-02,-5.804100763873412672e-02,-5.495577135228979504e-02,-5.187053506584546336e-02,-4.878529877940113169e-02,-4.570006249295680001e-02,-4.261482620651246833e-02,-3.952958992006813665e-02,-3.644435363362374947e-02,-2.304888676990551055e-01,-2.274036314126107738e-01,-2.241255678582636801e-01,-2.210403315718193207e-01,-2.179550952853750168e-01,-1.774010864705496959e-02,-1.465487236061063792e-02,-1.156963607416630624e-02,-8.484399787721946806e-03,-5.399163501277587374e-03,-2.313927214833283452e-03,-2.775557561562891351e-17,-2.775557561562891351e-17,-5.302749867326234101e-03,-2.227154944277009996e-02,-3.924034901821396581e-02,-5.620914859365780392e-02,-7.317794816910166977e-02,-9.014674774454550787e-02,-1.071155473199894015e-01
-1.224453151182597205e-01,-1.193600788318153749e-01,-1.162748425453710294e-01,-1.129967789910239218e-01,-1.099115427045795901e-01,-1.068263064181352445e-01,-1.037410701316909128e-01,-1.006558338452465673e-01,-9.757059755880222174e-02,-9.448536127235789006e-02,-9.140012498591355838e-02,-8.831488869946921283e-02,-8.522965241302488115e-02,-8.214441612658053560e-02,-7.886635257223344186e-02,-7.578111628578909631e-02,-7.269587999934476463e-02,-6.961064371290040520e-02,-6.652540742645604577e-02,-6.344017114001174185e-02,-6.035493485356741017e-02,-5.726969856712305074e-02,-5.418446228067869130e-02,-5.109922599423435963e-02,-4.801398970779005571e-02,-4.492875342134572403e-02,-4.165068986699860254e-02,-2.356952039324299586e-01,-2.326099676459856269e-01,-2.295247313595412952e-01,-2.264394950730969081e-01,-2.233542587866525764e-01,-2.313927214833258472e-02,-2.005403586188822529e-02,-1.696879957544389361e-02,-1.388356328899956194e-02,-1.079832700255520250e-02,-7.520263448208108770e-03,-4.435027161763749337e-03,-1.349790875319417660e-03,-2.775557561562891351e-17,-2.775557561562891351e-17,-9.544949761187193626e-03,-2.651374933663105948e-02,-4.348254891207492534e-02,-6.045134848751879120e-02,-7.742014806296262930e-02
-1.276516513516345319e-01,-1.245664150651902002e-01,-1.214811787787458547e-01,-1.183959424923015091e-01,-1.153107062058571775e-01,-1.122254699194128458e-01,-1.091402336329685002e-01,-1.060549973465241547e-01,-1.029697610600798230e-01,-9.988452477363547743e-02,-9.679928848719114576e-02,-9.352122493284405202e-02,-9.043598864639970647e-02,-8.735075235995534704e-02,-8.426551607351101536e-02,-8.118027978706668368e-02,-7.809504350062235201e-02,-7.500980721417799257e-02,-7.192457092773366090e-02,-6.883933464128932922e-02,-6.575409835484499754e-02,-6.266886206840066587e-02,-5.939079851405354438e-02,-5.630556222760921270e-02,-5.322032594116485327e-02,-5.013508965472052159e-02,-4.704985336827618991e-02,-2.410943674337075460e-01,-2.380091311472632143e-01,-2.349238948608188549e-01,-2.318386585743745232e-01,-2.287534222879301637e-01,-2.853843564961014434e-02,-2.526037209526302285e-02,-2.217513580881871893e-02,-1.908989952237438725e-02,-1.600466323593005558e-02,-1.291942694948569614e-02,-9.834190663041336711e-03,-6.748954376597005034e-03,-3.663718090152701112e-03,-5.784818037083139242e-04,-2.775557561562891351e-17,-2.775557561562891351e-17,-1.484769962851342773e-02,-3.181649920395726583e-02,-4.878529877940113169e-02
-1.330508148529121470e-01,-1.299655785664677876e-01,-1.268803422800234559e-01,-1.237951059935791243e-01,-1.207098697071347648e-01,-1.176246334206904193e-01,-1.145393971342460876e-01,-1.112613335798989939e-01,-1.081760972934546483e-01,-1.050908610070102889e-01,-1.020056247205659572e-01,-9.892038843412161164e-02,-9.583515214767729384e-02,-9.274991586123294829e-02,-8.966467957478861661e-02,-8.657944328834428493e-02,-8.349420700189993938e-02,-8.040897071545560770e-02,-7.713090716110848621e-02,-7.404567087466415454e-02,-7.096043458821979510e-02,-6.787519830177546343e-02,-6.478996201533113175e-02,-6.170472572888680007e-02,-5.861948944244246840e-02,-5.553425315599810896e-02,-5.244901686955377729e-02,-2.464935309349851333e-01,-2.434082946485408017e-01,-2.401302310941937079e-01,-2.370449948077493485e-01,-2.339597585213049891e-01,-3.374477188298496966e-02,-3.065953559654063798e-02,-2.757429931009630630e-02,-2.448906302365197463e-02,-2.140382673720761519e-02,-1.831859045076331127e-02,-1.523335416431895184e-02,-1.214811787787462016e-02,-8.870054323527498674e-03,-5.784818037083166997e-03,-2.699581750638835320e-03,-2.775557561562891351e-17,-2.775557561562891351e-17,-2.121099946930521396e-03,-1.908989952237435950e-02
-1.384499783541897067e-01,-1.353647420677453750e-01,-1.322795057813010433e-01,-1.290014422269539218e-01,-1.259162059405095901e-01,-1.228309696540652585e-01,-1.197457333676208990e-01,-1.166604970811765674e-01,-1.135752607947322357e-01,-1.104900245082879040e-01,-1.074047882218435446e-01,-1.043195519353992129e-01,-1.012343156489548812e-01,-9.814907936251053566e-02,-9.487101580816342805e-02,-9.178577952171909637e-02,-8.870054323527473694e-02,-8.561530694883041914e-02,-8.253007066238608747e-02,-7.944483437594175579e-02,-7.635959808949741023e-02,-7.327436180305307856e-02,-7.018912551660871912e-02,-6.710388923016438745e-02,-6.401865294372002801e-02,-6.093341665727572409e-02,-5.765535310292860260e-02,-5.457011681648424317e-02,-5.148488053003993925e-02,-4.839964424359557982e-02,-4.531440795715127590e-02,-4.222917167070691646e-02,-3.914393538426258479e-02,-3.605869909781822535e-02,-3.297346281137389368e-02,-2.988822652492953424e-02,-2.680299023848520257e-02,-2.352492668413810883e-02,-2.043969039769377716e-02,-1.735445411124944548e-02,-1.426921782480508605e-02,-1.118398153836075437e-02,-8.098745251916394938e-03,-5.013508965472063261e-03,-1.928272679027731584e-03,-2.775557561562891351e-17,-2.775557561562891351e-17
-1.436563145875645320e-01,-1.405710783011202003e-01,-1.374858420146758409e-01,-1.344006057282315092e-01,-1.313153694417871775e-01,-1.282301331553428458e-01,-1.251448968688985142e-01,-1.220596605824541686e-01,-1.189744242960098231e-01,-1.158891880095654914e-01,-1.128039517231211458e-01,-1.095258881687740521e-01,-1.064406518823297065e-01,-1.033554155958853471e-01,-1.002701793094410154e-01,-9.718494302299668375e-02,-9.409970673655235207e-02,-9.101447045010800652e-02,-8.792923416366367484e-02,-8.484399787721932928e-02,-8.175876159077499761e-02,-7.867352530433066593e-02,-7.539546174998354444e-02,-7.231022546353921276e-02,-6.922498917709485333e-02,-6.613975289065052166e-02,-6.305451660420618998e-02,-5.996928031776185830e-02,-5.688404403131749887e-02,-5.379880774487316719e-02,-5.071357145842886327e-02,-4.762833517198450384e-02,-4.454309888554017216e-02,-4.126503533119305067e-02,-3.817979904474869124e-02,-3.509456275830438732e-02,-3.200932647186002789e-02,-2.892409018541569621e-02,-2.583885389897136453e-02,-2.275361761252706061e-02,-1.966838132608270118e-02,-1.658314503963834174e-02,-1.349790875319401007e-02,-1.041267246674967839e-02,-7.134608912402556902e-03,-4.049372625958197469e-03,-9.641363395138657921e-04
-1.490554780888421194e-01,-1.459702418023977877e-01,-1.428850055159534560e-01,-1.397997692295090966e-01,-1.367145329430647926e-01,-1.336292966566204332e-01,-1.305440603701760738e-01,-1.272659968158289800e-01,-1.241807605293846484e-01,-1.210955242429403167e-01,-1.180102879564959711e-01,-1.149250516700516256e-01,-1.118398153836072939e-01,-1.087545790971629622e-01,-1.056693428107186028e-01,-1.025841065242742711e-01,-9.949887023782993944e-02,-9.641363395138559389e-02,-9.313557039703848628e-02,-9.005033411059415460e-02,-8.696509782414982292e-02,-8.387986153770547737e-02,-8.079462525126114569e-02,-7.770938896481680014e-02,-7.462415267837246846e-02,-7.153891639192810903e-02,-6.845368010548374960e-02,-6.536844381903944567e-02,-6.228320753259511400e-02,-5.900514397824799251e-02,-5.591990769180366083e-02,-5.283467140535932915e-02,-4.974943511891499748e-02,-4.666419883247066580e-02,-4.357896254602633412e-02,-4.049372625958197469e-02,-3.740848997313764301e-02,-3.432325368669328358e-02,-3.123801740024892415e-02,-2.815278111380462023e-02,-2.487471755945752649e-02,-2.178948127301319482e-02,-1.870424498656883538e-02,-1.561900870012450371e-02,-1.253377241368014428e-02,-9.448536127235812598e-03,-6.363299840791425410e-03
-1.544546415901197067e-01,-1.513694053036753751e-01,-1.482841690172310434e-01,-1.450061054628839496e-01,-1.419208691764395902e-01,-1.388356328899952585e-01,-1.357503966035509269e-01,-1.326651603171065674e-01,-1.295799240306622357e-01,-1.264946877442179041e-01,-1.234094514577735724e-01,-1.203242151713292268e-01,-1.172389788848848813e-01,-1.141537425984405496e-01,-1.108756790440934420e-01,-1.077904427576490964e-01,-1.047052064712047648e-01,-1.016199701847604053e-01,-9.853473389831607365e-02,-9.544949761187174198e-02,-9.236426132542741030e-02,-8.927902503898306474e-02,-8.619378875253873307e-02,-8.310855246609438751e-02,-8.002331617965005583e-02,-7.674525262530293435e-02,-7.366001633885860267e-02,-7.057478005241427099e-02,-6.748954376596991156e-02,-6.440430747952560764e-02,-6.131907119308124821e-02,-5.823383490663688877e-02,-5.514859862019258485e-02,-5.206336233374825317e-02,-4.897812604730392150e-02,-4.589288976085956206e-02,-4.261482620651246833e-02,-3.952958992006813665e-02,-3.644435363362377722e-02,-3.335911734717944555e-02,-3.027388106073508611e-02,-2.718864477429075444e-02,-2.410340848784642276e-02,-2.101817220140209108e-02,-1.793293591495773165e-02,-1.484769962851339997e-02,-1.176246334206906830e-02
-1.596609778234945320e-01,-1.565757415370502004e-01,-1.534905052506058687e-01,-1.504052689641615093e-01,-1.473200326777172053e-01,-1.442347963912728459e-01,-1.411495601048285142e-01,-1.380643238183841826e-01,-1.349790875319398231e-01,-1.318938512454954914e-01,-1.286157876911483977e-01,-1.255305514047040383e-01,-1.224453151182597066e-01,-1.193600788318153749e-01,-1.162748425453710294e-01,-1.131896062589266977e-01,-1.101043699724823521e-01,-1.070191336860380205e-01,-1.039338973995936749e-01,-1.008486611131493432e-01,-9.776342482670499767e-02,-9.448536127235789006e-02,-9.140012498591355838e-02,-8.831488869946921283e-02,-8.522965241302488115e-02,-8.214441612658053560e-02,-7.905917984013620392e-02,-7.597394355369185837e-02,-7.288870726724752669e-02,-6.980347098080316726e-02,-6.671823469435883558e-02,-6.363299840791450390e-02,-6.035493485356738241e-02,-5.726969856712305074e-02,-5.418446228067871906e-02,-5.109922599423435963e-02,-4.801398970779005571e-02,-4.492875342134572403e-02,-4.184351713490136460e-02,-3.875828084845703292e-02,-3.567304456201267349e-02,-3.258780827556834181e-02,-2.950257198912401013e-02,-2.641733570267967846e-02,-2.313927214833258472e-02,-2.005403586188822529e-02,-1.696879957544389361e-02
-1.650601413247721194e-01,-1.619749050383277877e-01,-1.588896687518834561e-01,-1.558044324654391244e-01,-1.527191961789947650e-01,-1.496339598925504610e-01,-1.465487236061061016e-01,-1.432706600517589801e-01,-1.401854237653146762e-01,-1.371001874788703168e-01,-1.340149511924259573e-01,-1.309297149059816256e-01,-1.278444786195372940e-01,-1.247592423330929484e-01,-1.216740060466486306e-01,-1.185887697602042851e-01,-1.155035334737599395e-01,-1.124182971873156078e-01,-1.091402336329685002e-01,-1.060549973465241547e-01,-1.029697610600798091e-01,-9.988452477363547743e-02,-9.679928848719113188e-02,-9.371405220074681408e-02,-9.062881591430246853e-02,-8.754357962785812297e-02,-8.445834334141377742e-02,-8.137310705496945962e-02,-7.828787076852511406e-02,-7.500980721417802033e-02,-7.192457092773366090e-02,-6.883933464128932922e-02,-6.575409835484499754e-02,-6.266886206840066587e-02,-5.958362578195633419e-02,-5.649838949551194700e-02,-5.341315320906764308e-02,-5.032791692262328365e-02,-4.724268063617895197e-02,-4.415744434973462029e-02,-4.087938079538752656e-02,-3.779414450894316713e-02,-3.470890822249883545e-02,-3.162367193605444826e-02,-2.853843564961014434e-02,-2.545319936316581266e-02,-2.236796307672148099e-02
-1.704593048260497345e-01,-1.673740685396054029e-01,-1.642888322531610434e-01,-1.610107686988139220e-01,-1.579255324123695903e-01,-1.548402961259252586e-01,-1.517550598394809269e-01,-1.486698235530365952e-01,-1.455845872665922358e-01,-1.424993509801479041e-01,-1.394141146937035725e-01,-1.363288784072592130e-01,-1.332436421208148813e-01,-1.301584058343705497e-01,-1.268803422800234282e-01,-1.237951059935791243e-01,-1.207098697071347648e-01,-1.176246334206904193e-01,-1.145393971342461015e-01,-1.114541608478017698e-01,-1.083689245613574104e-01,-1.052836882749130648e-01,-1.021984519884687331e-01,-9.911321570202440145e-02,-9.602797941558005590e-02,-9.274991586123296217e-02,-8.966467957478861661e-02,-8.657944328834427106e-02,-8.349420700189993938e-02,-8.040897071545560770e-02,-7.732373442901127603e-02,-7.423849814256694435e-02,-7.115326185612258492e-02,-6.806802556967822548e-02,-6.498278928323392156e-02,-6.189755299678953437e-02,-5.861948944244246840e-02,-5.553425315599810896e-02,-5.244901686955377729e-02,-4.936378058310944561e-02,-4.627854429666511393e-02,-4.319330801022078226e-02,-4.010807172377642282e-02,-3.702283543733209115e-02,-3.393759915088775947e-02,-3.085236286444340004e-02,-9.920962933597578248e-02
-1.756656410594245321e-01,-1.725804047729802004e-01,-1.694951684865358688e-01,-1.664099322000915371e-01,-1.633246959136471776e-01,-1.602394596272028460e-01,-1.571542233407585143e-01,-1.540689870543141826e-01,-1.509837507678698509e-01,-1.478985144814254915e-01,-1.446204509270783700e-01,-1.415352146406340661e-01,-1.384499783541897067e-01,-1.353647420677453750e-01,-1.322795057813010433e-01,-1.291942694948566839e-01,-1.261090332084123522e-01,-1.230237969219680205e-01,-1.199385606355236888e-01,-1.168533243490793433e-01,-1.137680880626350116e-01,-1.104900245082879040e-01,-1.074047882218435584e-01,-1.043195519353992129e-01,-1.012343156489548812e-01,-9.814907936251052178e-02,-9.506384307606620399e-02,-9.197860678962185843e-02,-8.889337050317752675e-02,-8.580813421673318120e-02,-8.272289793028886340e-02,-7.963766164384451784e-02,-7.635959808949741023e-02,-7.327436180305305080e-02,-7.018912551660871912e-02,-6.710388923016438745e-02,-6.401865294372002801e-02,-6.093341665727572409e-02,-5.784818037083136466e-02,-5.476294408438703298e-02,-5.167770779794270131e-02,-4.859247151149834187e-02,-4.550723522505403795e-02,-4.242199893860967852e-02,-3.914393538426258479e-02,-4.129516459180287979e-02,-1.876269575215183116e-01
-1.810648045607021472e-01,-1.779795682742577878e-01,-1.748943319878134561e-01,-1.718090957013691245e-01,-1.687238594149247928e-01,-1.656386231284804333e-01,-1.625533868420361017e-01,-1.592753232876890079e-01,-1.561900870012446485e-01,-1.531048507148003168e-01,-1.500196144283559851e-01,-1.469343781419116535e-01,-1.438491418554673218e-01,-1.407639055690229624e-01,-1.376786692825786029e-01,-1.345934329961342713e-01,-1.315081967096899396e-01,-1.284229604232456079e-01,-1.251448968688985142e-01,-1.220596605824541686e-01,-1.189744242960098231e-01,-1.158891880095654914e-01,-1.128039517231211597e-01,-1.097187154366768141e-01,-1.066334791502324547e-01,-1.035482428637881369e-01,-1.004630065773437775e-01,-9.737777029089945968e-02,-9.429253400445512800e-02,-9.101447045010802039e-02,-8.792923416366366096e-02,-8.484399787721931541e-02,-8.175876159077501149e-02,-7.867352530433066593e-02,-7.558828901788630650e-02,-7.250305273144197482e-02,-6.941781644499764314e-02,-6.633258015855328371e-02,-6.324734387210895203e-02,-6.016210758566462036e-02,-5.688404403131749887e-02,-5.379880774487319495e-02,-5.071357145842883551e-02,-4.762833517198453159e-02,-4.454309888554014440e-02,-1.276094703867808045e-01,-2.036255949053263625e-01
-1.864639680619797346e-01,-1.833787317755353752e-01,-1.802934954890910435e-01,-1.770154319347439498e-01,-1.739301956482996181e-01,-1.708449593618552587e-01,-1.677597230754109270e-01,-1.646744867889665676e-01,-1.615892505025222636e-01,-1.585040142160779042e-01,-1.554187779296335725e-01,-1.523335416431892408e-01,-1.492483053567448814e-01,-1.461630690703005775e-01,-1.428850055159534560e-01,-1.397997692295090966e-01,-1.367145329430647649e-01,-1.336292966566204332e-01,-1.305440603701760738e-01,-1.274588240837317699e-01,-1.243735877972874243e-01,-1.212883515108430788e-01,-1.182031152243987332e-01,-1.151178789379544015e-01,-1.120326426515100698e-01,-1.087545790971629622e-01,-1.056693428107186028e-01,-1.025841065242742711e-01,-9.949887023782993944e-02,-9.641363395138559389e-02,-9.332839766494126221e-02,-9.024316137849691666e-02,-8.715792509205257110e-02,-8.407268880560825330e-02,-8.098745251916390775e-02,-7.790221623271958995e-02,-7.462415267837246846e-02,-7.153891639192810903e-02,-6.845368010548377735e-02,-6.536844381903941792e-02,-6.228320753259511400e-02,-5.919797124615075457e-02,-5.611273495970645064e-02,-5.302749867326209121e-02,-7.875788723403812086e-02,-2.036255949053263625e-01,-2.036255949053263625e-01
-1.916703042953545599e-01,-1.885850680089102283e-01,-1.854998317224658688e-01,-1.824145954360215371e-01,-1.793293591495772055e-01,-1.762441228631328460e-01,-1.731588865766885144e-01,-1.700736502902441827e-01,-1.669884140037998510e-01,-1.639031777173555193e-01,-1.606251141630083978e-01,-1.575398778765640384e-01,-1.544546415901197067e-01,-1.513694053036753751e-01,-1.482841690172310434e-01,-1.451989327307867117e-01,-1.421136964443423523e-01,-1.390284601578980206e-01,-1.359432238714536889e-01,-1.328579875850093295e-01,-1.297727512985649978e-01,-1.264946877442179041e-01,-1.234094514577735724e-01,-1.203242151713292268e-01,-1.172389788848848813e-01,-1.141537425984405496e-01,-1.110685063119962179e-01,-1.079832700255518724e-01,-1.048980337391075268e-01,-1.018127974526631813e-01,-9.872756116621884959e-02,-9.564232487977451791e-02,-9.236426132542741030e-02,-8.927902503898306474e-02,-8.619378875253873307e-02,-8.310855246609438751e-02,-8.002331617965005583e-02,-7.693807989320569640e-02,-7.385284360676139248e-02,-7.076760732031703305e-02,-6.768237103387270137e-02,-6.459713474742836969e-02,-6.151189846098403802e-02,-5.823383490663691653e-02,-1.572265335662220709e-01,-2.036255949053263625e-01,-2.036255949053263625e-01
-1.970694677966321473e-01,-1.939842315101878156e-01,-1.908989952237434562e-01,-1.878137589372991245e-01,-1.847285226508547928e-01,-1.816432863644104612e-01,-1.783652228100633397e-01,-1.752799865236190080e-01,-1.721947502371746763e-01,-1.691095139507303169e-01,-1.660242776642859852e-01,-1.629390413778416535e-01,-1.598538050913972941e-01,-1.567685688049529624e-01,-1.536833325185086307e-01,-1.505980962320642991e-01,-1.475128599456199674e-01,-1.442347963912728459e-01,-1.411495601048285142e-01,-1.380643238183841826e-01,-1.349790875319398231e-01,-1.318938512454954914e-01,-1.288086149590511598e-01,-1.257233786726068003e-01,-1.226381423861624964e-01,-1.195529060997181370e-01,-1.164676698132737914e-01,-1.133824335268294736e-01,-1.101043699724823660e-01,-1.070191336860380066e-01,-1.039338973995936610e-01,-1.008486611131493293e-01,-9.776342482670499767e-02,-9.467818854026066600e-02,-9.159295225381633432e-02,-8.850771596737197489e-02,-8.542247968092764321e-02,-8.233724339448329765e-02,-7.925200710803896598e-02,-7.597394355369185837e-02,-7.288870726724752669e-02,-6.980347098080316726e-02,-6.671823469435883558e-02,-1.073806848133557201e-01,-2.036255949053263625e-01,-2.036255949053263625e-01,-2.036255949053263625e-01
-2.024686312979097347e-01,-1.993833950114654030e-01,-1.961053314571182815e-01,-1.930200951706739498e-01,-1.899348588842296182e-01,-1.868496225977852587e-01,-1.837643863113409270e-01,-1.806791500248965954e-01,-1.775939137384522637e-01,-1.745086774520079320e-01,-1.714234411655635726e-01,-1.683382048791192409e-01,-1.652529685926749092e-01,-1.619749050383277877e-01,-1.588896687518834561e-01,-1.558044324654391244e-01,-1.527191961789947650e-01,-1.496339598925504333e-01,-1.465487236061061016e-01,-1.434634873196617699e-01,-1.403782510332174382e-01,-1.372930147467730788e-01,-1.342077784603287471e-01,-1.311225421738844155e-01,-1.280373058874400560e-01,-1.247592423330929623e-01,-1.216740060466486306e-01,-1.185887697602042712e-01,-1.155035334737599395e-01,-1.124182971873156078e-01,-1.093330609008712762e-01,-1.062478246144269445e-01,-1.031625883279825850e-01,-1.000773520415382534e-01,-9.699211575509392169e-02,-9.390687946864956226e-02,-9.062881591430246853e-02,-8.754357962785813685e-02,-8.445834334141379129e-02,-8.137310705496945962e-02,-7.828787076852511406e-02,-7.520263448208078239e-02,-7.211739819563642295e-02,-1.783893262185511919e-01,-2.036255949053263625e-01,-2.036255949053263625e-01,-2.036255949053263625e-01
-2.036255949053263625e-01,-2.036255949053263625e-01,-2.015044949583958689e-01,-1.984192586719515372e-01,-1.953340223855072055e-01,-1.922487860990628739e-01,-1.891635498126185144e-01,-1.860783135261741827e-01,-1.829930772397298511e-01,-1.799078409532855194e-01,-1.766297773989383979e-01,-1.735445411124940662e-01,-1.704593048260497068e-01,-1.673740685396053751e-01,-1.642888322531610434e-01,-1.612035959667167118e-01,-1.581183596802723801e-01,-1.550331233938280207e-01,-1.519478871073836890e-01,-1.488626508209393573e-01,-1.457774145344950256e-01,-1.424993509801479041e-01,-1.394141146937035725e-01,-1.363288784072592130e-01,-1.332436421208149091e-01,-1.301584058343705497e-01,-1.270731695479262180e-01,-1.239879332614818863e-01,-1.209026969750375408e-01,-1.178174606885932091e-01,-1.147322244021488497e-01,-1.116469881157045180e-01,-1.083689245613574104e-01,-1.052836882749130509e-01,-1.021984519884687331e-01,-9.911321570202440145e-02,-9.602797941558005590e-02,-9.294274312913572422e-02,-8.985750684269139255e-02,-8.677227055624703311e-02,-8.368703426980270144e-02,-8.060179798335838364e-02,-1.366301710133573100e-01,-2.036255949053263625e-01,-2.036255949053263625e-01,-2.036255949053263625e-01,-2.036255949053263625e-01
-2.036255949053263625e-01,-2.036255949053263625e-01,-2.036255949053263625e-01,-2.036255949053263625e-01,-2.007331858867847929e-01,-1.976479496003404612e-01,-1.943698860459933397e-01,-1.912846497595490081e-01,-1.881994134731046764e-01,-1.851141771866603447e-01,-1.820289409002159853e-01,-1.789437046137716536e-01,-1.758584683273273219e-01,-1.727732320408829902e-01,-1.696879957544386586e-01,-1.666027594679942991e-01,-1.635175231815499675e-01,-1.602394596272028460e-01,-1.571542233407585143e-01,-1.540689870543141549e-01,-1.509837507678698509e-01,-1.478985144814254915e-01,-1.448132781949811598e-01,-1.417280419085368282e-01,-1.386428056220924687e-01,-1.355575693356481370e-01,-1.324723330492038054e-01,-1.293870967627594737e-01,-1.261090332084123522e-01,-1.230237969219680205e-01,-1.199385606355236888e-01,-1.168533243490793433e-01,-1.137680880626350116e-01,-1.106828517761906661e-01,-1.075976154897463344e-01,-1.045123792033019888e-01,-1.014271429168576433e-01,-9.834190663041331160e-02,-9.525667034396897992e-02,-9.197860678962187231e-02,-8.889337050317752675e-02,-9.685352115628879932e-02,-1.998473856248564329e-01,-2.036255949053263625e-01,-2.036255949053263625e-01,-2.036255949053263625e-01,-2.036255949053263625e-01
-2.036255949053263625e-01,-2.036255949053263625e-01,-2.036255949053263625e-01,-2.036255949053263625e-01,-2.036255949053263625e-01,-2.028542858337152865e-01,-1.997690495472709271e-01,-1.966838132608265954e-01,-1.935985769743822638e-01,-1.905133406879379321e-01,-1.874281044014935727e-01,-1.843428681150492410e-01,-1.812576318286049093e-01,-1.779795682742577878e-01,-1.748943319878134561e-01,-1.718090957013691245e-01,-1.687238594149247928e-01,-1.656386231284804333e-01,-1.625533868420361017e-01,-1.594681505555917700e-01,-1.563829142691474383e-01,-1.532976779827031066e-01,-1.502124416962587472e-01,-1.471272054098144155e-01,-1.440419691233700838e-01,-1.407639055690229624e-01,-1.376786692825786307e-01,-1.345934329961342990e-01,-1.315081967096899396e-01,-1.284229604232456079e-01,-1.253377241368012762e-01,-1.222524878503569445e-01,-1.191672515639126129e-01,-1.160820152774682534e-01,-1.129967789910239218e-01,-1.099115427045795901e-01,-1.066334791502324686e-01,-1.035482428637881369e-01,-1.004630065773437775e-01,-9.737777029089944580e-02,-9.429253400445512800e-02,-1.579556616729794194e-01,-2.036255949053263625e-01,-2.036255949053263625e-01,-2.036255949053263625e-01,-2.036255949053263625e-01,-2.036255949053263625e-01
-2.036255949053263625e-01,-2.036255949053263625e-01,-2.036255949053263625e-01,-2.036255949053263625e-01,-2.036255949053263625e-01,-2.036255949053263625e-01,-2.036255949053263625e-01,-2.020829767621041828e-01,-1.989977404756598511e-01,-1.959125041892155195e-01,-1.926344406348683980e-01,-1.895492043484240663e-01,-1.864639680619797346e-01,-1.833787317755353752e-01,-1.802934954890910435e-01,-1.772082592026467118e-01,-1.741230229162023802e-01,-1.710377866297580485e-01,-1.679525503433136890e-01,-1.648673140568693574e-01,-1.617820777704250257e-01,-1.585040142160779042e-01,-1.554187779296335725e-01,-1.523335416431892408e-01,-1.492483053567449092e-01,-1.461630690703005775e-01,-1.430778327838562181e-01,-1.399925964974118864e-01,-1.369073602109675547e-01,-1.338221239245231953e-01,-1.307368876380788636e-01,-1.276516513516345319e-01,-1.243735877972874243e-01,-1.212883515108430788e-01,-1.182031152243987471e-01,-1.151178789379544015e-01,-1.120326426515100698e-01,-1.089474063650657243e-01,-1.058621700786213926e-01,-1.027769337921770332e-01,-1.256751718556311237e-01,-2.036255949053263625e-01,-2.036255949053263625e-01,-2.036255949053263625e-01,-2.036255949053263625e-01,-2.036255949053263625e-01,-2.036255949053263625e-01
-2.036255949053263625e-01,-2.036255949053263625e-01,-2.036255949053263625e-01,-2.036255949053263625e-01,-2.036255949053263625e-01,-2.036255949053263625e-01,-2.036255949053263625e-01,-2.036255949053263625e-01,-2.036255949053263625e-01,-2.011188404225903448e-01,-1.980336041361460131e-01,-1.949483678497016537e-01,-1.918631315632573220e-01,-1.887778952768129903e-01,-1.856926589903686586e-01,-1.826074227039242992e-01,-1.795221864174799675e-01,-1.762441228631328460e-01,-1.731588865766885144e-01,-1.700736502902441827e-01,-1.669884140037998510e-01,-1.639031777173555193e-01,-1.608179414309111599e-01,-1.577327051444668282e-01,-1.546474688580224965e-01,-1.515622325715781371e-01,-1.484769962851338332e-01,-1.453917599986894738e-01,-1.421136964443423800e-01,-1.390284601578980206e-01,-1.359432238714536889e-01,-1.328579875850093295e-01,-1.297727512985650256e-01,-1.266875150121206661e-01,-1.236022787256763483e-01,-1.205170424392320028e-01,-1.174318061527876433e-01,-1.143465698663433117e-01,-1.112613335798989800e-01,-1.079832700255518724e-01,-1.789437046137716536e-01,-2.036255949053263625e-01,-2.036255949053263625e-01,-2.036255949053263625e-01,-2.036255949053263625e-01,-2.036255949053263625e-01,-2.036255949053263625e-01
-2.036255949053263625e-01,-2.036255949053263625e-01,-2.036255949053263625e-01,-2.036255949053263625e-01,-2.036255949053263625e-01,-2.036255949053263625e-01,-2.036255949053263625e-01,-2.036255949053263625e-01,-2.036255949053263625e-01,-2.036255949053263625e-01,-2.034327676374236005e-01,-2.003475313509792410e-01,-1.972622950645349094e-01,-1.939842315101878156e-01,-1.908989952237434562e-01,-1.878137589372991245e-01,-1.847285226508547928e-01,-1.816432863644104612e-01,-1.785580500779661017e-01,-1.754728137915217701e-01,-1.723875775050774384e-01,-1.693023412186331067e-01,-1.662171049321887750e-01,-1.631318686457444156e-01,-1.598538050913972941e-01,-1.567685688049529624e-01,-1.536833325185086307e-01,-1.505980962320642991e-01,-1.475128599456199674e-01,-1.444276236591756080e-01,-1.413423873727312763e-01,-1.382571510862869446e-01,-1.351719147998425852e-01,-1.320866785133982813e-01,-1.290014422269539218e-01,-1.257233786726068281e-01,-1.226381423861624825e-01,-1.195529060997181370e-01,-1.164676698132738053e-01,-1.472236190437657966e-01,-2.036255949053263625e-01,-2.036255949053263625e-01,-2.036255949053263625e-01,-2.036255949053263625e-01,-2.036255949053263625e-01,-2.036255949053263625e-01,-2.036255949053263625e-01
-2.036255949053263625e-01,-2.036255949053263625e-01,-2.036255949053263625e-01,-2.036255949053263625e-01,-2.036255949053263625e-01,-2.036255949053263625e-01,-2.036255949053263625e-01,-2.036255949053263625e-01,-2.036255949053263625e-01,-2.036255949053263625e-01,-2.036255949053263625e-01,-2.036255949053263625e-01,-2.024686312979097347e-01,-1.993833950114654030e-01,-1.962981587250210713e-01,-1.932129224385767119e-01,-1.901276861521323802e-01,-1.870424498656880485e-01,-1.839572135792437169e-01,-1.808719772927993574e-01,-1.775939137384522637e-01,-1.745086774520079320e-01,-1.714234411655635726e-01,-1.683382048791192409e-01,-1.652529685926749092e-01,-1.621677323062305498e-01,-1.590824960197862181e-01,-1.559972597333418864e-01,-1.529120234468975548e-01,-1.498267871604532231e-01,-1.467415508740088637e-01,-1.434634873196617699e-01,-1.403782510332174382e-01,-1.372930147467730788e-01,-1.342077784603287471e-01,-1.311225421738844155e-01,-1.280373058874400560e-01,-1.249520696009957382e-01,-1.244217946142631148e-01,-1.930200951706739498e-01,-2.036255949053263625e-01,-2.036255949053263625e-01,-2.036255949053263625e-01,-2.036255949053263625e-01,-2.036255949053263625e-01,-2.036255949053263625e-01,-2.036255949053263625e-01
-2.036255949053263625e-01,-2.036255949053263625e-01,-2.036255949053263625e-01,-2.036255949053263625e-01,-2.036255949053263625e-01,-2.036255949053263625e-01,-2.036255949053263625e-01,-2.036255949053263625e-01,-2.036255949053263625e-01,-2.036255949053263625e-01,-2.036255949053263625e-01,-2.036255949053263625e-01,-2.036255949053263625e-01,-2.036255949053263625e-01,-2.016973222262986587e-01,-1.986120859398542993e-01,-1.955268496534099676e-01,-1.922487860990628739e-01,-1.891635498126185144e-01,-1.860783135261741827e-01,-1.829930772397298511e-01,-1.799078409532855194e-01,-1.768226046668411877e-01,-1.737373683803968283e-01,-1.706521320939524966e-01,-1.675668958075081649e-01,-1.644816595210638055e-01,-1.613964232346194738e-01,-1.581183596802723801e-01,-1.550331233938280207e-01,-1.519478871073836890e-01,-1.488626508209393573e-01,-1.457774145344950256e-01,-1.426921782480506939e-01,-1.396069419616063345e-01,-1.365217056751620028e-01,-1.334364693887176712e-01,-1.303512331022733395e-01,-1.678320333008744836e-01,-2.036255949053263625e-01,-2.036255949053263625e-01,-2.036255949053263625e-01,-2.036255949053263625e-01,-2.036255949053263625e-01,-2.036255949053263625e-01,-2.036255949053263625e-01,-2.036255949053263625e-01
-2.036255949053263625e-01,-2.036255949053263625e-01,-2.036255949053263625e-01,-2.036255949053263625e-01,-2.036255949053263625e-01,-2.036255949053263625e-01,-2.036255949053263625e-01,-2.036255949053263625e-01,-2.036255949053263625e-01,-2.036255949053263625e-01,-2.036255949053263625e-01,-2.036255949053263625e-01,-2.036255949053263625e-01,-2.036255949053263625e-01,-2.036255949053263625e-01,-2.036255949053263625e-01,-2.007331858867847929e-01,-1.976479496003404612e-01,-1.945627133138961296e-01,-1.914774770274517701e-01,-1.883922407410074384e-01,-1.853070044545631068e-01,-1.822217681681187473e-01,-1.791365318816744434e-01,-1.758584683273273219e-01,-1.727732320408829902e-01,-1.696879957544386308e-01,-1.666027594679942991e-01,-1.635175231815499675e-01,-1.604322868951056358e-01,-1.573470506086612763e-01,-1.542618143222169447e-01,-1.511765780357726130e-01,-1.480913417493282813e-01,-1.450061054628839496e-01,-1.417280419085368282e-01,-1.386428056220924687e-01,-1.461931983309103789e-01,-2.036255949053263625e-01,-2.036255949053263625e-01,-2.036255949053263625e-01,-2.036255949053263625e-01,-2.036255949053263625e-01,-2.036255949053263625e-01,-2.036255949053263625e-01,-2.036255949053263625e-01,-2.036255949053263625e-01
-2.036255949053263625e-01,-2.036255949053263625e-01,-2.036255949053263625e-01,-2.036255949053263625e-01,-2.036255949053263625e-01,-2.036255949053263625e-01,-2.036255949053263625e-01,-2.036255949053263625e-01,-2.036255949053263625e-01,-2.036255949053263625e-01,-2.036255949053263625e-01,-2.036255949053263625e-01,-2.036255949053263625e-01,-2.036255949053263625e-01,-2.036255949053263625e-01,-2.036255949053263625e-01,-2.036255949053263625e-01,-2.030471131016180486e-01,-1.999618768151737169e-01,-1.968766405287293852e-01,-1.935985769743822638e-01,-1.905133406879379321e-01,-1.874281044014935727e-01,-1.843428681150492410e-01,-1.812576318286049093e-01,-1.781723955421605776e-01,-1.750871592557162182e-01,-1.720019229692718865e-01,-1.689166866828275548e-01,-1.658314503963832232e-01,-1.627462141099388637e-01,-1.594681505555917700e-01,-1.563829142691474383e-01,-1.532976779827031066e-01,-1.502124416962587472e-01,-1.471272054098144155e-01,-1.440419691233700838e-01,-1.820831735693136388e-01,-2.036255949053263625e-01,-2.036255949053263625e-01,-2.036255949053263625e-01,-2.036255949053263625e-01,-2.036255949053263625e-01,-2.036255949053263625e-01,-2.036255949053263625e-01,-2.036255949053263625e-01,-2.036255949053263625e-01
