-2.851942546151867708e-01,-2.851942546151867708e-01,-2.851942546151867708e-01,-2.851942546151867708e-01,-4.739667249897689949e-01,-4.739667249897689949e-01,-4.739667249897689949e-01,-4.739667249897689949e-01,-4.739667249897689949e-01,-2.851942546151867708e-01,-2.851942546151867708e-01,-2.851942546151867708e-01,-2.851942546151867708e-01,-2.851942546151867708e-01,-2.851942546151867708e-01,-2.851942546151867708e-01,-2.851942546151867708e-01,-2.851942546151867708e-01,-2.851942546151867708e-01,-2.851942546151867708e-01,-2.851942546151867708e-01,-2.851942546151867708e-01,-2.571841046083380711e-01,-2.202616341447647952e-01,-1.833391636811915193e-01,-1.464166932176182434e-01,-1.094942227540449675e-01,-7.129856365379674821e-02,-4.221416073475353636e-02,-1.247724863941442330e-01,-2.406326523315638344e-01,-2.851942546151867708e-01,-2.851942546151867708e-01,-2.851942546151867708e-01,-2.851942546151867708e-01,-2.851942546151867708e-01,-2.851942546151867708e-01,-2.851942546151867708e-01,-2.851942546151867708e-01,-2.851942546151867708e-01,-2.851942546151867708e-01,-2.851942546151867708e-01,-2.851942546151867708e-01,-2.851942546151867708e-01,-2.851942546151867708e-01,-2.851942546151867708e-01,-2.851942546151867708e-01
-2.851942546151867708e-01,-2.851942546151867708e-01,-2.851942546151867708e-01,-2.851942546151867708e-01,-4.739667249897689949e-01,-4.739667249897689949e-01,-4.739667249897689949e-01,-4.739667249897689949e-01,-4.739667249897689949e-01,-2.851942546151867708e-01,-2.851942546151867708e-01,-2.851942546151867708e-01,-2.851942546151867708e-01,-2.851942546151867708e-01,-2.851942546151867708e-01,-2.851942546151867708e-01,-2.851942546151867708e-01,-2.851942546151867708e-01,-2.851942546151867708e-01,-2.851942546151867708e-01,-2.851942546151867708e-01,-2.775551227951371103e-01,-2.406326523315638621e-01,-2.037101818679905585e-01,-1.667877114044172826e-01,-1.298652409408440067e-01,-9.166958184059578740e-02,-5.474711137702248376e-02,-1.782464091344920787e-02,-5.551115123125782702e-17,-5.551115123125782702e-17,-9.803552502397047674e-02,-2.138956909613901058e-01,-2.851942546151867708e-01,-2.851942546151867708e-01,-2.851942546151867708e-01,-2.851942546151867708e-01,-2.851942546151867708e-01,-2.851942546151867708e-01,-2.851942546151867708e-01,-2.851942546151867708e-01,-2.851942546151867708e-01,-2.851942546151867708e-01,-2.851942546151867708e-01,-2.851942546151867708e-01,-2.851942546151867708e-01,-2.851942546151867708e-01
-2.851942546151867708e-01,-2.851942546151867708e-01,-2.851942546151867708e-01,-2.851942546151867708e-01,-4.739667249897689949e-01,-4.739667249897689949e-01,-4.739667249897689949e-01,-4.739667249897689949e-01,-4.739667249897689949e-01,-2.851942546151867708e-01,-2.851942546151867708e-01,-2.851942546151867708e-01,-2.851942546151867708e-01,-2.851942546151867708e-01,-2.851942546151867708e-01,-2.851942546151867708e-01,-2.851942546151867708e-01,-2.851942546151867708e-01,-2.851942546151867708e-01,-2.851942546151867708e-01,-2.851942546151867708e-01,-2.610036705183628736e-01,-2.240812000547896254e-01,-1.871587295912163218e-01,-1.502362591276430459e-01,-1.133137886640697700e-01,-7.511812956382155071e-02,-3.819565910024821931e-02,-1.273188636675026686e-03,-5.551115123125782702e-17,-5.551115123125782702e-17,0.000000000000000000e+00,-5.551115123125782702e-17,-7.129856365379672045e-02,-1.871587295912163218e-01,-2.851942546151867708e-01,-2.851942546151867708e-01,-2.851942546151867708e-01,-2.851942546151867708e-01,-2.851942546151867708e-01,-2.851942546151867708e-01,-2.851942546151867708e-01,-2.851942546151867708e-01,-2.851942546151867708e-01,-2.851942546151867708e-01,-2.851942546151867708e-01,-2.851942546151867708e-01
-2.851942546151867708e-01,-2.851942546151867708e-01,-2.851942546151867708e-01,-2.851942546151867708e-01,-4.739667249897689949e-01,-4.739667249897689949e-01,-4.739667249897689949e-01,-4.739667249897689949e-01,-4.739667249897689949e-01,-2.851942546151867708e-01,-2.851942546151867708e-01,-2.851942546151867708e-01,-2.851942546151867708e-01,-2.851942546151867708e-01,-2.851942546151867708e-01,-2.851942546151867708e-01,-2.851942546151867708e-01,-2.851942546151867708e-01,-2.851942546151867708e-01,-2.851942546151867708e-01,-2.813746887051619683e-01,-2.444522182415886646e-01,-2.075297477780153887e-01,-1.706072773144420851e-01,-1.336848068508688370e-01,-9.548914775062058991e-02,-5.856667728704728626e-02,-2.164420682347406588e-02,-1.110223024625156540e-16,-5.551115123125782702e-17,0.000000000000000000e+00,-5.551115123125782702e-17,-5.551115123125782702e-17,-5.551115123125782702e-17,-5.551115123125782702e-17,-4.456160228362299192e-02,-1.604217682210425933e-01,-2.762819341584621946e-01,-2.851942546151867708e-01,-2.851942546151867708e-01,-2.851942546151867708e-01,-2.851942546151867708e-01,-2.851942546151867708e-01,-2.851942546151867708e-01,-2.851942546151867708e-01,-2.851942546151867708e-01,-2.851942546151867708e-01
-3.105027507173420132e-01,-3.105027507173420132e-01,-3.105027507173420132e-01,-2.851942546151867708e-01,-4.739667249897689949e-01,-4.739667249897689949e-01,-4.739667249897689949e-01,-4.739667249897689949e-01,-4.739667249897689949e-01,-2.851942546151867708e-01,-2.851942546151867708e-01,-2.851942546151867708e-01,-2.851942546151867708e-01,-2.851942546151867708e-01,-2.851942546151867708e-01,-2.851942546151867708e-01,-2.851942546151867708e-01,-2.851942546151867708e-01,-2.851942546151867708e-01,-2.851942546151867708e-01,-2.648232364283877316e-01,-2.279007659648144557e-01,-1.909782955012411521e-01,-1.540558250376678762e-01,-1.171333545740945725e-01,-7.893769547384638097e-02,-4.201522501027310508e-02,-5.092754546699829188e-03,-5.551115123125782702e-17,-5.551115123125782702e-17,-5.551115123125782702e-17,-5.551115123125782702e-17,-5.551115123125782702e-17,-5.551115123125782702e-17,-5.551115123125782702e-17,-5.551115123125782702e-17,-5.551115123125782702e-17,-1.782464091344920787e-02,-1.336848068508688370e-01,-2.495449727882884383e-01,-2.851942546151867708e-01,-2.851942546151867708e-01,-2.851942546151867708e-01,-2.851942546151867708e-01,-2.851942546151867708e-01,-2.851942546151867708e-01,-2.851942546151867708e-01
-3.105027507173420132e-01,-3.105027507173420132e-01,-3.105027507173420132e-01,-2.851942546151867708e-01,-2.851942546151867708e-01,-2.851942546151867708e-01,-2.851942546151867708e-01,-2.851942546151867708e-01,-2.851942546151867708e-01,-2.851942546151867708e-01,-2.851942546151867708e-01,-2.851942546151867708e-01,-2.851942546151867708e-01,-2.851942546151867708e-01,-2.851942546151867708e-01,-2.851942546151867708e-01,-2.851942546151867708e-01,-2.851942546151867708e-01,-2.851942546151867708e-01,-2.851942546151867708e-01,-2.482717841516134949e-01,-2.113493136880402190e-01,-1.744268432244669431e-01,-1.375043727608936672e-01,-9.930871366064542016e-02,-6.238624319707214427e-02,-2.546377273349886838e-02,-1.110223024625156540e-16,-5.551115123125782702e-17,-5.551115123125782702e-17,-5.551115123125782702e-17,-5.551115123125782702e-17,-5.551115123125782702e-17,-5.551115123125782702e-17,-5.551115123125782702e-17,-5.551115123125782702e-17,-5.551115123125782702e-17,-5.551115123125782702e-17,-5.551115123125782702e-17,-5.941546971149791467e-03,-1.241226296941747576e-01,-2.335306469676114438e-01,-2.851942546151867708e-01,-2.851942546151867708e-01,-2.851942546151867708e-01,-2.851942546151867708e-01,-2.851942546151867708e-01
-3.105027507173420132e-01,-3.105027507173420132e-01,-3.105027507173420132e-01,-2.851942546151867708e-01,-2.851942546151867708e-01,-2.851942546151867708e-01,-2.851942546151867708e-01,-2.851942546151867708e-01,-2.851942546151867708e-01,-2.851942546151867708e-01,-2.851942546151867708e-01,-2.851942546151867708e-01,-2.851942546151867708e-01,-2.851942546151867708e-01,-2.851942546151867708e-01,-2.851942546151867708e-01,-2.851942546151867708e-01,-2.851942546151867708e-01,-2.851942546151867708e-01,-2.686428023384125341e-01,-2.317203318748392582e-01,-1.947978614112659823e-01,-1.578753909476927064e-01,-1.209529204841194583e-01,-8.275726138387121122e-02,-4.583479092029790758e-02,-8.912320456724631690e-03,-1.110223024625156540e-16,-1.110223024625156540e-16,-1.110223024625156540e-16,-5.551115123125782702e-17,-5.551115123125782702e-17,0.000000000000000000e+00,-5.551115123125782702e-17,0.000000000000000000e+00,-5.551115123125782702e-17,-5.551115123125782702e-17,-5.551115123125782702e-17,-5.551115123125782702e-17,-1.559656079926807770e-02,-3.713466856968583585e-02,-5.867277634010359399e-02,-1.378624570649584768e-01,-2.278676100107343561e-01,-2.851942546151867708e-01,-2.851942546151867708e-01,-2.851942546151867708e-01
-2.851942546151867708e-01,-2.851942546151867708e-01,-2.851942546151867708e-01,-2.851942546151867708e-01,-2.851942546151867708e-01,-2.851942546151867708e-01,-2.851942546151867708e-01,-2.851942546151867708e-01,-2.851942546151867708e-01,-2.851942546151867708e-01,-2.851942546151867708e-01,-2.851942546151867708e-01,-2.851942546151867708e-01,-2.851942546151867708e-01,-2.851942546151867708e-01,-2.851942546151867708e-01,-2.851942546151867708e-01,-2.851942546151867708e-01,-2.851942546151867708e-01,-2.520913500616382974e-01,-2.151688795980650215e-01,-1.782464091344917456e-01,-1.413239386709184697e-01,-1.031282795706702782e-01,-6.620580910709697453e-02,-2.928333864352367089e-02,-5.551115123125782702e-17,0.000000000000000000e+00,-5.551115123125782702e-17,-5.551115123125782702e-17,-5.551115123125782702e-17,-5.551115123125782702e-17,-5.551115123125782702e-17,-5.551115123125782702e-17,0.000000000000000000e+00,-5.551115123125782702e-17,-5.551115123125782702e-17,-5.551115123125782702e-17,-3.713466856968661300e-03,-2.525157462738636394e-02,-4.678968239780414984e-02,-6.832779016822185247e-02,-8.986589793863963838e-02,-1.121466990804511066e-01,-1.620928283066784270e-01,-2.323933977426648201e-01,-2.851942546151867708e-01
-2.851942546151867708e-01,-2.851942546151867708e-01,-2.851942546151867708e-01,-2.851942546151867708e-01,-2.851942546151867708e-01,-2.851942546151867708e-01,-2.851942546151867708e-01,-2.851942546151867708e-01,-2.851942546151867708e-01,-2.851942546151867708e-01,-2.851942546151867708e-01,-2.851942546151867708e-01,-2.851942546151867708e-01,-2.851942546151867708e-01,-2.851942546151867708e-01,-2.851942546151867708e-01,-2.851942546151867708e-01,-2.851942546151867708e-01,-2.724623682484373921e-01,-2.355398977848640885e-01,-1.986174273212908403e-01,-1.616949568577175089e-01,-1.247724863941442608e-01,-8.657682729389604148e-02,-4.965435683032271008e-02,-1.273188636674943419e-02,-5.551115123125782702e-17,-5.551115123125782702e-17,0.000000000000000000e+00,-1.110223024625156540e-16,-5.551115123125782702e-17,-5.551115123125782702e-17,-1.110223024625156540e-16,-5.551115123125782702e-17,-5.551115123125782702e-17,-5.551115123125782702e-17,-5.551115123125782702e-17,-5.551115123125782702e-17,-1.336848068508689202e-02,-3.490658845550470568e-02,-5.644469622592246383e-02,-7.798280399634016646e-02,-9.952091176675792461e-02,-1.218017129085693651e-01,-1.433398206789871232e-01,-1.648779284494048814e-01,-1.956764941943880121e-01
-2.851942546151867708e-01,-2.851942546151867708e-01,-2.851942546151867708e-01,-2.851942546151867708e-01,-2.851942546151867708e-01,-2.851942546151867708e-01,-2.851942546151867708e-01,-2.851942546151867708e-01,-2.851942546151867708e-01,-2.851942546151867708e-01,-2.851942546151867708e-01,-2.851942546151867708e-01,-2.851942546151867708e-01,-2.851942546151867708e-01,-2.851942546151867708e-01,-2.851942546151867708e-01,-2.851942546151867708e-01,-2.851942546151867708e-01,-2.559109159716631554e-01,-2.189884455080898518e-01,-1.820659750445165759e-01,-1.451435045809433000e-01,-1.069478454806950807e-01,-7.002537501712180479e-02,-3.310290455354847339e-02,0.000000000000000000e+00,-5.551115123125782702e-17,-5.551115123125782702e-17,-5.551115123125782702e-17,-5.551115123125782702e-17,-5.551115123125782702e-17,-5.551115123125782702e-17,-5.551115123125782702e-17,-5.551115123125782702e-17,-5.551115123125782702e-17,-5.551115123125782702e-17,-5.551115123125782702e-17,-1.485386742787475622e-03,-2.302349451320523377e-02,-4.456160228362299192e-02,-6.609971005404072231e-02,-8.763781782445848045e-02,-1.091759255948762108e-01,-1.314567267366876790e-01,-1.529948345071054372e-01,-1.745329422775231953e-01,-1.960710500479409257e-01
-2.851942546151867708e-01,-2.851942546151867708e-01,-2.851942546151867708e-01,-2.851942546151867708e-01,-2.851942546151867708e-01,-2.851942546151867708e-01,-2.851942546151867708e-01,-2.851942546151867708e-01,-2.851942546151867708e-01,-2.851942546151867708e-01,-2.851942546151867708e-01,-2.851942546151867708e-01,-2.851942546151867708e-01,-2.851942546151867708e-01,-2.851942546151867708e-01,-2.851942546151867708e-01,-2.851942546151867708e-01,-2.762819341584621946e-01,-2.393594636948889187e-01,-2.024369932313156428e-01,-1.655145227677423392e-01,-1.285920523041690910e-01,-9.039639320392084398e-02,-5.347392274034754034e-02,-3.061718285255612959e-01,-2.896203762487870592e-01,-2.896203762487870037e-01,-5.551115123125782702e-17,-5.551115123125782702e-17,-5.551115123125782702e-17,-1.110223024625156540e-16,-5.551115123125782702e-17,-5.551115123125782702e-17,-5.551115123125782702e-17,-5.551115123125782702e-17,-1.110223024625156540e-16,-5.551115123125782702e-17,-1.114040057090581737e-02,-3.267850834132357551e-02,-5.421661611174127815e-02,-7.575472388215903630e-02,-9.729283165257679444e-02,-1.195736327943882349e-01,-1.411117405648059930e-01,-1.626498483352237234e-01,-1.841879561056414816e-01,-2.057260638760592397e-01
-2.851942546151867708e-01,-2.851942546151867708e-01,-2.851942546151867708e-01,-2.851942546151867708e-01,-2.851942546151867708e-01,-2.851942546151867708e-01,-2.851942546151867708e-01,-2.851942546151867708e-01,-2.851942546151867708e-01,-2.851942546151867708e-01,-2.851942546151867708e-01,-2.851942546151867708e-01,-2.851942546151867708e-01,-2.851942546151867708e-01,-2.851942546151867708e-01,-2.851942546151867708e-01,-2.851942546151867708e-01,-2.597304818816879579e-01,-2.228080114181146820e-01,-1.858855409545414061e-01,-1.489630704909681302e-01,-1.107674113907198832e-01,-7.384494092714660729e-02,-3.692247046357333140e-02,-2.896203762487870592e-01,-2.896203762487870592e-01,-2.896203762487870592e-01,-5.551115123125782702e-17,-5.551115123125782702e-17,-5.551115123125782702e-17,-5.551115123125782702e-17,-5.551115123125782702e-17,-5.551115123125782702e-17,-5.551115123125782702e-17,-5.551115123125782702e-17,0.000000000000000000e+00,-5.551115123125782702e-17,-2.079541439902410360e-02,-4.233352216944183399e-02,-6.387162993985959214e-02,-8.540973771027732253e-02,-1.069478454806950807e-01,-1.292286466225065489e-01,-1.507667543929243070e-01,-1.723048621633420374e-01,-1.938429699337597678e-01,-2.153810777041775260e-01
-2.851942546151867708e-01,-2.851942546151867708e-01,-2.851942546151867708e-01,-2.851942546151867708e-01,-2.851942546151867708e-01,-2.851942546151867708e-01,-2.851942546151867708e-01,-2.851942546151867708e-01,-2.851942546151867708e-01,-2.851942546151867708e-01,-2.851942546151867708e-01,-2.851942546151867708e-01,-2.851942546151867708e-01,-2.851942546151867708e-01,-2.851942546151867708e-01,-2.851942546151867708e-01,-2.801015000684869971e-01,-2.431790296049137212e-01,-2.062565591413404453e-01,-1.693340886777671417e-01,-1.324116182141938936e-01,-9.421595911394570200e-02,-5.729348865037237060e-02,-2.037101818679903920e-02,-2.896203762487870592e-01,-2.896203762487871147e-01,-2.896203762487870592e-01,-5.551115123125782702e-17,-1.110223024625156540e-16,-5.551115123125782702e-17,-5.551115123125782702e-17,-5.551115123125782702e-17,-5.551115123125782702e-17,-5.551115123125782702e-17,-1.110223024625156540e-16,-5.551115123125782702e-17,-8.912320456724631690e-03,-3.045042822714238984e-02,-5.198853599756014798e-02,-7.352664376797787837e-02,-9.506475153839563652e-02,-1.173455526802070770e-01,-1.388836604506248351e-01,-1.604217682210425933e-01,-1.819598759914603514e-01,-2.034979837618780818e-01,-2.257787849036895222e-01
-2.851942546151867708e-01,-2.851942546151867708e-01,-2.851942546151867708e-01,-2.851942546151867708e-01,-2.851942546151867708e-01,-2.851942546151867708e-01,-2.851942546151867708e-01,-2.851942546151867708e-01,-2.851942546151867708e-01,-2.851942546151867708e-01,-2.851942546151867708e-01,-2.851942546151867708e-01,-2.851942546151867708e-01,-2.851942546151867708e-01,-2.851942546151867708e-01,-2.851942546151867708e-01,-2.635500477917127604e-01,-2.266275773281394845e-01,-1.897051068645662086e-01,-1.527826364009929327e-01,-1.158601659374196846e-01,-7.766450683717143755e-02,-4.074203637359813390e-02,-3.819565910024858013e-03,-5.551115123125782702e-17,-5.551115123125782702e-17,-5.551115123125782702e-17,-5.551115123125782702e-17,-1.110223024625156540e-16,-5.551115123125782702e-17,-5.551115123125782702e-17,-5.551115123125782702e-17,-5.551115123125782702e-17,-5.551115123125782702e-17,-5.551115123125782702e-17,-5.551115123125782702e-17,-1.856733428484291792e-02,-4.010544205526070383e-02,-6.164354982567843422e-02,-8.318165759609619236e-02,-1.047197653665139505e-01,-1.270005665083254187e-01,-1.485386742787431491e-01,-1.700767820491608795e-01,-1.916148898195786376e-01,-2.131529975899963680e-01,-2.354337987318078362e-01
-2.851942546151867708e-01,-2.851942546151867708e-01,-2.851942546151867708e-01,-2.851942546151867708e-01,-2.851942546151867708e-01,-2.851942546151867708e-01,-2.851942546151867708e-01,-2.851942546151867708e-01,-2.851942546151867708e-01,-2.851942546151867708e-01,-2.851942546151867708e-01,-2.851942546151867708e-01,-2.851942546151867708e-01,-2.851942546151867708e-01,-2.851942546151867708e-01,-2.839210659785118551e-01,-2.469985955149385515e-01,-2.100761250513652756e-01,-1.731536545877919719e-01,-1.362311841242186961e-01,-9.803552502397050450e-02,-6.111305456039720085e-02,-2.419058409682395272e-02,-5.551115123125782702e-17,-5.551115123125782702e-17,-5.551115123125782702e-17,0.000000000000000000e+00,-5.551115123125782702e-17,-5.551115123125782702e-17,-5.551115123125782702e-17,-5.551115123125782702e-17,-5.551115123125782702e-17,-1.110223024625156540e-16,0.000000000000000000e+00,-1.110223024625156540e-16,-6.684240342543446012e-03,-2.822234811296125967e-02,-4.976045588337899006e-02,-7.129856365379672045e-02,-9.283667142421450635e-02,-1.151174725660259468e-01,-1.366555803364437049e-01,-1.581936881068614353e-01,-1.797317958772791935e-01,-2.012699036476969239e-01,-2.235507047895083921e-01,-2.450888125599261502e-01
-2.851942546151867708e-01,-2.851942546151867708e-01,-2.851942546151867708e-01,-2.851942546151867708e-01,-2.851942546151867708e-01,-2.851942546151867708e-01,-2.851942546151867708e-01,-2.851942546151867708e-01,-2.851942546151867708e-01,-2.851942546151867708e-01,-2.851942546151867708e-01,-2.851942546151867708e-01,-2.851942546151867708e-01,-2.851942546151867708e-01,-2.851942546151867708e-01,-2.673696137017376184e-01,-2.304471432381643425e-01,-1.935246727745910389e-01,-1.566022023110177352e-01,-1.196797318474444871e-01,-8.148407274719626781e-02,-4.456160228362299192e-02,-7.639131820049716026e-03,-5.551115123125782702e-17,-5.551115123125782702e-17,-5.551115123125782702e-17,-5.551115123125782702e-17,-5.551115123125782702e-17,-5.551115123125782702e-17,-5.551115123125782702e-17,-5.551115123125782702e-17,-5.551115123125782702e-17,-5.551115123125782702e-17,-5.551115123125782702e-17,-5.551115123125782702e-17,-1.633925417066178776e-02,-3.787736194107954590e-02,-5.941546971149730405e-02,-8.095357748191503444e-02,-1.024916852523327926e-01,-1.247724863941442608e-01,-1.463105941645619912e-01,-1.678487019349797493e-01,-1.893868097053974797e-01,-2.109249174758152101e-01,-2.332057186176266783e-01,-2.547438263880444365e-01
-2.851942546151867708e-01,-2.851942546151867708e-01,-2.851942546151867708e-01,-2.851942546151867708e-01,-2.851942546151867708e-01,-2.851942546151867708e-01,-2.851942546151867708e-01,-2.851942546151867708e-01,-2.851942546151867708e-01,-2.851942546151867708e-01,-2.851942546151867708e-01,-2.851942546151867708e-01,-2.851942546151867708e-01,-2.851942546151867708e-01,-2.851942546151867708e-01,-2.508181614249633817e-01,-2.138956909613901058e-01,-1.769732204978168022e-01,-1.400507500342435263e-01,-1.018550909339953070e-01,-6.493262047042203111e-02,-2.801015000684869971e-02,-5.551115123125782702e-17,-5.551115123125782702e-17,0.000000000000000000e+00,-5.551115123125782702e-17,-5.551115123125782702e-17,-5.551115123125782702e-17,-5.551115123125782702e-17,-5.551115123125782702e-17,-5.551115123125782702e-17,-5.551115123125782702e-17,-5.551115123125782702e-17,-5.551115123125782702e-17,-4.456160228362371356e-03,-2.599426799878007399e-02,-4.753237576919785989e-02,-6.907048353961556253e-02,-9.060859131003334843e-02,-1.128893924518448166e-01,-1.344275002222625470e-01,-1.559656079926803052e-01,-1.775037157630980356e-01,-1.990418235335157937e-01,-2.213226246753272619e-01,-2.428607324457449923e-01,-2.643988402161627227e-01
-2.851942546151867708e-01,-2.851942546151867708e-01,-2.851942546151867708e-01,-2.851942546151867708e-01,-2.851942546151867708e-01,-2.851942546151867708e-01,-2.851942546151867708e-01,-2.851942546151867708e-01,-2.851942546151867708e-01,-2.851942546151867708e-01,-2.851942546151867708e-01,-2.851942546151867708e-01,-2.851942546151867708e-01,-2.851942546151867708e-01,-2.711891796117624209e-01,-2.342667091481891450e-01,-1.973442386846158692e-01,-1.604217682210425655e-01,-1.234992977574693174e-01,-8.530363865722109806e-02,-4.838116819364779442e-02,-1.145869773007451853e-02,-1.110223024625156540e-16,-1.110223024625156540e-16,-5.551115123125782702e-17,-1.110223024625156540e-16,-5.551115123125782702e-17,-5.551115123125782702e-17,-1.110223024625156540e-16,-5.551115123125782702e-17,-5.551115123125782702e-17,-5.551115123125782702e-17,-5.551115123125782702e-17,-5.551115123125782702e-17,-1.411117405648065759e-02,-3.564928182689841574e-02,-5.718738959731617388e-02,-7.872549736773390427e-02,-1.002636051381516624e-01,-1.225444062799630751e-01,-1.440825140503808333e-01,-1.656206218207986192e-01,-1.871587295912163218e-01,-2.086968373616340799e-01,-2.309776385034455481e-01,-2.525157462738633063e-01,-2.740538540442810644e-01
-2.851942546151867708e-01,-2.851942546151867708e-01,-2.851942546151867708e-01,-2.851942546151867708e-01,-2.851942546151867708e-01,-2.851942546151867708e-01,-2.851942546151867708e-01,-2.851942546151867708e-01,-2.851942546151867708e-01,-2.851942546151867708e-01,-2.851942546151867708e-01,-2.851942546151867708e-01,-2.851942546151867708e-01,-2.851942546151867708e-01,-2.546377273349881842e-01,-2.177152568714149083e-01,-1.807927864078416325e-01,-1.438703159442683288e-01,-1.056746568440201650e-01,-3.562719434555393638e-01,-3.193494729919660879e-01,-2.875197570750925302e-01,0.000000000000000000e+00,-5.551115123125782702e-17,-5.551115123125782702e-17,-5.551115123125782702e-17,-5.551115123125782702e-17,-5.551115123125782702e-17,-5.551115123125782702e-17,-5.551115123125782702e-17,-5.551115123125782702e-17,-5.551115123125782702e-17,-1.110223024625156540e-16,-2.228080114181130167e-03,-2.376618788459894382e-02,-4.530429565501670197e-02,-6.684240342543443236e-02,-8.838051119585216275e-02,-1.106613123376636587e-01,-1.321994201080813891e-01,-1.537375278784991472e-01,-1.752756356489169054e-01,-1.968137434193346635e-01,-2.190945445611461040e-01,-2.406326523315638344e-01,-2.621707601019815925e-01,-2.837088678723993507e-01
-2.851942546151867708e-01,-2.851942546151867708e-01,-2.851942546151867708e-01,-2.851942546151867708e-01,-2.851942546151867708e-01,-2.851942546151867708e-01,-2.851942546151867708e-01,-2.851942546151867708e-01,-2.851942546151867708e-01,-2.851942546151867708e-01,-2.851942546151867708e-01,-2.851942546151867708e-01,-2.851942546151867708e-01,-2.750087455217872234e-01,-2.380862750582139753e-01,-2.011638045946406717e-01,-1.642413341310673958e-01,-1.273188636674941199e-01,-8.912320456724592832e-02,-3.397204911787651271e-01,-3.027980207151918512e-01,-2.875197570750925857e-01,-5.551115123125782702e-17,-1.110223024625156540e-16,-1.110223024625156540e-16,-5.551115123125782702e-17,0.000000000000000000e+00,-5.551115123125782702e-17,-5.551115123125782702e-17,-5.551115123125782702e-17,-5.551115123125782702e-17,-5.551115123125782702e-17,-5.551115123125782702e-17,-1.188309394229947191e-02,-3.342120171271723006e-02,-5.495930948313501596e-02,-7.649741725355271860e-02,-9.803552502397050450e-02,-1.203163261657819449e-01,-1.418544339361996753e-01,-1.633925417066174612e-01,-1.849306494770351916e-01,-2.064687572474529498e-01,-2.287495583892643902e-01,-2.502876661596821206e-01,-2.718257739300998788e-01,-2.851942546151867708e-01
-2.851942546151867708e-01,-2.851942546151867708e-01,-2.851942546151867708e-01,-2.851942546151867708e-01,-2.851942546151867708e-01,-2.851942546151867708e-01,-2.851942546151867708e-01,-2.851942546151867708e-01,-2.851942546151867708e-01,-2.851942546151867708e-01,-2.851942546151867708e-01,-2.851942546151867708e-01,-2.851942546151867708e-01,-2.584572932450130422e-01,-2.215348227814397386e-01,-1.846123523178664627e-01,-1.476898818542931591e-01,-1.094942227540449953e-01,-7.257175229047169163e-02,-3.231690389019908904e-01,-2.875197570750925302e-01,-2.875197570750925857e-01,-5.551115123125782702e-17,-5.551115123125782702e-17,-1.110223024625156540e-16,-1.110223024625156540e-16,-5.551115123125782702e-17,-5.551115123125782702e-17,-5.551115123125782702e-17,0.000000000000000000e+00,-5.551115123125782702e-17,-5.551115123125782702e-17,-5.551115123125782702e-17,-2.153810777041781366e-02,-4.307621554083557180e-02,-6.461432331125327444e-02,-8.615243108167103259e-02,-1.084332322234825008e-01,-1.299713399939002589e-01,-1.515094477643180171e-01,-1.730475555347357475e-01,-1.945856633051535056e-01,-2.168664644469649461e-01,-2.384045722173827042e-01,-2.599426799878004624e-01,-2.814807877582182205e-01,-2.851942546151867708e-01
-2.851942546151867708e-01,-2.851942546151867708e-01,-2.851942546151867708e-01,-2.851942546151867708e-01,-2.851942546151867708e-01,-2.851942546151867708e-01,-2.851942546151867708e-01,-2.851942546151867708e-01,-2.851942546151867708e-01,-2.851942546151867708e-01,-2.851942546151867708e-01,-2.851942546151867708e-01,-2.788283114318120814e-01,-2.419058409682388056e-01,-2.049833705046655297e-01,-1.680609000410922260e-01,-1.311384295775189501e-01,-9.294277047727073082e-02,-5.602030001369742718e-02,-1.909782955012412353e-02,-5.551115123125782702e-17,-5.551115123125782702e-17,0.000000000000000000e+00,-5.551115123125782702e-17,-5.551115123125782702e-17,-5.551115123125782702e-17,-5.551115123125782702e-17,-5.551115123125782702e-17,-5.551115123125782702e-17,-5.551115123125782702e-17,-5.551115123125782702e-17,-5.551115123125782702e-17,-9.655013828118341745e-03,-3.119312159853609989e-02,-5.273122936895385804e-02,-7.426933713937156067e-02,-9.580744490978931882e-02,-1.180882460516008148e-01,-1.396263538220185452e-01,-1.611644615924363033e-01,-1.827025693628540615e-01,-2.042406771332717919e-01,-2.265214782750832601e-01,-2.480595860455009904e-01,-2.695976938159187486e-01,-2.851942546151867708e-01,-2.851942546151867708e-01
-2.851942546151867708e-01,-2.851942546151867708e-01,-2.851942546151867708e-01,-2.851942546151867708e-01,-2.851942546151867708e-01,-2.851942546151867708e-01,-2.851942546151867708e-01,-2.851942546151867708e-01,-2.851942546151867708e-01,-2.851942546151867708e-01,-2.851942546151867708e-01,-2.851942546151867708e-01,-2.622768591550378448e-01,-2.253543886914645689e-01,-1.884319182278912930e-01,-1.515094477643179893e-01,-1.133137886640697978e-01,-7.639131820049652188e-02,-3.946884773692321824e-02,-2.546377273349942350e-03,-5.551115123125782702e-17,-5.551115123125782702e-17,-5.551115123125782702e-17,-5.551115123125782702e-17,-5.551115123125782702e-17,-5.551115123125782702e-17,-5.551115123125782702e-17,-5.551115123125782702e-17,-5.551115123125782702e-17,-1.110223024625156540e-16,-5.551115123125782702e-17,-5.551115123125782702e-17,-1.931002765623662798e-02,-4.084813542665441388e-02,-6.238624319707214427e-02,-8.392435096748990242e-02,-1.062051521093013706e-01,-1.277432598797191288e-01,-1.492813676501368314e-01,-1.708194754205545896e-01,-1.923575831909723477e-01,-2.146383843327838159e-01,-2.361764921032015740e-01,-2.577145998736193322e-01,-2.792527076440370348e-01,-2.851942546151867708e-01,-2.851942546151867708e-01
-2.851942546151867708e-01,-2.851942546151867708e-01,-2.851942546151867708e-01,-2.851942546151867708e-01,-2.851942546151867708e-01,-2.851942546151867708e-01,-2.851942546151867708e-01,-2.851942546151867708e-01,-2.851942546151867708e-01,-2.851942546151867708e-01,-2.851942546151867708e-01,-2.826478773418368839e-01,-2.457254068782636081e-01,-2.088029364146903322e-01,-1.718804659511170563e-01,-1.349579954875437804e-01,-9.676233638729556108e-02,-5.983986592372225743e-02,-2.291739546014892603e-02,-5.551115123125782702e-17,-5.551115123125782702e-17,-5.551115123125782702e-17,0.000000000000000000e+00,-5.551115123125782702e-17,-5.551115123125782702e-17,-5.551115123125782702e-17,-5.551115123125782702e-17,-5.551115123125782702e-17,-5.551115123125782702e-17,-5.551115123125782702e-17,-5.551115123125782702e-17,-7.426933713937211579e-03,-2.896504148435496973e-02,-5.050314925477270012e-02,-7.204125702519043051e-02,-9.357936479560818865e-02,-1.158601659374196569e-01,-1.373982737078374150e-01,-1.589363814782551454e-01,-1.804744892486729035e-01,-2.020125970190906339e-01,-2.242933981609021021e-01,-2.458315059313198603e-01,-2.673696137017376184e-01,-2.851942546151867708e-01,-2.851942546151867708e-01,-2.851942546151867708e-01
-2.851942546151867708e-01,-2.851942546151867708e-01,-2.851942546151867708e-01,-2.851942546151867708e-01,-2.851942546151867708e-01,-2.851942546151867708e-01,-2.851942546151867708e-01,-2.851942546151867708e-01,-2.851942546151867708e-01,-2.851942546151867708e-01,-2.851942546151867708e-01,-2.660964250650626473e-01,-2.291739546014893714e-01,-1.922514841379160955e-01,-1.553290136743427918e-01,-1.171333545740946003e-01,-8.021088411052132439e-02,-4.328841364694802074e-02,-6.365943183374744851e-03,-5.551115123125782702e-17,-5.551115123125782702e-17,-5.551115123125782702e-17,-5.551115123125782702e-17,0.000000000000000000e+00,-5.551115123125782702e-17,-5.551115123125782702e-17,-5.551115123125782702e-17,-1.110223024625156540e-16,-5.551115123125782702e-17,-1.392327166902768421e-01,-1.392327166902768421e-01,-1.563146642323322844e-01,-1.778527720027500425e-01,-6.015816308289101411e-02,-8.169627085330874450e-02,-1.039770719951202405e-01,-1.255151797655379431e-01,-1.470532875359557012e-01,-1.685913953063734594e-01,-1.901295030767912175e-01,-2.124103042186026857e-01,-2.339484119890204161e-01,-2.554865197594381465e-01,-2.770246275298559047e-01,-2.851942546151867708e-01,-2.851942546151867708e-01,-2.851942546151867708e-01
-2.851942546151867708e-01,-2.851942546151867708e-01,-2.851942546151867708e-01,-2.851942546151867708e-01,-2.851942546151867708e-01,-2.851942546151867708e-01,-2.851942546151867708e-01,-2.851942546151867708e-01,-2.851942546151867708e-01,-2.851942546151867708e-01,-2.851942546151867708e-01,-2.495449727882884383e-01,-2.126225023247151624e-01,-1.757000318611418588e-01,-1.387775613975685829e-01,-1.005819022973203913e-01,-6.365943183374708769e-02,-2.673696137017378405e-02,-5.551115123125782702e-17,-1.110223024625156540e-16,-1.110223024625156540e-16,-5.551115123125782702e-17,-5.551115123125782702e-17,-5.551115123125782702e-17,-5.551115123125782702e-17,-5.551115123125782702e-17,-5.551115123125782702e-17,-5.551115123125782702e-17,-5.551115123125782702e-17,-1.392327166902768421e-01,-1.444315702900328124e-01,-1.659696780604505706e-01,-1.875077858308683842e-01,-6.981317691100930034e-02,-9.135128468142705849e-02,-1.136320858232384989e-01,-1.351701935936562571e-01,-1.567083013640740152e-01,-1.782464091344917456e-01,-1.997845169049095038e-01,-2.220653180467209720e-01,-2.436034258171387301e-01,-2.651415335875564327e-01,-2.851942546151867708e-01,-2.851942546151867708e-01,-2.851942546151867708e-01,-2.851942546151867708e-01
-2.851942546151867708e-01,-2.851942546151867708e-01,-2.851942546151867708e-01,-2.851942546151867708e-01,-2.851942546151867708e-01,-2.851942546151867708e-01,-2.851942546151867708e-01,-2.851942546151867708e-01,-2.851942546151867708e-01,-2.851942546151867708e-01,-2.699159909750875053e-01,-2.329935205115142016e-01,-1.960710500479409257e-01,-1.591485795843676221e-01,-1.222261091207943740e-01,-8.403045002054615464e-02,-4.710797955697282324e-02,-1.018550909339954735e-02,-5.551115123125782702e-17,-5.551115123125782702e-17,-5.551115123125782702e-17,-5.551115123125782702e-17,-1.110223024625156540e-16,-5.551115123125782702e-17,-5.551115123125782702e-17,-1.110223024625156540e-16,-5.551115123125782702e-17,-5.551115123125782702e-17,-5.551115123125782702e-17,-1.392327166902768421e-01,-1.540865841181511542e-01,-1.756246918885689123e-01,-1.971627996589866427e-01,-7.946819073912758657e-02,-1.010062985095453447e-01,-1.232870996513568129e-01,-1.448252074217745433e-01,-1.663633151921923292e-01,-1.879014229626100596e-01,-2.094395307330277900e-01,-2.317203318748392582e-01,-2.532584396452570163e-01,-2.747965474156747745e-01,-2.851942546151867708e-01,-2.851942546151867708e-01,-2.851942546151867708e-01,-2.851942546151867708e-01
-2.851942546151867708e-01,-2.851942546151867708e-01,-2.851942546151867708e-01,-2.851942546151867708e-01,-2.851942546151867708e-01,-2.851942546151867708e-01,-2.851942546151867708e-01,-2.851942546151867708e-01,-2.851942546151867708e-01,-2.851942546151867708e-01,-2.533645386983132686e-01,-2.164420682347399927e-01,-1.795195977711666890e-01,-1.425971273075934131e-01,-1.044014682073451938e-01,-6.747899774377189019e-02,-3.055652728019864206e-02,-5.551115123125782702e-17,-5.551115123125782702e-17,-5.551115123125782702e-17,0.000000000000000000e+00,-5.551115123125782702e-17,-5.551115123125782702e-17,-5.551115123125782702e-17,-5.551115123125782702e-17,-1.110223024625156540e-16,-5.551115123125782702e-17,-5.551115123125782702e-17,-5.551115123125782702e-17,-1.422034901758516823e-01,-1.637415979462694404e-01,-1.852797057166871986e-01,-2.068178134871049290e-01,-8.912320456724592832e-02,-1.114040057090573410e-01,-1.329421134794750992e-01,-1.544802212498928573e-01,-1.760183290203106155e-01,-1.975564367907283458e-01,-2.198372379325398140e-01,-2.413753457029575444e-01,-2.629134534733753026e-01,-2.844515612437930607e-01,-2.851942546151867708e-01,-2.851942546151867708e-01,-2.851942546151867708e-01,-2.851942546151867708e-01
-2.851942546151867708e-01,-2.851942546151867708e-01,-2.851942546151867708e-01,-2.851942546151867708e-01,-2.851942546151867708e-01,-2.851942546151867708e-01,-2.851942546151867708e-01,-2.851942546151867708e-01,-2.851942546151867708e-01,-2.737355568851123078e-01,-2.368130864215390319e-01,-1.998906159579657560e-01,-1.629681454943924523e-01,-1.260456750308192042e-01,-8.785001593057095715e-02,-5.092754546699768126e-02,-1.400507500342440537e-02,-5.551115123125782702e-17,-5.551115123125782702e-17,-5.551115123125782702e-17,-5.551115123125782702e-17,-5.551115123125782702e-17,0.000000000000000000e+00,-5.551115123125782702e-17,-5.551115123125782702e-17,-5.551115123125782702e-17,-5.551115123125782702e-17,-5.551115123125782702e-17,-5.551115123125782702e-17,-1.262578731369323748e-02,-3.416389508411099563e-02,-5.570200285452872602e-02,-7.724011062494642865e-02,-9.877821839536418680e-02,-1.210590195371756828e-01,-1.425971273075934131e-01,-1.641352350780111713e-01,-1.856733428484289017e-01,-2.072114506188466598e-01,-2.294922517606581280e-01,-2.510303595310758862e-01,-2.725684673014935888e-01,-2.851942546151867708e-01,-2.851942546151867708e-01,-2.851942546151867708e-01,-2.851942546151867708e-01,-2.851942546151867708e-01
-2.851942546151867708e-01,-2.851942546151867708e-01,-2.851942546151867708e-01,-2.851942546151867708e-01,-2.851942546151867708e-01,-2.851942546151867708e-01,-2.851942546151867708e-01,-2.851942546151867708e-01,-2.851942546151867708e-01,-2.571841046083380711e-01,-2.202616341447647952e-01,-1.833391636811915193e-01,-1.464166932176182156e-01,-1.082210341173700519e-01,-7.129856365379672045e-02,-3.437609319022344456e-02,-5.551115123125782702e-17,-1.110223024625156540e-16,-5.551115123125782702e-17,-5.551115123125782702e-17,-5.551115123125782702e-17,-5.551115123125782702e-17,-5.551115123125782702e-17,-5.551115123125782702e-17,-5.551115123125782702e-17,-5.551115123125782702e-17,-5.551115123125782702e-17,0.000000000000000000e+00,-7.426933713937655668e-04,-2.228080114181152371e-02,-4.381890891222928186e-02,-6.535701668264698450e-02,-8.689512445306479815e-02,-1.091759255948762386e-01,-1.307140333652939412e-01,-1.522521411357117271e-01,-1.737902489061294853e-01,-1.953283566765472157e-01,-2.176091578183586561e-01,-2.391472655887764143e-01,-2.606853733591941724e-01,-2.822234811296119306e-01,-2.851942546151867708e-01,-2.851942546151867708e-01,-2.851942546151867708e-01,-2.851942546151867708e-01,-2.851942546151867708e-01
-2.851942546151867708e-01,-2.851942546151867708e-01,-2.851942546151867708e-01,-2.851942546151867708e-01,-2.851942546151867708e-01,-2.851942546151867708e-01,-2.851942546151867708e-01,-2.851942546151867708e-01,-2.775551227951371103e-01,-2.406326523315638344e-01,-2.037101818679905585e-01,-1.667877114044172826e-01,-1.298652409408440067e-01,-9.166958184059581516e-02,-5.474711137702248376e-02,-1.782464091344920787e-02,-5.551115123125782702e-17,-5.551115123125782702e-17,-5.551115123125782702e-17,-5.551115123125782702e-17,-5.551115123125782702e-17,-5.551115123125782702e-17,-5.551115123125782702e-17,-5.551115123125782702e-17,-5.551115123125782702e-17,-5.551115123125782702e-17,-5.551115123125782702e-17,-5.551115123125782702e-17,-1.039770719951205180e-02,-3.193581496992980995e-02,-5.347392274034756809e-02,-7.501203051076527073e-02,-9.655013828118305663e-02,-1.188309394229945248e-01,-1.403690471934122552e-01,-1.619071549638300134e-01,-1.834452627342477715e-01,-2.049833705046655019e-01,-2.272641716464769701e-01,-2.488022794168947005e-01,-2.703403871873124587e-01,-2.851942546151867708e-01,-2.851942546151867708e-01,-2.851942546151867708e-01,-2.851942546151867708e-01,-2.851942546151867708e-01,-2.851942546151867708e-01
-2.851942546151867708e-01,-2.851942546151867708e-01,-2.851942546151867708e-01,-2.851942546151867708e-01,-2.851942546151867708e-01,-2.851942546151867708e-01,-2.851942546151867708e-01,-2.851942546151867708e-01,-2.610036705183629291e-01,-2.240812000547896254e-01,-1.871587295912163496e-01,-1.502362591276430459e-01,-1.120406000273948544e-01,-7.511812956382155071e-02,-3.819565910024821931e-02,-1.273188636675026686e-03,-5.551115123125782702e-17,-5.551115123125782702e-17,-5.551115123125782702e-17,-1.110223024625156540e-16,-1.110223024625156540e-16,-5.551115123125782702e-17,-1.110223024625156540e-16,-5.551115123125782702e-17,-5.551115123125782702e-17,-1.110223024625156540e-16,-5.551115123125782702e-17,-5.551115123125782702e-17,-2.005272102763033804e-02,-4.159082879804812394e-02,-6.312893656846585433e-02,-8.466704433888361248e-02,-1.069478454806950807e-01,-1.284859532511128388e-01,-1.500240610215305692e-01,-1.715621687919482996e-01,-1.931002765623660578e-01,-2.153810777041775260e-01,-2.369191854745952841e-01,-2.584572932450130422e-01,-2.799954010154307449e-01,-2.851942546151867708e-01,-2.851942546151867708e-01,-2.851942546151867708e-01,-2.851942546151867708e-01,-2.851942546151867708e-01,-2.851942546151867708e-01
-2.851942546151867708e-01,-2.851942546151867708e-01,-2.851942546151867708e-01,-2.851942546151867708e-01,-2.851942546151867708e-01,-2.851942546151867708e-01,-2.851942546151867708e-01,-2.813746887051619683e-01,-2.444522182415886646e-01,-2.075297477780153887e-01,-1.706072773144420851e-01,-1.336848068508688370e-01,-9.548914775062061766e-02,-5.856667728704734177e-02,-2.164420682347406588e-02,-5.551115123125782702e-17,-5.551115123125782702e-17,-5.551115123125782702e-17,0.000000000000000000e+00,0.000000000000000000e+00,-5.551115123125782702e-17,-5.551115123125782702e-17,-5.551115123125782702e-17,-5.551115123125782702e-17,-5.551115123125782702e-17,-5.551115123125782702e-17,-5.551115123125782702e-17,-8.169627085330921634e-03,-2.970773485574867978e-02,-5.124584262616641017e-02,-7.278395039658416832e-02,-9.432205816700189871e-02,-1.166028593088133669e-01,-1.381409670792311251e-01,-1.596790748496488832e-01,-1.812171826200666414e-01,-2.027552903904843717e-01,-2.250360915322958122e-01,-2.465741993027135703e-01,-2.681123070731313285e-01,-2.851942546151867708e-01,-2.851942546151867708e-01,-2.851942546151867708e-01,-2.851942546151867708e-01,-2.851942546151867708e-01,-2.851942546151867708e-01,-2.851942546151867708e-01
-2.851942546151867708e-01,-2.851942546151867708e-01,-2.851942546151867708e-01,-2.851942546151867708e-01,-2.851942546151867708e-01,-2.851942546151867708e-01,-2.851942546151867708e-01,-2.648232364283877316e-01,-2.279007659648144557e-01,-1.909782955012411798e-01,-1.540558250376678762e-01,-1.158601659374196846e-01,-7.893769547384638097e-02,-4.201522501027310508e-02,-5.092754546699773677e-03,-5.551115123125782702e-17,-5.551115123125782702e-17,-5.551115123125782702e-17,-5.551115123125782702e-17,-5.551115123125782702e-17,-1.110223024625156540e-16,-1.110223024625156540e-16,-5.551115123125782702e-17,0.000000000000000000e+00,-5.551115123125782702e-17,-5.551115123125782702e-17,-5.551115123125782702e-17,-1.782464091344920787e-02,-3.936274868386702153e-02,-6.090085645428469641e-02,-8.243896422470245455e-02,-1.047197653665139505e-01,-1.262578731369316531e-01,-1.477959809073494113e-01,-1.693340886777671694e-01,-1.908721964481849276e-01,-2.131529975899963680e-01,-2.346911053604141262e-01,-2.562292131308318566e-01,-2.777673209012496147e-01,-2.851942546151867708e-01,-2.851942546151867708e-01,-2.851942546151867708e-01,-2.851942546151867708e-01,-2.851942546151867708e-01,-2.851942546151867708e-01,-2.851942546151867708e-01
-2.851942546151867708e-01,-2.851942546151867708e-01,-2.851942546151867708e-01,-2.851942546151867708e-01,-2.851942546151867708e-01,-2.851942546151867708e-01,-2.851942546151867708e-01,-2.482717841516134949e-01,-2.113493136880402190e-01,-1.744268432244669431e-01,-1.375043727608936672e-01,-9.930871366064544792e-02,-6.238624319707214427e-02,-2.546377273349886838e-02,-5.551115123125782702e-17,-5.551115123125782702e-17,-5.551115123125782702e-17,0.000000000000000000e+00,-5.551115123125782702e-17,-5.551115123125782702e-17,-5.551115123125782702e-17,-1.110223024625156540e-16,-1.110223024625156540e-16,-5.551115123125782702e-17,-5.551115123125782702e-17,-5.551115123125782702e-17,-5.941546971149791467e-03,-2.747965474156749410e-02,-4.901776251198530776e-02,-7.055587028240301040e-02,-9.209397805282076854e-02,-1.143747791946322367e-01,-1.359128869650499949e-01,-1.574509947354677253e-01,-1.789891025058854557e-01,-2.005272102763032138e-01,-2.228080114181146820e-01,-2.443461191885324402e-01,-2.658842269589501983e-01,-2.851942546151867708e-01,-2.851942546151867708e-01,-2.851942546151867708e-01,-2.851942546151867708e-01,-2.851942546151867708e-01,-2.851942546151867708e-01,-2.851942546151867708e-01,-2.851942546151867708e-01
-2.851942546151867708e-01,-2.851942546151867708e-01,-2.851942546151867708e-01,-2.851942546151867708e-01,-2.851942546151867708e-01,-2.851942546151867708e-01,-2.686428023384125341e-01,-2.317203318748392582e-01,-1.947978614112659823e-01,-1.578753909476927064e-01,-1.196797318474444871e-01,-8.275726138387121122e-02,-4.583479092029790758e-02,-8.912320456724631690e-03,-5.551115123125782702e-17,-1.110223024625156540e-16,-5.551115123125782702e-17,-5.551115123125782702e-17,-5.551115123125782702e-17,-5.551115123125782702e-17,-5.551115123125782702e-17,-5.551115123125782702e-17,-5.551115123125782702e-17,-5.551115123125782702e-17,-5.551115123125782702e-17,-5.551115123125782702e-17,-1.559656079926807770e-02,-3.713466856968583585e-02,-5.867277634010359399e-02,-8.021088411052132439e-02,-1.024916852523327648e-01,-1.240297930227505507e-01,-1.455679007931682811e-01,-1.671060085635860393e-01,-1.886441163340037697e-01,-2.109249174758152101e-01,-2.324630252462329683e-01,-2.540011330166507264e-01,-2.755392407870684846e-01,-2.851942546151867708e-01,-2.851942546151867708e-01,-2.851942546151867708e-01,-2.851942546151867708e-01,-2.851942546151867708e-01,-2.851942546151867708e-01,-2.851942546151867708e-01,-2.851942546151867708e-01
-2.851942546151867708e-01,-2.851942546151867708e-01,-2.851942546151867708e-01,-2.851942546151867708e-01,-2.851942546151867708e-01,-2.851942546151867708e-01,-2.520913500616382974e-01,-2.151688795980650493e-01,-1.782464091344917456e-01,-1.413239386709184697e-01,-1.031282795706702782e-01,-6.620580910709697453e-02,-2.928333864352367089e-02,-5.551115123125782702e-17,-1.110223024625156540e-16,0.000000000000000000e+00,-5.551115123125782702e-17,-5.551115123125782702e-17,0.000000000000000000e+00,-5.551115123125782702e-17,-5.551115123125782702e-17,-5.551115123125782702e-17,-5.551115123125782702e-17,-1.110223024625156540e-16,-5.551115123125782702e-17,-3.713466856968661300e-03,-2.525157462738636394e-02,-4.678968239780414984e-02,-6.832779016822185247e-02,-8.986589793863963838e-02,-1.121466990804510788e-01,-1.336848068508688370e-01,-1.552229146212865951e-01,-1.767610223917043255e-01,-1.982991301621220837e-01,-2.205799313039335519e-01,-2.421180390743512822e-01,-2.636561468447690126e-01,-2.851942546151867708e-01,-2.851942546151867708e-01,-2.851942546151867708e-01,-2.851942546151867708e-01,-2.851942546151867708e-01,-2.851942546151867708e-01,-2.851942546151867708e-01,-2.851942546151867708e-01,-2.851942546151867708e-01
-2.851942546151867708e-01,-2.851942546151867708e-01,-2.851942546151867708e-01,-2.851942546151867708e-01,-2.851942546151867708e-01,-2.724623682484373921e-01,-2.355398977848640885e-01,-1.986174273212908126e-01,-1.616949568577175089e-01,-1.234992977574693174e-01,-8.657682729389604148e-02,-4.965435683032273784e-02,-1.273188636674948970e-02,-5.551115123125782702e-17,-1.110223024625156540e-16,0.000000000000000000e+00,-5.551115123125782702e-17,-5.551115123125782702e-17,-5.551115123125782702e-17,0.000000000000000000e+00,-5.551115123125782702e-17,-5.551115123125782702e-17,-5.551115123125782702e-17,-5.551115123125782702e-17,-5.551115123125782702e-17,-1.336848068508694753e-02,-3.490658845550470568e-02,-5.644469622592240832e-02,-7.798280399634016646e-02,-1.002636051381516624e-01,-1.218017129085693928e-01,-1.433398206789871510e-01,-1.648779284494048814e-01,-1.864160362198226117e-01,-2.079541439902403699e-01,-2.302349451320518381e-01,-2.517730529024695962e-01,-2.733111606728872989e-01,-2.851942546151867708e-01,-2.851942546151867708e-01,-2.851942546151867708e-01,-2.851942546151867708e-01,-2.851942546151867708e-01,-2.851942546151867708e-01,-2.851942546151867708e-01,-2.851942546151867708e-01,-2.851942546151867708e-01
-2.851942546151867708e-01,-2.851942546151867708e-01,-2.851942546151867708e-01,-2.851942546151867708e-01,-2.851942546151867708e-01,-2.559109159716631554e-01,-2.189884455080898795e-01,-1.820659750445165759e-01,-1.451435045809433000e-01,-1.069478454806950807e-01,-7.002537501712177703e-02,-3.310290455354847339e-02,-5.551115123125782702e-17,-5.551115123125782702e-17,-5.551115123125782702e-17,-5.551115123125782702e-17,-5.551115123125782702e-17,-1.110223024625156540e-16,-5.551115123125782702e-17,-5.551115123125782702e-17,0.000000000000000000e+00,-5.551115123125782702e-17,-5.551115123125782702e-17,-5.551115123125782702e-17,-1.485386742787531134e-03,-2.302349451320523377e-02,-4.456160228362299192e-02,-6.609971005404075006e-02,-8.763781782445850821e-02,-1.099186189662699764e-01,-1.314567267366876790e-01,-1.529948345071054372e-01,-1.745329422775231953e-01,-1.960710500479408980e-01,-2.183518511897523662e-01,-2.398899589601701243e-01,-2.614280667305878825e-01,-2.829661745010056406e-01,-2.851942546151867708e-01,-2.851942546151867708e-01,-2.851942546151867708e-01,-2.851942546151867708e-01,-2.851942546151867708e-01,-2.851942546151867708e-01,-2.851942546151867708e-01,-2.851942546151867708e-01,-2.851942546151867708e-01
-2.851942546151867708e-01,-2.851942546151867708e-01,-2.851942546151867708e-01,-2.851942546151867708e-01,-2.762819341584621946e-01,-2.393594636948889187e-01,-2.024369932313156428e-01,-1.655145227677423392e-01,-1.273188636674941199e-01,-9.039639320392084398e-02,-5.347392274034754034e-02,-1.655145227677429220e-02,0.000000000000000000e+00,0.000000000000000000e+00,-1.110223024625156540e-16,-5.551115123125782702e-17,-1.110223024625156540e-16,0.000000000000000000e+00,-5.551115123125782702e-17,-5.551115123125782702e-17,-5.551115123125782702e-17,-5.551115123125782702e-17,-5.551115123125782702e-17,-5.551115123125782702e-17,-1.114040057090581737e-02,-3.267850834132352000e-02,-5.421661611174127815e-02,-7.575472388215900854e-02,-9.729283165257679444e-02,-1.195736327943882071e-01,-1.411117405648059930e-01,-1.626498483352237234e-01,-1.841879561056414816e-01,-2.057260638760592397e-01,-2.280068650178706802e-01,-2.495449727882884383e-01,-2.710830805587061687e-01,-2.851942546151867708e-01,-2.851942546151867708e-01,-2.851942546151867708e-01,-2.851942546151867708e-01,-2.851942546151867708e-01,-2.851942546151867708e-01,-2.851942546151867708e-01,-2.851942546151867708e-01,-2.851942546151867708e-01,-2.851942546151867708e-01
-2.851942546151867708e-01,-2.851942546151867708e-01,-2.851942546151867708e-01,-2.851942546151867708e-01,-2.668921679629844834e-01,-2.228080114181146820e-01,-1.858855409545414061e-01,-1.489630704909681025e-01,-1.107674113907199387e-01,-7.384494092714660729e-02,-3.692247046357330365e-02,-5.551115123125782702e-17,0.000000000000000000e+00,-5.551115123125782702e-17,-5.551115123125782702e-17,-5.551115123125782702e-17,-5.551115123125782702e-17,-5.551115123125782702e-17,-5.551115123125782702e-17,-1.110223024625156540e-16,-5.551115123125782702e-17,-5.551115123125782702e-17,-5.551115123125782702e-17,-5.551115123125782702e-17,-2.079541439902410360e-02,-4.233352216944183399e-02,-6.387162993985956438e-02,-8.540973771027732253e-02,-1.076905388520887907e-01,-1.292286466225065489e-01,-1.507667543929242793e-01,-1.723048621633420374e-01,-1.938429699337597678e-01,-2.161237710755712360e-01,-2.376618788459889942e-01,-2.591999866164067523e-01,-2.807380943868244549e-01,-2.851942546151867708e-01,-2.851942546151867708e-01,-2.851942546151867708e-01,-2.851942546151867708e-01,-2.851942546151867708e-01,-2.851942546151867708e-01,-2.851942546151867708e-01,-2.851942546151867708e-01,-2.851942546151867708e-01,-2.851942546151867708e-01
-2.851942546151867708e-01,-2.851942546151867708e-01,-2.851942546151867708e-01,-2.851942546151867708e-01,-2.851942546151867708e-01,-2.679266337302829148e-01,-2.127816509042995130e-01,-1.311384295775189779e-01,-9.421595911394567424e-02,-5.729348865037237060e-02,-2.037101818679909471e-02,-5.551115123125782702e-17,-5.551115123125782702e-17,-5.551115123125782702e-17,-5.551115123125782702e-17,-5.551115123125782702e-17,-5.551115123125782702e-17,-5.551115123125782702e-17,-5.551115123125782702e-17,-5.551115123125782702e-17,-5.551115123125782702e-17,-5.551115123125782702e-17,0.000000000000000000e+00,-8.912320456724631690e-03,-3.045042822714238984e-02,-5.198853599756012023e-02,-7.352664376797785062e-02,-9.506475153839563652e-02,-1.173455526802071047e-01,-1.388836604506248351e-01,-1.604217682210425933e-01,-1.819598759914603514e-01,-2.034979837618780818e-01,-2.257787849036895222e-01,-2.473168926741072804e-01,-2.688550004445250385e-01,-2.851942546151867708e-01,-2.851942546151867708e-01,-2.851942546151867708e-01,-2.851942546151867708e-01,-2.851942546151867708e-01,-2.851942546151867708e-01,-2.851942546151867708e-01,-2.851942546151867708e-01,-2.851942546151867708e-01,-2.851942546151867708e-01,-2.851942546151867708e-01
-2.851942546151867708e-01,-2.851942546151867708e-01,-2.851942546151867708e-01,-2.851942546151867708e-01,-2.851942546151867708e-01,-2.851942546151867708e-01,-2.851942546151867708e-01,-2.638683449508815171e-01,-1.749440761081161311e-01,-5.602030001369742718e-02,-3.819565910024858013e-03,-5.551115123125782702e-17,-5.551115123125782702e-17,-5.551115123125782702e-17,-5.551115123125782702e-17,-5.551115123125782702e-17,-5.551115123125782702e-17,-5.551115123125782702e-17,-5.551115123125782702e-17,0.000000000000000000e+00,-5.551115123125782702e-17,-5.551115123125782702e-17,-5.551115123125782702e-17,-1.856733428484291792e-02,-4.010544205526070383e-02,-6.164354982567843422e-02,-8.318165759609619236e-02,-1.054624587379076606e-01,-1.270005665083253910e-01,-1.485386742787431213e-01,-1.700767820491608795e-01,-1.916148898195786376e-01,-2.138956909613901058e-01,-2.354337987318078362e-01,-2.569719065022255666e-01,-2.785100142726433248e-01,-2.851942546151867708e-01,-2.851942546151867708e-01,-2.851942546151867708e-01,-2.851942546151867708e-01,-2.851942546151867708e-01,-2.851942546151867708e-01,-2.851942546151867708e-01,-2.851942546151867708e-01,-2.851942546151867708e-01,-2.851942546151867708e-01,-2.851942546151867708e-01
-2.851942546151867708e-01,-2.851942546151867708e-01,-2.851942546151867708e-01,-2.851942546151867708e-01,-2.851942546151867708e-01,-2.851942546151867708e-01,-2.851942546151867708e-01,-2.851942546151867708e-01,-2.851942546151867708e-01,-2.770378899114879223e-01,-1.604217682210425933e-01,-4.456160228362299192e-02,-1.110223024625156540e-16,-5.551115123125782702e-17,-1.110223024625156540e-16,-5.551115123125782702e-17,-5.551115123125782702e-17,-5.551115123125782702e-17,-5.551115123125782702e-17,-5.551115123125782702e-17,-5.551115123125782702e-17,-5.551115123125782702e-17,-6.684240342543501523e-03,-2.822234811296125967e-02,-4.976045588337896231e-02,-7.129856365379672045e-02,-9.283667142421447860e-02,-1.151174725660259468e-01,-1.366555803364437049e-01,-1.581936881068614353e-01,-1.797317958772791935e-01,-2.012699036476969239e-01,-2.235507047895083921e-01,-2.450888125599261502e-01,-2.666269203303439084e-01,-2.851942546151867708e-01,-2.851942546151867708e-01,-2.851942546151867708e-01,-2.851942546151867708e-01,-2.851942546151867708e-01,-2.851942546151867708e-01,-2.851942546151867708e-01,-2.851942546151867708e-01,-2.851942546151867708e-01,-2.851942546151867708e-01,-2.851942546151867708e-01,-2.851942546151867708e-01
-2.851942546151867708e-01,-2.851942546151867708e-01,-2.851942546151867708e-01,-2.851942546151867708e-01,-2.851942546151867708e-01,-2.851942546151867708e-01,-2.851942546151867708e-01,-2.851942546151867708e-01,-2.851942546151867708e-01,-2.851942546151867708e-01,-2.851942546151867708e-01,-2.851942546151867708e-01,-1.871587295912163218e-01,-7.129856365379672045e-02,-5.551115123125782702e-17,0.000000000000000000e+00,-5.551115123125782702e-17,-5.551115123125782702e-17,-5.551115123125782702e-17,-5.551115123125782702e-17,-5.551115123125782702e-17,-5.551115123125782702e-17,-1.633925417066184327e-02,-3.787736194107954590e-02,-5.941546971149727630e-02,-8.095357748191506220e-02,-1.032343786237265026e-01,-1.247724863941442608e-01,-1.463105941645619912e-01,-1.678487019349797493e-01,-1.893868097053974797e-01,-2.116676108472089202e-01,-2.332057186176266783e-01,-2.547438263880444365e-01,-2.762819341584621946e-01,-2.851942546151867708e-01,-2.851942546151867708e-01,-2.851942546151867708e-01,-2.851942546151867708e-01,-2.851942546151867708e-01,-2.851942546151867708e-01,-2.851942546151867708e-01,-2.851942546151867708e-01,-2.851942546151867708e-01,-2.851942546151867708e-01,-2.851942546151867708e-01,-2.851942546151867708e-01
-2.851942546151867708e-01,-2.851942546151867708e-01,-2.851942546151867708e-01,-2.851942546151867708e-01,-2.851942546151867708e-01,-2.851942546151867708e-01,-2.851942546151867708e-01,-2.851942546151867708e-01,-2.851942546151867708e-01,-2.851942546151867708e-01,-2.851942546151867708e-01,-2.851942546151867708e-01,-2.851942546151867708e-01,-2.851942546151867708e-01,-2.138956909613901058e-01,-9.803552502397047674e-02,-1.110223024625156540e-16,-1.110223024625156540e-16,-5.551115123125782702e-17,-1.110223024625156540e-16,-5.551115123125782702e-17,-4.456160228362371356e-03,-2.599426799878007399e-02,-4.753237576919785989e-02,-6.907048353961556253e-02,-9.060859131003334843e-02,-1.128893924518448166e-01,-1.344275002222625193e-01,-1.559656079926802774e-01,-1.775037157630980356e-01,-1.990418235335157937e-01,-2.213226246753272619e-01,-2.428607324457449923e-01,-2.643988402161627227e-01,-2.851942546151867708e-01,-2.851942546151867708e-01,-2.851942546151867708e-01,-2.851942546151867708e-01,-2.851942546151867708e-01,-2.851942546151867708e-01,-2.851942546151867708e-01,-2.851942546151867708e-01,-2.851942546151867708e-01,-2.851942546151867708e-01,-2.851942546151867708e-01,-2.851942546151867708e-01,-2.851942546151867708e-01
-2.851942546151867708e-01,-2.851942546151867708e-01,-2.851942546151867708e-01,-2.851942546151867708e-01,-2.851942546151867708e-01,-2.851942546151867708e-01,-2.851942546151867708e-01,-2.851942546151867708e-01,-2.851942546151867708e-01,-2.851942546151867708e-01,-2.851942546151867708e-01,-2.851942546151867708e-01,-2.851942546151867708e-01,-2.851942546151867708e-01,-2.851942546151867708e-01,-2.851942546151867708e-01,-2.406326523315638344e-01,-1.247724863941442330e-01,-8.912320456724631690e-03,0.000000000000000000e+00,-5.551115123125782702e-17,-1.411117405648065759e-02,-3.564928182689841574e-02,-5.718738959731614613e-02,-7.872549736773390427e-02,-1.010062985095453447e-01,-1.225444062799631306e-01,-1.440825140503808333e-01,-1.656206218207986192e-01,-1.871587295912163496e-01,-2.094395307330277900e-01,-2.309776385034455481e-01,-2.525157462738633063e-01,-2.740538540442810644e-01,-2.851942546151867708e-01,-2.851942546151867708e-01,-2.851942546151867708e-01,-2.851942546151867708e-01,-2.851942546151867708e-01,-2.851942546151867708e-01,-2.851942546151867708e-01,-2.851942546151867708e-01,-2.851942546151867708e-01,-2.851942546151867708e-01,-2.851942546151867708e-01,-2.851942546151867708e-01,-2.851942546151867708e-01
