4.461518706000043577e-02,4.461518706000043577e-02,4.461518706000043577e-02,4.461518706000043577e-02,4.461518706000043577e-02,4.461518706000043577e-02,4.461518706000043577e-02,4.461518706000043577e-02,4.461518706000043577e-02,4.461518706000043577e-02,4.461518706000043577e-02,4.461518706000043577e-02,4.461518706000043577e-02,4.461518706000043577e-02,4.461518706000043577e-02,4.461518706000043577e-02,4.461518706000043577e-02,3.895505138820933716e-02,2.996542414477641053e-02,2.097579690134349084e-02,1.198616965791056421e-02,2.996542414477637584e-03,-5.993084828955282106e-03,-1.498271207238820180e-02,-2.397233931582112842e-02,-3.296196655925405505e-02,-4.195159380268696780e-02,-5.060827188895572482e-02,-5.959789913238865144e-02,-6.858752637582156420e-02,-6.230311103434761633e-02,3.620822084160486842e-03,4.461518706000043577e-02,4.461518706000043577e-02,4.461518706000043577e-02,4.461518706000043577e-02,4.461518706000043577e-02,4.461518706000043577e-02,4.461518706000043577e-02,4.461518706000043577e-02,4.461518706000043577e-02,4.461518706000043577e-02,4.461518706000043577e-02,4.461518706000043577e-02,4.461518706000043577e-02,4.461518706000043577e-02,4.461518706000043577e-02
4.461518706000043577e-02,4.461518706000043577e-02,4.461518706000043577e-02,4.461518706000043577e-02,4.461518706000043577e-02,4.461518706000043577e-02,4.461518706000043577e-02,4.461518706000043577e-02,4.461518706000043577e-02,4.461518706000043577e-02,4.461518706000043577e-02,4.461518706000043577e-02,4.461518706000043577e-02,4.461518706000043577e-02,4.461518706000043577e-02,4.461518706000043577e-02,4.228454295985115824e-02,3.329491571641823855e-02,2.430528847298531192e-02,1.531566122955238876e-02,6.326033986119465602e-03,-2.663593257313461027e-03,-1.165322050074638072e-02,-2.064284774417930735e-02,-2.963247498761223397e-02,-3.862210223104516060e-02,-4.761172947447807335e-02,-5.660135671791099998e-02,-6.559098396134392661e-02,-7.458061120477683936e-02,-8.357023844820977987e-02,-9.222691653447852300e-02,-4.652964471369448740e-02,3.010068473987435878e-02,4.461518706000043577e-02,4.461518706000043577e-02,4.461518706000043577e-02,4.461518706000043577e-02,4.461518706000043577e-02,4.461518706000043577e-02,4.461518706000043577e-02,4.461518706000043577e-02,4.461518706000043577e-02,4.461518706000043577e-02,4.461518706000043577e-02,4.461518706000043577e-02,4.461518706000043577e-02
4.461518706000043577e-02,4.461518706000043577e-02,4.461518706000043577e-02,4.461518706000043577e-02,4.461518706000043577e-02,4.461518706000043577e-02,4.461518706000043577e-02,4.461518706000043577e-02,4.461518706000043577e-02,4.461518706000043577e-02,4.461518706000043577e-02,4.461518706000043577e-02,4.461518706000043577e-02,4.461518706000043577e-02,4.461518706000043577e-02,4.461518706000043577e-02,3.629145813089587613e-02,2.730183088746295297e-02,1.831220364403002981e-02,9.322576400597110124e-03,6.658983143283600525e-04,-8.323728929104559637e-03,-1.731335617253747933e-02,-2.630298341597041289e-02,-3.529261065940333952e-02,-4.428223790283625227e-02,-5.327186514626919278e-02,-6.226149238970210553e-02,-7.125111963313503216e-02,-8.024074687656794491e-02,-8.923037412000088542e-02,-9.822000136343379817e-02,-1.072096286068667387e-01,-1.061483531684059151e-01,-1.906133924764943921e-02,4.461518706000043577e-02,4.461518706000043577e-02,4.461518706000043577e-02,4.461518706000043577e-02,4.461518706000043577e-02,4.461518706000043577e-02,4.461518706000043577e-02,4.461518706000043577e-02,4.461518706000043577e-02,4.461518706000043577e-02,4.461518706000043577e-02,4.461518706000043577e-02
4.461518706000043577e-02,4.461518706000043577e-02,4.461518706000043577e-02,4.461518706000043577e-02,4.461518706000043577e-02,4.461518706000043577e-02,4.461518706000043577e-02,4.461518706000043577e-02,4.461518706000043577e-02,4.461518706000043577e-02,4.461518706000043577e-02,4.461518706000043577e-02,4.461518706000043577e-02,4.461518706000043577e-02,4.461518706000043577e-02,3.962094970253769721e-02,3.063132245910477752e-02,2.164169521567185436e-02,1.265206797223893120e-02,3.662440728806004575e-03,-5.327186514626915115e-03,-1.431681375805984174e-02,-2.330644100149277531e-02,-3.229606824492568806e-02,-4.095274633119443120e-02,-4.994237357462735782e-02,-5.893200081806028445e-02,-6.792162806149319720e-02,-7.691125530492612383e-02,-8.590088254835902271e-02,-9.489050979179199097e-02,-1.038801370352248760e-01,-1.128697642786578442e-01,-1.218593915220907292e-01,-1.308490187655236836e-01,-8.219682317490752121e-02,1.438964638618950298e-02,4.461518706000043577e-02,4.461518706000043577e-02,4.461518706000043577e-02,4.461518706000043577e-02,4.461518706000043577e-02,4.461518706000043577e-02,4.461518706000043577e-02,4.461518706000043577e-02,4.461518706000043577e-02,4.461518706000043577e-02
4.461518706000043577e-02,4.461518706000043577e-02,4.461518706000043577e-02,4.461518706000043577e-02,4.461518706000043577e-02,4.461518706000043577e-02,4.461518706000043577e-02,4.461518706000043577e-02,4.461518706000043577e-02,4.461518706000043577e-02,4.461518706000043577e-02,4.461518706000043577e-02,4.461518706000043577e-02,4.461518706000043577e-02,4.295044127417952523e-02,3.396081403074659860e-02,2.497118678731367544e-02,1.598155954388075228e-02,6.991932300447832593e-03,-1.997694942985100974e-03,-1.098732218641802066e-02,-1.997694942985094035e-02,-2.896657667328386698e-02,-3.795620391671679361e-02,-4.694583116014972024e-02,-5.593545840358264687e-02,-6.492508564701555962e-02,-7.391471289044848625e-02,-8.290434013388138512e-02,-9.156101822015012826e-02,-1.005506454635830688e-01,-1.095402727070160093e-01,-1.185298999504489498e-01,-1.275195271938818209e-01,-1.365091544373147614e-01,-1.454987816807477019e-01,-1.544884089241806424e-01,-4.642559810208067572e-02,4.461518706000043577e-02,4.461518706000043577e-02,4.461518706000043577e-02,4.461518706000043577e-02,4.461518706000043577e-02,4.461518706000043577e-02,4.461518706000043577e-02,4.461518706000043577e-02,4.461518706000043577e-02
4.461518706000043577e-02,4.461518706000043577e-02,4.461518706000043577e-02,4.461518706000043577e-02,4.461518706000043577e-02,4.461518706000043577e-02,4.461518706000043577e-02,4.461518706000043577e-02,4.461518706000043577e-02,4.461518706000043577e-02,4.461518706000043577e-02,4.461518706000043577e-02,4.461518706000043577e-02,4.461518706000043577e-02,3.695735644522424312e-02,2.796772920179131650e-02,1.897810195835839681e-02,1.032142387208966061e-02,1.331796628656733983e-03,-7.657830614776192646e-03,-1.664745785820911927e-02,-2.563708510164204590e-02,-3.462671234507497253e-02,-4.361633958850788528e-02,-5.260596683194081191e-02,-6.159559407537373854e-02,-7.058522131880666517e-02,-7.957484856223959180e-02,-8.856447580567251843e-02,-9.755410304910543118e-02,-1.065437302925383439e-01,-1.155333575359712844e-01,-1.245229847794042249e-01,-1.331796628656729542e-01,-1.421692901091058947e-01,-1.511589173525387797e-01,-1.601485445959717202e-01,-1.684722735250762660e-01,-1.152004083788071148e-01,-1.997694942985094035e-03,4.461518706000043577e-02,4.461518706000043577e-02,4.461518706000043577e-02,4.461518706000043577e-02,4.461518706000043577e-02,4.461518706000043577e-02,4.461518706000043577e-02
4.461518706000043577e-02,4.461518706000043577e-02,4.461518706000043577e-02,4.461518706000043577e-02,4.461518706000043577e-02,4.461518706000043577e-02,4.461518706000043577e-02,4.461518706000043577e-02,4.461518706000043577e-02,4.461518706000043577e-02,4.461518706000043577e-02,4.461518706000043577e-02,4.461518706000043577e-02,4.028684801686606420e-02,3.129722077343313758e-02,2.230759353000021789e-02,1.331796628656729820e-02,4.328339043134371567e-03,-4.661288200298555062e-03,-1.365091544373148169e-02,-2.264054268716440832e-02,-3.129722077343313758e-02,-4.028684801686606420e-02,-4.927647526029899083e-02,-5.826610250373191746e-02,-6.725572974716483021e-02,-7.624535699059775684e-02,-8.523498423403068347e-02,-9.422461147746359622e-02,-1.032142387208965367e-01,-1.122038659643294772e-01,-1.211934932077623900e-01,-1.301831204511952889e-01,-1.391727476946282294e-01,-1.481623749380611699e-01,-1.571520021814941104e-01,-1.661416294249269954e-01,-1.684722735250762660e-01,-1.684722735250762660e-01,-1.684722735250762660e-01,-6.192854323253792204e-02,4.461518706000043577e-02,4.461518706000043577e-02,4.461518706000043577e-02,4.461518706000043577e-02,4.461518706000043577e-02,4.461518706000043577e-02
4.461518706000043577e-02,4.461518706000043577e-02,4.461518706000043577e-02,4.461518706000043577e-02,4.461518706000043577e-02,4.461518706000043577e-02,4.461518706000043577e-02,4.461518706000043577e-02,4.461518706000043577e-02,4.461518706000043577e-02,4.461518706000043577e-02,4.461518706000043577e-02,4.361633958850788528e-02,3.462671234507496559e-02,2.563708510164204243e-02,1.664745785820911927e-02,7.657830614776192646e-03,-1.331796628656727044e-03,-1.032142387208965367e-02,-1.931105111552257336e-02,-2.830067835895549999e-02,-3.729030560238842662e-02,-4.627993284582135325e-02,-5.526956008925426600e-02,-6.425918733268720651e-02,-7.324881457612010538e-02,-8.190549266238884851e-02,-9.089511990582178902e-02,-9.988474714925470177e-02,-1.088743743926876423e-01,-1.178640016361205828e-01,-1.268536288795534817e-01,-1.358432561229864222e-01,-1.448328833664193072e-01,-1.538225106098523032e-01,-1.628121378532851882e-01,-1.684722735250762660e-01,-1.684722735250762660e-01,-1.684722735250762660e-01,-1.684722735250762660e-01,-1.684722735250762660e-01,-1.213044762601504650e-01,-8.604654780461844232e-03,4.461518706000043577e-02,4.461518706000043577e-02,4.461518706000043577e-02,4.461518706000043577e-02
4.461518706000043577e-02,4.461518706000043577e-02,4.461518706000043577e-02,4.461518706000043577e-02,4.461518706000043577e-02,4.461518706000043577e-02,4.461518706000043577e-02,4.461518706000043577e-02,4.461518706000043577e-02,4.461518706000043577e-02,4.461518706000043577e-02,4.461518706000043577e-02,3.762325475955261012e-02,2.863362751611968002e-02,1.997694942985094035e-02,1.098732218641801373e-02,1.997694942985094035e-03,-6.991932300447825654e-03,-1.598155954388075228e-02,-2.497118678731367891e-02,-3.396081403074660554e-02,-4.295044127417953217e-02,-5.194006851761245880e-02,-6.092969576104537155e-02,-6.991932300447828430e-02,-7.890895024791121093e-02,-8.789857749134412368e-02,-9.688820473477706419e-02,-1.058778319782100047e-01,-1.148674592216429174e-01,-1.235241373079116606e-01,-1.325137645513445595e-01,-1.415033917947775000e-01,-1.504930190382104405e-01,-1.594826462816433810e-01,-1.684722735250762660e-01,-1.684722735250762660e-01,-1.684722735250762660e-01,-1.684722735250762660e-01,-1.684722735250762660e-01,-1.645878666914941113e-01,-1.496051546191058956e-01,-1.346224425467177355e-01,-4.777820405306017204e-02,3.995043063931475597e-02,4.461518706000043577e-02,4.461518706000043577e-02
4.461518706000043577e-02,4.461518706000043577e-02,4.461518706000043577e-02,4.461518706000043577e-02,4.461518706000043577e-02,4.461518706000043577e-02,4.461518706000043577e-02,4.461518706000043577e-02,4.461518706000043577e-02,4.461518706000043577e-02,4.461518706000043577e-02,4.095274633119443120e-02,3.196311908776150457e-02,2.297349184432858141e-02,1.398386460089565825e-02,4.994237357462738558e-03,-3.995389885970188071e-03,-1.298501712940311470e-02,-2.197464437283602745e-02,-3.063132245910477058e-02,-3.962094970253769721e-02,-4.861057694597063772e-02,-5.760020418940356435e-02,-6.658983143283647710e-02,-7.557945867626940373e-02,-8.456908591970231648e-02,-9.355871316313525698e-02,-1.025483404065681697e-01,-1.115379676500011102e-01,-1.205275948934340230e-01,-1.295172221368669496e-01,-1.385068493802998901e-01,-1.474964766237328306e-01,-1.564861038671657156e-01,-1.654757311105986561e-01,-1.684722735250762660e-01,-1.684722735250762660e-01,-1.684722735250762660e-01,-1.684722735250762660e-01,-1.684722735250762660e-01,-1.551543072385089816e-01,-1.401715951661207660e-01,-1.251888830937325503e-01,-1.102061710213444040e-01,-7.774362819783658951e-02,1.695959769305054043e-03,4.461518706000043577e-02
4.461518706000043577e-02,4.461518706000043577e-02,4.461518706000043577e-02,4.461518706000043577e-02,4.461518706000043577e-02,4.461518706000043577e-02,4.461518706000043577e-02,4.461518706000043577e-02,4.461518706000043577e-02,4.461518706000043577e-02,4.428223790283625227e-02,3.529261065940332565e-02,2.630298341597040596e-02,1.731335617253747933e-02,8.323728929104566576e-03,-6.658983143283669914e-04,-9.655525557761286681e-03,-1.864515280119420637e-02,-2.763478004462713300e-02,-3.662440728806005963e-02,-4.561403453149300014e-02,-5.460366177492591289e-02,-6.359328901835883951e-02,-7.224996710462756877e-02,-8.123959434806048152e-02,-9.022922159149342203e-02,-9.921884883492633478e-02,-1.082084760783592753e-01,-1.171981033217922158e-01,-1.261877305652251424e-01,-1.351773578086580274e-01,-1.441669850520909679e-01,-1.531566122955239084e-01,-1.621462395389568489e-01,-1.684722735250762660e-01,-1.684722735250762660e-01,-1.684722735250762660e-01,-1.684722735250762660e-01,-1.684722735250763215e-01,-1.607034598579120122e-01,-1.457207477855237965e-01,-1.307380357131356363e-01,-1.157553236407474068e-01,-1.007726115683592188e-01,-8.578989949597100317e-02,-7.080718742358277362e-02,-2.129834139734627929e-02
4.461518706000043577e-02,4.461518706000043577e-02,4.461518706000043577e-02,4.461518706000043577e-02,4.461518706000043577e-02,4.461518706000043577e-02,4.461518706000043577e-02,4.461518706000043577e-02,4.461518706000043577e-02,4.461518706000043577e-02,3.828915307388097017e-02,2.963247498761223050e-02,2.064284774417930735e-02,1.165322050074638766e-02,2.663593257313461027e-03,-6.326033986119465602e-03,-1.531566122955238529e-02,-2.430528847298531192e-02,-3.329491571641823855e-02,-4.228454295985116518e-02,-5.127417020328409181e-02,-6.026379744671700456e-02,-6.925342469014993119e-02,-7.824305193358283006e-02,-8.723267917701578444e-02,-9.622230642044869720e-02,-1.052119336638816099e-01,-1.138686117501503808e-01,-1.228582389935832936e-01,-1.318478662370162202e-01,-1.408374934804491607e-01,-1.498271207238821012e-01,-1.588167479673150417e-01,-1.678063752107479267e-01,-1.684722735250762660e-01,-1.684722735250762660e-01,-1.684722735250762660e-01,-1.684722735250762660e-01,-1.656976972153747507e-01,-1.507149851429865350e-01,-1.357322730705983749e-01,-1.207495609982101731e-01,-1.057668489258219297e-01,-9.133905211537403368e-02,-7.635634004298579025e-02,-6.137362797059760233e-02,-4.639091589820941441e-02
4.461518706000043577e-02,4.461518706000043577e-02,4.461518706000043577e-02,4.461518706000043577e-02,4.461518706000043577e-02,4.461518706000043577e-02,4.461518706000043577e-02,4.461518706000043577e-02,4.461518706000043577e-02,4.161864464552279819e-02,3.262901740208987156e-02,2.363939015865694840e-02,1.464976291522402524e-02,5.660135671791098610e-03,-3.329491571641828018e-03,-1.231911881507474771e-02,-2.097579690134349084e-02,-2.996542414477641747e-02,-3.895505138820933022e-02,-4.794467863164227073e-02,-5.693430587507518348e-02,-6.592393311850811011e-02,-7.491356036194100898e-02,-8.390318760537392173e-02,-9.289281484880688999e-02,-1.018824420922398027e-01,-1.108720693356727433e-01,-1.198616965791056560e-01,-1.288513238225385549e-01,-1.378409510659715509e-01,-1.468305783094044359e-01,-1.558202055528373764e-01,-1.644768836391061195e-01,-1.684722735250762660e-01,-1.684722735250762660e-01,-1.684722735250762660e-01,-1.684722735250762660e-01,-1.684722735250762660e-01,-1.562641377623896211e-01,-1.412814256900013499e-01,-1.262987136176131897e-01,-1.113160015452249879e-01,-9.633328947283677224e-02,-8.135057740044855656e-02,-6.636786532806034089e-02,-5.138515325567213909e-02,-3.640244118328395118e-02
4.461518706000043577e-02,4.461518706000043577e-02,4.461518706000043577e-02,4.461518706000043577e-02,4.461518706000043577e-02,4.461518706000043577e-02,4.461518706000043577e-02,4.461518706000043577e-02,4.461518706000043577e-02,3.595850897373169264e-02,2.696888173029876948e-02,1.797925448686584632e-02,8.989627243432926629e-03,0.000000000000000000e+00,-8.989627243432926629e-03,-1.797925448686583938e-02,-2.696888173029877989e-02,-3.595850897373170652e-02,-4.494813621716463314e-02,-5.393776346059754589e-02,-6.259444154686628903e-02,-7.158406879029920178e-02,-8.057369603373211453e-02,-8.956332327716505504e-02,-9.855295052059799554e-02,-1.075425777640309360e-01,-1.165322050074638488e-01,-1.255218322508967477e-01,-1.345114594943296882e-01,-1.435010867377626287e-01,-1.524907139811955692e-01,-1.614803412246284542e-01,-1.684722735250762660e-01,-1.684722735250762660e-01,-1.684722735250762660e-01,-1.684722735250762660e-01,-1.684722735250762660e-01,-1.618132903817925961e-01,-1.468305783094044359e-01,-1.318478662370162202e-01,-1.168651541646280184e-01,-1.018824420922398027e-01,-8.689973001985158707e-02,-7.191701794746338527e-02,-5.693430587507518348e-02,-4.195159380268699556e-02,-2.696888173029877989e-02
4.461518706000043577e-02,4.461518706000043577e-02,4.461518706000043577e-02,4.461518706000043577e-02,4.461518706000043577e-02,4.461518706000043577e-02,4.461518706000043577e-02,4.461518706000043577e-02,3.928800054537352066e-02,3.029837330194059403e-02,2.130874605850767087e-02,1.231911881507474771e-02,3.329491571641821079e-03,-5.660135671791098610e-03,-1.464976291522402524e-02,-2.363939015865694493e-02,-3.262901740208987156e-02,-4.161864464552279819e-02,-5.060827188895572482e-02,-5.959789913238865144e-02,-6.858752637582156420e-02,-7.757715361925447695e-02,-8.656678086268741745e-02,-9.555640810612033020e-02,-1.042130861923891011e-01,-1.132027134358220138e-01,-1.221923406792549543e-01,-1.311819679226878810e-01,-1.401715951661207660e-01,-1.491612224095537065e-01,-1.581508496529866470e-01,-1.671404768964195320e-01,-1.684722735250762660e-01,-1.684722735250762660e-01,-1.684722735250763215e-01,-1.684722735250763215e-01,-1.668075277392553346e-01,-1.518248156668671744e-01,-1.368421035944789588e-01,-1.218593915220907847e-01,-1.074315947116428333e-01,-9.244888263925467309e-02,-7.746617056686640190e-02,-6.248345849447821398e-02,-4.750074642209002607e-02,-3.251803434970182427e-02,-1.753532227731360860e-02
4.461518706000043577e-02,4.461518706000043577e-02,4.461518706000043577e-02,4.461518706000043577e-02,4.461518706000043577e-02,4.461518706000043577e-02,4.461518706000043577e-02,4.228454295985115824e-02,3.329491571641823855e-02,2.430528847298531192e-02,1.531566122955238876e-02,6.326033986119465602e-03,-2.663593257313461027e-03,-1.132027134358219722e-02,-2.030989858701512385e-02,-2.929952583044805048e-02,-3.828915307388096323e-02,-4.727878031731390374e-02,-5.626840756074683036e-02,-6.525803480417974312e-02,-7.424766204761266974e-02,-8.323728929104558250e-02,-9.222691653447852300e-02,-1.012165437779114358e-01,-1.102061710213443763e-01,-1.191957982647772890e-01,-1.281854255082102156e-01,-1.371750527516431006e-01,-1.461646799950760411e-01,-1.548213580813447843e-01,-1.638109853247777248e-01,-1.684722735250762660e-01,-1.684722735250762660e-01,-1.684722735250763215e-01,-1.684722735250762660e-01,-1.684722735250762660e-01,-1.573739682862702050e-01,-1.423912562138819893e-01,-1.274085441414938291e-01,-1.124258320691056273e-01,-9.744311999671738389e-02,-8.246040792432914046e-02,-6.747769585194095254e-02,-5.249498377955273687e-02,-3.806718696910485478e-02,-2.308447489671665298e-02,-8.101762824328437307e-03
4.461518706000043577e-02,4.461518706000043577e-02,4.461518706000043577e-02,4.461518706000043577e-02,4.461518706000043577e-02,4.461518706000043577e-02,4.461518706000043577e-02,3.662440728806005963e-02,2.763478004462713647e-02,1.864515280119421331e-02,9.655525557761286681e-03,6.658983143283669914e-04,-8.323728929104559637e-03,-1.731335617253747933e-02,-2.630298341597041289e-02,-3.529261065940332565e-02,-4.428223790283625227e-02,-5.293891598910500929e-02,-6.192854323253792204e-02,-7.091817047597083479e-02,-7.990779771940374754e-02,-8.889742496283668804e-02,-9.788705220626962855e-02,-1.068766794497025413e-01,-1.158663066931354818e-01,-1.248559339365683946e-01,-1.338455611800013489e-01,-1.428351884234342339e-01,-1.518248156668671744e-01,-1.608144429103001150e-01,-1.684722735250763215e-01,-1.684722735250762660e-01,-1.684722735250762660e-01,-1.684722735250762660e-01,-1.684722735250762660e-01,-1.629231209056732355e-01,-1.479404088332850198e-01,-1.329576967608968596e-01,-1.179749846885086301e-01,-1.029922726161204422e-01,-8.800956054373219872e-02,-7.302684847134399693e-02,-5.804413639895579513e-02,-4.306142432656759333e-02,-2.807871225417939154e-02,-1.309600018179116893e-02,1.886711890597032870e-03
4.461518706000043577e-02,4.461518706000043577e-02,4.461518706000043577e-02,4.461518706000043577e-02,4.461518706000043577e-02,4.461518706000043577e-02,3.995389885970188071e-02,3.096427161626896102e-02,2.197464437283603786e-02,1.298501712940311470e-02,3.995389885970188071e-03,-4.994237357462738558e-03,-1.398386460089565825e-02,-2.297349184432857794e-02,-3.196311908776150457e-02,-4.095274633119443120e-02,-4.994237357462737170e-02,-5.893200081806028445e-02,-6.792162806149319720e-02,-7.691125530492612383e-02,-8.590088254835905046e-02,-9.489050979179196321e-02,-1.035471878780607341e-01,-1.125368151214936746e-01,-1.215264423649265596e-01,-1.305160696083594862e-01,-1.395056968517924267e-01,-1.484953240952253672e-01,-1.574849513386583078e-01,-1.664745785820911927e-01,-1.684722735250762660e-01,-1.684722735250762660e-01,-1.684722735250762660e-01,-1.684722735250762660e-01,-1.679173582631359740e-01,-1.529346461907477583e-01,-1.379519341183595982e-01,-1.229692220459713964e-01,-1.085414252355234727e-01,-9.355871316313525698e-02,-7.857600109074702743e-02,-6.359328901835882564e-02,-4.861057694597060996e-02,-3.362786487358242205e-02,-1.864515280119420637e-02,-3.662440728805997636e-03,1.132027134358219722e-02
4.461518706000043577e-02,4.461518706000043577e-02,4.461518706000043577e-02,4.461518706000043577e-02,4.461518706000043577e-02,4.295044127417952523e-02,3.396081403074659860e-02,2.497118678731367891e-02,1.598155954388075228e-02,6.991932300447825654e-03,-1.664745785820917479e-03,-1.065437302925383717e-02,-1.964400027268675686e-02,-2.863362751611968349e-02,-3.762325475955261012e-02,-4.661288200298553674e-02,-5.560250924641844950e-02,-6.459213648985139000e-02,-7.358176373328430275e-02,-8.257139097671721550e-02,-9.156101822015012826e-02,-1.005506454635830688e-01,-1.095402727070160093e-01,-1.185298999504489220e-01,-1.275195271938818209e-01,-1.365091544373147614e-01,-1.451658325235835045e-01,-1.541554597670164450e-01,-1.631450870104493855e-01,-1.684722735250762660e-01,-1.684722735250762660e-01,-1.684722735250762660e-01,-1.684722735250762660e-01,-1.684722735250762660e-01,-1.584837988101508444e-01,-1.435010867377626287e-01,-1.285183746653744130e-01,-1.135356625929861835e-01,-9.855295052059799554e-02,-8.357023844820977987e-02,-6.858752637582156420e-02,-5.415972956537366823e-02,-3.917701749298548031e-02,-2.419430542059725076e-02,-9.211593348209042020e-03,5.771118724179166715e-03,2.075383079656736851e-02
4.461518706000043577e-02,4.461518706000043577e-02,4.461518706000043577e-02,4.461518706000043577e-02,4.461518706000043577e-02,3.729030560238842662e-02,2.830067835895549999e-02,1.931105111552257683e-02,1.032142387208965367e-02,1.331796628656733983e-03,-7.657830614776192646e-03,-1.664745785820911927e-02,-2.563708510164204590e-02,-3.462671234507495865e-02,-4.328339043134370179e-02,-5.227301767477664229e-02,-6.126264491820955504e-02,-7.025227216164248167e-02,-7.924189940507540830e-02,-8.823152664850832105e-02,-9.722115389194126156e-02,-1.062107811353741743e-01,-1.152004083788071426e-01,-1.241900356222400276e-01,-1.331796628656729542e-01,-1.421692901091058947e-01,-1.511589173525387797e-01,-1.601485445959717202e-01,-1.684722735250763215e-01,-1.684722735250762660e-01,-1.684722735250762660e-01,-1.684722735250762660e-01,-1.684722735250762660e-01,-1.640329514295538194e-01,-1.490502393571656592e-01,-1.340675272847774435e-01,-1.190848152123892417e-01,-1.041021031400010260e-01,-8.911939106761281038e-02,-7.413667899522459470e-02,-5.915396692283640678e-02,-4.417125485044820499e-02,-2.918854277806000319e-02,-1.420583070567178058e-02,7.768813667164281567e-04,1.575959343910462995e-02,3.018739024955253286e-02
4.461518706000043577e-02,4.461518706000043577e-02,4.461518706000043577e-02,4.461518706000043577e-02,4.061979717403024770e-02,3.163016993059732107e-02,2.264054268716440138e-02,1.365091544373147822e-02,4.661288200298555062e-03,-4.328339043134371567e-03,-1.331796628656729126e-02,-2.230759353000022482e-02,-3.129722077343313758e-02,-4.028684801686606420e-02,-4.927647526029899083e-02,-5.826610250373191746e-02,-6.725572974716483021e-02,-7.624535699059775684e-02,-8.523498423403068347e-02,-9.389166232029942660e-02,-1.028812895637323671e-01,-1.118709168071652799e-01,-1.208605440505982204e-01,-1.298501712940310915e-01,-1.388397985374640875e-01,-1.478294257808969725e-01,-1.568190530243299130e-01,-1.658086802677627980e-01,-1.684722735250762660e-01,-1.684722735250762660e-01,-1.684722735250762660e-01,-1.684722735250762660e-01,-1.684722735250762660e-01,-1.540444767146283422e-01,-1.390617646422401821e-01,-1.246339678317922722e-01,-1.096512557594040566e-01,-9.466854368701586864e-02,-7.968583161462765296e-02,-6.470311954223942341e-02,-4.972040746985122162e-02,-3.473769539746303370e-02,-1.975498332507481802e-02,-4.772271252686616227e-03,1.021044081970159251e-02,2.519315289208979777e-02,4.017586496447800304e-02
4.461518706000043577e-02,4.461518706000043577e-02,4.461518706000043577e-02,4.361633958850788528e-02,3.462671234507496559e-02,2.563708510164204243e-02,1.664745785820911927e-02,7.990779771940376142e-03,-9.988474714925504871e-04,-9.988474714925477116e-03,-1.897810195835838987e-02,-2.796772920179131650e-02,-3.695735644522422925e-02,-4.594698368865716975e-02,-5.493661093209009638e-02,-6.392623817552300913e-02,-7.291586541895593576e-02,-8.190549266238884851e-02,-9.089511990582178902e-02,-9.988474714925472953e-02,-1.088743743926876423e-01,-1.178640016361205550e-01,-1.268536288795534817e-01,-1.355103069658222248e-01,-1.444999342092551653e-01,-1.534895614526881058e-01,-1.624791886961209908e-01,-1.684722735250762660e-01,-1.684722735250763215e-01,-1.684722735250762660e-01,-1.684722735250762660e-01,-1.684722735250762660e-01,-1.595936293340313727e-01,-1.446109172616432126e-01,-1.296282051892550524e-01,-1.146454931168668229e-01,-9.966278104447860720e-02,-8.468006897209036377e-02,-6.969735689970217585e-02,-5.526956008925426600e-02,-4.028684801686607808e-02,-2.530413594447787629e-02,-1.032142387208964673e-02,4.661288200298555062e-03,1.964400027268675339e-02,3.462671234507496559e-02,4.461518706000043577e-02
4.461518706000043577e-02,4.461518706000043577e-02,4.461518706000043577e-02,3.795620391671678667e-02,2.896657667328386351e-02,1.997694942985094035e-02,1.098732218641801373e-02,1.997694942985087097e-03,-6.991932300447832593e-03,-1.598155954388075228e-02,-2.497118678731367891e-02,-3.396081403074660554e-02,-4.261749211701534867e-02,-5.160711936044826142e-02,-6.059674660388120193e-02,-6.958637384731410080e-02,-7.857600109074702743e-02,-8.756562833417995406e-02,-9.655525557761289457e-02,-1.055448828210457796e-01,-1.145345100644787478e-01,-1.235241373079116328e-01,-1.325137645513445595e-01,-1.415033917947775000e-01,-1.504930190382104405e-01,-1.594826462816433810e-01,-1.684722735250762660e-01,-1.684722735250762660e-01,-1.684722735250762660e-01,-1.684722735250762660e-01,-1.684722735250762660e-01,-1.651427819534344588e-01,-1.501600698810462431e-01,-1.351773578086580274e-01,-1.201946457362698534e-01,-1.052119336638816377e-01,-9.022922159149342203e-02,-7.524650951910522023e-02,-6.026379744671699068e-02,-4.528108537432880276e-02,-3.029837330194061484e-02,-1.531566122955238529e-02,-3.329491571641834957e-04,1.409484765328371247e-02,2.907755972567192468e-02,4.406027179806012994e-02,4.461518706000043577e-02
4.461518706000043577e-02,4.461518706000043577e-02,4.128569548835861469e-02,3.229606824492568806e-02,2.330644100149276490e-02,1.431681375805984174e-02,5.327186514626915115e-03,-3.662440728806004575e-03,-1.265206797223893120e-02,-2.164169521567185783e-02,-3.063132245910477058e-02,-3.962094970253769721e-02,-4.861057694597062384e-02,-5.760020418940355047e-02,-6.658983143283647710e-02,-7.557945867626940373e-02,-8.423613676253811910e-02,-9.322576400597105961e-02,-1.022153912494040001e-01,-1.112050184928369406e-01,-1.201946457362698256e-01,-1.291842729797027522e-01,-1.381739002231356928e-01,-1.471635274665686333e-01,-1.561531547100015738e-01,-1.651427819534344588e-01,-1.684722735250762660e-01,-1.684722735250762660e-01,-1.684722735250762660e-01,-1.684722735250763215e-01,-1.684722735250762660e-01,-1.551543072385089816e-01,-1.407265104280610579e-01,-1.257437983556728978e-01,-1.107610862832846960e-01,-9.577837421089648029e-02,-8.079566213850826462e-02,-6.581295006612004894e-02,-5.083023799373184715e-02,-3.584752592134364535e-02,-2.086481384895542968e-02,-5.882101776567227880e-03,9.100610295820980855e-03,2.408332236820918959e-02,3.906603444059739833e-02,4.461518706000043577e-02,4.461518706000043577e-02
4.461518706000043577e-02,4.428223790283625227e-02,3.529261065940332565e-02,2.630298341597040596e-02,1.764630532970166282e-02,8.656678086268743133e-03,-3.329491571641834957e-04,-9.322576400597110124e-03,-1.831220364403003675e-02,-2.730183088746294950e-02,-3.629145813089586226e-02,-4.528108537432880276e-02,-5.427071261776174327e-02,-6.326033986119464214e-02,-7.224996710462756877e-02,-8.123959434806050928e-02,-9.022922159149342203e-02,-9.921884883492633478e-02,-1.082084760783592753e-01,-1.171981033217922158e-01,-1.258547814080609450e-01,-1.348444086514938856e-01,-1.438340358949267705e-01,-1.528236631383597111e-01,-1.618132903817926516e-01,-1.684722735250762660e-01,-1.684722735250762660e-01,-1.684722735250762660e-01,-1.684722735250762660e-01,-1.684722735250762660e-01,-1.607034598579120122e-01,-1.457207477855237965e-01,-1.307380357131356363e-01,-1.157553236407474345e-01,-1.007726115683591911e-01,-8.578989949597097542e-02,-7.136210268552307945e-02,-5.637939061313489153e-02,-4.139667854074667586e-02,-2.641396646835847406e-02,-1.143125439597025839e-02,3.551457676417943410e-03,1.853416974880614868e-02,3.351688182119436088e-02,4.461518706000043577e-02,4.461518706000043577e-02,4.461518706000043577e-02
4.461518706000043577e-02,3.862210223104515366e-02,2.963247498761223050e-02,2.064284774417930735e-02,1.165322050074638766e-02,2.663593257313454088e-03,-6.326033986119458663e-03,-1.531566122955238529e-02,-2.430528847298531192e-02,-3.296196655925405505e-02,-4.195159380268698168e-02,-5.094122104611990831e-02,-5.993084828955282106e-02,-6.892047553298573381e-02,-7.791010277641867432e-02,-8.689973001985158707e-02,-9.588935726328452758e-02,-1.048789845067174126e-01,-1.138686117501504086e-01,-1.228582389935832936e-01,-1.318478662370162202e-01,-1.408374934804491607e-01,-1.498271207238821012e-01,-1.588167479673150417e-01,-1.678063752107479267e-01,-1.684722735250762660e-01,-1.684722735250762660e-01,-1.684722735250762660e-01,-1.684722735250762660e-01,-1.662526124773150427e-01,-1.512699004049268825e-01,-1.362871883325386668e-01,-1.213044762601504650e-01,-1.063217641877622494e-01,-9.133905211537403368e-02,-7.635634004298581801e-02,-6.137362797059760233e-02,-4.639091589820941441e-02,-3.140820382582119874e-02,-1.642549175343299694e-02,-1.997694942985094035e-03,1.298501712940310776e-02,2.796772920179131650e-02,4.295044127417952523e-02,4.461518706000043577e-02,4.461518706000043577e-02,4.461518706000043577e-02
4.195159380268697474e-02,3.296196655925405505e-02,2.397233931582112842e-02,1.498271207238820527e-02,5.993084828955289045e-03,-2.996542414477644523e-03,-1.198616965791055727e-02,-2.097579690134349084e-02,-2.996542414477641747e-02,-3.895505138820933022e-02,-4.794467863164227073e-02,-5.693430587507518348e-02,-6.592393311850811011e-02,-7.458061120477685324e-02,-8.357023844820977987e-02,-9.255986569164269262e-02,-1.015494929350756331e-01,-1.105391201785085459e-01,-1.195287474219414864e-01,-1.285183746653744130e-01,-1.375080019088072980e-01,-1.464976291522402385e-01,-1.554872563956731790e-01,-1.644768836391061195e-01,-1.684722735250762660e-01,-1.684722735250762660e-01,-1.684722735250762660e-01,-1.684722735250762660e-01,-1.684722735250762660e-01,-1.568190530243299130e-01,-1.418363409519416973e-01,-1.268536288795534817e-01,-1.118709168071653076e-01,-9.688820473477709194e-02,-8.190549266238884851e-02,-6.692278059000064672e-02,-5.194006851761244492e-02,-3.695735644522424312e-02,-2.197464437283604133e-02,-6.991932300447825654e-03,7.990779771940376142e-03,2.297349184432858141e-02,3.795620391671678667e-02,4.461518706000043577e-02,4.461518706000043577e-02,4.461518706000043577e-02,4.461518706000043577e-02
3.595850897373169264e-02,2.730183088746295297e-02,1.831220364403002981e-02,9.322576400597110124e-03,3.329491571641834957e-04,-8.656678086268743133e-03,-1.764630532970166976e-02,-2.663593257313458251e-02,-3.562555981656750914e-02,-4.461518706000043577e-02,-5.360481430343337628e-02,-6.259444154686627515e-02,-7.158406879029920178e-02,-8.057369603373211453e-02,-8.956332327716505504e-02,-9.855295052059799554e-02,-1.075425777640309083e-01,-1.161992558502996514e-01,-1.251888830937325503e-01,-1.341785103371654908e-01,-1.431681375805984313e-01,-1.521577648240313718e-01,-1.611473920674643123e-01,-1.684722735250762660e-01,-1.684722735250762660e-01,-1.684722735250762660e-01,-1.684722735250762660e-01,-1.684722735250762660e-01,-1.618132903817926516e-01,-1.468305783094043804e-01,-1.318478662370162202e-01,-1.168651541646280184e-01,-1.018824420922398027e-01,-8.745464528179190677e-02,-7.247193320940367722e-02,-5.748922113701547543e-02,-4.250650906462730139e-02,-2.752379699223907183e-02,-1.254108491985086310e-02,2.441627152537331757e-03,1.742433922492554049e-02,3.240705129731374923e-02,4.461518706000043577e-02,4.461518706000043577e-02,4.461518706000043577e-02,4.461518706000043577e-02,4.461518706000043577e-02
3.029837330194059403e-02,2.130874605850767087e-02,1.231911881507474771e-02,3.329491571641821079e-03,-5.660135671791105549e-03,-1.464976291522402524e-02,-2.330644100149276143e-02,-3.229606824492570194e-02,-4.128569548835861469e-02,-5.027532273179154132e-02,-5.926494997522446795e-02,-6.825457721865738070e-02,-7.724420446209030733e-02,-8.623383170552322008e-02,-9.522345894895616059e-02,-1.042130861923890733e-01,-1.132027134358220416e-01,-1.221923406792549266e-01,-1.311819679226878255e-01,-1.401715951661207660e-01,-1.491612224095537065e-01,-1.581508496529866470e-01,-1.668075277392553901e-01,-1.684722735250762660e-01,-1.684722735250763215e-01,-1.684722735250762660e-01,-1.684722735250762660e-01,-1.673624430011956821e-01,-1.523797309288074664e-01,-1.373970188564192507e-01,-1.224143067840310489e-01,-1.074315947116428610e-01,-9.244888263925464533e-02,-7.746617056686642966e-02,-6.248345849447821398e-02,-4.750074642209002607e-02,-3.251803434970181039e-02,-1.753532227731360166e-02,-3.107525466865691810e-03,1.187518660552250305e-02,2.685789867791070831e-02,4.184061075029891358e-02,4.461518706000043577e-02,4.461518706000043577e-02,4.461518706000043577e-02,4.461518706000043577e-02,4.461518706000043577e-02
2.463823763014949542e-02,1.564861038671657226e-02,6.658983143283649098e-03,-2.330644100149270592e-03,-1.132027134358219722e-02,-2.030989858701510997e-02,-2.929952583044805048e-02,-3.828915307388096323e-02,-4.727878031731390374e-02,-5.626840756074683036e-02,-6.492508564701555962e-02,-7.391471289044847237e-02,-8.290434013388141288e-02,-9.189396737731432563e-02,-1.008835946207472661e-01,-1.098732218641802066e-01,-1.188628491076131194e-01,-1.278524763510460183e-01,-1.368421035944789588e-01,-1.458317308379118993e-01,-1.548213580813447843e-01,-1.638109853247777248e-01,-1.684722735250762660e-01,-1.684722735250763215e-01,-1.684722735250762660e-01,-1.684722735250762660e-01,-1.684722735250762660e-01,-1.579288835482104969e-01,-1.429461714758222812e-01,-1.279634594034341211e-01,-1.129807473310458915e-01,-9.799803525865770359e-02,-8.301532318626946017e-02,-6.803261111388124449e-02,-5.304989904149305657e-02,-3.806718696910486865e-02,-2.308447489671665298e-02,-8.101762824328437307e-03,6.880949248059764489e-03,2.186366132044797322e-02,3.684637339283618196e-02,4.461518706000043577e-02,4.461518706000043577e-02,4.461518706000043577e-02,4.461518706000043577e-02,4.461518706000043577e-02,4.461518706000043577e-02
1.897810195835839334e-02,9.988474714925470177e-03,9.988474714925435483e-04,-7.990779771940383081e-03,-1.698040701537330277e-02,-2.597003425880621552e-02,-3.495966150223915603e-02,-4.394928874567206878e-02,-5.293891598910500929e-02,-6.192854323253792204e-02,-7.091817047597084867e-02,-7.990779771940376142e-02,-8.889742496283668804e-02,-9.788705220626962855e-02,-1.068766794497025413e-01,-1.155333575359712844e-01,-1.245229847794041972e-01,-1.335126120228370961e-01,-1.425022392662700921e-01,-1.514918665097029771e-01,-1.604814937531359176e-01,-1.684722735250762660e-01,-1.684722735250762660e-01,-1.684722735250763215e-01,-1.684722735250762660e-01,-1.684722735250762660e-01,-1.629231209056732355e-01,-1.479404088332850198e-01,-1.329576967608968596e-01,-1.179749846885086578e-01,-1.029922726161204422e-01,-8.856447580567251843e-02,-7.358176373328430275e-02,-5.859905166089608708e-02,-4.361633958850789916e-02,-2.863362751611968349e-02,-1.365091544373147475e-02,1.331796628656733983e-03,1.631450870104493231e-02,3.129722077343313758e-02,4.461518706000043577e-02,4.461518706000043577e-02,4.461518706000043577e-02,4.461518706000043577e-02,4.461518706000043577e-02,4.461518706000043577e-02,4.461518706000043577e-02
1.298501712940311470e-02,3.995389885970188071e-03,-4.994237357462738558e-03,-1.365091544373146781e-02,-2.264054268716440832e-02,-3.163016993059733495e-02,-4.061979717403024770e-02,-4.960942441746317433e-02,-5.859905166089610096e-02,-6.758867890432902759e-02,-7.657830614776194034e-02,-8.556793339119485309e-02,-9.455756063462779359e-02,-1.035471878780607341e-01,-1.125368151214936469e-01,-1.215264423649265596e-01,-1.305160696083594862e-01,-1.395056968517924267e-01,-1.484953240952253672e-01,-1.571520021814941104e-01,-1.661416294249269954e-01,-1.684722735250762660e-01,-1.684722735250762660e-01,-1.684722735250762660e-01,-1.684722735250762660e-01,-1.684722735250762660e-01,-1.534895614526880503e-01,-1.385068493802998901e-01,-1.235241373079116883e-01,-1.085414252355234727e-01,-9.355871316313525698e-02,-7.857600109074702743e-02,-6.359328901835882564e-02,-4.861057694597063772e-02,-3.362786487358242205e-02,-1.920006806313452608e-02,-4.217355990746310401e-03,1.076535608164189833e-02,2.574806815403010013e-02,4.073078022641830886e-02,4.461518706000043577e-02,4.461518706000043577e-02,4.461518706000043577e-02,4.461518706000043577e-02,4.461518706000043577e-02,4.461518706000043577e-02,4.461518706000043577e-02
7.324881457612009150e-03,-1.664745785820910540e-03,-1.065437302925383717e-02,-1.964400027268675686e-02,-2.863362751611969736e-02,-3.762325475955261012e-02,-4.661288200298553674e-02,-5.526956008925427988e-02,-6.425918733268720651e-02,-7.324881457612010538e-02,-8.223844181955304589e-02,-9.122806906298598639e-02,-1.002176963064188991e-01,-1.092073235498518119e-01,-1.181969507932847524e-01,-1.271865780367176790e-01,-1.361762052801505640e-01,-1.451658325235835600e-01,-1.541554597670164450e-01,-1.631450870104493855e-01,-1.684722735250762660e-01,-1.684722735250762660e-01,-1.684722735250763215e-01,-1.684722735250762660e-01,-1.684722735250762660e-01,-1.590387140720910808e-01,-1.440560019997029206e-01,-1.290732899273147050e-01,-1.140905778549265309e-01,-9.910786578253828749e-02,-8.412515371015009957e-02,-6.914244163776185614e-02,-5.415972956537366823e-02,-3.917701749298546643e-02,-2.419430542059725076e-02,-9.211593348209035081e-03,5.771118724179159776e-03,2.075383079656736157e-02,3.573654286895557031e-02,4.461518706000043577e-02,4.461518706000043577e-02,4.461518706000043577e-02,4.461518706000043577e-02,4.461518706000043577e-02,4.461518706000043577e-02,4.461518706000043577e-02,4.461518706000043577e-02
1.664745785820910540e-03,-1.899000298850448409e-01,-1.988896571284777814e-01,-2.078792843719107220e-01,-3.429376318791078904e-02,-4.328339043134370179e-02,-5.227301767477664229e-02,-6.126264491820955504e-02,-7.025227216164246780e-02,-7.924189940507539442e-02,-8.823152664850832105e-02,-9.722115389194126156e-02,-1.058778319782100047e-01,-1.148674592216429174e-01,-1.238570864650758302e-01,-1.328467137085087568e-01,-1.418363409519416973e-01,-1.508259681953746378e-01,-1.598155954388075783e-01,-1.684722735250762660e-01,-1.684722735250762660e-01,-1.684722735250762660e-01,-1.684722735250762660e-01,-1.684722735250762660e-01,-1.640329514295538194e-01,-1.490502393571656592e-01,-1.340675272847774435e-01,-1.190848152123892417e-01,-1.046570184019413180e-01,-8.967430632955310232e-02,-7.469159425716488665e-02,-5.970888218477669873e-02,-4.472617011238851081e-02,-2.974345804000029514e-02,-1.476074596761208640e-02,2.219661047761292694e-04,1.520467817716432413e-02,3.018739024955253286e-02,4.461518706000043577e-02,4.461518706000043577e-02,4.461518706000043577e-02,4.461518706000043577e-02,4.461518706000043577e-02,4.461518706000043577e-02,4.461518706000043577e-02,4.461518706000043577e-02,4.461518706000043577e-02
-3.995389885970188071e-03,-1.955601655568359742e-01,-2.045497928002688592e-01,-2.135394200437017997e-01,-3.995389885970189459e-02,-4.894352610313480734e-02,-5.793315334656774784e-02,-6.692278059000064672e-02,-7.591240783343357335e-02,-8.490203507686648610e-02,-9.389166232029942660e-02,-1.028812895637323671e-01,-1.118709168071652799e-01,-1.208605440505981926e-01,-1.298501712940310915e-01,-1.388397985374640320e-01,-1.474964766237328306e-01,-1.564861038671657156e-01,-1.654757311105986561e-01,-1.684722735250762660e-01,-1.684722735250762660e-01,-1.684722735250762660e-01,-1.684722735250762660e-01,-1.684722735250762660e-01,-1.545993919765686897e-01,-1.396166799041804740e-01,-1.246339678317922722e-01,-1.096512557594040566e-01,-9.466854368701586864e-02,-7.968583161462763909e-02,-6.470311954223943729e-02,-4.972040746985123549e-02,-3.529261065940333952e-02,-2.030989858701512385e-02,-5.327186514626908176e-03,9.655525557761279742e-03,2.463823763014949195e-02,3.962094970253769721e-02,4.461518706000043577e-02,4.461518706000043577e-02,4.461518706000043577e-02,4.461518706000043577e-02,4.461518706000043577e-02,4.461518706000043577e-02,4.461518706000043577e-02,4.461518706000043577e-02,4.461518706000043577e-02
-9.988474714925470177e-03,-2.015532503857912494e-01,-2.105428776292241899e-01,-2.195325048726570749e-01,-4.594698368865716975e-02,-5.460366177492591289e-02,-6.359328901835882564e-02,-7.258291626179175227e-02,-8.157254350522467889e-02,-9.056217074865759165e-02,-9.955179799209053215e-02,-1.085414252355234727e-01,-1.175310524789563854e-01,-1.265206797223892843e-01,-1.355103069658222248e-01,-1.444999342092551653e-01,-1.534895614526881058e-01,-1.624791886961210463e-01,-1.684722735250762660e-01,-1.684722735250762660e-01,-1.684722735250762660e-01,-1.684722735250762660e-01,-1.684722735250762660e-01,-1.601485445959717202e-01,-1.451658325235835045e-01,-1.301831204511952889e-01,-1.152004083788071148e-01,-1.002176963064189269e-01,-8.523498423403068347e-02,-7.025227216164246780e-02,-5.526956008925426600e-02,-4.028684801686606420e-02,-2.530413594447786241e-02,-1.032142387208964673e-02,4.661288200298555062e-03,1.964400027268675686e-02,3.462671234507496559e-02,4.461518706000043577e-02,4.461518706000043577e-02,4.461518706000043577e-02,4.461518706000043577e-02,4.461518706000043577e-02,4.461518706000043577e-02,4.461518706000043577e-02,4.461518706000043577e-02,4.461518706000043577e-02,4.461518706000043577e-02
5.067069985592399795e-03,-2.463823763014949542e-02,-3.362786487358242205e-02,-4.261749211701533480e-02,-5.160711936044826142e-02,-6.059674660388120193e-02,-6.958637384731410080e-02,-7.857600109074702743e-02,-8.756562833417995406e-02,-9.622230642044869720e-02,-1.052119336638816099e-01,-1.142015609073145505e-01,-1.231911881507474632e-01,-1.321808153941804176e-01,-1.411704426376133026e-01,-1.501600698810462431e-01,-1.591496971244791836e-01,-1.681393243679121241e-01,-1.684722735250762660e-01,-1.684722735250762660e-01,-1.684722735250762660e-01,-1.684722735250762660e-01,-1.651427819534344033e-01,-1.501600698810462431e-01,-1.351773578086580274e-01,-1.207495609982101731e-01,-1.057668489258219574e-01,-9.078413685343371398e-02,-7.580142478104551218e-02,-6.081871270865729651e-02,-4.583600063626910859e-02,-3.085328856388090679e-02,-1.587057649149269112e-02,-8.878644191044893219e-04,1.409484765328371594e-02,2.907755972567192468e-02,4.406027179806012994e-02,4.461518706000043577e-02,4.461518706000043577e-02,4.461518706000043577e-02,4.461518706000043577e-02,4.461518706000043577e-02,4.461518706000043577e-02,4.461518706000043577e-02,4.461518706000043577e-02,4.461518706000043577e-02,4.461518706000043577e-02
4.461518706000043577e-02,1.886365068558320396e-02,-2.880010209470178217e-02,-4.827762778880644035e-02,-5.726725503223938085e-02,-6.625688227567229360e-02,-7.524650951910520635e-02,-8.423613676253814686e-02,-9.322576400597105961e-02,-1.022153912494040001e-01,-1.112050184928369406e-01,-1.201946457362698256e-01,-1.291842729797027522e-01,-1.378409510659714954e-01,-1.468305783094044359e-01,-1.558202055528373764e-01,-1.648098327962703169e-01,-1.684722735250762660e-01,-1.684722735250762660e-01,-1.684722735250762660e-01,-1.684722735250763215e-01,-1.684722735250762660e-01,-1.557092225004492736e-01,-1.407265104280611134e-01,-1.257437983556728978e-01,-1.107610862832846960e-01,-9.577837421089648029e-02,-8.079566213850826462e-02,-6.581295006612003506e-02,-5.138515325567213909e-02,-3.640244118328393730e-02,-2.141972911089573550e-02,-6.437017038507519828e-03,8.545695033880681968e-03,2.352840710626888376e-02,3.851111917865709250e-02,4.461518706000043577e-02,4.461518706000043577e-02,4.461518706000043577e-02,4.461518706000043577e-02,4.461518706000043577e-02,4.461518706000043577e-02,4.461518706000043577e-02,4.461518706000043577e-02,4.461518706000043577e-02,4.461518706000043577e-02,4.461518706000043577e-02
4.461518706000043577e-02,4.461518706000043577e-02,4.181633320758902650e-02,-1.082084760783593586e-02,-6.292739070403048640e-02,-7.191701794746339915e-02,-8.090664519089631190e-02,-8.989627243432925241e-02,-9.888589967776216516e-02,-1.078755269211951057e-01,-1.168651541646280462e-01,-1.258547814080609450e-01,-1.348444086514938300e-01,-1.438340358949267705e-01,-1.528236631383597111e-01,-1.618132903817926516e-01,-1.684722735250762660e-01,-1.684722735250762660e-01,-1.684722735250762660e-01,-1.684722735250762660e-01,-1.684722735250762660e-01,-1.612583751198523041e-01,-1.462756630474640884e-01,-1.312929509750759283e-01,-1.163102389026877265e-01,-1.013275268302995108e-01,-8.634481475791129512e-02,-7.136210268552307945e-02,-5.637939061313487765e-02,-4.139667854074668973e-02,-2.641396646835847406e-02,-1.143125439597025839e-02,3.551457676417943410e-03,1.853416974880614868e-02,3.296196655925405505e-02,4.461518706000043577e-02,4.461518706000043577e-02,4.461518706000043577e-02,4.461518706000043577e-02,4.461518706000043577e-02,4.461518706000043577e-02,4.461518706000043577e-02,4.461518706000043577e-02,4.461518706000043577e-02,4.461518706000043577e-02,4.461518706000043577e-02,4.461518706000043577e-02
4.461518706000043577e-02,4.461518706000043577e-02,4.461518706000043577e-02,4.461518706000043577e-02,1.268328195572307471e-02,-5.493661093209008250e-02,-8.656678086268741745e-02,-9.555640810612033020e-02,-1.045460353495532707e-01,-1.135356625929862112e-01,-1.225252898364191240e-01,-1.315149170798520228e-01,-1.405045443232849633e-01,-1.494941715667179039e-01,-1.584837988101508444e-01,-1.674734260535837294e-01,-1.684722735250762660e-01,-1.684722735250762660e-01,-1.684722735250762660e-01,-1.684722735250762660e-01,-1.662526124773150982e-01,-1.512699004049268270e-01,-1.368421035944789588e-01,-1.218593915220907570e-01,-1.068766794497025413e-01,-9.189396737731432563e-02,-7.691125530492612383e-02,-6.192854323253789428e-02,-4.694583116014972024e-02,-3.196311908776151844e-02,-1.698040701537330277e-02,-1.997694942985094035e-03,1.298501712940310776e-02,2.796772920179131650e-02,4.295044127417952523e-02,4.461518706000043577e-02,4.461518706000043577e-02,4.461518706000043577e-02,4.461518706000043577e-02,4.461518706000043577e-02,4.461518706000043577e-02,4.461518706000043577e-02,4.461518706000043577e-02,4.461518706000043577e-02,4.461518706000043577e-02,4.461518706000043577e-02,4.461518706000043577e-02
4.461518706000043577e-02,4.461518706000043577e-02,4.461518706000043577e-02,4.461518706000043577e-02,4.461518706000043577e-02,4.461518706000043577e-02,-2.397233931582112842e-02,-1.015494929350756331e-01,-1.105391201785085459e-01,-1.195287474219414864e-01,-1.281854255082102156e-01,-1.371750527516431561e-01,-1.461646799950760967e-01,-1.551543072385089816e-01,-1.641439344819419222e-01,-1.684722735250762660e-01,-1.684722735250763215e-01,-1.684722735250762660e-01,-1.684722735250762660e-01,-1.684722735250762660e-01,-1.568190530243299130e-01,-1.418363409519416973e-01,-1.268536288795535372e-01,-1.118709168071652799e-01,-9.688820473477709194e-02,-8.190549266238884851e-02,-6.747769585194095254e-02,-5.249498377955276462e-02,-3.751227170716456283e-02,-2.252955963477634715e-02,-7.546847562388124542e-03,7.435864510000070315e-03,2.241857658238827558e-02,3.740128865477648779e-02,4.461518706000043577e-02,4.461518706000043577e-02,4.461518706000043577e-02,4.461518706000043577e-02,4.461518706000043577e-02,4.461518706000043577e-02,4.461518706000043577e-02,4.461518706000043577e-02,4.461518706000043577e-02,4.461518706000043577e-02,4.461518706000043577e-02,4.461518706000043577e-02,4.461518706000043577e-02
4.461518706000043577e-02,4.461518706000043577e-02,4.461518706000043577e-02,4.461518706000043577e-02,4.461518706000043577e-02,4.461518706000043577e-02,4.461518706000043577e-02,1.140350863287324656e-02,-7.599564512272463657e-02,-1.251888830937325503e-01,-1.341785103371654908e-01,-1.431681375805984313e-01,-1.521577648240313718e-01,-1.611473920674642568e-01,-1.684722735250762660e-01,-1.684722735250762660e-01,-1.684722735250762660e-01,-1.684722735250762660e-01,-1.684722735250762660e-01,-1.623682056437329435e-01,-1.473854935713447278e-01,-1.324027814989565677e-01,-1.174200694265683381e-01,-1.024373573541801224e-01,-8.745464528179190677e-02,-7.247193320940369110e-02,-5.748922113701547543e-02,-4.250650906462728751e-02,-2.752379699223907183e-02,-1.254108491985086310e-02,2.441627152537338696e-03,1.686942396298523814e-02,3.185213603537344340e-02,4.461518706000043577e-02,4.461518706000043577e-02,4.461518706000043577e-02,4.461518706000043577e-02,4.461518706000043577e-02,4.461518706000043577e-02,4.461518706000043577e-02,4.461518706000043577e-02,4.461518706000043577e-02,4.461518706000043577e-02,4.461518706000043577e-02,4.461518706000043577e-02,4.461518706000043577e-02,4.461518706000043577e-02
4.461518706000043577e-02,4.461518706000043577e-02,4.461518706000043577e-02,4.461518706000043577e-02,4.461518706000043577e-02,4.461518706000043577e-02,4.461518706000043577e-02,4.461518706000043577e-02,4.461518706000043577e-02,-3.215040298866635171e-02,-1.398386460089566241e-01,-1.488282732523895091e-01,-1.578179004958224496e-01,-1.668075277392553346e-01,-1.684722735250763215e-01,-1.684722735250762660e-01,-1.684722735250763215e-01,-1.684722735250762660e-01,-1.673624430011956821e-01,-1.529346461907477583e-01,-1.379519341183595427e-01,-1.229692220459713964e-01,-1.079865099735831530e-01,-9.300379790119493728e-02,-7.802108582880672161e-02,-6.303837375641850593e-02,-4.805566168403033189e-02,-3.307294961164211622e-02,-1.809023753925391442e-02,-3.107525466865698749e-03,1.187518660552250305e-02,2.685789867791070831e-02,4.184061075029891358e-02,4.461518706000043577e-02,4.461518706000043577e-02,4.461518706000043577e-02,4.461518706000043577e-02,4.461518706000043577e-02,4.461518706000043577e-02,4.461518706000043577e-02,4.461518706000043577e-02,4.461518706000043577e-02,4.461518706000043577e-02,4.461518706000043577e-02,4.461518706000043577e-02,4.461518706000043577e-02,4.461518706000043577e-02
4.461518706000043577e-02,4.461518706000043577e-02,4.461518706000043577e-02,4.461518706000043577e-02,4.461518706000043577e-02,4.461518706000043577e-02,4.461518706000043577e-02,4.461518706000043577e-02,4.461518706000043577e-02,4.461518706000043577e-02,1.490987944425854056e-02,-9.226853517912404767e-02,-1.634780361676135829e-01,-1.684722735250763215e-01,-1.684722735250762660e-01,-1.684722735250762660e-01,-1.684722735250762660e-01,-1.684722735250762660e-01,-1.579288835482104969e-01,-1.429461714758222812e-01,-1.279634594034341211e-01,-1.129807473310459193e-01,-9.799803525865767584e-02,-8.301532318626946017e-02,-6.858752637582156420e-02,-5.360481430343334852e-02,-3.862210223104516060e-02,-2.363939015865695881e-02,-8.656678086268736194e-03,6.326033986119465602e-03,2.130874605850766740e-02,3.629145813089587613e-02,4.461518706000043577e-02,4.461518706000043577e-02,4.461518706000043577e-02,4.461518706000043577e-02,4.461518706000043577e-02,4.461518706000043577e-02,4.461518706000043577e-02,4.461518706000043577e-02,4.461518706000043577e-02,4.461518706000043577e-02,4.461518706000043577e-02,4.461518706000043577e-02,4.461518706000043577e-02,4.461518706000043577e-02,4.461518706000043577e-02
4.461518706000043577e-02,4.461518706000043577e-02,4.461518706000043577e-02,4.461518706000043577e-02,4.461518706000043577e-02,4.461518706000043577e-02,4.461518706000043577e-02,4.461518706000043577e-02,4.461518706000043577e-02,4.461518706000043577e-02,4.461518706000043577e-02,4.461518706000043577e-02,-3.529261065940333952e-02,-1.551543072385089816e-01,-1.684722735250762660e-01,-1.684722735250762660e-01,-1.684722735250762660e-01,-1.634780361676135829e-01,-1.484953240952253672e-01,-1.335126120228371516e-01,-1.185298999504489498e-01,-1.035471878780607341e-01,-8.856447580567251843e-02,-7.358176373328428888e-02,-5.859905166089608708e-02,-4.361633958850788528e-02,-2.863362751611968349e-02,-1.365091544373147475e-02,7.768813667164212178e-04,1.575959343910463342e-02,3.074230551149283869e-02,4.461518706000043577e-02,4.461518706000043577e-02,4.461518706000043577e-02,4.461518706000043577e-02,4.461518706000043577e-02,4.461518706000043577e-02,4.461518706000043577e-02,4.461518706000043577e-02,4.461518706000043577e-02,4.461518706000043577e-02,4.461518706000043577e-02,4.461518706000043577e-02,4.461518706000043577e-02,4.461518706000043577e-02,4.461518706000043577e-02,4.461518706000043577e-02
4.461518706000043577e-02,4.461518706000043577e-02,4.461518706000043577e-02,4.461518706000043577e-02,4.461518706000043577e-02,4.461518706000043577e-02,4.461518706000043577e-02,4.461518706000043577e-02,4.461518706000043577e-02,4.461518706000043577e-02,4.461518706000043577e-02,4.461518706000043577e-02,4.461518706000043577e-02,2.463823763014949542e-02,-8.856447580567251843e-02,-1.684722735250762660e-01,-1.684722735250762660e-01,-1.540444767146283978e-01,-1.390617646422401821e-01,-1.240790525698519803e-01,-1.090963404974637646e-01,-9.411362842507554893e-02,-7.913091635268733326e-02,-6.414820428029911759e-02,-4.916549220791092967e-02,-3.418278013552272787e-02,-1.920006806313451220e-02,-4.217355990746310401e-03,1.076535608164189833e-02,2.574806815403010013e-02,4.073078022641830886e-02,4.461518706000043577e-02,4.461518706000043577e-02,4.461518706000043577e-02,4.461518706000043577e-02,4.461518706000043577e-02,4.461518706000043577e-02,4.461518706000043577e-02,4.461518706000043577e-02,4.461518706000043577e-02,4.461518706000043577e-02,4.461518706000043577e-02,4.461518706000043577e-02,4.461518706000043577e-02,4.461518706000043577e-02,4.461518706000043577e-02,4.461518706000043577e-02
4.461518706000043577e-02,4.461518706000043577e-02,4.461518706000043577e-02,4.461518706000043577e-02,4.461518706000043577e-02,4.461518706000043577e-02,4.461518706000043577e-02,4.461518706000043577e-02,4.461518706000043577e-02,4.461518706000043577e-02,4.461518706000043577e-02,4.461518706000043577e-02,4.461518706000043577e-02,4.461518706000043577e-02,4.461518706000043577e-02,-2.197464437283604133e-02,-1.335819764305796742e-01,-1.440560019997029206e-01,-1.290732899273147050e-01,-1.140905778549265032e-01,-9.910786578253828749e-02,-8.468006897209036377e-02,-6.969735689970217585e-02,-5.471464482731396017e-02,-3.973193275492575838e-02,-2.474922068253755658e-02,-9.766508610149347847e-03,5.216203462238860888e-03,2.019891553462706268e-02,3.518162760701526448e-02,4.461518706000043577e-02,4.461518706000043577e-02,4.461518706000043577e-02,4.461518706000043577e-02,4.461518706000043577e-02,4.461518706000043577e-02,4.461518706000043577e-02,4.461518706000043577e-02,4.461518706000043577e-02,4.461518706000043577e-02,4.461518706000043577e-02,4.461518706000043577e-02,4.461518706000043577e-02,4.461518706000043577e-02,4.461518706000043577e-02,4.461518706000043577e-02,4.461518706000043577e-02
