-1.146981288033823848e-01,-1.146981288033823848e-01,-1.146981288033823848e-01,-1.146981288033823848e-01,-1.146981288033823848e-01,-1.146981288033823848e-01,-1.146981288033823848e-01,-1.146981288033823848e-01,-1.146981288033823848e-01,-1.146981288033823848e-01,-1.146981288033823848e-01,-1.146981288033823848e-01,-1.146981288033823848e-01,-1.135033566283471518e-01,-9.677654617785388935e-02,-8.004973572736062692e-02,-6.332292527686736450e-02,-4.659611482637410207e-02,-2.986930437588083964e-02,-1.314249392538757721e-02,-1.387778780781445676e-17,-1.387778780781445676e-17,-1.387778780781445676e-17,-1.387778780781445676e-17,-1.387778780781445676e-17,-1.387778780781445676e-17,-1.387778780781445676e-17,-1.290353949038064441e-03,-5.304788457156442427e-03,-9.319222965274834292e-03,-6.401589313838780548e-02,-1.116559401526989181e-01,-1.146981288033823848e-01,-1.146981288033823848e-01,-1.146981288033823848e-01,-1.146981288033823848e-01,-1.146981288033823848e-01,-1.146981288033823848e-01,-1.146981288033823848e-01,-1.146981288033823848e-01,-1.146981288033823848e-01,-1.146981288033823848e-01,-1.146981288033823848e-01,-1.146981288033823848e-01,-1.146981288033823848e-01,-1.146981288033823848e-01,-1.146981288033823848e-01
-1.146981288033823848e-01,-1.146981288033823848e-01,-1.146981288033823848e-01,-1.146981288033823848e-01,-1.146981288033823848e-01,-1.146981288033823848e-01,-1.146981288033823848e-01,-1.146981288033823848e-01,-1.146981288033823848e-01,-1.146981288033823848e-01,-1.146981288033823848e-01,-1.146981288033823848e-01,-1.146981288033823848e-01,-1.039451792280652875e-01,-8.721836877757202511e-02,-7.049155832707876268e-02,-5.376474787658550025e-02,-3.763532351360984740e-02,-2.090851306311659885e-02,-4.181702612623322546e-03,-1.387778780781445676e-17,-1.387778780781445676e-17,-1.387778780781445676e-17,-1.387778780781445676e-17,-4.163336342344337027e-17,-1.387778780781445676e-17,-1.387778780781445676e-17,-3.584316525105712969e-03,-7.598751033224104834e-03,-1.161318554134248282e-02,-1.562762004946086081e-02,-3.152406383830462511e-02,-7.771246265994795344e-02,-1.146981288033823848e-01,-1.146981288033823848e-01,-1.146981288033823848e-01,-1.146981288033823848e-01,-1.146981288033823848e-01,-1.146981288033823848e-01,-1.146981288033823848e-01,-1.146981288033823848e-01,-1.146981288033823848e-01,-1.146981288033823848e-01,-1.146981288033823848e-01,-1.146981288033823848e-01,-1.146981288033823848e-01,-1.146981288033823848e-01
-1.146981288033823848e-01,-1.146981288033823848e-01,-1.146981288033823848e-01,-1.146981288033823848e-01,-1.146981288033823848e-01,-1.146981288033823848e-01,-1.146981288033823848e-01,-1.146981288033823848e-01,-1.146981288033823848e-01,-1.146981288033823848e-01,-1.146981288033823848e-01,-1.146981288033823848e-01,-1.117111983657942953e-01,-9.498438791530103287e-02,-7.825757746480777044e-02,-6.153076701431451495e-02,-4.480395656382125946e-02,-2.807714611332799703e-02,-1.135033566283473461e-02,-1.387778780781445676e-17,-1.387778780781445676e-17,0.000000000000000000e+00,-1.387778780781445676e-17,-1.387778780781445676e-17,-1.387778780781445676e-17,0.000000000000000000e+00,-1.863844593054983512e-03,-5.878279101173361498e-03,-9.749340948287527064e-03,-1.376377545640590505e-02,-1.777820996452428304e-02,-2.179264447264266102e-02,-2.580707898076103901e-02,-4.838827308892694468e-02,-8.942869730138720830e-02,-1.146981288033823848e-01,-1.146981288033823848e-01,-1.146981288033823848e-01,-1.146981288033823848e-01,-1.146981288033823848e-01,-1.146981288033823848e-01,-1.146981288033823848e-01,-1.146981288033823848e-01,-1.146981288033823848e-01,-1.146981288033823848e-01,-1.146981288033823848e-01,-1.146981288033823848e-01
-1.146981288033823848e-01,-1.146981288033823848e-01,-1.146981288033823848e-01,-1.146981288033823848e-01,-1.146981288033823848e-01,-1.146981288033823848e-01,-1.146981288033823848e-01,-1.146981288033823848e-01,-1.146981288033823848e-01,-1.146981288033823848e-01,-1.146981288033823848e-01,-1.146981288033823848e-01,-1.021530209655124311e-01,-8.542621051501916862e-02,-6.869940006452590620e-02,-5.197258961403264377e-02,-3.524577916353939522e-02,-1.851896871304611891e-02,-1.792158262552856485e-03,-1.387778780781445676e-17,-1.387778780781445676e-17,-1.387778780781445676e-17,-1.387778780781445676e-17,-1.387778780781445676e-17,-1.387778780781445676e-17,-1.387778780781445676e-17,-4.014434508118405742e-03,-8.028869016236783729e-03,-1.204330352435516172e-02,-1.605773803247355358e-02,-2.007217254059191769e-02,-2.408660704871030955e-02,-2.810104155682870142e-02,-3.211547606494707940e-02,-3.612991057306547127e-02,-6.344240249437088641e-02,-1.014720008257423561e-01,-1.146981288033823848e-01,-1.146981288033823848e-01,-1.146981288033823848e-01,-1.146981288033823848e-01,-1.146981288033823848e-01,-1.146981288033823848e-01,-1.146981288033823848e-01,-1.146981288033823848e-01,-1.146981288033823848e-01,-1.146981288033823848e-01
-1.146981288033823848e-01,-1.146981288033823848e-01,-1.146981288033823848e-01,-1.146981288033823848e-01,-1.146981288033823848e-01,-1.146981288033823848e-01,-1.146981288033823848e-01,-1.146981288033823848e-01,-1.146981288033823848e-01,-1.146981288033823848e-01,-1.146981288033823848e-01,-1.093216540157238292e-01,-9.319222965274819026e-02,-7.646541920225492783e-02,-5.973860875176166541e-02,-4.301179830126840298e-02,-2.628498785077514055e-02,-9.558177400281878122e-03,-1.387778780781445676e-17,-1.387778780781445676e-17,-1.387778780781445676e-17,-1.387778780781445676e-17,-1.387778780781445676e-17,-1.387778780781445676e-17,-1.387778780781445676e-17,-2.293962576067662407e-03,-6.308397084186040393e-03,-1.032283159230443226e-02,-1.433726610042282412e-02,-1.835170060854118823e-02,-2.236613511665958010e-02,-2.638056962477795808e-02,-3.025163147189212365e-02,-3.426606598001050163e-02,-3.828050048812887962e-02,-4.229493499624725761e-02,-4.630936950436564947e-02,-7.647587345878648080e-02,-1.090393890893717604e-01,-1.146981288033823848e-01,-1.146981288033823848e-01,-1.146981288033823848e-01,-1.146981288033823848e-01,-1.146981288033823848e-01,-1.146981288033823848e-01,-1.146981288033823848e-01,-1.146981288033823848e-01
-1.146981288033823848e-01,-1.146981288033823848e-01,-1.146981288033823848e-01,-1.146981288033823848e-01,-1.146981288033823848e-01,-1.146981288033823848e-01,-1.146981288033823848e-01,-1.146981288033823848e-01,-1.146981288033823848e-01,-1.146981288033823848e-01,-1.146981288033823848e-01,-1.003608627029595884e-01,-8.363405225246632602e-02,-6.690724180197306359e-02,-5.018043135147980116e-02,-3.345362090098653873e-02,-1.672681045049327631e-02,-1.387778780781445676e-17,-1.387778780781445676e-17,-1.387778780781445676e-17,-1.387778780781445676e-17,-1.387778780781445676e-17,-1.387778780781445676e-17,-1.387778780781445676e-17,-4.301179830126927728e-04,-4.444552491131084637e-03,-8.458986999249476502e-03,-1.247342150736785449e-02,-1.648785601548623247e-02,-2.050229052360461046e-02,-2.451672503172298845e-02,-2.853115953984138031e-02,-3.254559404795977218e-02,-3.656002855607813629e-02,-4.057446306419652815e-02,-4.458889757231490614e-02,-4.860333208043328412e-02,-5.261776658855166905e-02,-5.844676133750481561e-02,-8.767238220408540839e-02,-1.146981288033823848e-01,-1.146981288033823848e-01,-1.146981288033823848e-01,-1.146981288033823848e-01,-1.146981288033823848e-01,-1.146981288033823848e-01,-1.146981288033823848e-01
-1.146981288033823848e-01,-1.146981288033823848e-01,-1.146981288033823848e-01,-1.146981288033823848e-01,-1.146981288033823848e-01,-1.146981288033823848e-01,-1.146981288033823848e-01,-1.146981288033823848e-01,-1.146981288033823848e-01,-1.146981288033823848e-01,-1.075294957531709866e-01,-9.080268530267772420e-02,-7.407587485218446177e-02,-5.734906440169119934e-02,-4.062225395119793692e-02,-2.449282958822228407e-02,-7.766019137729021637e-03,-1.387778780781445676e-17,-1.387778780781445676e-17,-1.387778780781445676e-17,-1.387778780781445676e-17,-1.387778780781445676e-17,-1.387778780781445676e-17,-1.387778780781445676e-17,-2.724080559080341302e-03,-6.738515067198733166e-03,-1.075294957531712503e-02,-1.476738408343548914e-02,-1.878181859155385325e-02,-2.279625309967225899e-02,-2.681068760779063698e-02,-3.082512211590902884e-02,-3.483955662402740683e-02,-3.885399113214579869e-02,-4.286842564026417668e-02,-4.673948748737832837e-02,-5.075392199549670635e-02,-5.476835650361509822e-02,-5.878279101173347621e-02,-6.279722551985186807e-02,-7.279746862489676340e-02,-9.824611595314722279e-02,-1.146981288033823848e-01,-1.146981288033823848e-01,-1.146981288033823848e-01,-1.146981288033823848e-01,-1.146981288033823848e-01
-1.146981288033823848e-01,-1.146981288033823848e-01,-1.146981288033823848e-01,-1.146981288033823848e-01,-1.146981288033823848e-01,-1.146981288033823848e-01,-1.146981288033823848e-01,-1.146981288033823848e-01,-1.146981288033823848e-01,-1.146981288033823848e-01,-9.856870444040674584e-02,-8.184189398991348341e-02,-6.511508353942022098e-02,-4.838827308892695855e-02,-3.166146263843368225e-02,-1.493465218794043370e-02,-1.387778780781445676e-17,-1.387778780781445676e-17,-1.387778780781445676e-17,-1.387778780781445676e-17,-1.387778780781445676e-17,-1.387778780781445676e-17,-1.387778780781445676e-17,-1.003608627029597966e-03,-5.018043135147989831e-03,-9.032477643266381695e-03,-1.304691215138477356e-02,-1.691797399849891137e-02,-2.093240850661730323e-02,-2.494684301473566734e-02,-2.896127752285405921e-02,-3.297571203097243719e-02,-3.699014653909082906e-02,-4.100458104720920705e-02,-4.501901555532759891e-02,-4.903345006344597690e-02,-5.304788457156436876e-02,-5.706231907968274675e-02,-6.107675358780113167e-02,-6.509118809591951660e-02,-6.910562260403789459e-02,-7.312005711215627257e-02,-8.535153725407948477e-02,-1.052624155510416271e-01,-1.146981288033823848e-01,-1.146981288033823848e-01,-1.146981288033823848e-01
-1.146981288033823848e-01,-1.146981288033823848e-01,-1.146981288033823848e-01,-1.146981288033823848e-01,-1.146981288033823848e-01,-1.146981288033823848e-01,-1.146981288033823848e-01,-1.146981288033823848e-01,-1.146981288033823848e-01,-1.057373374906181440e-01,-8.901052704012488159e-02,-7.228371658963161916e-02,-5.555690613913834980e-02,-3.883009568864509431e-02,-2.210328523815181800e-02,-5.376474787658569454e-03,-1.387778780781445676e-17,-1.387778780781445676e-17,-1.387778780781445676e-17,-1.387778780781445676e-17,-1.387778780781445676e-17,-1.387778780781445676e-17,-1.387778780781445676e-17,-3.154198542093034074e-03,-7.168633050211425939e-03,-1.118306755832980393e-02,-1.519750206644816803e-02,-1.921193657456654602e-02,-2.322637108268493789e-02,-2.724080559080331587e-02,-3.125524009892170774e-02,-3.526967460704009960e-02,-3.928410911515847759e-02,-4.329854362327686945e-02,-4.731297813139523356e-02,-5.132741263951362543e-02,-5.534184714763200341e-02,-5.935628165575039528e-02,-6.322734350286454696e-02,-6.724177801098292495e-02,-7.125621251910130294e-02,-7.527064702721969480e-02,-7.928508153533808667e-02,-8.329951604345645078e-02,-9.672726182563368136e-02,-1.103163018514406735e-01,-1.146981288033823848e-01
-1.146981288033823848e-01,-1.146981288033823848e-01,-1.146981288033823848e-01,-1.146981288033823848e-01,-1.146981288033823848e-01,-1.146981288033823848e-01,-1.146981288033823848e-01,-1.146981288033823848e-01,-1.129059705408295422e-01,-9.617916009033627978e-02,-7.945234963984301735e-02,-6.332292527686736450e-02,-4.659611482637410207e-02,-2.986930437588083964e-02,-1.314249392538759109e-02,-1.387778780781445676e-17,-1.387778780781445676e-17,-1.387778780781445676e-17,-1.387778780781445676e-17,-1.387778780781445676e-17,-1.387778780781445676e-17,-1.387778780781445676e-17,-1.433726610042304617e-03,-5.448161118160682603e-03,-9.462595626279060590e-03,-1.347703013439745245e-02,-1.749146464251581656e-02,-2.150589915063420843e-02,-2.552033365875260029e-02,-2.953476816687097828e-02,-3.340583001398512997e-02,-3.742026452210352183e-02,-4.143469903022189982e-02,-4.544913353834026393e-02,-4.946356804645865579e-02,-5.347800255457703378e-02,-5.749243706269542564e-02,-6.150687157081381057e-02,-6.552130607893219549e-02,-6.953574058705057348e-02,-7.355017509516895147e-02,-7.756460960328734333e-02,-8.157904411140572132e-02,-8.559347861952411318e-02,-8.960791312764249117e-02,-9.362234763576086916e-02,-1.051011213074118794e-01
-1.146981288033823848e-01,-1.146981288033823848e-01,-1.146981288033823848e-01,-1.146981288033823848e-01,-1.146981288033823848e-01,-1.146981288033823848e-01,-1.146981288033823848e-01,-1.146981288033823848e-01,-1.039451792280652875e-01,-8.721836877757202511e-02,-7.049155832707876268e-02,-5.376474787658550025e-02,-3.703793742609223782e-02,-2.031112697559897540e-02,-3.584316525105712969e-03,-1.387778780781445676e-17,-1.387778780781445676e-17,-1.387778780781445676e-17,-1.387778780781445676e-17,-1.387778780781445676e-17,-1.387778780781445676e-17,-1.387778780781445676e-17,-3.584316525105712969e-03,-7.598751033224104834e-03,-1.161318554134248282e-02,-1.562762004946086081e-02,-1.964205455757923879e-02,-2.365648906569761678e-02,-2.767092357381600864e-02,-3.168535808193440051e-02,-3.569979259005277850e-02,-3.971422709817117036e-02,-4.372866160628954835e-02,-4.774309611440791246e-02,-5.175753062252630432e-02,-5.577196513064468925e-02,-5.978639963876308111e-02,-6.380083414688145216e-02,-6.781526865499984402e-02,-7.182970316311822201e-02,-7.584413767123660000e-02,-7.985857217935499186e-02,-8.372963402646914355e-02,-8.774406853458752154e-02,-9.175850304270591340e-02,-9.577293755082429139e-02,-9.978737205894268325e-02
-1.146981288033823848e-01,-1.146981288033823848e-01,-1.146981288033823848e-01,-1.146981288033823848e-01,-1.146981288033823848e-01,-1.146981288033823848e-01,-1.146981288033823848e-01,-1.111138122782766857e-01,-9.438700182778342329e-02,-7.766019137729016086e-02,-6.093338092679689844e-02,-4.420657047630363601e-02,-2.747976002581037358e-02,-1.075294957531711115e-02,-1.387778780781445676e-17,-1.387778780781445676e-17,-1.387778780781445676e-17,-1.387778780781445676e-17,-1.387778780781445676e-17,-1.387778780781445676e-17,-2.775557561562891351e-17,-1.863844593054969634e-03,-5.878279101173361498e-03,-9.892713609291753363e-03,-1.390714811741014523e-02,-1.792158262552849546e-02,-2.193601713364690120e-02,-2.595045164176526531e-02,-2.996488614988365717e-02,-3.397932065800203516e-02,-3.799375516612042702e-02,-4.200818967423881889e-02,-4.602262418235719688e-02,-4.989368602947134856e-02,-5.390812053758972655e-02,-5.792255504570811148e-02,-6.193698955382649640e-02,-6.595142406194487439e-02,-6.996585857006325238e-02,-7.398029307818164424e-02,-7.799472758630002223e-02,-8.200916209441841409e-02,-8.602359660253679208e-02,-9.003803111065517006e-02,-9.405246561877356193e-02,-9.806690012689193992e-02,-1.020813346350103179e-01
-1.146981288033823848e-01,-1.146981288033823848e-01,-1.146981288033823848e-01,-1.146981288033823848e-01,-1.146981288033823848e-01,-1.146981288033823848e-01,-1.146981288033823848e-01,-1.021530209655124311e-01,-8.542621051501916862e-02,-6.869940006452590620e-02,-5.197258961403265765e-02,-3.524577916353938134e-02,-1.851896871304611891e-02,-1.792158262552870363e-03,-1.387778780781445676e-17,-1.387778780781445676e-17,-1.387778780781445676e-17,-1.387778780781445676e-17,-1.387778780781445676e-17,-2.775557561562891351e-17,-1.433726610042540539e-04,-4.157807169122632041e-03,-8.172241677241010027e-03,-1.218667618535938801e-02,-1.620111069347776600e-02,-2.007217254059193157e-02,-2.408660704871030955e-02,-2.810104155682868754e-02,-3.211547606494707940e-02,-3.612991057306547127e-02,-4.014434508118384926e-02,-4.415877958930222724e-02,-4.817321409742060523e-02,-5.218764860553898322e-02,-5.620208311365737508e-02,-6.021651762177576001e-02,-6.423095212989414493e-02,-6.824538663801252292e-02,-7.225982114613091478e-02,-7.627425565424929277e-02,-8.028869016236767076e-02,-8.430312467048606262e-02,-8.831755917860444061e-02,-9.233199368672281859e-02,-9.634642819484121046e-02,-1.002174900419553621e-01,-1.042319245500737401e-01
-1.146981288033823848e-01,-1.146981288033823848e-01,-1.146981288033823848e-01,-1.146981288033823848e-01,-1.146981288033823848e-01,-1.146981288033823848e-01,-1.093216540157238292e-01,-9.259484356523056681e-02,-7.586803311473730438e-02,-5.914122266424404889e-02,-4.241441221375079340e-02,-2.568760176325753097e-02,-8.960791312764268546e-03,-1.387778780781445676e-17,-1.387778780781445676e-17,-1.387778780781445676e-17,0.000000000000000000e+00,-1.387778780781445676e-17,-1.387778780781445676e-17,-1.387778780781445676e-17,-2.293962576067662407e-03,-6.308397084186040393e-03,-1.032283159230443226e-02,-1.433726610042279637e-02,-1.835170060854118823e-02,-2.236613511665956622e-02,-2.638056962477795808e-02,-3.039500413289634995e-02,-3.440943864101472793e-02,-3.842387314913310592e-02,-4.243830765725149778e-02,-4.645274216536987577e-02,-5.046717667348825376e-02,-5.448161118160663868e-02,-5.849604568972502361e-02,-6.251048019784341547e-02,-6.652491470596179346e-02,-7.039597655307594515e-02,-7.441041106119433701e-02,-7.842484556931270112e-02,-8.243928007743109299e-02,-8.645371458554947097e-02,-9.046814909366786284e-02,-9.448258360178624082e-02,-9.849701810990463269e-02,-1.025114526180230107e-01,-1.065258871261413887e-01
-1.146981288033823848e-01,-1.146981288033823848e-01,-1.146981288033823848e-01,-1.146981288033823848e-01,-1.146981288033823848e-01,-1.146981288033823848e-01,-9.976347661544196499e-02,-8.303666616494870256e-02,-6.630985571445545401e-02,-5.018043135147980116e-02,-3.345362090098653873e-02,-1.672681045049327631e-02,-1.387778780781445676e-17,-1.387778780781445676e-17,-1.387778780781445676e-17,-1.387778780781445676e-17,-1.387778780781445676e-17,-1.387778780781445676e-17,-1.387778780781445676e-17,-5.734906440169329489e-04,-4.587925152135310936e-03,-8.602359660253702800e-03,-1.261679416837206691e-02,-1.663122867649045877e-02,-2.064566318460883676e-02,-2.466009769272721475e-02,-2.867453220084562049e-02,-3.268896670896398460e-02,-3.656002855607815016e-02,-4.057446306419652815e-02,-4.458889757231490614e-02,-4.860333208043328412e-02,-5.261776658855167599e-02,-5.663220109667005397e-02,-6.064663560478844584e-02,-6.466107011290682383e-02,-6.867550462102520181e-02,-7.268993912914359368e-02,-7.670437363726198554e-02,-8.071880814538034965e-02,-8.473324265349874151e-02,-8.874767716161713338e-02,-9.276211166973549749e-02,-9.677654617785388935e-02,-1.007909806859722673e-01,-1.048054151940906592e-01,-1.088198497022090372e-01
-1.146981288033823848e-01,-1.146981288033823848e-01,-1.146981288033823848e-01,-1.146981288033823848e-01,-1.146981288033823848e-01,-1.075294957531709866e-01,-9.080268530267772420e-02,-7.407587485218446177e-02,-5.734906440169119934e-02,-4.062225395119793692e-02,-2.389544350070467449e-02,-7.168633050211412061e-03,-1.387778780781445676e-17,-1.387778780781445676e-17,-1.387778780781445676e-17,-1.387778780781445676e-17,-1.387778780781445676e-17,-1.387778780781445676e-17,-1.387778780781445676e-17,-2.867453220084567600e-03,-6.738515067198733166e-03,-1.075294957531711115e-02,-1.476738408343548914e-02,-1.878181859155388100e-02,-2.279625309967225899e-02,-2.681068760779063698e-02,-3.082512211590902884e-02,-3.483955662402742071e-02,-3.885399113214579869e-02,-4.286842564026417668e-02,-4.688286014838254079e-02,-5.089729465650093265e-02,-5.491172916461932452e-02,-5.892616367273770944e-02,-6.294059818085609437e-02,-6.695503268897447235e-02,-7.096946719709285034e-02,-7.498390170521124221e-02,-7.899833621332962019e-02,-8.301277072144799818e-02,-8.688383256856216375e-02,-9.089826707668054173e-02,-9.491270158479891972e-02,-9.892713609291731158e-02,-1.029415706010356896e-01,-1.069560051091540814e-01,-1.109704396172724594e-01
-1.146981288033823848e-01,-1.146981288033823848e-01,-1.146981288033823848e-01,-1.146981288033823848e-01,-1.146981288033823848e-01,-9.797131835288912238e-02,-8.124450790239585996e-02,-6.451769745190259753e-02,-4.779088700140933510e-02,-3.106407655091607267e-02,-1.433726610042281024e-02,-1.387778780781445676e-17,-1.387778780781445676e-17,-1.387778780781445676e-17,-1.387778780781445676e-17,-1.387778780781445676e-17,-1.387778780781445676e-17,-1.387778780781445676e-17,-1.003608627029611844e-03,-5.018043135148003708e-03,-9.032477643266381695e-03,-1.304691215138475968e-02,-1.706134665950313767e-02,-2.107578116762151565e-02,-2.509021567573989364e-02,-2.910465018385828551e-02,-3.311908469197667737e-02,-3.713351920009508311e-02,-4.114795370821344722e-02,-4.516238821633182521e-02,-4.917682272445020319e-02,-5.319125723256858812e-02,-5.706231907968274675e-02,-6.107675358780113167e-02,-6.509118809591951660e-02,-6.910562260403788071e-02,-7.312005711215627257e-02,-7.713449162027466444e-02,-8.114892612839304242e-02,-8.516336063651142041e-02,-8.917779514462981227e-02,-9.319222965274819026e-02,-9.720666416086656825e-02,-1.012210986689849601e-01,-1.052355331771033381e-01,-1.092499676852217161e-01,-1.132644021933401079e-01
-1.146981288033823848e-01,-1.146981288033823848e-01,-1.146981288033823848e-01,-1.146981288033823848e-01,-1.057373374906181440e-01,-8.901052704012488159e-02,-7.228371658963161916e-02,-5.555690613913834980e-02,-3.883009568864508043e-02,-2.210328523815181800e-02,-5.376474787658555576e-03,-1.387778780781445676e-17,-1.387778780781445676e-17,-1.387778780781445676e-17,-1.387778780781445676e-17,-1.387778780781445676e-17,-1.387778780781445676e-17,-1.387778780781445676e-17,-3.297571203097246495e-03,-7.312005711215638359e-03,-1.132644021933403022e-02,-1.534087472745240821e-02,-1.935530923557078620e-02,-2.336974374368916418e-02,-2.724080559080332975e-02,-3.125524009892170774e-02,-3.526967460704009960e-02,-3.928410911515849147e-02,-4.329854362327685557e-02,-4.731297813139523356e-02,-5.132741263951362543e-02,-5.534184714763200341e-02,-5.935628165575038834e-02,-6.337071616386877326e-02,-6.738515067198716513e-02,-7.139958518010554311e-02,-7.541401968822392110e-02,-7.942845419634231297e-02,-8.344288870446067707e-02,-8.745732321257906894e-02,-9.147175772069746080e-02,-9.548619222881583879e-02,-9.950062673693421678e-02,-1.035150612450526086e-01,-1.073861230921667603e-01,-1.114005576002851383e-01,-1.146981288033823848e-01
-1.146981288033823848e-01,-1.146981288033823848e-01,-1.146981288033823848e-01,-1.129059705408295422e-01,-9.617916009033627978e-02,-7.945234963984300347e-02,-6.272553918934975492e-02,-4.599872873885647862e-02,-2.927191828836323007e-02,-1.254510783786996764e-02,-1.387778780781445676e-17,-1.387778780781445676e-17,-1.387778780781445676e-17,-1.387778780781445676e-17,-1.387778780781445676e-17,-1.387778780781445676e-17,-1.387778780781445676e-17,-1.433726610042290739e-03,-5.448161118160668726e-03,-9.462595626279060590e-03,-1.347703013439745245e-02,-1.749146464251581656e-02,-2.150589915063420843e-02,-2.552033365875260029e-02,-2.953476816687097828e-02,-3.354920267498937014e-02,-3.756363718310773425e-02,-4.157807169122612612e-02,-4.559250619934450410e-02,-4.960694070746288209e-02,-5.362137521558127395e-02,-5.763580972369965194e-02,-6.165024423181804381e-02,-6.566467873993642179e-02,-6.967911324805481366e-02,-7.355017509516897922e-02,-7.756460960328734333e-02,-8.157904411140572132e-02,-8.559347861952409930e-02,-8.960791312764249117e-02,-9.362234763576088303e-02,-9.763678214387926102e-02,-1.016512166519976390e-01,-1.056656511601160170e-01,-1.096800856682344089e-01,-1.136945201763527868e-01,-1.146981288033823848e-01
-1.146981288033823848e-01,-1.146981288033823848e-01,-1.146981288033823848e-01,-1.033477931405476780e-01,-8.662098269005441553e-02,-6.989417223956115310e-02,-5.316736178906788374e-02,-3.644055133857462825e-02,-2.031112697559897540e-02,-3.584316525105712969e-03,-1.387778780781445676e-17,-1.387778780781445676e-17,-1.387778780781445676e-17,-1.387778780781445676e-17,-1.387778780781445676e-17,-1.387778780781445676e-17,-1.387778780781445676e-17,-3.727689186109953146e-03,-7.742123694228331132e-03,-1.175655820234670912e-02,-1.577099271046510098e-02,-1.978542721858346509e-02,-2.379986172670184308e-02,-2.781429623482024882e-02,-3.182873074293862681e-02,-3.584316525105700479e-02,-3.985759975917539666e-02,-4.372866160628954835e-02,-4.774309611440792633e-02,-5.175753062252630432e-02,-5.577196513064468925e-02,-5.978639963876306723e-02,-6.380083414688145216e-02,-6.781526865499984402e-02,-7.182970316311822201e-02,-7.584413767123660000e-02,-7.985857217935499186e-02,-8.387300668747336985e-02,-8.788744119559174783e-02,-9.190187570371013970e-02,-9.591631021182853156e-02,-9.993074471994690955e-02,-1.039451792280652875e-01,-1.079596137361836655e-01,-1.119740482443020574e-01,-1.146981288033823848e-01,-1.146981288033823848e-01
-1.146981288033823848e-01,-1.146981288033823848e-01,-1.111138122782766857e-01,-9.438700182778342329e-02,-7.766019137729016086e-02,-6.093338092679689844e-02,-4.420657047630363601e-02,-2.747976002581037358e-02,-1.075294957531709727e-02,-1.387778780781445676e-17,-1.387778780781445676e-17,-1.387778780781445676e-17,-1.387778780781445676e-17,-1.387778780781445676e-17,-1.387778780781445676e-17,-1.387778780781445676e-17,-2.007217254059195932e-03,-6.021651762177601674e-03,-1.003608627029596578e-02,-1.390714811741013135e-02,-1.792158262552849546e-02,-2.193601713364688732e-02,-2.595045164176527919e-02,-2.996488614988365717e-02,-3.397932065800203516e-02,-3.799375516612042702e-02,-4.200818967423880501e-02,-4.602262418235719688e-02,-5.003705869047556098e-02,-5.405149319859395285e-02,-5.806592770671233777e-02,-6.208036221483072270e-02,-6.609479672294910069e-02,-7.010923123106749255e-02,-7.412366573918588442e-02,-7.813810024730424852e-02,-8.215253475542264039e-02,-8.616696926354101838e-02,-9.018140377165939636e-02,-9.405246561877356193e-02,-9.806690012689193992e-02,-1.020813346350103179e-01,-1.060957691431287098e-01,-1.101102036512470878e-01,-1.141246381593654796e-01,-1.146981288033823848e-01,-1.146981288033823848e-01
-1.146981288033823848e-01,-1.146981288033823848e-01,-1.015556348779948215e-01,-8.482882442750155905e-02,-6.810201397700829662e-02,-5.137520352651503419e-02,-3.464839307602177176e-02,-1.792158262552850934e-02,-1.194772175035246908e-03,-1.387778780781445676e-17,-1.387778780781445676e-17,-1.387778780781445676e-17,-1.387778780781445676e-17,-1.387778780781445676e-17,-1.387778780781445676e-17,-1.433726610042540539e-04,-4.157807169122632041e-03,-8.172241677241023905e-03,-1.218667618535938801e-02,-1.620111069347777988e-02,-2.021554520159615786e-02,-2.422997970971453585e-02,-2.824441421783291384e-02,-3.225884872595129182e-02,-3.627328323406969757e-02,-4.028771774218807555e-02,-4.430215225030645354e-02,-4.831658675842483153e-02,-5.233102126654322339e-02,-5.634545577466160138e-02,-6.021651762177575307e-02,-6.423095212989414493e-02,-6.824538663801252292e-02,-7.225982114613090090e-02,-7.627425565424929277e-02,-8.028869016236767076e-02,-8.430312467048606262e-02,-8.831755917860444061e-02,-9.233199368672281859e-02,-9.634642819484121046e-02,-1.003608627029595884e-01,-1.043752972110779664e-01,-1.083897317191963583e-01,-1.124041662273147363e-01,-1.146981288033823848e-01,-1.146981288033823848e-01,-1.146981288033823848e-01
-1.146981288033823848e-01,-1.087242679282062197e-01,-9.199745747771295723e-02,-7.586803311473730438e-02,-5.914122266424404889e-02,-4.241441221375079340e-02,-2.568760176325753097e-02,-8.960791312764268546e-03,-1.387778780781445676e-17,-2.775557561562891351e-17,-1.387778780781445676e-17,-1.387778780781445676e-17,-1.387778780781445676e-17,-1.387778780781445676e-17,-1.387778780781445676e-17,-2.437335237071888705e-03,-6.451769745190294447e-03,-1.046620425330864468e-02,-1.448063876142703654e-02,-1.849507326954542841e-02,-2.250950777766379252e-02,-2.652394228578218438e-02,-3.039500413289634995e-02,-3.440943864101472793e-02,-3.842387314913310592e-02,-4.243830765725149778e-02,-4.645274216536987577e-02,-5.046717667348825376e-02,-5.448161118160663174e-02,-5.849604568972502361e-02,-6.251048019784341547e-02,-6.652491470596179346e-02,-7.053934921408017145e-02,-7.455378372219854943e-02,-7.856821823031695518e-02,-8.258265273843531928e-02,-8.659708724655371115e-02,-9.061152175467208914e-02,-9.462595626279046712e-02,-9.864039077090885899e-02,-1.026548252790272370e-01,-1.066692597871456150e-01,-1.105403216342597805e-01,-1.145547561423781585e-01,-1.146981288033823848e-01,-1.146981288033823848e-01,-1.146981288033823848e-01
-1.146981288033823848e-01,-9.976347661544196499e-02,-8.303666616494870256e-02,-6.630985571445544013e-02,-4.958304526396219158e-02,-3.285623481346892916e-02,-1.612942436297565285e-02,-1.387778780781445676e-17,-1.387778780781445676e-17,-1.387778780781445676e-17,-1.387778780781445676e-17,-2.775557561562891351e-17,-1.387778780781445676e-17,-1.387778780781445676e-17,-5.734906440169329489e-04,-4.587925152135310936e-03,-8.602359660253702800e-03,-1.261679416837208079e-02,-1.663122867649045877e-02,-2.064566318460885064e-02,-2.466009769272722862e-02,-2.867453220084559273e-02,-3.268896670896399848e-02,-3.670340121708237646e-02,-4.071783572520076833e-02,-4.473227023331914631e-02,-4.874670474143751042e-02,-5.276113924955590229e-02,-5.677557375767428721e-02,-6.079000826579267214e-02,-6.480444277391105012e-02,-6.881887728202942811e-02,-7.283331179014781998e-02,-7.684774629826621184e-02,-8.071880814538034965e-02,-8.473324265349874151e-02,-8.874767716161711950e-02,-9.276211166973551137e-02,-9.677654617785388935e-02,-1.007909806859722673e-01,-1.048054151940906592e-01,-1.088198497022090372e-01,-1.128342842103274152e-01,-1.146981288033823848e-01,-1.146981288033823848e-01,-1.146981288033823848e-01,-1.146981288033823848e-01
-1.069321096656533632e-01,-9.020529921516010075e-02,-7.347848876466683832e-02,-5.675167831417357589e-02,-4.002486786368031346e-02,-2.329805741318706491e-02,-7.168633050211412061e-03,-1.387778780781445676e-17,-1.387778780781445676e-17,-1.387778780781445676e-17,-1.387778780781445676e-17,-1.387778780781445676e-17,-1.387778780781445676e-17,-1.387778780781445676e-17,-2.867453220084567600e-03,-6.881887728202959464e-03,-1.089632223632133745e-02,-1.491075674443972932e-02,-1.892519125255809342e-02,-2.293962576067647141e-02,-2.695406026879486328e-02,-3.096849477691325514e-02,-3.498292928503164700e-02,-3.899736379315002499e-02,-4.301179830126840298e-02,-4.688286014838256854e-02,-5.089729465650093265e-02,-5.491172916461932452e-02,-5.892616367273770944e-02,-6.294059818085609437e-02,-6.695503268897447235e-02,-7.096946719709285034e-02,-7.498390170521124221e-02,-7.899833621332963407e-02,-8.301277072144799818e-02,-8.702720522956639004e-02,-9.104163973768476803e-02,-9.505607424580315989e-02,-9.907050875392153788e-02,-1.030849432620399159e-01,-1.070993777701583077e-01,-1.111138122782766857e-01,-1.146981288033823848e-01,-1.146981288033823848e-01,-1.146981288033823848e-01,-1.146981288033823848e-01,-1.146981288033823848e-01
-9.797131835288912238e-02,-8.124450790239585996e-02,-6.451769745190259753e-02,-4.779088700140933510e-02,-3.106407655091607267e-02,-1.433726610042281024e-02,-1.387778780781445676e-17,-1.387778780781445676e-17,-1.387778780781445676e-17,-1.387778780781445676e-17,-1.387778780781445676e-17,-1.387778780781445676e-17,-1.387778780781445676e-17,-1.146981288033838142e-03,-5.161415796152230007e-03,-9.175850304270607993e-03,-1.319028481238899986e-02,-1.706134665950313767e-02,-2.107578116762152953e-02,-2.509021567573989364e-02,-2.910465018385828551e-02,-3.311908469197667737e-02,-3.713351920009506923e-02,-4.114795370821344722e-02,-4.516238821633182521e-02,-4.917682272445020319e-02,-5.319125723256858118e-02,-5.720569174068697305e-02,-6.122012624880536491e-02,-6.523456075692374290e-02,-6.924899526504212088e-02,-7.326342977316049887e-02,-7.727786428127889073e-02,-8.129229878939726872e-02,-8.530673329751564671e-02,-8.932116780563403857e-02,-9.333560231375241656e-02,-9.720666416086656825e-02,-1.012210986689849601e-01,-1.052355331771033381e-01,-1.092499676852217161e-01,-1.132644021933401079e-01,-1.146981288033823848e-01,-1.146981288033823848e-01,-1.146981288033823848e-01,-1.146981288033823848e-01,-1.146981288033823848e-01
-8.841314095260725814e-02,-7.168633050211399571e-02,-5.495952005162073328e-02,-3.823270960112747086e-02,-2.150589915063420843e-02,-4.779088700140946000e-03,-1.387778780781445676e-17,-1.387778780781445676e-17,-1.387778780781445676e-17,-1.387778780781445676e-17,-1.387778780781445676e-17,-1.387778780781445676e-17,-1.387778780781445676e-17,-3.297571203097260373e-03,-7.312005711215638359e-03,-1.132644021933401635e-02,-1.534087472745240821e-02,-1.935530923557077232e-02,-2.336974374368917806e-02,-2.738417825180755605e-02,-3.139861275992593403e-02,-3.541304726804432590e-02,-3.942748177616270389e-02,-4.344191628428108187e-02,-4.745635079239945986e-02,-5.147078530051785172e-02,-5.548521980863623665e-02,-5.949965431675462157e-02,-6.351408882487299956e-02,-6.738515067198716513e-02,-7.139958518010552924e-02,-7.541401968822392110e-02,-7.942845419634231297e-02,-8.344288870446067707e-02,-8.745732321257906894e-02,-9.147175772069746080e-02,-9.548619222881583879e-02,-9.950062673693421678e-02,-1.035150612450526086e-01,-1.075294957531709866e-01,-1.115439302612893646e-01,-1.146981288033823848e-01,-1.146981288033823848e-01,-1.146981288033823848e-01,-1.146981288033823848e-01,-1.146981288033823848e-01,-1.146981288033823848e-01
-7.885496355232539389e-02,-6.272553918934975492e-02,-4.599872873885647862e-02,-2.927191828836323007e-02,-1.254510783786996764e-02,-1.387778780781445676e-17,-1.387778780781445676e-17,-1.387778780781445676e-17,-1.387778780781445676e-17,-1.387778780781445676e-17,-1.387778780781445676e-17,-1.387778780781445676e-17,-1.577099271046530915e-03,-5.591533779164895024e-03,-9.605968287283286888e-03,-1.362040279540167875e-02,-1.763483730352004286e-02,-2.164927181163843473e-02,-2.566370631975682659e-02,-2.967814082787519070e-02,-3.354920267498937014e-02,-3.756363718310774813e-02,-4.157807169122613999e-02,-4.559250619934450410e-02,-4.960694070746288209e-02,-5.362137521558127395e-02,-5.763580972369965194e-02,-6.165024423181803687e-02,-6.566467873993642179e-02,-6.967911324805481366e-02,-7.369354775617319164e-02,-7.770798226429156963e-02,-8.172241677240994762e-02,-8.573685128052833948e-02,-8.975128578864671747e-02,-9.376572029676510933e-02,-9.778015480488348732e-02,-1.017945893130018653e-01,-1.058090238211202572e-01,-1.098234583292386352e-01,-1.136945201763527868e-01,-1.146981288033823848e-01,-1.146981288033823848e-01,-1.146981288033823848e-01,-1.146981288033823848e-01,-1.146981288033823848e-01,-1.146981288033823848e-01
-6.989417223956115310e-02,-5.316736178906788374e-02,-3.644055133857461437e-02,-1.971374088808135194e-02,-2.986930437588089515e-03,-1.387778780781445676e-17,-1.387778780781445676e-17,-1.387778780781445676e-17,-1.387778780781445676e-17,-1.387778780781445676e-17,-1.387778780781445676e-17,-1.387778780781445676e-17,-3.727689186109939268e-03,-7.742123694228317254e-03,-1.175655820234670912e-02,-1.577099271046510098e-02,-1.978542721858346509e-02,-2.379986172670185696e-02,-2.781429623482024882e-02,-3.182873074293862681e-02,-3.584316525105700479e-02,-3.985759975917539666e-02,-4.387203426729377465e-02,-4.788646877541213875e-02,-5.190090328353053062e-02,-5.591533779164892248e-02,-5.992977229976730741e-02,-6.394420680788569233e-02,-6.795864131600407032e-02,-7.197307582412244831e-02,-7.598751033224084017e-02,-8.000194484035921816e-02,-8.387300668747336985e-02,-8.788744119559174783e-02,-9.190187570371013970e-02,-9.591631021182851768e-02,-9.993074471994690955e-02,-1.039451792280652875e-01,-1.079596137361836655e-01,-1.119740482443020574e-01,-1.146981288033823848e-01,-1.146981288033823848e-01,-1.146981288033823848e-01,-1.146981288033823848e-01,-1.146981288033823848e-01,-1.146981288033823848e-01,-1.146981288033823848e-01
-6.033599483927928192e-02,-4.360918438878601255e-02,-2.688237393829275013e-02,-1.015556348779948770e-02,-1.387778780781445676e-17,-1.387778780781445676e-17,-1.387778780781445676e-17,-1.387778780781445676e-17,-1.387778780781445676e-17,-1.387778780781445676e-17,-1.387778780781445676e-17,-2.007217254059209810e-03,-6.021651762177601674e-03,-1.003608627029596578e-02,-1.405052077841437153e-02,-1.806495528653273563e-02,-2.207938979465111362e-02,-2.609382430276950549e-02,-3.010825881088788347e-02,-3.412269331900626146e-02,-3.813712782712465332e-02,-4.215156233524304519e-02,-4.616599684336142317e-02,-5.018043135147980116e-02,-5.405149319859395285e-02,-5.806592770671233777e-02,-6.208036221483072270e-02,-6.609479672294910069e-02,-7.010923123106749255e-02,-7.412366573918587054e-02,-7.813810024730424852e-02,-8.215253475542264039e-02,-8.616696926354101838e-02,-9.018140377165939636e-02,-9.419583827977778823e-02,-9.821027278789616621e-02,-1.022247072960145442e-01,-1.062391418041329361e-01,-1.102535763122513141e-01,-1.142680108203697059e-01,-1.146981288033823848e-01,-1.146981288033823848e-01,-1.146981288033823848e-01,-1.146981288033823848e-01,-1.146981288033823848e-01,-1.146981288033823848e-01,-1.146981288033823848e-01
-5.137520352651503419e-02,-3.464839307602177176e-02,-1.792158262552850934e-02,-1.194772175035246908e-03,-1.387778780781445676e-17,-1.387778780781445676e-17,-1.387778780781445676e-17,0.000000000000000000e+00,-1.387778780781445676e-17,-1.387778780781445676e-17,-2.867453220084803522e-04,-4.301179830126844461e-03,-8.315614338245236326e-03,-1.233004884636362819e-02,-1.634448335448199230e-02,-2.035891786260038416e-02,-2.422997970971453585e-02,-2.824441421783291384e-02,-3.225884872595131958e-02,-3.627328323406969757e-02,-4.028771774218807555e-02,-4.430215225030645354e-02,-4.831658675842483153e-02,-5.233102126654322339e-02,-5.634545577466160138e-02,-6.035989028277997936e-02,-6.437432479089838511e-02,-6.838875929901674922e-02,-7.240319380713514108e-02,-7.641762831525351907e-02,-8.043206282337189705e-02,-8.444649733149028892e-02,-8.846093183960866690e-02,-9.247536634772704489e-02,-9.648980085584543676e-02,-1.005042353639638147e-01,-1.043752972110779664e-01,-1.083897317191963583e-01,-1.124041662273147363e-01,-1.146981288033823848e-01,-1.146981288033823848e-01,-1.146981288033823848e-01,-1.146981288033823848e-01,-1.146981288033823848e-01,-1.146981288033823848e-01,-1.146981288033823848e-01,-1.146981288033823848e-01
-4.181702612623316995e-02,-2.509021567573990752e-02,-8.363405225246645092e-03,-1.387778780781445676e-17,-1.387778780781445676e-17,-1.387778780781445676e-17,-1.387778780781445676e-17,-1.387778780781445676e-17,-1.387778780781445676e-17,-1.387778780781445676e-17,-2.437335237071888705e-03,-6.451769745190280569e-03,-1.046620425330865856e-02,-1.448063876142705042e-02,-1.849507326954542841e-02,-2.250950777766379252e-02,-2.652394228578218438e-02,-3.053837679390057624e-02,-3.455281130201895423e-02,-3.856724581013733222e-02,-4.258168031825572408e-02,-4.659611482637408819e-02,-5.061054933449249393e-02,-5.462498384261086498e-02,-5.863941835072924991e-02,-6.265385285884764177e-02,-6.666828736696600588e-02,-7.053934921408017145e-02,-7.455378372219854943e-02,-7.856821823031695518e-02,-8.258265273843531928e-02,-8.659708724655371115e-02,-9.061152175467207526e-02,-9.462595626279046712e-02,-9.864039077090885899e-02,-1.026548252790272370e-01,-1.066692597871456150e-01,-1.106836942952640068e-01,-1.146981288033823848e-01,-1.146981288033823848e-01,-1.146981288033823848e-01,-1.146981288033823848e-01,-1.146981288033823848e-01,-1.146981288033823848e-01,-1.146981288033823848e-01,-1.146981288033823848e-01,-1.146981288033823848e-01
-3.285623481346892916e-02,-1.612942436297565285e-02,-1.387778780781445676e-17,-1.387778780781445676e-17,-1.387778780781445676e-17,-1.387778780781445676e-17,-1.387778780781445676e-17,-1.387778780781445676e-17,-1.387778780781445676e-17,-7.168633050211731250e-04,-4.731297813139537234e-03,-8.745732321257915221e-03,-1.276016682937632096e-02,-1.677460133749468507e-02,-2.078903584561307694e-02,-2.480347035373145492e-02,-2.881790486184983291e-02,-3.283233936996822477e-02,-3.684677387808660276e-02,-4.071783572520075445e-02,-4.473227023331913244e-02,-4.874670474143752430e-02,-5.276113924955590229e-02,-5.677557375767428721e-02,-6.079000826579267214e-02,-6.480444277391106400e-02,-6.881887728202942811e-02,-7.283331179014781998e-02,-7.684774629826621184e-02,-8.086218080638458983e-02,-8.487661531450296781e-02,-8.889104982262134580e-02,-9.290548433073973766e-02,-9.691991883885811565e-02,-1.009343533469765075e-01,-1.049487878550948855e-01,-1.089632223632132635e-01,-1.129776568713316554e-01,-1.146981288033823848e-01,-1.146981288033823848e-01,-1.146981288033823848e-01,-1.146981288033823848e-01,-1.146981288033823848e-01,-1.146981288033823848e-01,-1.146981288033823848e-01,-1.146981288033823848e-01,-1.146981288033823848e-01
-2.329805741318706491e-02,-6.571246962693802485e-03,-2.775557561562891351e-17,-1.387778780781445676e-17,-1.387778780781445676e-17,-1.387778780781445676e-17,-1.387778780781445676e-17,-1.387778780781445676e-17,-1.387778780781445676e-17,-3.010825881088793898e-03,-7.025260389207185763e-03,-1.089632223632133745e-02,-1.491075674443972932e-02,-1.892519125255809342e-02,-2.293962576067648529e-02,-2.695406026879486328e-02,-3.096849477691325514e-02,-3.498292928503164700e-02,-3.899736379315002499e-02,-4.301179830126840298e-02,-4.702623280938678096e-02,-5.104066731750517283e-02,-5.505510182562355082e-02,-5.906953633374193574e-02,-6.308397084186032067e-02,-6.709840534997869865e-02,-7.111283985809707664e-02,-7.512727436621546850e-02,-7.914170887433386037e-02,-8.315614338245222448e-02,-8.717057789057061634e-02,-9.104163973768476803e-02,-9.505607424580314602e-02,-9.907050875392153788e-02,-1.030849432620399159e-01,-1.070993777701583077e-01,-1.111138122782766857e-01,-1.146981288033823848e-01,-1.146981288033823848e-01,-1.146981288033823848e-01,-1.146981288033823848e-01,-1.146981288033823848e-01,-1.146981288033823848e-01,-1.146981288033823848e-01,-1.146981288033823848e-01,-1.146981288033823848e-01,-1.146981288033823848e-01
-1.373988001290520067e-02,-4.163336342344337027e-17,-1.387778780781445676e-17,-1.387778780781445676e-17,-1.387778780781445676e-17,-1.387778780781445676e-17,-1.387778780781445676e-17,-1.387778780781445676e-17,-1.146981288033838142e-03,-5.161415796152230007e-03,-9.175850304270607993e-03,-1.319028481238899986e-02,-1.720471932050736397e-02,-2.121915382862575583e-02,-2.523358833674413382e-02,-2.924802284486252568e-02,-3.326245735298090367e-02,-3.727689186109929553e-02,-4.129132636921767352e-02,-4.530576087733605151e-02,-4.932019538545442949e-02,-5.333462989357282136e-02,-5.720569174068697305e-02,-6.122012624880536491e-02,-6.523456075692374290e-02,-6.924899526504212088e-02,-7.326342977316049887e-02,-7.727786428127889073e-02,-8.129229878939726872e-02,-8.530673329751564671e-02,-8.932116780563403857e-02,-9.333560231375241656e-02,-9.735003682187080842e-02,-1.013644713299891864e-01,-1.053789058381075644e-01,-1.093933403462259563e-01,-1.134077748543443342e-01,-1.146981288033823848e-01,-1.146981288033823848e-01,-1.146981288033823848e-01,-1.146981288033823848e-01,-1.146981288033823848e-01,-1.146981288033823848e-01,-1.146981288033823848e-01,-1.146981288033823848e-01,-1.146981288033823848e-01,-1.146981288033823848e-01
-4.779088700140946000e-03,-1.387778780781445676e-17,-1.387778780781445676e-17,-1.387778780781445676e-17,-1.387778780781445676e-17,-1.387778780781445676e-17,-1.387778780781445676e-17,-1.387778780781445676e-17,-3.440943864101486671e-03,-7.455378372219864658e-03,-1.146981288033825652e-02,-1.548424738845664839e-02,-1.949868189657501250e-02,-2.351311640469340436e-02,-2.738417825180756993e-02,-3.139861275992593403e-02,-3.541304726804432590e-02,-3.942748177616271776e-02,-4.344191628428109575e-02,-4.745635079239947374e-02,-5.147078530051785172e-02,-5.548521980863623665e-02,-5.949965431675462157e-02,-6.351408882487299956e-02,-6.752852333299139143e-02,-7.154295784110976941e-02,-7.555739234922814740e-02,-7.957182685734653926e-02,-8.358626136546491725e-02,-8.760069587358329524e-02,-9.161513038170168710e-02,-9.562956488982006509e-02,-9.964399939793844307e-02,-1.036584339060568349e-01,-1.075294957531709866e-01,-1.115439302612893646e-01,-1.146981288033823848e-01,-1.146981288033823848e-01,-1.146981288033823848e-01,-1.146981288033823848e-01,-1.146981288033823848e-01,-1.146981288033823848e-01,-1.146981288033823848e-01,-1.146981288033823848e-01,-1.146981288033823848e-01,-1.146981288033823848e-01,-1.146981288033823848e-01
-1.387778780781445676e-17,-1.387778780781445676e-17,-1.387778780781445676e-17,-1.387778780781445676e-17,-1.387778780781445676e-17,-1.387778780781445676e-17,-1.387778780781445676e-17,-1.577099271046530915e-03,-5.591533779164908902e-03,-9.605968287283286888e-03,-1.362040279540167875e-02,-1.763483730352004286e-02,-2.164927181163843473e-02,-2.566370631975682659e-02,-2.967814082787520458e-02,-3.369257533599358256e-02,-3.770700984411197443e-02,-4.172144435223035241e-02,-4.573587886034873040e-02,-4.975031336846710839e-02,-5.376474787658549331e-02,-5.777918238470387824e-02,-6.179361689282227010e-02,-6.580805140094064809e-02,-6.982248590905903995e-02,-7.383692041717741794e-02,-7.770798226429156963e-02,-8.172241677240996149e-02,-8.573685128052833948e-02,-8.975128578864671747e-02,-9.376572029676510933e-02,-9.778015480488348732e-02,-1.017945893130018653e-01,-1.058090238211202572e-01,-1.098234583292386352e-01,-1.138378928373570131e-01,-1.146981288033823848e-01,-1.146981288033823848e-01,-1.146981288033823848e-01,-1.146981288033823848e-01,-1.146981288033823848e-01,-1.146981288033823848e-01,-1.146981288033823848e-01,-1.146981288033823848e-01,-1.146981288033823848e-01,-1.146981288033823848e-01,-1.146981288033823848e-01
-5.018043135147980116e-02,-1.387778780781445676e-17,-1.387778780781445676e-17,-1.387778780781445676e-17,-1.387778780781445676e-17,-1.387778780781445676e-17,-1.387778780781445676e-17,-3.871061847114179444e-03,-7.885496355232557431e-03,-1.189993086335093542e-02,-1.591436537146932728e-02,-1.992879987958769139e-02,-2.394323438770608325e-02,-2.795766889582446124e-02,-3.197210340394283923e-02,-3.598653791206123109e-02,-4.000097242017962296e-02,-4.387203426729376077e-02,-4.788646877541213875e-02,-5.190090328353053062e-02,-5.591533779164891554e-02,-5.992977229976730741e-02,-6.394420680788567846e-02,-6.795864131600407032e-02,-7.197307582412244831e-02,-7.598751033224084017e-02,-8.000194484035921816e-02,-8.401637934847759615e-02,-8.803081385659598801e-02,-9.204524836471436600e-02,-9.605968287283275786e-02,-1.000741173809511358e-01,-1.040885518890695138e-01,-1.081029863971879057e-01,-1.121174209053062837e-01,-1.146981288033823848e-01,-1.146981288033823848e-01,-1.146981288033823848e-01,-1.146981288033823848e-01,-1.146981288033823848e-01,-1.146981288033823848e-01,-1.146981288033823848e-01,-1.146981288033823848e-01,-1.146981288033823848e-01,-1.146981288033823848e-01,-1.146981288033823848e-01,-1.146981288033823848e-01
-1.146981288033823848e-01,-9.319222965274819026e-02,-3.584316525105700479e-02,-1.387778780781445676e-17,-1.387778780781445676e-17,-1.387778780781445676e-17,-2.150589915063436108e-03,-6.165024423181814095e-03,-1.017945893130021984e-02,-1.405052077841435765e-02,-1.806495528653273563e-02,-2.207938979465111362e-02,-2.609382430276950549e-02,-3.010825881088788347e-02,-3.412269331900627534e-02,-3.813712782712465332e-02,-4.215156233524304519e-02,-4.616599684336140930e-02,-5.018043135147980116e-02,-5.419486585959818609e-02,-5.820930036771657101e-02,-6.222373487583494900e-02,-6.623816938395332699e-02,-7.025260389207171885e-02,-7.426703840019011071e-02,-7.828147290830848870e-02,-8.229590741642686669e-02,-8.631034192454524467e-02,-9.032477643266363654e-02,-9.419583827977778823e-02,-9.821027278789616621e-02,-1.022247072960145442e-01,-1.062391418041329361e-01,-1.102535763122513141e-01,-1.142680108203697059e-01,-1.146981288033823848e-01,-1.146981288033823848e-01,-1.146981288033823848e-01,-1.146981288033823848e-01,-1.146981288033823848e-01,-1.146981288033823848e-01,-1.146981288033823848e-01,-1.146981288033823848e-01,-1.146981288033823848e-01,-1.146981288033823848e-01,-1.146981288033823848e-01,-1.146981288033823848e-01
-1.146981288033823848e-01,-1.146981288033823848e-01,-1.146981288033823848e-01,-8.243928007743109299e-02,-2.509021567573990752e-02,-2.867453220084803522e-04,-4.301179830126858339e-03,-8.315614338245250203e-03,-1.233004884636362819e-02,-1.634448335448200618e-02,-2.035891786260038416e-02,-2.437335237071876215e-02,-2.838778687883715401e-02,-3.240222138695553200e-02,-3.641665589507392387e-02,-4.043109040319230185e-02,-4.444552491131067984e-02,-4.845995941942905783e-02,-5.247439392754744969e-02,-5.648882843566583462e-02,-6.050326294378421954e-02,-6.437432479089837123e-02,-6.838875929901674922e-02,-7.240319380713514108e-02,-7.641762831525351907e-02,-8.043206282337189705e-02,-8.444649733149028892e-02,-8.846093183960866690e-02,-9.247536634772704489e-02,-9.648980085584543676e-02,-1.005042353639638147e-01,-1.045186698720821927e-01,-1.085331043802005846e-01,-1.125475388883189626e-01,-1.146981288033823848e-01,-1.146981288033823848e-01,-1.146981288033823848e-01,-1.146981288033823848e-01,-1.146981288033823848e-01,-1.146981288033823848e-01,-1.146981288033823848e-01,-1.146981288033823848e-01,-1.146981288033823848e-01,-1.146981288033823848e-01,-1.146981288033823848e-01,-1.146981288033823848e-01,-1.146981288033823848e-01
-1.146981288033823848e-01,-1.146981288033823848e-01,-1.146981288033823848e-01,-1.146981288033823848e-01,-1.146981288033823848e-01,-7.265409596389253710e-02,-2.010801570584298814e-02,-1.060957691431287098e-02,-1.462401142243126284e-02,-1.863844593054964083e-02,-2.265288043866801881e-02,-2.666731494678641068e-02,-3.053837679390057624e-02,-3.455281130201894035e-02,-3.856724581013733222e-02,-4.258168031825572408e-02,-4.659611482637410207e-02,-5.061054933449248006e-02,-5.462498384261087192e-02,-5.863941835072924991e-02,-6.265385285884764177e-02,-6.666828736696600588e-02,-7.068272187508439774e-02,-7.469715638320278961e-02,-7.871159089132118147e-02,-8.272602539943954558e-02,-8.674045990755793745e-02,-9.075489441567631543e-02,-9.476932892379469342e-02,-9.878376343191308528e-02,-1.027981979400314633e-01,-1.068126324481498413e-01,-1.106836942952640068e-01,-1.146981288033823848e-01,-1.146981288033823848e-01,-1.146981288033823848e-01,-1.146981288033823848e-01,-1.146981288033823848e-01,-1.146981288033823848e-01,-1.146981288033823848e-01,-1.146981288033823848e-01,-1.146981288033823848e-01,-1.146981288033823848e-01,-1.146981288033823848e-01,-1.146981288033823848e-01,-1.146981288033823848e-01,-1.146981288033823848e-01
-1.146981288033823848e-01,-1.146981288033823848e-01,-1.146981288033823848e-01,-1.146981288033823848e-01,-1.146981288033823848e-01,-1.146981288033823848e-01,-1.146981288033823848e-01,-6.372914781637933901e-02,-1.983471157080367309e-02,-2.078903584561306306e-02,-2.480347035373144104e-02,-2.881790486184983291e-02,-3.283233936996822477e-02,-3.684677387808660276e-02,-4.086120838620499462e-02,-4.487564289432335873e-02,-4.889007740244173672e-02,-5.290451191056012858e-02,-5.691894641867850657e-02,-6.093338092679689844e-02,-6.494781543491529030e-02,-6.896224994303365441e-02,-7.297668445115204627e-02,-7.699111895927043814e-02,-8.086218080638458983e-02,-8.487661531450296781e-02,-8.889104982262134580e-02,-9.290548433073973766e-02,-9.691991883885811565e-02,-1.009343533469765075e-01,-1.049487878550948855e-01,-1.089632223632132635e-01,-1.129776568713316554e-01,-1.146981288033823848e-01,-1.146981288033823848e-01,-1.146981288033823848e-01,-1.146981288033823848e-01,-1.146981288033823848e-01,-1.146981288033823848e-01,-1.146981288033823848e-01,-1.146981288033823848e-01,-1.146981288033823848e-01,-1.146981288033823848e-01,-1.146981288033823848e-01,-1.146981288033823848e-01,-1.146981288033823848e-01,-1.146981288033823848e-01
-1.146981288033823848e-01,-1.146981288033823848e-01,-1.146981288033823848e-01,-1.146981288033823848e-01,-1.146981288033823848e-01,-1.146981288033823848e-01,-1.146981288033823848e-01,-1.146981288033823848e-01,-1.057328570949617463e-01,-6.030164513924701764e-02,-2.709743292979910345e-02,-3.111186743791748144e-02,-3.512630194603587330e-02,-3.914073645415425129e-02,-4.315517096227264315e-02,-4.716960547039100726e-02,-5.104066731750517283e-02,-5.505510182562355082e-02,-5.906953633374193574e-02,-6.308397084186032067e-02,-6.709840534997869865e-02,-7.111283985809707664e-02,-7.512727436621546850e-02,-7.914170887433384649e-02,-8.315614338245222448e-02,-8.717057789057061634e-02,-9.118501239868899433e-02,-9.519944690680738619e-02,-9.921388141492576418e-02,-1.032283159230441560e-01,-1.072427504311625340e-01,-1.112571849392809120e-01,-1.146981288033823848e-01,-1.146981288033823848e-01,-1.146981288033823848e-01,-1.146981288033823848e-01,-1.146981288033823848e-01,-1.146981288033823848e-01,-1.146981288033823848e-01,-1.146981288033823848e-01,-1.146981288033823848e-01,-1.146981288033823848e-01,-1.146981288033823848e-01,-1.146981288033823848e-01,-1.146981288033823848e-01,-1.146981288033823848e-01,-1.146981288033823848e-01
-1.146981288033823848e-01,-1.146981288033823848e-01,-1.146981288033823848e-01,-1.146981288033823848e-01,-1.146981288033823848e-01,-1.146981288033823848e-01,-1.146981288033823848e-01,-1.146981288033823848e-01,-1.146981288033823848e-01,-1.146981288033823848e-01,-9.867623393615990168e-02,-5.871110468123136999e-02,-3.727689186109929553e-02,-4.129132636921767352e-02,-4.530576087733605151e-02,-4.932019538545442949e-02,-5.333462989357280748e-02,-5.734906440169119934e-02,-6.136349890980959121e-02,-6.537793341792796920e-02,-6.939236792604634718e-02,-7.340680243416472517e-02,-7.742123694228311703e-02,-8.143567145040149502e-02,-8.545010595851987301e-02,-8.946454046663826487e-02,-9.347897497475664286e-02,-9.749340948287503472e-02,-1.013644713299891864e-01,-1.053789058381075644e-01,-1.093933403462259563e-01,-1.134077748543443342e-01,-1.146981288033823848e-01,-1.146981288033823848e-01,-1.146981288033823848e-01,-1.146981288033823848e-01,-1.146981288033823848e-01,-1.146981288033823848e-01,-1.146981288033823848e-01,-1.146981288033823848e-01,-1.146981288033823848e-01,-1.146981288033823848e-01,-1.146981288033823848e-01,-1.146981288033823848e-01,-1.146981288033823848e-01,-1.146981288033823848e-01,-1.146981288033823848e-01
-1.146981288033823848e-01,-1.146981288033823848e-01,-1.146981288033823848e-01,-1.146981288033823848e-01,-1.146981288033823848e-01,-1.146981288033823848e-01,-1.146981288033823848e-01,-1.146981288033823848e-01,-1.146981288033823848e-01,-1.146981288033823848e-01,-1.146981288033823848e-01,-1.146981288033823848e-01,-9.122085556394005090e-02,-5.914122266424404889e-02,-4.759972345340370004e-02,-5.161415796152207802e-02,-5.562859246964045601e-02,-5.964302697775884787e-02,-6.365746148587722586e-02,-6.752852333299139143e-02,-7.154295784110975553e-02,-7.555739234922814740e-02,-7.957182685734653926e-02,-8.358626136546491725e-02,-8.760069587358329524e-02,-9.161513038170168710e-02,-9.562956488982006509e-02,-9.964399939793844307e-02,-1.036584339060568349e-01,-1.076728684141752129e-01,-1.116873029222935909e-01,-1.146981288033823848e-01,-1.146981288033823848e-01,-1.146981288033823848e-01,-1.146981288033823848e-01,-1.146981288033823848e-01,-1.146981288033823848e-01,-1.146981288033823848e-01,-1.146981288033823848e-01,-1.146981288033823848e-01,-1.146981288033823848e-01,-1.146981288033823848e-01,-1.146981288033823848e-01,-1.146981288033823848e-01,-1.146981288033823848e-01,-1.146981288033823848e-01,-1.146981288033823848e-01
-1.146981288033823848e-01,-1.146981288033823848e-01,-1.146981288033823848e-01,-1.146981288033823848e-01,-1.146981288033823848e-01,-1.146981288033823848e-01,-1.146981288033823848e-01,-1.146981288033823848e-01,-1.146981288033823848e-01,-1.146981288033823848e-01,-1.146981288033823848e-01,-1.146981288033823848e-01,-1.146981288033823848e-01,-1.146981288033823848e-01,-8.831307878294805680e-02,-6.138142049243511256e-02,-5.777918238470387824e-02,-6.179361689282227010e-02,-6.580805140094064809e-02,-6.982248590905902608e-02,-7.383692041717741794e-02,-7.785135492529579593e-02,-8.186578943341418779e-02,-8.588022394153256578e-02,-8.989465844965094377e-02,-9.390909295776933563e-02,-9.792352746588771362e-02,-1.019379619740060916e-01,-1.059523964821244835e-01,-1.099668309902428615e-01,-1.139812654983612394e-01,-1.146981288033823848e-01,-1.146981288033823848e-01,-1.146981288033823848e-01,-1.146981288033823848e-01,-1.146981288033823848e-01,-1.146981288033823848e-01,-1.146981288033823848e-01,-1.146981288033823848e-01,-1.146981288033823848e-01,-1.146981288033823848e-01,-1.146981288033823848e-01,-1.146981288033823848e-01,-1.146981288033823848e-01,-1.146981288033823848e-01,-1.146981288033823848e-01,-1.146981288033823848e-01
-1.146981288033823848e-01,-1.146981288033823848e-01,-1.146981288033823848e-01,-1.146981288033823848e-01,-1.146981288033823848e-01,-1.146981288033823848e-01,-1.146981288033823848e-01,-1.146981288033823848e-01,-1.146981288033823848e-01,-1.146981288033823848e-01,-1.146981288033823848e-01,-1.146981288033823848e-01,-1.146981288033823848e-01,-1.146981288033823848e-01,-1.146981288033823848e-01,-1.128656469799221018e-01,-8.738563688207695579e-02,-6.408757946888991863e-02,-6.810201397700829662e-02,-7.211644848512667461e-02,-7.613088299324506647e-02,-8.014531750136344446e-02,-8.415975200948182244e-02,-8.803081385659598801e-02,-9.204524836471436600e-02,-9.605968287283275786e-02,-1.000741173809511358e-01,-1.040885518890695138e-01,-1.081029863971879057e-01,-1.121174209053062837e-01,-1.146981288033823848e-01,-1.146981288033823848e-01,-1.146981288033823848e-01,-1.146981288033823848e-01,-1.146981288033823848e-01,-1.146981288033823848e-01,-1.146981288033823848e-01,-1.146981288033823848e-01,-1.146981288033823848e-01,-1.146981288033823848e-01,-1.146981288033823848e-01,-1.146981288033823848e-01,-1.146981288033823848e-01,-1.146981288033823848e-01,-1.146981288033823848e-01,-1.146981288033823848e-01,-1.146981288033823848e-01
