-2.349053163523868448e-01,-2.349053163523868448e-01,-2.349053163523868448e-01,-2.349053163523868448e-01,-2.349053163523868448e-01,-2.349053163523868448e-01,-2.349053163523868448e-01,-2.349053163523868448e-01,-2.349053163523868448e-01,-2.349053163523868448e-01,-2.349053163523868448e-01,-2.349053163523868448e-01,-2.349053163523868448e-01,-2.349053163523868448e-01,-2.349053163523868448e-01,-2.349053163523868448e-01,-2.349053163523868448e-01,-1.909829160552478644e-01,-1.749486862905566265e-01,-1.021830941548368121e-01,-6.180874290677029759e-02,-2.775557561562891351e-17,-2.775557561562891351e-17,-2.775557561562891351e-17,-2.775557561562891351e-17,0.000000000000000000e+00,-2.775557561562891351e-17,-2.775557561562891351e-17,0.000000000000000000e+00,-2.775557561562891351e-17,-2.775557561562891351e-17,-2.775557561562891351e-17,-2.775557561562891351e-17,-2.775557561562891351e-17,-2.775557561562891351e-17,-2.775557561562891351e-17,-2.775557561562891351e-17,-6.606712022410882179e-02,-2.349053163523868448e-01,-2.349053163523868448e-01,-2.349053163523868448e-01,-2.349053163523868448e-01,-2.349053163523868448e-01,-2.349053163523868448e-01,-2.349053163523868448e-01,-2.349053163523868448e-01,-2.349053163523868448e-01
-2.349053163523868448e-01,-2.349053163523868448e-01,-2.349053163523868448e-01,-2.349053163523868448e-01,-2.349053163523868448e-01,-2.349053163523868448e-01,-2.349053163523868448e-01,-2.349053163523868448e-01,-2.349053163523868448e-01,-2.349053163523868448e-01,-2.349053163523868448e-01,-2.349053163523868448e-01,-2.349053163523868448e-01,-2.349053163523868448e-01,-1.954485639963218779e-01,-1.468158227202417954e-01,-9.342686052062051938e-02,-6.410957592117225157e-02,-9.606576820816009610e-02,-8.138418593613591656e-02,-6.621321758837758753e-02,-4.404474681607289943e-03,-2.775557561562891351e-17,-5.551115123125782702e-17,-2.775557561562891351e-17,0.000000000000000000e+00,-2.775557561562891351e-17,-5.551115123125782702e-17,-2.775557561562891351e-17,-2.775557561562891351e-17,0.000000000000000000e+00,-2.775557561562891351e-17,-2.775557561562891351e-17,-2.775557561562891351e-17,-2.775557561562891351e-17,-2.775557561562891351e-17,-2.775557561562891351e-17,-5.551115123125782702e-17,-2.202237340803626653e-01,-2.349053163523868448e-01,-2.349053163523868448e-01,-5.338547701145580637e-01,-5.338547701145580637e-01,-5.338547701145580637e-01,-5.338547701145580637e-01,-2.349053163523868448e-01,-2.349053163523868448e-01
-2.349053163523868448e-01,-2.349053163523868448e-01,-2.349053163523868448e-01,-2.349053163523868448e-01,-2.349053163523868448e-01,-2.349053163523868448e-01,-2.349053163523868448e-01,-2.349053163523868448e-01,-2.349053163523868448e-01,-2.349053163523868448e-01,-2.310514010059805112e-01,-2.084937615776100150e-01,-1.748484688708879520e-01,-1.315530944832833393e-01,-1.135375695703203097e-01,-9.836660122256199457e-02,-8.368501895053781503e-02,-6.851405060277948600e-02,-1.009596289655014800e-01,-8.578866061774315099e-02,-7.110707834571899921e-02,-8.808949363214552131e-03,-2.775557561562891351e-17,-2.775557561562891351e-17,-2.775557561562891351e-17,-2.775557561562891351e-17,-2.775557561562891351e-17,-2.775557561562891351e-17,-2.775557561562891351e-17,-2.775557561562891351e-17,-2.775557561562891351e-17,-5.551115123125782702e-17,-2.775557561562891351e-17,-2.775557561562891351e-17,-5.551115123125782702e-17,-2.775557561562891351e-17,-2.775557561562891351e-17,-5.551115123125782702e-17,-1.468158227202417954e-01,-2.349053163523868448e-01,-2.349053163523868448e-01,-5.338547701145580637e-01,-5.338547701145580637e-01,-5.338547701145580637e-01,-5.338547701145580637e-01,-2.349053163523868448e-01,-2.349053163523868448e-01
-2.349053163523868448e-01,-2.349053163523868448e-01,-2.349053163523868448e-01,-2.349053163523868448e-01,-2.349053163523868448e-01,-2.349053163523868448e-01,-2.349053163523868448e-01,-2.337583177373849519e-01,-2.239705962227021840e-01,-2.046551395460703693e-01,-1.781365315672266969e-01,-1.629655632194683679e-01,-1.482839809474442161e-01,-1.331130125996858871e-01,-1.184314303276617214e-01,-1.032604619799034062e-01,-8.857887970787922671e-02,-7.340791136012089768e-02,-5.872632908809671815e-02,-4.355536074033841687e-02,-2.838439239258011559e-02,-1.370281012055590830e-02,-2.775557561562891351e-17,-2.775557561562891351e-17,-2.775557561562891351e-17,-2.775557561562891351e-17,0.000000000000000000e+00,-5.551115123125782702e-17,-2.775557561562891351e-17,-2.775557561562891351e-17,0.000000000000000000e+00,-2.775557561562891351e-17,-2.775557561562891351e-17,-2.775557561562891351e-17,-2.775557561562891351e-17,-2.775557561562891351e-17,-2.775557561562891351e-17,-2.775557561562891351e-17,-8.074870249613300133e-02,-2.349053163523868448e-01,-2.349053163523868448e-01,-5.338547701145580637e-01,-5.338547701145580637e-01,-5.338547701145580637e-01,-5.338547701145580637e-01,-2.349053163523868448e-01,-2.349053163523868448e-01
-2.349053163523868448e-01,-2.349053163523868448e-01,-2.349053163523868448e-01,-2.349053163523868448e-01,-2.349053163523868448e-01,-2.349053163523868448e-01,-2.349053163523868448e-01,-2.275645252163747689e-01,-2.123935568686164399e-01,-1.977119745965922604e-01,-1.825410062488339591e-01,-1.678594239768097796e-01,-1.526884556290514505e-01,-1.380068733570272987e-01,-1.228359050092689558e-01,-1.081543227372447902e-01,-9.298335438948648890e-02,-7.830177211746228161e-02,-6.313080376970398033e-02,-4.844922149767982855e-02,-3.327825314992149952e-02,-1.859667087789731998e-02,-3.425702530139018709e-03,-2.775557561562891351e-17,-5.551115123125782702e-17,-2.775557561562891351e-17,-2.775557561562891351e-17,0.000000000000000000e+00,-5.551115123125782702e-17,-2.775557561562891351e-17,-2.775557561562891351e-17,-2.775557561562891351e-17,-2.775557561562891351e-17,-2.775557561562891351e-17,-2.775557561562891351e-17,-2.775557561562891351e-17,-2.775557561562891351e-17,-2.775557561562891351e-17,-7.340791136012131402e-03,-2.349053163523868448e-01,-2.349053163523868448e-01,-5.338547701145580637e-01,-5.338547701145580637e-01,-5.338547701145580637e-01,-5.338547701145580637e-01,-2.349053163523868448e-01,-2.349053163523868448e-01
-2.349053163523868448e-01,-2.349053163523868448e-01,-2.349053163523868448e-01,-2.349053163523868448e-01,-2.349053163523868448e-01,-2.349053163523868448e-01,-2.349053163523868448e-01,-2.319689998979820034e-01,-2.172874176259578238e-01,-2.021164492781995226e-01,-1.874348670061753430e-01,-1.722638986584170140e-01,-1.575823163863928345e-01,-1.424113480386345332e-01,-1.277297657666103536e-01,-1.125587974188520385e-01,-9.787721514682787283e-02,-8.270624679906951604e-02,-6.802466452704536426e-02,-5.285369617928706298e-02,-3.817211390726291120e-02,-2.300114555950455442e-02,-8.319563287480402636e-03,-2.775557561562891351e-17,-2.775557561562891351e-17,-2.775557561562891351e-17,-2.775557561562891351e-17,-2.775557561562891351e-17,-2.775557561562891351e-17,-2.775557561562891351e-17,-2.775557561562891351e-17,-2.775557561562891351e-17,-2.775557561562891351e-17,-2.775557561562891351e-17,0.000000000000000000e+00,-2.775557561562891351e-17,-2.775557561562891351e-17,-2.775557561562891351e-17,-2.775557561562891351e-17,-1.614974049922659471e-01,-2.349053163523868448e-01,-2.349053163523868448e-01,-2.349053163523868448e-01,-2.349053163523868448e-01,-2.349053163523868448e-01,-2.349053163523868448e-01,-2.349053163523868448e-01
-2.349053163523868448e-01,-2.349053163523868448e-01,-2.349053163523868448e-01,-2.349053163523868448e-01,-2.349053163523868448e-01,-2.349053163523868448e-01,-2.349053163523868448e-01,-2.349053163523868448e-01,-2.221812783832992355e-01,-2.070103100355409065e-01,-1.923287277635167269e-01,-1.771577594157584257e-01,-1.619867910680000966e-01,-1.473052087959759171e-01,-1.321342404482175881e-01,-1.174526581761934363e-01,-1.022816898284351073e-01,-8.760010755641095548e-02,-7.242913920865265420e-02,-5.774755693662844691e-02,-4.257658858887017339e-02,-2.789500631684596610e-02,-1.272403796908763707e-02,-2.775557561562891351e-17,-2.775557561562891351e-17,-2.775557561562891351e-17,-2.775557561562891351e-17,-2.775557561562891351e-17,-2.775557561562891351e-17,-5.551115123125782702e-17,-2.775557561562891351e-17,-2.775557561562891351e-17,-2.775557561562891351e-17,-2.775557561562891351e-17,-2.775557561562891351e-17,-2.775557561562891351e-17,-2.775557561562891351e-17,-2.775557561562891351e-17,-2.775557561562891351e-17,-8.808949363214507722e-02,-2.349053163523868448e-01,-2.349053163523868448e-01,-2.349053163523868448e-01,-2.349053163523868448e-01,-2.349053163523868448e-01,-2.349053163523868448e-01,-2.349053163523868448e-01
-2.349053163523868448e-01,-2.349053163523868448e-01,-2.349053163523868448e-01,-2.349053163523868448e-01,-2.349053163523868448e-01,-2.349053163523868448e-01,-2.349053163523868448e-01,-2.349053163523868448e-01,-2.265857530649064699e-01,-2.119041707928823182e-01,-1.967332024451239891e-01,-1.820516201730998096e-01,-1.668806518253415083e-01,-1.521990695533173288e-01,-1.370281012055589998e-01,-1.223465189335348341e-01,-1.071755505857765189e-01,-9.249396831375233941e-02,-7.732299996599401037e-02,-6.264141769396983084e-02,-4.747044934621155732e-02,-3.278886707418735003e-02,-1.761789872642904875e-02,-2.936316454404869214e-03,-2.775557561562891351e-17,-2.775557561562891351e-17,0.000000000000000000e+00,-2.775557561562891351e-17,-2.775557561562891351e-17,-2.775557561562891351e-17,-2.775557561562891351e-17,-2.775557561562891351e-17,-2.775557561562891351e-17,-2.775557561562891351e-17,-2.775557561562891351e-17,-2.775557561562891351e-17,-2.775557561562891351e-17,-2.775557561562891351e-17,-2.775557561562891351e-17,-2.202237340803628318e-02,-2.349053163523868448e-01,-2.349053163523868448e-01,-2.349053163523868448e-01,-2.349053163523868448e-01,-2.349053163523868448e-01,-2.349053163523868448e-01,-2.349053163523868448e-01
-2.349053163523868448e-01,-2.349053163523868448e-01,-2.349053163523868448e-01,-2.349053163523868448e-01,-2.349053163523868448e-01,-2.349053163523868448e-01,-2.349053163523868448e-01,-2.349053163523868448e-01,-2.314796138222478816e-01,-2.163086454744895526e-01,-2.016270632024653731e-01,-1.864560948547070718e-01,-1.717745125826828922e-01,-1.566035442349245632e-01,-1.419219619629004114e-01,-1.267509936151420824e-01,-1.120694113431179029e-01,-9.689844299535960159e-02,-8.221686072333542206e-02,-6.704589237557709303e-02,-5.236431010355291349e-02,-3.719334175579463997e-02,-2.251175948377046043e-02,-7.340791136012131402e-03,-2.775557561562891351e-17,-2.775557561562891351e-17,-2.775557561562891351e-17,-5.551115123125782702e-17,-2.775557561562891351e-17,-5.551115123125782702e-17,-2.775557561562891351e-17,-5.551115123125782702e-17,-2.775557561562891351e-17,-2.775557561562891351e-17,-2.775557561562891351e-17,-2.775557561562891351e-17,-2.775557561562891351e-17,-5.551115123125782702e-17,-5.551115123125782702e-17,-2.775557561562891351e-17,-1.688381961282780508e-01,-2.349053163523868448e-01,-2.349053163523868448e-01,-2.349053163523868448e-01,-2.349053163523868448e-01,-2.349053163523868448e-01,-2.349053163523868448e-01
-2.349053163523868448e-01,-2.349053163523868448e-01,-2.349053163523868448e-01,-2.349053163523868448e-01,-2.349053163523868448e-01,-2.349053163523868448e-01,-2.349053163523868448e-01,-2.349053163523868448e-01,-2.349053163523868448e-01,-2.212025062318309365e-01,-2.060315378840726352e-01,-1.913499556120484557e-01,-1.761789872642901267e-01,-1.614974049922659471e-01,-1.463264366445076459e-01,-1.316448543724834941e-01,-1.164738860247251651e-01,-1.017923037527009855e-01,-8.662133540494262873e-02,-7.193975313291847695e-02,-5.676878478516017568e-02,-4.208720251313602390e-02,-2.691623416537772262e-02,-1.223465189335351533e-02,-2.775557561562891351e-17,-2.775557561562891351e-17,-2.775557561562891351e-17,-2.775557561562891351e-17,-2.775557561562891351e-17,-2.775557561562891351e-17,-2.775557561562891351e-17,-2.775557561562891351e-17,-2.775557561562891351e-17,-2.775557561562891351e-17,-2.775557561562891351e-17,-2.775557561562891351e-17,-5.551115123125782702e-17,-2.775557561562891351e-17,-2.775557561562891351e-17,-2.775557561562891351e-17,-1.027710759041692568e-01,-2.349053163523868448e-01,-2.349053163523868448e-01,-2.349053163523868448e-01,-2.349053163523868448e-01,-2.349053163523868448e-01,-2.349053163523868448e-01
-2.349053163523868448e-01,-2.349053163523868448e-01,-2.349053163523868448e-01,-2.349053163523868448e-01,-2.349053163523868448e-01,-2.349053163523868448e-01,-2.349053163523868448e-01,-2.349053163523868448e-01,-2.349053163523868448e-01,-2.260963669891723482e-01,-2.109253986414140192e-01,-1.962438163693898674e-01,-1.810728480216315384e-01,-1.663912657496073311e-01,-1.512202974018490298e-01,-1.365387151298248780e-01,-1.213677467820665490e-01,-1.066861645100423972e-01,-9.151519616228406817e-02,-7.683361389025986088e-02,-6.166264554250155960e-02,-4.698106327047740782e-02,-3.181009492271910655e-02,-1.712851265069489926e-02,-1.957544302936597980e-03,-5.551115123125782702e-17,-2.775557561562891351e-17,-5.551115123125782702e-17,0.000000000000000000e+00,-5.551115123125782702e-17,0.000000000000000000e+00,-2.775557561562891351e-17,-2.775557561562891351e-17,-2.775557561562891351e-17,-2.775557561562891351e-17,-2.775557561562891351e-17,-2.775557561562891351e-17,-2.775557561562891351e-17,-2.775557561562891351e-17,-2.775557561562891351e-17,-2.936316454404838683e-02,-2.349053163523868448e-01,-2.349053163523868448e-01,-2.349053163523868448e-01,-2.349053163523868448e-01,-2.349053163523868448e-01,-2.349053163523868448e-01
-2.349053163523868448e-01,-2.349053163523868448e-01,-2.349053163523868448e-01,-2.349053163523868448e-01,-2.349053163523868448e-01,-2.349053163523868448e-01,-2.349053163523868448e-01,-2.349053163523868448e-01,-2.349053163523868448e-01,-2.305008416707795826e-01,-2.158192593987554031e-01,-2.006482910509971018e-01,-1.859667087789729223e-01,-1.707957404312145933e-01,-1.561141581591904415e-01,-1.409431898114321124e-01,-1.262616075394079607e-01,-1.110906391916496178e-01,-9.640905691962542434e-02,-8.123808857186712307e-02,-6.655650629984294353e-02,-5.138553795208467001e-02,-3.670395568006049047e-02,-2.153298733230216144e-02,-6.851405060277981907e-03,-2.775557561562891351e-17,-2.775557561562891351e-17,-2.775557561562891351e-17,-2.775557561562891351e-17,0.000000000000000000e+00,-2.775557561562891351e-17,-2.775557561562891351e-17,0.000000000000000000e+00,-2.775557561562891351e-17,-2.775557561562891351e-17,-2.775557561562891351e-17,-2.775557561562891351e-17,-2.775557561562891351e-17,0.000000000000000000e+00,-2.775557561562891351e-17,-5.551115123125782702e-17,-1.835197784003022303e-01,-2.349053163523868448e-01,-2.349053163523868448e-01,-2.349053163523868448e-01,-2.349053163523868448e-01,-2.349053163523868448e-01
-2.349053163523868448e-01,-2.349053163523868448e-01,-2.349053163523868448e-01,-2.349053163523868448e-01,-2.349053163523868448e-01,-2.349053163523868448e-01,-2.349053163523868448e-01,-2.349053163523868448e-01,-2.349053163523868448e-01,-2.349053163523868448e-01,-2.202237340803626653e-01,-2.055421518083384858e-01,-1.903711834605801845e-01,-1.756896011885560049e-01,-1.605186328407976759e-01,-1.458370505687734964e-01,-1.306660822210151951e-01,-1.159844999489910294e-01,-1.008135316012327143e-01,-8.613194932920853475e-02,-7.096098098145017796e-02,-5.627939870942605394e-02,-4.110843036166772491e-02,-2.642684808964354537e-02,-1.125587974188521634e-02,-2.775557561562891351e-17,-2.775557561562891351e-17,-2.775557561562891351e-17,-2.775557561562891351e-17,-2.775557561562891351e-17,-2.775557561562891351e-17,-2.775557561562891351e-17,0.000000000000000000e+00,-2.775557561562891351e-17,-2.775557561562891351e-17,-5.551115123125782702e-17,-5.551115123125782702e-17,-2.775557561562891351e-17,-5.551115123125782702e-17,-2.775557561562891351e-17,-2.775557561562891351e-17,-1.101118670401813465e-01,-2.349053163523868448e-01,-2.349053163523868448e-01,-2.349053163523868448e-01,-2.349053163523868448e-01,-2.349053163523868448e-01
-2.349053163523868448e-01,-2.349053163523868448e-01,-2.349053163523868448e-01,-2.349053163523868448e-01,-2.349053163523868448e-01,-2.349053163523868448e-01,-2.349053163523868448e-01,-2.349053163523868448e-01,-2.349053163523868448e-01,-2.349053163523868448e-01,-2.251175948377040492e-01,-2.104360125656798974e-01,-1.952650442179215684e-01,-1.805834619458973889e-01,-1.654124935981390876e-01,-1.507309113261149081e-01,-1.355599429783566068e-01,-1.208783607063323995e-01,-1.057073923585740982e-01,-9.102581008654991868e-02,-7.585484173879156189e-02,-6.117325946676741011e-02,-4.600229111900913659e-02,-3.083132277125080756e-02,-1.614974049922660027e-02,-9.787721514683267454e-04,-2.775557561562891351e-17,0.000000000000000000e+00,-2.775557561562891351e-17,-2.775557561562891351e-17,-2.775557561562891351e-17,-2.775557561562891351e-17,-5.551115123125782702e-17,-2.775557561562891351e-17,-2.775557561562891351e-17,-2.775557561562891351e-17,0.000000000000000000e+00,-2.775557561562891351e-17,-2.775557561562891351e-17,-2.775557561562891351e-17,-2.775557561562891351e-17,-4.404474681607256636e-02,-2.349053163523868448e-01,-2.349053163523868448e-01,-2.349053163523868448e-01,-2.349053163523868448e-01,-2.349053163523868448e-01
-2.349053163523868448e-01,-2.349053163523868448e-01,-2.349053163523868448e-01,-2.349053163523868448e-01,-2.349053163523868448e-01,-2.349053163523868448e-01,-2.349053163523868448e-01,-2.349053163523868448e-01,-2.349053163523868448e-01,-2.349053163523868448e-01,-2.300114555950454609e-01,-2.148404872472871319e-01,-2.001589049752629523e-01,-1.849879366275046511e-01,-1.703063543554804715e-01,-1.551353860077221425e-01,-1.404538037356979907e-01,-1.252828353879396617e-01,-1.106012531159154821e-01,-9.543028476815718086e-02,-8.074870249613300133e-02,-6.557773414837467230e-02,-5.089615187635049276e-02,-3.572518352859219148e-02,-2.104360125656803970e-02,-5.872632908809710672e-03,-2.775557561562891351e-17,0.000000000000000000e+00,-2.775557561562891351e-17,-5.551115123125782702e-17,-2.775557561562891351e-17,-2.775557561562891351e-17,-2.775557561562891351e-17,-2.775557561562891351e-17,-2.775557561562891351e-17,-2.775557561562891351e-17,-5.551115123125782702e-17,-2.775557561562891351e-17,-2.775557561562891351e-17,-5.551115123125782702e-17,0.000000000000000000e+00,-5.551115123125782702e-17,-1.982013606723264099e-01,-2.349053163523868448e-01,-2.349053163523868448e-01,-2.349053163523868448e-01,-2.349053163523868448e-01
-2.349053163523868448e-01,-2.349053163523868448e-01,-2.349053163523868448e-01,-2.349053163523868448e-01,-2.349053163523868448e-01,-2.349053163523868448e-01,-2.349053163523868448e-01,-2.349053163523868448e-01,-2.349053163523868448e-01,-2.349053163523868448e-01,-2.344159302766526953e-01,-2.197343480046285435e-01,-2.045633796568702145e-01,-1.898817973848460350e-01,-1.747108290370877337e-01,-1.600292467650635264e-01,-1.448582784173052251e-01,-1.301766961452810456e-01,-1.150057277975227443e-01,-1.003241455254985648e-01,-8.515317717774026351e-02,-7.047159490571605622e-02,-5.530062655795775495e-02,-4.061904428593357541e-02,-2.544807593817527414e-02,-1.076649366615109460e-02,-2.775557561562891351e-17,-2.775557561562891351e-17,-2.775557561562891351e-17,-2.775557561562891351e-17,-2.775557561562891351e-17,-2.775557561562891351e-17,-2.775557561562891351e-17,-2.775557561562891351e-17,-2.775557561562891351e-17,-2.775557561562891351e-17,0.000000000000000000e+00,-2.775557561562891351e-17,-2.775557561562891351e-17,-5.551115123125782702e-17,-2.775557561562891351e-17,-2.775557561562891351e-17,-1.247934493122055261e-01,-2.349053163523868448e-01,-2.349053163523868448e-01,-2.349053163523868448e-01,-2.349053163523868448e-01
-2.349053163523868448e-01,-2.349053163523868448e-01,-2.349053163523868448e-01,-2.349053163523868448e-01,-2.349053163523868448e-01,-2.349053163523868448e-01,-2.349053163523868448e-01,-2.349053163523868448e-01,-2.349053163523868448e-01,-2.349053163523868448e-01,-2.349053163523868448e-01,-2.246282087619699275e-01,-2.094572404142115984e-01,-1.947756581421874467e-01,-1.796046897944291176e-01,-1.649231075224049381e-01,-1.497521391746466368e-01,-1.345811708268883078e-01,-1.198995885548641283e-01,-1.047286202071058270e-01,-9.004703793508164744e-02,-7.487606958732331841e-02,-6.019448731529913887e-02,-4.502351896754083760e-02,-3.034193669551668582e-02,-1.517096834775832903e-02,-4.893860757341494949e-04,-2.775557561562891351e-17,-5.551115123125782702e-17,-5.551115123125782702e-17,-2.775557561562891351e-17,-2.775557561562891351e-17,-2.775557561562891351e-17,-2.775557561562891351e-17,-2.775557561562891351e-17,-2.775557561562891351e-17,-2.775557561562891351e-17,-2.775557561562891351e-17,-2.775557561562891351e-17,-2.775557561562891351e-17,-2.775557561562891351e-17,-2.775557561562891351e-17,-5.138553795208464225e-02,-2.349053163523868448e-01,-2.349053163523868448e-01,-2.349053163523868448e-01,-2.349053163523868448e-01
-2.349053163523868448e-01,-2.349053163523868448e-01,-2.349053163523868448e-01,-2.349053163523868448e-01,-2.349053163523868448e-01,-2.349053163523868448e-01,-2.349053163523868448e-01,-2.349053163523868448e-01,-2.349053163523868448e-01,-2.349053163523868448e-01,-2.349053163523868448e-01,-2.290326834435771619e-01,-2.143511011715530101e-01,-1.991801328237946811e-01,-1.844985505517705016e-01,-1.693275822040121725e-01,-1.546459999319880207e-01,-1.394750315842296917e-01,-1.247934493122055122e-01,-1.096224809644472109e-01,-9.494089869242303137e-02,-7.976993034466470234e-02,-6.508834807264055056e-02,-4.991737972488222153e-02,-3.523579745285806974e-02,-2.006482910509974071e-02,-5.383246833075561177e-03,-2.775557561562891351e-17,-2.775557561562891351e-17,0.000000000000000000e+00,-2.775557561562891351e-17,-2.775557561562891351e-17,-2.775557561562891351e-17,-2.775557561562891351e-17,-2.775557561562891351e-17,-2.775557561562891351e-17,-2.775557561562891351e-17,-2.775557561562891351e-17,-2.775557561562891351e-17,-2.775557561562891351e-17,-2.775557561562891351e-17,-2.775557561562891351e-17,-2.775557561562891351e-17,-2.055421518083384858e-01,-2.349053163523868448e-01,-2.349053163523868448e-01,-2.349053163523868448e-01
-2.349053163523868448e-01,-2.349053163523868448e-01,-2.349053163523868448e-01,-2.349053163523868448e-01,-2.349053163523868448e-01,-2.349053163523868448e-01,-2.349053163523868448e-01,-2.349053163523868448e-01,-2.349053163523868448e-01,-2.349053163523868448e-01,-2.349053163523868448e-01,-2.339265442009185736e-01,-2.187555758531602446e-01,-2.040739935811360650e-01,-1.889030252333777637e-01,-1.742214429613535842e-01,-1.590504746135952829e-01,-1.443688923415711034e-01,-1.291979239938127744e-01,-1.145163417217886087e-01,-9.934537337403029356e-02,-8.466379110200608626e-02,-6.949282275424775723e-02,-5.481124048222363321e-02,-3.964027213446533193e-02,-2.495868986244112464e-02,-9.787721514682823365e-03,-2.775557561562891351e-17,-2.775557561562891351e-17,-2.775557561562891351e-17,-2.775557561562891351e-17,-2.775557561562891351e-17,-2.775557561562891351e-17,-5.551115123125782702e-17,-2.775557561562891351e-17,0.000000000000000000e+00,0.000000000000000000e+00,-2.775557561562891351e-17,-2.775557561562891351e-17,-2.775557561562891351e-17,-2.775557561562891351e-17,-2.775557561562891351e-17,-5.551115123125782702e-17,-1.321342404482176158e-01,-2.349053163523868448e-01,-2.349053163523868448e-01,-2.349053163523868448e-01
-2.349053163523868448e-01,-2.349053163523868448e-01,-2.349053163523868448e-01,-2.349053163523868448e-01,-2.349053163523868448e-01,-2.349053163523868448e-01,-2.349053163523868448e-01,-2.349053163523868448e-01,-2.349053163523868448e-01,-2.349053163523868448e-01,-2.349053163523868448e-01,-2.349053163523868448e-01,-2.236494366105016285e-01,-2.084784682627433272e-01,-1.937968859907191477e-01,-1.786259176429608464e-01,-1.639443353709366669e-01,-1.487733670231783378e-01,-1.340917847511541861e-01,-1.189208164033958570e-01,-1.042392341313716775e-01,-8.906826578361337621e-02,-7.438668351158916892e-02,-5.921571516383086764e-02,-4.453413289180671586e-02,-2.936316454404838683e-02,-1.468158227202420729e-02,-2.775557561562891351e-17,-2.775557561562891351e-17,-2.775557561562891351e-17,-2.775557561562891351e-17,-5.551115123125782702e-17,-2.775557561562891351e-17,-2.775557561562891351e-17,-2.775557561562891351e-17,-2.775557561562891351e-17,0.000000000000000000e+00,-2.775557561562891351e-17,-2.775557561562891351e-17,-2.775557561562891351e-17,-2.775557561562891351e-17,-2.775557561562891351e-17,-2.775557561562891351e-17,-6.606712022410882179e-02,-2.349053163523868448e-01,-2.349053163523868448e-01,-2.349053163523868448e-01
-2.349053163523868448e-01,-2.349053163523868448e-01,-2.349053163523868448e-01,-2.349053163523868448e-01,-2.349053163523868448e-01,-2.349053163523868448e-01,-2.349053163523868448e-01,-2.349053163523868448e-01,-2.349053163523868448e-01,-2.349053163523868448e-01,-2.349053163523868448e-01,-2.349053163523868448e-01,-2.285432973678430402e-01,-2.133723290200847111e-01,-1.986907467480605316e-01,-1.835197784003022303e-01,-1.688381961282780508e-01,-1.536672277805197218e-01,-1.389856455084955700e-01,-1.238146771607372409e-01,-1.091330948887130614e-01,-9.396212654095476013e-02,-7.928054426893055284e-02,-6.410957592117222381e-02,-4.942799364914809979e-02,-3.425702530138979851e-02,-1.957544302936559122e-02,-4.404474681607289943e-03,-2.775557561562891351e-17,-2.775557561562891351e-17,-2.775557561562891351e-17,-2.775557561562891351e-17,-2.775557561562891351e-17,-5.551115123125782702e-17,-2.775557561562891351e-17,-2.775557561562891351e-17,-2.775557561562891351e-17,-2.775557561562891351e-17,-2.775557561562891351e-17,-2.775557561562891351e-17,-2.775557561562891351e-17,-2.775557561562891351e-17,-2.775557561562891351e-17,-5.551115123125782702e-17,-2.202237340803626653e-01,-2.349053163523868448e-01,-2.349053163523868448e-01
-2.349053163523868448e-01,-2.349053163523868448e-01,-2.349053163523868448e-01,-2.349053163523868448e-01,-2.349053163523868448e-01,-2.349053163523868448e-01,-2.349053163523868448e-01,-2.349053163523868448e-01,-2.349053163523868448e-01,-2.349053163523868448e-01,-2.349053163523868448e-01,-2.349053163523868448e-01,-2.329477720494502746e-01,-2.182661897774261228e-01,-2.030952214296677938e-01,-1.884136391576436143e-01,-1.732426708098853130e-01,-1.585610885378611057e-01,-1.433901201901028322e-01,-1.287085379180786249e-01,-1.135375695703203375e-01,-9.885598729829614406e-02,-8.368501895053781503e-02,-6.900343667851363549e-02,-5.383246833075533422e-02,-3.915088605873118244e-02,-2.397991771097288116e-02,-9.298335438948673870e-03,-2.775557561562891351e-17,-2.775557561562891351e-17,-2.775557561562891351e-17,-2.775557561562891351e-17,-2.775557561562891351e-17,-2.775557561562891351e-17,-2.775557561562891351e-17,-2.775557561562891351e-17,-2.775557561562891351e-17,-5.551115123125782702e-17,-2.775557561562891351e-17,0.000000000000000000e+00,-5.551115123125782702e-17,-5.551115123125782702e-17,0.000000000000000000e+00,-2.775557561562891351e-17,-1.468158227202417954e-01,-2.349053163523868448e-01,-2.349053163523868448e-01
-2.349053163523868448e-01,-2.349053163523868448e-01,-2.349053163523868448e-01,-2.349053163523868448e-01,-2.349053163523868448e-01,-2.349053163523868448e-01,-2.473334182949159243e-01,-2.473334182949159243e-01,-2.473334182949159243e-01,-2.473334182949159243e-01,-2.473334182949159243e-01,-2.349053163523868448e-01,-2.349053163523868448e-01,-2.226706644590333573e-01,-2.079890821870091777e-01,-1.928181138392508764e-01,-1.781365315672266969e-01,-1.629655632194683679e-01,-1.482839809474442161e-01,-1.331130125996858871e-01,-1.184314303276617075e-01,-1.032604619799034062e-01,-8.857887970787922671e-02,-7.340791136012089768e-02,-5.872632908809671815e-02,-4.355536074033844463e-02,-2.887377846831426509e-02,-1.370281012055590830e-02,-2.775557561562891351e-17,-2.775557561562891351e-17,-2.775557561562891351e-17,-2.775557561562891351e-17,-5.551115123125782702e-17,-2.775557561562891351e-17,-2.775557561562891351e-17,-2.775557561562891351e-17,-2.775557561562891351e-17,-2.775557561562891351e-17,-2.775557561562891351e-17,-2.775557561562891351e-17,-2.775557561562891351e-17,-2.775557561562891351e-17,-2.775557561562891351e-17,-2.775557561562891351e-17,-7.340791136012089768e-02,-2.349053163523868448e-01,-2.349053163523868448e-01
-2.349053163523868448e-01,-2.349053163523868448e-01,-2.349053163523868448e-01,-2.349053163523868448e-01,-2.349053163523868448e-01,-2.349053163523868448e-01,-2.473334182949159243e-01,-2.473334182949159243e-01,-2.473334182949159243e-01,-2.473334182949159243e-01,-2.473334182949159243e-01,-2.349053163523868448e-01,-2.349053163523868448e-01,-2.275645252163747689e-01,-2.128829429443505894e-01,-1.977119745965922604e-01,-1.830303923245680808e-01,-1.678594239768097518e-01,-1.531778417047856000e-01,-1.380068733570272987e-01,-1.233252910850031053e-01,-1.081543227372447902e-01,-9.347274046522061064e-02,-7.830177211746228161e-02,-6.362018984543810207e-02,-4.844922149767982855e-02,-3.327825314992152728e-02,-1.859667087789729223e-02,-3.425702530138990953e-03,0.000000000000000000e+00,0.000000000000000000e+00,-2.775557561562891351e-17,0.000000000000000000e+00,-2.775557561562891351e-17,-2.775557561562891351e-17,-2.775557561562891351e-17,-2.775557561562891351e-17,-2.775557561562891351e-17,-2.775557561562891351e-17,-2.775557561562891351e-17,-2.775557561562891351e-17,-2.775557561562891351e-17,-2.775557561562891351e-17,-2.775557561562891351e-17,-7.340791136012103646e-03,-2.275645252163747689e-01,-2.349053163523868448e-01
-2.349053163523868448e-01,-2.349053163523868448e-01,-2.349053163523868448e-01,-2.349053163523868448e-01,-2.349053163523868448e-01,-2.349053163523868448e-01,-2.473334182949159243e-01,-2.473334182949159243e-01,-2.473334182949159243e-01,-2.473334182949159243e-01,-2.473334182949159243e-01,-2.349053163523868448e-01,-2.349053163523868448e-01,-2.324583859737161529e-01,-2.172874176259578238e-01,-2.026058353539336720e-01,-1.874348670061753430e-01,-1.727532847341511635e-01,-1.575823163863928345e-01,-1.429007341143686827e-01,-1.277297657666103814e-01,-1.130481834945861741e-01,-9.787721514682787283e-02,-8.319563287480366554e-02,-6.802466452704536426e-02,-5.334308225502118472e-02,-3.817211390726291120e-02,-2.349053163523873167e-02,-8.319563287480374880e-03,-2.775557561562891351e-17,-2.775557561562891351e-17,0.000000000000000000e+00,-2.775557561562891351e-17,-2.775557561562891351e-17,0.000000000000000000e+00,-2.775557561562891351e-17,-2.775557561562891351e-17,-2.775557561562891351e-17,-2.775557561562891351e-17,-2.775557561562891351e-17,0.000000000000000000e+00,-2.775557561562891351e-17,-5.551115123125782702e-17,-2.775557561562891351e-17,-2.775557561562891351e-17,-1.614974049922659471e-01,-2.349053163523868448e-01
-2.349053163523868448e-01,-2.349053163523868448e-01,-2.349053163523868448e-01,-2.349053163523868448e-01,-2.349053163523868448e-01,-2.349053163523868448e-01,-2.473334182949159243e-01,-2.473334182949159243e-01,-2.473334182949159243e-01,-2.473334182949159243e-01,-2.473334182949159243e-01,-2.349053163523868448e-01,-2.349053163523868448e-01,-2.349053163523868448e-01,-2.221812783832992355e-01,-2.070103100355409065e-01,-1.923287277635167269e-01,-1.771577594157584257e-01,-1.624761771437342461e-01,-1.473052087959759171e-01,-1.326236265239517653e-01,-1.174526581761934363e-01,-1.027710759041692568e-01,-8.760010755641092772e-02,-7.291852528438674819e-02,-5.774755693662844691e-02,-4.306597466460429513e-02,-2.789500631684596610e-02,-1.321342404482178656e-02,-2.775557561562891351e-17,-2.775557561562891351e-17,-2.775557561562891351e-17,-5.551115123125782702e-17,-2.775557561562891351e-17,-2.775557561562891351e-17,-2.775557561562891351e-17,-2.775557561562891351e-17,-5.551115123125782702e-17,-2.775557561562891351e-17,-2.775557561562891351e-17,-5.551115123125782702e-17,-2.775557561562891351e-17,-2.775557561562891351e-17,-2.775557561562891351e-17,-2.775557561562891351e-17,-8.808949363214507722e-02,-2.349053163523868448e-01
-2.349053163523868448e-01,-2.349053163523868448e-01,-2.349053163523868448e-01,-2.349053163523868448e-01,-2.349053163523868448e-01,-2.349053163523868448e-01,-2.473334182949159243e-01,-2.473334182949159243e-01,-2.473334182949159243e-01,-2.473334182949159243e-01,-2.473334182949159243e-01,-2.349053163523868448e-01,-2.349053163523868448e-01,-2.349053163523868448e-01,-2.270751391406406194e-01,-2.119041707928823182e-01,-1.972225885208581109e-01,-1.820516201730998096e-01,-1.673700379010756301e-01,-1.521990695533173010e-01,-1.375174872812931492e-01,-1.223465189335348341e-01,-1.071755505857765189e-01,-9.249396831375233941e-02,-7.732299996599401037e-02,-6.264141769396983084e-02,-4.747044934621155732e-02,-3.278886707418740554e-02,-1.761789872642907651e-02,-2.936316454404841458e-03,-2.775557561562891351e-17,-2.775557561562891351e-17,-2.775557561562891351e-17,-2.775557561562891351e-17,-5.551115123125782702e-17,-5.551115123125782702e-17,-2.775557561562891351e-17,-5.551115123125782702e-17,0.000000000000000000e+00,-2.775557561562891351e-17,-2.775557561562891351e-17,0.000000000000000000e+00,-2.775557561562891351e-17,-2.775557561562891351e-17,-2.775557561562891351e-17,-1.468158227202420729e-02,-2.349053163523868448e-01
-2.349053163523868448e-01,-2.349053163523868448e-01,-2.349053163523868448e-01,-2.349053163523868448e-01,-2.349053163523868448e-01,-2.349053163523868448e-01,-2.349053163523868448e-01,-2.349053163523868448e-01,-2.349053163523868448e-01,-2.349053163523868448e-01,-2.349053163523868448e-01,-2.349053163523868448e-01,-2.349053163523868448e-01,-2.349053163523868448e-01,-2.314796138222478816e-01,-2.167980315502237021e-01,-2.016270632024653731e-01,-1.869454809304412213e-01,-1.717745125826828922e-01,-1.570929303106586850e-01,-1.419219619629004114e-01,-1.272403796908762041e-01,-1.120694113431179029e-01,-9.738782907109375109e-02,-8.221686072333539430e-02,-6.753527845131121476e-02,-5.236431010355291349e-02,-3.768272783152876171e-02,-2.251175948377043268e-02,-7.830177211746253141e-03,-2.775557561562891351e-17,-2.775557561562891351e-17,-2.775557561562891351e-17,-2.775557561562891351e-17,-2.775557561562891351e-17,-2.775557561562891351e-17,-2.775557561562891351e-17,-2.775557561562891351e-17,-5.551115123125782702e-17,-2.775557561562891351e-17,-2.775557561562891351e-17,-5.551115123125782702e-17,0.000000000000000000e+00,-5.551115123125782702e-17,-5.551115123125782702e-17,-2.775557561562891351e-17,-1.688381961282780508e-01
-2.349053163523868448e-01,-2.349053163523868448e-01,-2.349053163523868448e-01,-2.349053163523868448e-01,-2.349053163523868448e-01,-2.349053163523868448e-01,-2.349053163523868448e-01,-2.349053163523868448e-01,-2.349053163523868448e-01,-2.349053163523868448e-01,-2.349053163523868448e-01,-2.349053163523868448e-01,-2.349053163523868448e-01,-2.349053163523868448e-01,-2.349053163523868448e-01,-2.212025062318309365e-01,-2.065209239598067570e-01,-1.913499556120484557e-01,-1.766683733400242762e-01,-1.614974049922659471e-01,-1.468158227202417954e-01,-1.316448543724834663e-01,-1.169632721004592868e-01,-1.017923037527009855e-01,-8.711072148067677823e-02,-7.193975313291847695e-02,-5.725817086089432517e-02,-4.208720251313599614e-02,-2.740562024111184436e-02,-1.223465189335351533e-02,-2.775557561562891351e-17,-2.775557561562891351e-17,-2.775557561562891351e-17,-2.775557561562891351e-17,0.000000000000000000e+00,-2.775557561562891351e-17,-2.775557561562891351e-17,-2.775557561562891351e-17,-2.775557561562891351e-17,-2.775557561562891351e-17,-2.775557561562891351e-17,-5.551115123125782702e-17,-5.551115123125782702e-17,-2.775557561562891351e-17,-2.775557561562891351e-17,-2.775557561562891351e-17,-9.543028476815715311e-02
-2.349053163523868448e-01,-2.349053163523868448e-01,-2.349053163523868448e-01,-2.349053163523868448e-01,-2.349053163523868448e-01,-2.349053163523868448e-01,-2.349053163523868448e-01,-2.349053163523868448e-01,-2.349053163523868448e-01,-2.349053163523868448e-01,-2.349053163523868448e-01,-2.349053163523868448e-01,-2.349053163523868448e-01,-2.349053163523868448e-01,-2.349053163523868448e-01,-2.260963669891723482e-01,-2.109253986414140192e-01,-1.962438163693898674e-01,-1.810728480216315384e-01,-1.663912657496073588e-01,-1.512202974018490298e-01,-1.365387151298248503e-01,-1.213677467820665490e-01,-1.066861645100423972e-01,-9.151519616228406817e-02,-7.683361389025986088e-02,-6.166264554250155960e-02,-4.698106327047740782e-02,-3.181009492271910655e-02,-1.712851265069487150e-02,-1.957544302936597980e-03,-2.775557561562891351e-17,-2.775557561562891351e-17,-2.775557561562891351e-17,-2.775557561562891351e-17,-2.775557561562891351e-17,-2.775557561562891351e-17,-2.775557561562891351e-17,-2.775557561562891351e-17,-2.775557561562891351e-17,-2.775557561562891351e-17,-2.775557561562891351e-17,-2.775557561562891351e-17,-2.775557561562891351e-17,-2.775557561562891351e-17,-2.775557561562891351e-17,-2.936316454404838683e-02
-2.349053163523868448e-01,-2.349053163523868448e-01,-2.349053163523868448e-01,-2.349053163523868448e-01,-2.349053163523868448e-01,-2.349053163523868448e-01,-2.349053163523868448e-01,-2.349053163523868448e-01,-2.349053163523868448e-01,-2.349053163523868448e-01,-2.349053163523868448e-01,-2.349053163523868448e-01,-2.349053163523868448e-01,-2.349053163523868448e-01,-2.349053163523868448e-01,-2.309902277465137321e-01,-2.158192593987554031e-01,-2.011376771267312513e-01,-1.859667087789729223e-01,-1.712851265069487428e-01,-1.561141581591904415e-01,-1.414325758871662619e-01,-1.262616075394079607e-01,-1.115800252673837673e-01,-9.640905691962545210e-02,-8.172747464760124481e-02,-6.655650629984291577e-02,-5.187492402781876399e-02,-3.670395568006049047e-02,-2.202237340803628318e-02,-6.851405060277981907e-03,-2.775557561562891351e-17,0.000000000000000000e+00,-2.775557561562891351e-17,-2.775557561562891351e-17,-2.775557561562891351e-17,-2.775557561562891351e-17,-2.775557561562891351e-17,-2.775557561562891351e-17,-2.775557561562891351e-17,-2.775557561562891351e-17,-2.775557561562891351e-17,-2.775557561562891351e-17,-2.775557561562891351e-17,-2.775557561562891351e-17,-2.775557561562891351e-17,-2.775557561562891351e-17
-2.349053163523868448e-01,-2.349053163523868448e-01,-2.349053163523868448e-01,-2.349053163523868448e-01,-2.349053163523868448e-01,-2.349053163523868448e-01,-2.349053163523868448e-01,-2.349053163523868448e-01,-2.349053163523868448e-01,-2.349053163523868448e-01,-2.349053163523868448e-01,-2.349053163523868448e-01,-2.349053163523868448e-01,-2.349053163523868448e-01,-2.349053163523868448e-01,-2.349053163523868448e-01,-2.207131201560968148e-01,-2.055421518083384858e-01,-1.908605695363143062e-01,-1.756896011885560049e-01,-1.610080189165318254e-01,-1.458370505687734964e-01,-1.311554682967493446e-01,-1.159844999489910156e-01,-1.013029176769668638e-01,-8.613194932920850699e-02,-7.145036705718432746e-02,-5.627939870942602618e-02,-4.159781643740187440e-02,-2.642684808964357313e-02,-1.174526581761936583e-02,-2.775557561562891351e-17,-2.775557561562891351e-17,-2.775557561562891351e-17,-2.775557561562891351e-17,-5.551115123125782702e-17,-5.551115123125782702e-17,0.000000000000000000e+00,-5.551115123125782702e-17,-2.775557561562891351e-17,-2.775557561562891351e-17,-2.775557561562891351e-17,-2.775557561562891351e-17,-2.775557561562891351e-17,-2.775557561562891351e-17,-2.775557561562891351e-17,-2.775557561562891351e-17
-2.349053163523868448e-01,-2.349053163523868448e-01,-2.349053163523868448e-01,-2.349053163523868448e-01,-2.349053163523868448e-01,-2.349053163523868448e-01,-2.349053163523868448e-01,-2.349053163523868448e-01,-2.349053163523868448e-01,-2.349053163523868448e-01,-2.349053163523868448e-01,-2.349053163523868448e-01,-2.349053163523868448e-01,-2.349053163523868448e-01,-2.349053163523868448e-01,-2.349053163523868448e-01,-2.251175948377040492e-01,-2.104360125656798974e-01,-1.952650442179215684e-01,-1.805834619458973889e-01,-1.654124935981390876e-01,-1.507309113261148803e-01,-1.355599429783566068e-01,-1.208783607063324134e-01,-1.057073923585740982e-01,-9.102581008654991868e-02,-7.585484173879158964e-02,-6.117325946676741011e-02,-4.600229111900913659e-02,-3.132070884698495705e-02,-1.614974049922662802e-02,-1.468158227202448485e-03,-2.775557561562891351e-17,-2.775557561562891351e-17,-2.775557561562891351e-17,0.000000000000000000e+00,-2.775557561562891351e-17,-2.775557561562891351e-17,0.000000000000000000e+00,-2.775557561562891351e-17,-2.775557561562891351e-17,-2.775557561562891351e-17,-2.775557561562891351e-17,-2.775557561562891351e-17,-2.775557561562891351e-17,-2.775557561562891351e-17,-5.551115123125782702e-17
-2.349053163523868448e-01,-2.349053163523868448e-01,-2.349053163523868448e-01,-2.349053163523868448e-01,-2.349053163523868448e-01,-2.349053163523868448e-01,-2.349053163523868448e-01,-2.349053163523868448e-01,-2.349053163523868448e-01,-2.349053163523868448e-01,-2.349053163523868448e-01,-2.349053163523868448e-01,-2.349053163523868448e-01,-2.349053163523868448e-01,-2.349053163523868448e-01,-2.349053163523868448e-01,-2.300114555950454609e-01,-2.153298733230212814e-01,-2.001589049752629523e-01,-1.854773227032388005e-01,-1.703063543554804715e-01,-1.556247720834562642e-01,-1.404538037356979907e-01,-1.257722214636737834e-01,-1.106012531159154960e-01,-9.591967084389130260e-02,-8.074870249613300133e-02,-6.606712022410882179e-02,-5.089615187635049276e-02,-3.572518352859219148e-02,-2.104360125656801195e-02,-5.872632908809682917e-03,-2.775557561562891351e-17,-2.775557561562891351e-17,0.000000000000000000e+00,-5.551115123125782702e-17,-2.775557561562891351e-17,-2.775557561562891351e-17,-2.775557561562891351e-17,-2.775557561562891351e-17,-2.775557561562891351e-17,-2.775557561562891351e-17,-5.551115123125782702e-17,-2.775557561562891351e-17,-2.775557561562891351e-17,-2.775557561562891351e-17,0.000000000000000000e+00
-2.349053163523868448e-01,-2.349053163523868448e-01,-2.349053163523868448e-01,-2.349053163523868448e-01,-2.349053163523868448e-01,-2.349053163523868448e-01,-2.349053163523868448e-01,-2.349053163523868448e-01,-2.349053163523868448e-01,-2.349053163523868448e-01,-2.349053163523868448e-01,-2.349053163523868448e-01,-2.349053163523868448e-01,-2.349053163523868448e-01,-2.349053163523868448e-01,-2.349053163523868448e-01,-2.349053163523868448e-01,-2.197343480046285435e-01,-2.050527657326043640e-01,-1.898817973848460350e-01,-1.752002151128218554e-01,-1.600292467650635264e-01,-1.453476644930393746e-01,-1.301766961452810456e-01,-1.154951138732568938e-01,-1.003241455254985648e-01,-8.564256325347438525e-02,-7.047159490571605622e-02,-5.579001263369190444e-02,-4.061904428593357541e-02,-2.593746201390942363e-02,-1.076649366615109460e-02,-2.775557561562891351e-17,-2.775557561562891351e-17,-2.775557561562891351e-17,-2.775557561562891351e-17,-2.775557561562891351e-17,-2.775557561562891351e-17,-2.775557561562891351e-17,-5.551115123125782702e-17,-2.775557561562891351e-17,0.000000000000000000e+00,-2.775557561562891351e-17,-5.551115123125782702e-17,-5.551115123125782702e-17,-2.775557561562891351e-17,-2.775557561562891351e-17
-2.349053163523868448e-01,-2.349053163523868448e-01,-2.349053163523868448e-01,-2.349053163523868448e-01,-2.349053163523868448e-01,-2.349053163523868448e-01,-2.349053163523868448e-01,-2.349053163523868448e-01,-2.349053163523868448e-01,-2.349053163523868448e-01,-2.349053163523868448e-01,-2.349053163523868448e-01,-2.349053163523868448e-01,-2.349053163523868448e-01,-2.349053163523868448e-01,-2.349053163523868448e-01,-2.349053163523868448e-01,-2.246282087619699275e-01,-2.094572404142115984e-01,-1.947756581421874467e-01,-1.796046897944291176e-01,-1.649231075224049103e-01,-1.497521391746466368e-01,-1.350705569026224573e-01,-1.198995885548641283e-01,-1.052180062828399487e-01,-9.004703793508164744e-02,-7.536545566305744015e-02,-6.019448731529916663e-02,-4.551290504327501485e-02,-3.034193669551668582e-02,-1.566035442349247853e-02,-4.893860757341772505e-04,0.000000000000000000e+00,-5.551115123125782702e-17,-2.775557561562891351e-17,-2.775557561562891351e-17,-2.775557561562891351e-17,-2.775557561562891351e-17,-5.551115123125782702e-17,-2.775557561562891351e-17,-2.775557561562891351e-17,-2.775557561562891351e-17,-2.775557561562891351e-17,-2.775557561562891351e-17,-2.775557561562891351e-17,0.000000000000000000e+00
-2.349053163523868448e-01,-2.349053163523868448e-01,-2.349053163523868448e-01,-2.349053163523868448e-01,-2.349053163523868448e-01,-2.349053163523868448e-01,-2.349053163523868448e-01,-2.349053163523868448e-01,-2.349053163523868448e-01,-2.349053163523868448e-01,-2.349053163523868448e-01,-2.349053163523868448e-01,-2.349053163523868448e-01,-2.349053163523868448e-01,-2.349053163523868448e-01,-2.349053163523868448e-01,-2.349053163523868448e-01,-2.295220695193113114e-01,-2.143511011715529824e-01,-1.996695188995288306e-01,-1.844985505517705016e-01,-1.698169682797463498e-01,-1.546459999319880207e-01,-1.399644176599638412e-01,-1.247934493122055261e-01,-1.101118670401813465e-01,-9.494089869242303137e-02,-7.976993034466470234e-02,-6.508834807264052280e-02,-4.991737972488222153e-02,-3.523579745285806974e-02,-2.006482910509974071e-02,-5.383246833075561177e-03,-2.775557561562891351e-17,-2.775557561562891351e-17,-2.775557561562891351e-17,-2.775557561562891351e-17,-2.775557561562891351e-17,-2.775557561562891351e-17,-2.775557561562891351e-17,-2.775557561562891351e-17,-2.775557561562891351e-17,-2.775557561562891351e-17,-2.775557561562891351e-17,-2.775557561562891351e-17,-2.775557561562891351e-17,-2.775557561562891351e-17
-2.349053163523868448e-01,-2.349053163523868448e-01,-2.349053163523868448e-01,-2.349053163523868448e-01,-2.349053163523868448e-01,-2.349053163523868448e-01,-2.349053163523868448e-01,-2.349053163523868448e-01,-2.349053163523868448e-01,-2.349053163523868448e-01,-2.349053163523868448e-01,-2.349053163523868448e-01,-2.349053163523868448e-01,-2.349053163523868448e-01,-2.349053163523868448e-01,-2.556216804162329548e-01,-2.556216804162329548e-01,-2.546429082647647113e-01,-2.399613259927405040e-01,-2.247903576449822027e-01,-1.893924113091119132e-01,-1.742214429613535842e-01,-1.595398606893294047e-01,-1.443688923415711034e-01,-1.296873100695469239e-01,-1.145163417217885948e-01,-9.983475944976444305e-02,-8.466379110200608626e-02,-6.998220882998190673e-02,-5.481124048222363321e-02,-4.012965821019945367e-02,-2.495868986244115240e-02,-1.027710759041694510e-02,0.000000000000000000e+00,-2.775557561562891351e-17,-2.775557561562891351e-17,-2.775557561562891351e-17,-2.775557561562891351e-17,-2.775557561562891351e-17,-2.775557561562891351e-17,-2.775557561562891351e-17,-2.775557561562891351e-17,0.000000000000000000e+00,-2.775557561562891351e-17,-5.551115123125782702e-17,-2.775557561562891351e-17,-2.775557561562891351e-17
-2.349053163523868448e-01,-2.349053163523868448e-01,-2.349053163523868448e-01,-2.349053163523868448e-01,-2.349053163523868448e-01,-2.349053163523868448e-01,-2.349053163523868448e-01,-2.349053163523868448e-01,-2.349053163523868448e-01,-2.349053163523868448e-01,-2.349053163523868448e-01,-2.349053163523868448e-01,-2.349053163523868448e-01,-2.349053163523868448e-01,-2.349053163523868448e-01,-2.556216804162329548e-01,-2.556216804162329548e-01,-2.556216804162329548e-01,-2.443658006743477662e-01,-2.296842184023235867e-01,-1.937968859907191477e-01,-1.791153037186949959e-01,-1.639443353709366669e-01,-1.492627530989124873e-01,-1.340917847511541861e-01,-1.194102024791299926e-01,-1.042392341313716775e-01,-8.955765185934749795e-02,-7.438668351158916892e-02,-5.970510123956498938e-02,-4.453413289180671586e-02,-2.985255061978253632e-02,-1.468158227202417954e-02,-2.775557561562891351e-17,-5.551115123125782702e-17,-2.775557561562891351e-17,-2.775557561562891351e-17,-2.775557561562891351e-17,-2.775557561562891351e-17,-2.775557561562891351e-17,-2.775557561562891351e-17,-5.551115123125782702e-17,-5.551115123125782702e-17,-5.551115123125782702e-17,-2.775557561562891351e-17,-2.775557561562891351e-17,-2.775557561562891351e-17
-2.349053163523868448e-01,-2.349053163523868448e-01,-2.349053163523868448e-01,-2.349053163523868448e-01,-2.349053163523868448e-01,-2.349053163523868448e-01,-2.349053163523868448e-01,-2.349053163523868448e-01,-2.349053163523868448e-01,-2.349053163523868448e-01,-2.349053163523868448e-01,-2.349053163523868448e-01,-2.349053163523868448e-01,-2.349053163523868448e-01,-2.349053163523868448e-01,-2.556216804162329548e-01,-2.556216804162329548e-01,-2.556216804162329548e-01,-2.492596614316891501e-01,-2.340886930839308488e-01,-1.986907467480605316e-01,-1.835197784003022303e-01,-1.688381961282780508e-01,-1.536672277805197218e-01,-1.389856455084955700e-01,-1.238146771607372409e-01,-1.091330948887130892e-01,-9.396212654095476013e-02,-7.928054426893058060e-02,-6.410957592117225157e-02,-4.942799364914809979e-02,-3.425702530138977076e-02,-1.957544302936559122e-02,-4.404474681607289943e-03,-2.775557561562891351e-17,-2.775557561562891351e-17,-2.775557561562891351e-17,-5.551115123125782702e-17,-2.775557561562891351e-17,-5.551115123125782702e-17,-2.775557561562891351e-17,-2.775557561562891351e-17,-2.775557561562891351e-17,0.000000000000000000e+00,-2.775557561562891351e-17,-2.775557561562891351e-17,-2.775557561562891351e-17
-2.349053163523868448e-01,-2.349053163523868448e-01,-2.349053163523868448e-01,-2.349053163523868448e-01,-4.550521903934582335e-01,-4.550521903934582335e-01,-4.550521903934582335e-01,-4.550521903934582335e-01,-2.349053163523868448e-01,-2.349053163523868448e-01,-2.349053163523868448e-01,-2.349053163523868448e-01,-2.349053163523868448e-01,-2.349053163523868448e-01,-2.349053163523868448e-01,-2.556216804162329548e-01,-2.556216804162329548e-01,-2.556216804162329548e-01,-2.541535221890305341e-01,-2.389825538412722328e-01,-2.035846075054019433e-01,-1.884136391576436143e-01,-1.737320568856194347e-01,-1.585610885378611057e-01,-1.438795062658369539e-01,-1.287085379180786249e-01,-1.140269556460544592e-01,-9.885598729829614406e-02,-8.417440502627196453e-02,-6.900343667851363549e-02,-5.432185440648948371e-02,-3.915088605873118244e-02,-2.446930378670700290e-02,-9.298335438948701626e-03,-2.775557561562891351e-17,-2.775557561562891351e-17,-2.775557561562891351e-17,-2.775557561562891351e-17,-2.775557561562891351e-17,-2.775557561562891351e-17,-5.551115123125782702e-17,-2.775557561562891351e-17,-2.775557561562891351e-17,-2.775557561562891351e-17,0.000000000000000000e+00,-2.775557561562891351e-17,-3.670395568006049047e-02
-2.349053163523868448e-01,-2.349053163523868448e-01,-2.349053163523868448e-01,-2.349053163523868448e-01,-4.550521903934582335e-01,-4.550521903934582335e-01,-4.550521903934582335e-01,-4.550521903934582335e-01,-2.349053163523868448e-01,-2.349053163523868448e-01,-4.582449221285336827e-01,-4.582449221285336827e-01,-4.582449221285336827e-01,-4.582449221285336827e-01,-4.582449221285336827e-01,-2.556216804162329548e-01,-2.556216804162329548e-01,-2.556216804162329548e-01,-2.556216804162329548e-01,-2.438764145986136445e-01,-2.079890821870091777e-01,-1.933074999149850259e-01,-1.781365315672266969e-01,-1.634549492952024896e-01,-1.482839809474442161e-01,-1.336023986754200366e-01,-1.184314303276617214e-01,-1.037498480556375280e-01,-8.857887970787922671e-02,-7.389729743585501942e-02,-5.872632908809671815e-02,-4.404474681607259412e-02,-2.887377846831426509e-02,-1.419219619629005780e-02,-2.775557561562891351e-17,-2.775557561562891351e-17,0.000000000000000000e+00,-2.775557561562891351e-17,-2.775557561562891351e-17,-2.775557561562891351e-17,-2.775557561562891351e-17,0.000000000000000000e+00,-2.775557561562891351e-17,-4.404474681607253861e-02,-1.174526581761934363e-01,-1.908605695363143062e-01,-2.349053163523868448e-01
-2.349053163523868448e-01,-2.349053163523868448e-01,-2.349053163523868448e-01,-2.349053163523868448e-01,-4.550521903934582335e-01,-4.550521903934582335e-01,-4.550521903934582335e-01,-4.550521903934582335e-01,-2.349053163523868448e-01,-2.349053163523868448e-01,-4.582449221285336827e-01,-4.582449221285336827e-01,-4.582449221285336827e-01,-4.582449221285336827e-01,-4.582449221285336827e-01,-2.349053163523868448e-01,-2.349053163523868448e-01,-2.349053163523868448e-01,-2.349053163523868448e-01,-2.275645252163747689e-01,-2.128829429443505894e-01,-1.977119745965922604e-01,-1.830303923245680808e-01,-1.678594239768097796e-01,-1.531778417047856000e-01,-1.380068733570272987e-01,-1.233252910850031053e-01,-1.081543227372447902e-01,-9.347274046522061064e-02,-7.830177211746228161e-02,-6.362018984543812983e-02,-4.844922149767982855e-02,-3.376763922565567677e-02,-1.859667087789731998e-02,-3.915088605873140448e-03,-2.775557561562891351e-17,0.000000000000000000e+00,-2.775557561562891351e-17,-2.775557561562891351e-17,-2.775557561562891351e-17,-5.872632908809674590e-02,-1.247934493122055122e-01,-1.982013606723264099e-01,-2.349053163523868448e-01,-2.349053163523868448e-01,-2.349053163523868448e-01,-2.349053163523868448e-01
-2.349053163523868448e-01,-2.349053163523868448e-01,-2.349053163523868448e-01,-2.349053163523868448e-01,-4.550521903934582335e-01,-4.550521903934582335e-01,-4.550521903934582335e-01,-4.550521903934582335e-01,-2.349053163523868448e-01,-2.349053163523868448e-01,-4.582449221285336827e-01,-4.582449221285336827e-01,-4.582449221285336827e-01,-4.582449221285336827e-01,-4.582449221285336827e-01,-2.349053163523868448e-01,-2.349053163523868448e-01,-2.349053163523868448e-01,-2.349053163523868448e-01,-2.324583859737161529e-01,-2.177768037016919733e-01,-2.026058353539336720e-01,-1.879242530819094925e-01,-1.727532847341511635e-01,-1.580717024621269839e-01,-1.429007341143686827e-01,-1.282191518423445031e-01,-1.130481834945861741e-01,-9.836660122256199457e-02,-8.319563287480366554e-02,-6.851405060277951375e-02,-5.334308225502118472e-02,-3.866149998299703294e-02,-2.349053163523870391e-02,-8.319563287480402636e-03,-2.775557561562891351e-17,-2.775557561562891351e-17,-6.606712022410882179e-02,-1.394750315842296917e-01,-2.128829429443505894e-01,-2.349053163523868448e-01,-2.349053163523868448e-01,-2.349053163523868448e-01,-2.349053163523868448e-01,-2.349053163523868448e-01,-2.349053163523868448e-01,-2.349053163523868448e-01
-2.349053163523868448e-01,-2.349053163523868448e-01,-2.349053163523868448e-01,-2.349053163523868448e-01,-2.349053163523868448e-01,-2.349053163523868448e-01,-2.349053163523868448e-01,-2.349053163523868448e-01,-2.349053163523868448e-01,-2.349053163523868448e-01,-4.582449221285336827e-01,-4.582449221285336827e-01,-4.582449221285336827e-01,-4.582449221285336827e-01,-4.582449221285336827e-01,-2.349053163523868448e-01,-2.349053163523868448e-01,-2.349053163523868448e-01,-2.349053163523868448e-01,-2.349053163523868448e-01,-2.221812783832992355e-01,-2.074996961112750560e-01,-1.923287277635167269e-01,-1.776471454914925474e-01,-1.624761771437342461e-01,-1.477945948717100944e-01,-1.326236265239517653e-01,-1.179420442519275719e-01,-1.027710759041692568e-01,-8.808949363214507722e-02,-7.291852528438674819e-02,-5.823694301236256865e-02,-4.306597466460429513e-02,-3.483817126632407501e-02,-8.942001202554727968e-02,-1.541566138562538990e-01,-2.202237340803626653e-01,-2.349053163523868448e-01,-2.349053163523868448e-01,-2.349053163523868448e-01,-2.349053163523868448e-01,-2.349053163523868448e-01,-2.349053163523868448e-01,-2.349053163523868448e-01,-2.349053163523868448e-01,-2.349053163523868448e-01,-2.349053163523868448e-01
-2.349053163523868448e-01,-2.349053163523868448e-01,-2.349053163523868448e-01,-2.349053163523868448e-01,-2.349053163523868448e-01,-2.349053163523868448e-01,-2.349053163523868448e-01,-2.349053163523868448e-01,-2.349053163523868448e-01,-2.349053163523868448e-01,-4.582449221285336827e-01,-4.582449221285336827e-01,-4.582449221285336827e-01,-4.582449221285336827e-01,-4.582449221285336827e-01,-2.349053163523868448e-01,-2.349053163523868448e-01,-2.349053163523868448e-01,-2.349053163523868448e-01,-2.349053163523868448e-01,-2.270751391406406194e-01,-2.119041707928823182e-01,-1.972225885208581109e-01,-1.820516201730998096e-01,-1.673700379010756301e-01,-1.521990695533173010e-01,-1.375174872812931492e-01,-1.223465189335348341e-01,-1.076649366615106407e-01,-9.249396831375233941e-02,-9.253984825835240291e-02,-1.272403796908762041e-01,-1.764848535616239944e-01,-2.349053163523868448e-01,-2.349053163523868448e-01,-2.349053163523868448e-01,-2.349053163523868448e-01,-2.349053163523868448e-01,-2.349053163523868448e-01,-2.349053163523868448e-01,-2.349053163523868448e-01,-2.349053163523868448e-01,-2.349053163523868448e-01,-2.349053163523868448e-01,-2.349053163523868448e-01,-2.349053163523868448e-01,-2.349053163523868448e-01
-2.349053163523868448e-01,-2.349053163523868448e-01,-2.349053163523868448e-01,-2.349053163523868448e-01,-2.349053163523868448e-01,-2.349053163523868448e-01,-2.349053163523868448e-01,-2.349053163523868448e-01,-2.349053163523868448e-01,-2.349053163523868448e-01,-2.349053163523868448e-01,-2.349053163523868448e-01,-2.349053163523868448e-01,-2.349053163523868448e-01,-2.349053163523868448e-01,-2.349053163523868448e-01,-2.349053163523868448e-01,-2.349053163523868448e-01,-2.349053163523868448e-01,-2.349053163523868448e-01,-2.319689998979820034e-01,-2.167980315502237021e-01,-2.021164492781995226e-01,-1.869454809304412213e-01,-1.722638986584170140e-01,-1.570929303106586850e-01,-1.424113480386345332e-01,-1.406984967735650516e-01,-1.660853994522735189e-01,-2.005259445320635714e-01,-2.349053163523868448e-01,-2.349053163523868448e-01,-2.349053163523868448e-01,-2.349053163523868448e-01,-2.349053163523868448e-01,-2.349053163523868448e-01,-2.349053163523868448e-01,-2.349053163523868448e-01,-2.349053163523868448e-01,-2.349053163523868448e-01,-2.349053163523868448e-01,-2.349053163523868448e-01,-2.349053163523868448e-01,-2.349053163523868448e-01,-2.349053163523868448e-01,-2.349053163523868448e-01,-2.349053163523868448e-01
