-1.927290774360758685e-01,-1.927290774360758685e-01,-1.927290774360758685e-01,-1.927290774360758685e-01,-1.927290774360758685e-01,-1.927290774360758685e-01,-1.927290774360758685e-01,-1.927290774360758685e-01,-1.927290774360758685e-01,-1.927290774360758685e-01,-1.927290774360758685e-01,-1.927290774360758685e-01,-1.927290774360758685e-01,-1.519590390825401593e-01,-1.098272316271755866e-01,-1.139014676391514602e-01,-1.179757036511273199e-01,-1.220499396631031935e-01,-1.261241756750790532e-01,-1.303755523832277885e-01,-1.344497883952036621e-01,-1.385240244071795357e-01,-1.425982604191554093e-01,-1.466724964311312829e-01,-1.507467324431071287e-01,-1.548209684550830023e-01,-1.590723451632317376e-01,-1.631465811752076112e-01,-1.672208171871834570e-01,-1.712950531991593306e-01,-1.753692892111352042e-01,-1.794435252231110778e-01,-1.835177612350869514e-01,-1.877691379432356866e-01,-1.918433739552115602e-01,-1.927290774360758685e-01,-1.927290774360758685e-01,-1.927290774360758685e-01,-1.927290774360758685e-01,-1.927290774360758685e-01,-1.927290774360758685e-01,-1.927290774360758685e-01,-1.927290774360758685e-01,-1.927290774360758685e-01,-1.927290774360758685e-01,-1.927290774360758685e-01,-1.927290774360758685e-01
-1.927290774360758685e-01,-1.927290774360758685e-01,-1.927290774360758685e-01,-1.927290774360758685e-01,-1.927290774360758685e-01,-1.927290774360758685e-01,-1.927290774360758685e-01,-1.927290774360758685e-01,-1.927290774360758685e-01,-1.927290774360758685e-01,-1.927290774360758685e-01,-1.927290774360758685e-01,-1.451668005136619310e-01,-1.018559002993967150e-01,-1.059301363113725886e-01,-1.100043723233484483e-01,-1.140786083353243219e-01,-1.181528443473001816e-01,-1.222270803592760691e-01,-1.263013163712519427e-01,-1.305526930794006502e-01,-1.346269290913765238e-01,-1.387011651033523973e-01,-1.427754011153282709e-01,-1.468496371273041445e-01,-1.509238731392800181e-01,-1.549981091512558640e-01,-1.592494858594045992e-01,-1.633237218713804728e-01,-1.673979578833563464e-01,-1.714721938953321922e-01,-1.755464299073080658e-01,-1.796206659192839394e-01,-1.838720426274326747e-01,-1.879462786394085483e-01,-1.920205146513844219e-01,-1.927290774360758685e-01,-1.927290774360758685e-01,-1.927290774360758685e-01,-1.927290774360758685e-01,-1.927290774360758685e-01,-1.927290774360758685e-01,-1.927290774360758685e-01,-1.927290774360758685e-01,-1.927290774360758685e-01,-1.927290774360758685e-01,-1.927290774360758685e-01
-1.927290774360758685e-01,-1.927290774360758685e-01,-1.927290774360758685e-01,-1.927290774360758685e-01,-1.927290774360758685e-01,-1.927290774360758685e-01,-1.927290774360758685e-01,-1.927290774360758685e-01,-1.927290774360758685e-01,-1.927290774360758685e-01,-1.927290774360758685e-01,-1.379593884381285218e-01,-9.370742827544496778e-02,-9.778166428742085525e-02,-1.020330409955695766e-01,-1.061072770075454502e-01,-1.101815130195213099e-01,-1.142557490314971835e-01,-1.183299850434730432e-01,-1.224042210554489307e-01,-1.266555977635976660e-01,-1.307298337755735118e-01,-1.348040697875493854e-01,-1.388783057995252590e-01,-1.429525418115011326e-01,-1.470267778234770062e-01,-1.511010138354528520e-01,-1.553523905436015873e-01,-1.594266265555774609e-01,-1.635008625675533345e-01,-1.675750985795292081e-01,-1.716493345915050817e-01,-1.757235706034809275e-01,-1.797978066154568011e-01,-1.840491833236055363e-01,-1.881234193355814099e-01,-1.921976553475572835e-01,-1.927290774360758685e-01,-1.927290774360758685e-01,-1.927290774360758685e-01,-1.927290774360758685e-01,-1.927290774360758685e-01,-1.927290774360758685e-01,-1.927290774360758685e-01,-1.927290774360758685e-01,-1.927290774360758685e-01,-1.927290774360758685e-01
-1.927290774360758685e-01,-1.927290774360758685e-01,-1.927290774360758685e-01,-1.927290774360758685e-01,-1.927290774360758685e-01,-1.927290774360758685e-01,-1.927290774360758685e-01,-1.927290774360758685e-01,-1.927290774360758685e-01,-1.927290774360758685e-01,-1.302537681546089288e-01,-8.573609694766611000e-02,-8.981033295964198360e-02,-9.388456897161784331e-02,-9.813594567976657856e-02,-1.022101816917424522e-01,-1.062844177037183119e-01,-1.103586537156941716e-01,-1.144328897276700452e-01,-1.185071257396459188e-01,-1.225813617516217924e-01,-1.268327384597705276e-01,-1.309069744717463735e-01,-1.349812104837222471e-01,-1.390554464956981207e-01,-1.431296825076739943e-01,-1.472039185196498678e-01,-1.512781545316257414e-01,-1.555295312397744767e-01,-1.596037672517503225e-01,-1.636780032637261961e-01,-1.677522392757020697e-01,-1.718264752876779433e-01,-1.759007112996537892e-01,-1.799749473116296627e-01,-1.842263240197783980e-01,-1.883005600317542716e-01,-1.923747960437301452e-01,-1.927290774360758685e-01,-1.927290774360758685e-01,-1.927290774360758685e-01,-1.927290774360758685e-01,-1.927290774360758685e-01,-1.927290774360758685e-01,-1.927290774360758685e-01,-1.927290774360758685e-01,-1.927290774360758685e-01
-1.927290774360758685e-01,-1.927290774360758685e-01,-1.927290774360758685e-01,-1.927290774360758685e-01,-1.927290774360758685e-01,-1.927290774360758685e-01,-1.927290774360758685e-01,-1.927290774360758685e-01,-1.927290774360758685e-01,-1.220499396631032074e-01,-7.776476561988722447e-02,-8.183900163186308419e-02,-8.591323764383895778e-02,-8.998747365581483137e-02,-9.406170966779070497e-02,-9.831308637593944022e-02,-1.023873223879153138e-01,-1.936823503689939496e-01,-1.977565863809698232e-01,-2.018308223929456968e-01,-1.186842664358187666e-01,-1.227585024477946540e-01,-1.270098791559433893e-01,-1.310841151679192351e-01,-1.351583511798951087e-01,-1.392325871918709823e-01,-1.433068232038468559e-01,-1.473810592158227295e-01,-1.516324359239714648e-01,-1.557066719359473383e-01,-1.597809079479232119e-01,-1.638551439598990578e-01,-1.679293799718749314e-01,-1.720036159838508050e-01,-1.760778519958266786e-01,-1.803292287039753861e-01,-1.844034647159512597e-01,-1.884777007279271333e-01,-1.925519367399030068e-01,-1.927290774360758685e-01,-1.927290774360758685e-01,-1.927290774360758685e-01,-1.927290774360758685e-01,-1.927290774360758685e-01,-1.927290774360758685e-01,-1.927290774360758685e-01,-1.927290774360758685e-01
-1.927290774360758685e-01,-1.927290774360758685e-01,-1.927290774360758685e-01,-1.927290774360758685e-01,-1.927290774360758685e-01,-1.927290774360758685e-01,-1.927290774360758685e-01,-1.927290774360758685e-01,-1.132371900285032151e-01,-6.979343429210836669e-02,-7.386767030408424028e-02,-7.794190631606010000e-02,-8.201614232803595972e-02,-8.609037834001183331e-02,-9.016461435198770691e-02,-9.423885036396356663e-02,-9.849022707211228800e-02,-1.897852550531909377e-01,-1.938594910651668113e-01,-1.979337270771426849e-01,-1.147871711200157685e-01,-1.188614071319916282e-01,-1.231127838401403773e-01,-1.271870198521162509e-01,-1.312612558640920968e-01,-1.353354918760679704e-01,-1.394097278880438440e-01,-1.434839639000197176e-01,-1.475581999119955912e-01,-1.518095766201443264e-01,-1.558838126321202000e-01,-1.599580486440960736e-01,-1.640322846560719194e-01,-1.681065206680477930e-01,-1.721807566800236666e-01,-1.762549926919995402e-01,-1.805063694001482755e-01,-1.845806054121241213e-01,-1.886548414240999949e-01,-1.927290774360758685e-01,-1.927290774360758685e-01,-1.927290774360758685e-01,-1.927290774360758685e-01,-1.927290774360758685e-01,-1.927290774360758685e-01,-1.927290774360758685e-01,-1.927290774360758685e-01
-1.927290774360758685e-01,-1.927290774360758685e-01,-1.927290774360758685e-01,-1.927290774360758685e-01,-1.927290774360758685e-01,-1.927290774360758685e-01,-1.927290774360758685e-01,-1.040314094742697121e-01,-6.164496226815660562e-02,-6.589633897630536863e-02,-6.997057498828124222e-02,-7.404481100025711582e-02,-7.811904701223294778e-02,-8.219328302420880750e-02,-8.626751903618468109e-02,-9.034175504816056856e-02,-9.459313175630928994e-02,-1.858881597373879258e-01,-1.899623957493637993e-01,-1.940366317613396729e-01,-1.108900758042127704e-01,-1.149643118161886302e-01,-1.190385478281645038e-01,-1.232899245363132529e-01,-1.273641605482891126e-01,-1.314383965602649862e-01,-1.355126325722408320e-01,-1.395868685842167056e-01,-1.436611045961925792e-01,-1.477353406081684528e-01,-1.519867173163171881e-01,-1.560609533282930617e-01,-1.601351893402689353e-01,-1.642094253522447811e-01,-1.682836613642206547e-01,-1.723578973761965283e-01,-1.766092740843452635e-01,-1.806835100963211371e-01,-1.847577461082969830e-01,-1.888319821202728566e-01,-1.927290774360758685e-01,-1.927290774360758685e-01,-1.927290774360758685e-01,-1.927290774360758685e-01,-1.927290774360758685e-01,-1.927290774360758685e-01,-1.927290774360758685e-01
-1.927290774360758685e-01,-1.927290774360758685e-01,-1.927290774360758685e-01,-1.927290774360758685e-01,-1.927290774360758685e-01,-1.927290774360758685e-01,-9.432742071204999745e-02,-5.367363094037777560e-02,-5.774786695235364919e-02,-6.182210296432949503e-02,-6.607347967247820253e-02,-7.014771568445409000e-02,-7.422195169642996360e-02,-7.829618770840582331e-02,-8.237042372038168303e-02,-8.644465973235757050e-02,-9.051889574433343022e-02,-9.477027245248215159e-02,-9.884450846445802519e-02,-1.029187444764338988e-01,-1.069929804884097724e-01,-1.110672165003856321e-01,-1.151414525123614918e-01,-1.192156885243373654e-01,-1.234670652324861145e-01,-1.275413012444619743e-01,-1.316155372564378201e-01,-1.356897732684136937e-01,-1.397640092803895673e-01,-1.438382452923654409e-01,-1.480896220005141761e-01,-1.521638580124900497e-01,-1.562380940244659233e-01,-1.603123300364417969e-01,-1.643865660484176427e-01,-1.684608020603935163e-01,-1.725350380723693899e-01,-1.767864147805181252e-01,-1.808606507924939988e-01,-1.849348868044698446e-01,-1.890091228164457182e-01,-1.927290774360758685e-01,-1.927290774360758685e-01,-1.927290774360758685e-01,-1.927290774360758685e-01,-1.927290774360758685e-01,-1.927290774360758685e-01
-1.927290774360758685e-01,-1.927290774360758685e-01,-1.927290774360758685e-01,-1.927290774360758685e-01,-1.878798508783437182e-01,-8.412522374184411289e-02,-4.570229961259886231e-02,-4.977653562457476366e-02,-5.385077163655060950e-02,-5.792500764852648309e-02,-6.199924366050232893e-02,-6.625062036865109194e-02,-7.032485638062693778e-02,-7.439909239260282525e-02,-7.847332840457868497e-02,-8.254756441655454469e-02,-8.662180042853043216e-02,-9.087317713667915353e-02,-9.494741314865501325e-02,-9.902164916063088684e-02,-1.030958851726067604e-01,-1.071701211845826202e-01,-1.112443571965584937e-01,-1.153185932085343673e-01,-1.195699699166830887e-01,-1.236442059286589762e-01,-1.277184419406348359e-01,-1.317926779526107095e-01,-1.358669139645865831e-01,-1.399411499765624289e-01,-1.440153859885383025e-01,-1.482667626966870378e-01,-1.523409987086629114e-01,-1.564152347206387850e-01,-1.604894707326146586e-01,-1.645637067445905044e-01,-1.686379427565663780e-01,-1.727121787685422516e-01,-1.769635554766909868e-01,-1.810377914886668604e-01,-1.851120275006427340e-01,-1.891862635126185799e-01,-1.927290774360758685e-01,-1.927290774360758685e-01,-1.927290774360758685e-01,-1.927290774360758685e-01,-1.927290774360758685e-01
-1.927290774360758685e-01,-1.927290774360758685e-01,-1.927290774360758685e-01,-1.825213448191145837e-01,-7.329196304152241215e-02,-3.773096828482000453e-02,-4.180520429679587813e-02,-4.587944030877172397e-02,-4.995367632074762532e-02,-5.402791233272347116e-02,-5.810214834469934475e-02,-6.235352505284808000e-02,-6.642776106482395360e-02,-7.050199707679982719e-02,-7.457623308877568691e-02,-7.865046910075153275e-02,-8.272470511272742022e-02,-8.679894112470329381e-02,-9.105031783285202907e-02,-9.512455384482787490e-02,-9.919878985680374850e-02,-1.032730258687796221e-01,-1.073472618807554957e-01,-1.114214978927313554e-01,-1.154957339047072290e-01,-1.197471106128559504e-01,-1.238213466248318378e-01,-1.278955826368076976e-01,-2.227551041778637053e-01,-2.268293401898395789e-01,-2.309035762018154248e-01,-2.349778122137912983e-01,-2.392291889219400336e-01,-1.525181394048357730e-01,-1.565923754168116466e-01,-1.606666114287875202e-01,-1.647408474407633661e-01,-1.688150834527392397e-01,-1.730664601608879749e-01,-1.771406961728638485e-01,-1.812149321848397221e-01,-1.852891681968155957e-01,-1.893634042087914415e-01,-1.927290774360758685e-01,-1.927290774360758685e-01,-1.927290774360758685e-01,-1.927290774360758685e-01
-1.927290774360758685e-01,-1.927290774360758685e-01,-1.766701661986546656e-01,-6.208781400858878752e-02,-2.958249626086828510e-02,-3.383387296901699259e-02,-3.790810898099283843e-02,-4.198234499296871203e-02,-4.605658100494458562e-02,-5.013081701692048697e-02,-5.420505302889636057e-02,-5.827928904087220641e-02,-6.253066574902094166e-02,-6.660490176099681525e-02,-7.067913777297267497e-02,-7.475337378494856244e-02,-7.882760979692442216e-02,-8.290184580890028188e-02,-8.697608182087614159e-02,-9.122745852902489072e-02,-9.530169454100075044e-02,-9.937593055297661016e-02,-1.034501665649524837e-01,-1.075244025769283573e-01,-1.115986385889042309e-01,-1.158500152970529523e-01,-1.199242513090288259e-01,-1.239984873210047134e-01,-2.188580088620606934e-01,-2.229322448740365670e-01,-2.270064808860124406e-01,-2.310807168979883142e-01,-2.353320936061370494e-01,-1.486210440890327611e-01,-1.526952801010086347e-01,-1.567695161129845083e-01,-1.608437521249603819e-01,-1.649179881369362555e-01,-1.689922241489121013e-01,-1.732436008570608366e-01,-1.773178368690367102e-01,-1.813920728810125838e-01,-1.854663088929884573e-01,-1.895405449049643309e-01,-1.927290774360758685e-01,-1.927290774360758685e-01,-1.927290774360758685e-01
-1.927290774360758685e-01,-1.703207793702085915e-01,-5.038545676766897907e-02,-2.161116493308939956e-02,-2.568540094506530092e-02,-2.975963695704114675e-02,-3.401101366518985425e-02,-3.808524967716572784e-02,-4.215948568914157368e-02,-4.623372170111744728e-02,-5.030795771309334863e-02,-5.438219372506922222e-02,-5.845642973704509582e-02,-6.270780644519380331e-02,-6.678204245716970466e-02,-7.085627846914555050e-02,-7.493051448112142410e-02,-7.900475049309725606e-02,-8.307898650507314353e-02,-8.733036321322187878e-02,-9.140459922519773850e-02,-9.547883523717362597e-02,-9.955307124914949957e-02,-1.036273072611253454e-01,-1.077015432731012190e-01,-1.117757792850770926e-01,-1.160271559932258140e-01,-1.201013920052016876e-01,-2.149609135462576814e-01,-2.190351495582335550e-01,-2.231093855702094286e-01,-2.271836215821853022e-01,-2.312578575941611758e-01,-1.447239487732297492e-01,-1.487981847852056227e-01,-1.528724207971814963e-01,-1.569466568091573699e-01,-1.610208928211332435e-01,-1.650951288331091171e-01,-1.691693648450849907e-01,-1.734207415532337260e-01,-1.774949775652095718e-01,-1.815692135771854454e-01,-1.856434495891613190e-01,-1.897176856011371926e-01,-1.927290774360758685e-01,-1.927290774360758685e-01
-1.634731843337763335e-01,-3.818489131876295906e-02,-1.363983360531051403e-02,-1.771406961728638763e-02,-2.178830562926226122e-02,-2.586254164123813482e-02,-2.993677765321400841e-02,-3.418815436136271591e-02,-3.826239037333856174e-02,-4.233662638531443534e-02,-4.641086239729030893e-02,-5.048509840926618253e-02,-5.455933442124208388e-02,-5.881071112939079137e-02,-6.288494714136666497e-02,-6.695918315334253856e-02,-7.103341916531841216e-02,-7.510765517729428575e-02,-7.918189118927014547e-02,-8.325612720124600519e-02,-8.750750390939474044e-02,-9.158173992137061403e-02,-9.565597593334647375e-02,-9.973021194532234734e-02,-1.038044479572982071e-01,-1.078786839692740807e-01,-1.119529199812499543e-01,-1.162042966893986895e-01,-2.110638182304546695e-01,-2.151380542424305709e-01,-2.192122902544064167e-01,-2.232865262663822903e-01,-2.273607622783581639e-01,-1.406497127612539033e-01,-1.449010894694026386e-01,-1.489753254813784844e-01,-1.530495614933543580e-01,-1.571237975053302316e-01,-1.611980335173061052e-01,-1.652722695292819788e-01,-1.695236462374307140e-01,-1.735978822494065876e-01,-1.776721182613824335e-01,-1.817463542733583071e-01,-1.858205902853341807e-01,-1.898948262973100543e-01,-1.927290774360758685e-01
-2.548611766187078298e-02,-5.668502277531628497e-03,-9.742738289507502092e-03,-1.381697430148337569e-02,-1.789121031345924928e-02,-2.196544632543512288e-02,-2.603968233741099647e-02,-3.029105904555973172e-02,-3.436529505753557756e-02,-3.843953106951145116e-02,-4.251376708148729699e-02,-4.658800309346317059e-02,-5.066223910543907194e-02,-5.473647511741494553e-02,-5.898785182556368079e-02,-6.306208783753952662e-02,-6.713632384951540022e-02,-7.121055986149127381e-02,-7.528479587346714741e-02,-7.935903188544299325e-02,-8.343326789741886684e-02,-8.768464460556760209e-02,-9.175888061754347569e-02,-9.583311662951934928e-02,-9.990735264149519512e-02,-1.039815886534710826e-01,-1.080558246654469423e-01,-1.123072013735956776e-01,-2.071667229146516853e-01,-2.112409589266275589e-01,-2.153151949386034325e-01,-2.193894309505792783e-01,-2.234636669625551519e-01,-1.367526174454508914e-01,-1.410039941535996266e-01,-1.450782301655755002e-01,-1.491524661775513461e-01,-1.532267021895272197e-01,-1.573009382015030933e-01,-1.613751742134789668e-01,-1.654494102254548404e-01,-1.697007869336035757e-01,-1.737750229455794493e-01,-1.778492589575552951e-01,-1.819234949695311687e-01,-1.859977309815070423e-01,-1.900719669934829159e-01
0.000000000000000000e+00,-1.771406961728644314e-03,-5.845642973704490153e-03,-9.919878985680363748e-03,-1.399411499765623734e-02,-1.806835100963211094e-02,-2.214258702160798453e-02,-2.621682303358385813e-02,-3.046819974173256562e-02,-3.454243575370843922e-02,-3.861667176568428506e-02,-4.269090777766018641e-02,-4.676514378963603225e-02,-5.083937980161193360e-02,-5.491361581358783495e-02,-5.916499252173654244e-02,-6.323922853371238828e-02,-6.731346454568826188e-02,-7.138770055766413547e-02,-7.546193656964000906e-02,-7.953617258161585490e-02,-8.378754928976459015e-02,-8.786178530174046375e-02,-9.193602131371633734e-02,-9.601025732569221094e-02,-1.000844933376680845e-01,-1.041587293496439304e-01,-1.082329653616198178e-01,-1.124843420697685531e-01,-1.165585780817444128e-01,-1.206328140937202864e-01,-1.247070501056961600e-01,-1.287812861176720336e-01,-1.328555221296478794e-01,-1.369297581416237530e-01,-1.411811348497724883e-01,-1.452553708617483619e-01,-1.493296068737242355e-01,-1.534038428857000813e-01,-1.574780788976759549e-01,-1.615523149096518285e-01,-1.656265509216277021e-01,-1.698779276297764373e-01,-1.739521636417523109e-01,-1.780263996537281845e-01,-1.821006356657040304e-01,-1.861748716776799040e-01
-2.775557561562891351e-17,0.000000000000000000e+00,-1.948547657901478214e-03,-6.022783669877351809e-03,-1.009701968185325316e-02,-1.417125569382909900e-02,-1.824549170580497259e-02,-2.231972771778084619e-02,-2.657110442592958144e-02,-3.064534043790545503e-02,-3.471957644988132863e-02,-3.879381246185717447e-02,-4.286804847383304806e-02,-4.694228448580889390e-02,-5.101652049778479525e-02,-5.526789720593353050e-02,-5.934213321790940410e-02,-6.341636922988524994e-02,-6.749060524186112353e-02,-7.156484125383699713e-02,-7.563907726581287072e-02,-7.971331327778871656e-02,-8.396468998593746569e-02,-8.803892599791333928e-02,-9.211316200988919900e-02,-9.618739802186508647e-02,-1.002616340338409323e-01,-1.043358700458168059e-01,-1.084101060577926795e-01,-1.126614827659414009e-01,-1.167357187779172883e-01,-1.208099547898931481e-01,-1.248841908018690217e-01,-1.289584268138448953e-01,-1.330326628258207411e-01,-1.372840395339694763e-01,-1.413582755459453499e-01,-1.454325115579212235e-01,-1.495067475698970694e-01,-1.535809835818729430e-01,-1.576552195938488166e-01,-1.617294556058246902e-01,-1.659808323139734254e-01,-1.700550683259492990e-01,-1.741293043379251726e-01,-1.782035403499010462e-01,-1.822777763618768920e-01
0.000000000000000000e+00,0.000000000000000000e+00,0.000000000000000000e+00,-2.125688354074367625e-03,-6.199924366050213465e-03,-1.027416037802608706e-02,-1.434839639000198841e-02,-1.842263240197786200e-02,-2.249686841395370784e-02,-2.674824512210244309e-02,-3.082248113407831669e-02,-3.489671714605419028e-02,-3.897095315803003612e-02,-4.304518917000590972e-02,-4.711942518198178331e-02,-5.119366119395765691e-02,-5.544503790210639216e-02,-5.951927391408226575e-02,-6.359350992605813935e-02,-6.766774593803401294e-02,-7.174198195000985878e-02,-7.581621796198573238e-02,-7.989045397396159209e-02,-8.414183068211032734e-02,-8.821606669408620094e-02,-9.229030270606206066e-02,-9.636453871803793425e-02,-1.004387747300138078e-01,-1.045130107419896676e-01,-1.087643874501384028e-01,-1.128386234621142764e-01,-1.169128594740901361e-01,-1.209870954860660097e-01,-1.250613314980418833e-01,-1.291355675100177569e-01,-1.332098035219936305e-01,-1.374611802301423658e-01,-1.415354162421182116e-01,-1.456096522540940852e-01,-1.496838882660699588e-01,-1.537581242780458046e-01,-1.578323602900217060e-01,-1.619065963019975518e-01,-1.661579730101462871e-01,-1.702322090221221607e-01,-1.743064450340980343e-01,-1.783806810460739078e-01
0.000000000000000000e+00,0.000000000000000000e+00,-2.775557561562891351e-17,0.000000000000000000e+00,-2.302829050247201526e-03,-6.377065062223102876e-03,-1.045130107419897647e-02,-1.452553708617485007e-02,-1.859977309815072366e-02,-2.267400911012656950e-02,-2.692538581827533251e-02,-3.099962183025117834e-02,-3.507385784222702418e-02,-3.914809385420287002e-02,-4.322232986617877137e-02,-4.729656587815464497e-02,-5.154794258630338022e-02,-5.562217859827925381e-02,-5.969641461025512741e-02,-6.377065062223097325e-02,-6.784488663420684684e-02,-7.191912264618273432e-02,-7.599335865815859403e-02,-8.024473536630731541e-02,-8.431897137828320288e-02,-8.839320739025906259e-02,-9.246744340223492231e-02,-9.654167941421079591e-02,-1.006159154261866556e-01,-1.868524764581226960e-01,-1.911038531662714313e-01,-1.951780891782473049e-01,-1.992523251902231785e-01,-2.033265612021990520e-01,-1.252384721942147450e-01,-1.293127082061906186e-01,-1.333869442181664922e-01,-1.376383209263151997e-01,-1.417125569382910732e-01,-1.457867929502669468e-01,-1.498610289622428204e-01,-1.539352649742186940e-01,-1.580095009861945676e-01,-1.622608776943432751e-01,-1.663351137063191487e-01,-1.704093497182950223e-01,-1.744835857302708959e-01
0.000000000000000000e+00,2.775557561562891351e-17,0.000000000000000000e+00,0.000000000000000000e+00,0.000000000000000000e+00,-2.479969746420090937e-03,-6.554205758395936776e-03,-1.062844177037183813e-02,-1.470267778234771172e-02,-1.877691379432355756e-02,-2.302829050247229281e-02,-2.710252651444816641e-02,-3.117676252642404000e-02,-3.525099853839991360e-02,-3.932523455037575943e-02,-4.339947056235163303e-02,-4.747370657432750662e-02,-5.172508328247624187e-02,-5.579931929445214323e-02,-5.987355530642796131e-02,-6.394779131840386266e-02,-6.802202733037972238e-02,-7.209626334235560985e-02,-7.617049935433145569e-02,-8.042187606248017706e-02,-8.449611207445606453e-02,-8.857034808643193813e-02,-9.264458409840778397e-02,-9.671882011038365756e-02,-1.829553811423196841e-01,-1.870296171542955577e-01,-1.912809938624442929e-01,-1.953552298744201665e-01,-1.994294658863960401e-01,-1.213413768784117469e-01,-1.254156128903876066e-01,-1.294898489023634802e-01,-1.337412256105122155e-01,-1.378154616224880891e-01,-1.418896976344639627e-01,-1.459639336464398085e-01,-1.500381696584156821e-01,-1.541124056703915557e-01,-1.581866416823674293e-01,-1.624380183905161368e-01,-1.665122544024920104e-01,-1.705864904144678840e-01
0.000000000000000000e+00,0.000000000000000000e+00,0.000000000000000000e+00,0.000000000000000000e+00,0.000000000000000000e+00,2.775557561562891351e-17,-2.657110442592952593e-03,-6.731346454568798432e-03,-1.080558246654472754e-02,-1.487981847852057338e-02,-1.895405449049644697e-02,-2.320543119864515447e-02,-2.727966721062105582e-02,-3.135390322259690166e-02,-3.542813923457274750e-02,-3.950237524654859333e-02,-4.357661125852449469e-02,-4.765084727050039604e-02,-5.190222397864913129e-02,-5.597645999062500488e-02,-6.005069600260087848e-02,-6.412493201457669656e-02,-6.819916802655258403e-02,-7.227340403852847150e-02,-7.652478074667717900e-02,-8.059901675865303872e-02,-8.467325277062892619e-02,-8.874748878260477203e-02,-9.282172479458065950e-02,-1.790582858265166721e-01,-1.831325218384925457e-01,-1.873838985466412810e-01,-1.914581345586171546e-01,-1.955323705705930282e-01,-1.174442815626087350e-01,-1.215185175745846086e-01,-1.255927535865604683e-01,-1.296669895985363419e-01,-1.339183663066850771e-01,-1.379926023186609230e-01,-1.420668383306368243e-01,-1.461410743426126702e-01,-1.502153103545885438e-01,-1.542895463665644173e-01,-1.583637823785402909e-01,-1.626151590866889984e-01,-1.666893950986648720e-01
-1.548715800825609112e-02,0.000000000000000000e+00,-2.775557561562891351e-17,0.000000000000000000e+00,0.000000000000000000e+00,0.000000000000000000e+00,0.000000000000000000e+00,-2.834251138765814249e-03,-6.908487150741687843e-03,-1.098272316271756144e-02,-1.505695917469340728e-02,-1.913119518666930863e-02,-2.338257189481801612e-02,-2.745680790679391747e-02,-3.153104391876976331e-02,-3.560527993074563691e-02,-3.967951594272148275e-02,-4.375375195469735634e-02,-4.800512866284609159e-02,-5.207936467482199294e-02,-5.615360068679786654e-02,-6.022783669877374013e-02,-6.430207271074958597e-02,-6.837630872272545957e-02,-7.245054473470133316e-02,-7.670192144285004066e-02,-8.077615745482591425e-02,-8.485039346680178785e-02,-8.892462947877766144e-02,-1.751611905107137157e-01,-1.792354265226895338e-01,-1.833096625346654074e-01,-1.875610392428141426e-01,-1.916352752547900162e-01,-1.135471862468057369e-01,-1.176214222587815966e-01,-1.216956582707574702e-01,-1.257698942827333299e-01,-1.298441302947092035e-01,-1.340955070028579388e-01,-1.381697430148338124e-01,-1.422439790268096860e-01,-1.463182150387855318e-01,-1.503924510507614054e-01,-1.544666870627372790e-01,-1.587180637708860143e-01,-1.627922997828618878e-01
-3.441590668501356975e-02,-1.462676034113075119e-02,0.000000000000000000e+00,0.000000000000000000e+00,0.000000000000000000e+00,0.000000000000000000e+00,0.000000000000000000e+00,0.000000000000000000e+00,-3.011391834938675904e-03,-7.085627846914549499e-03,-1.115986385889042309e-02,-1.523409987086629669e-02,-1.948547657901500418e-02,-2.355971259099087778e-02,-2.763394860296675137e-02,-3.170818461494265272e-02,-3.578242062691849856e-02,-3.985665663889434440e-02,-4.393089265087021800e-02,-4.818226935901895325e-02,-5.225650537099485460e-02,-5.633074138297075595e-02,-6.040497739494660179e-02,-6.447921340692244763e-02,-6.855344941889832122e-02,-7.262768543087419482e-02,-7.687906213902290231e-02,-8.095329815099877591e-02,-8.502753416297464950e-02,-1.712640951949106760e-01,-1.753383312068865496e-01,-1.794125672188624232e-01,-1.836639439270111585e-01,-1.877381799389870043e-01,-1.096500909310027250e-01,-1.137243269429785847e-01,-1.177985629549544722e-01,-1.218727989669303319e-01,-1.259470349789061916e-01,-1.301984116870549268e-01,-1.342726476990308004e-01,-1.383468837110066740e-01,-1.424211197229825476e-01,-1.464953557349584212e-01,-1.505695917469342671e-01,-1.546438277589101407e-01,-1.588952044670588759e-01
-5.334465536177099287e-02,-3.355550901788822982e-02,-1.376636267400543900e-02,0.000000000000000000e+00,-2.775557561562891351e-17,0.000000000000000000e+00,0.000000000000000000e+00,0.000000000000000000e+00,0.000000000000000000e+00,-3.188532531111565316e-03,-7.262768543087411155e-03,-1.133700455506328475e-02,-1.541124056703915834e-02,-1.966261727518789360e-02,-2.373685328716376719e-02,-2.781108929913964078e-02,-3.188532531111548662e-02,-3.595956132309133246e-02,-4.003379733506720606e-02,-4.410803334704310741e-02,-4.835941005519184266e-02,-5.243364606716771625e-02,-5.650788207914358985e-02,-6.058211809111943569e-02,-6.465635410309530928e-02,-6.873059011507118288e-02,-7.298196682321991813e-02,-7.705620283519579172e-02,-8.113043884717163756e-02,-8.520467485914751116e-02,-8.927891087112338475e-02,-9.335314688309925835e-02,-9.742738289507511806e-02,-1.016787596032238394e-01,-1.057529956151997130e-01,-1.098272316271755866e-01,-1.139014676391514602e-01,-1.179757036511273061e-01,-1.220499396631031935e-01,-1.261241756750790532e-01,-1.303755523832277885e-01,-1.344497883952036621e-01,-1.385240244071795357e-01,-1.425982604191554093e-01,-1.466724964311312829e-01,-1.507467324431071287e-01,-1.548209684550830023e-01
-7.227340403852844375e-02,-5.248425769464565294e-02,-3.269511135076288988e-02,-1.290596500688007131e-02,0.000000000000000000e+00,0.000000000000000000e+00,0.000000000000000000e+00,0.000000000000000000e+00,0.000000000000000000e+00,-2.775557561562891351e-17,-3.365673227284399216e-03,-7.439909239260272811e-03,-1.151414525123614641e-02,-1.576552195938488166e-02,-1.983975797136075525e-02,-2.391399398333660109e-02,-2.798822999531250244e-02,-3.206246600728834828e-02,-3.613670201926422187e-02,-4.021093803124006771e-02,-4.446231473938883072e-02,-4.853655075136470431e-02,-5.261078676334057791e-02,-5.668502277531645150e-02,-6.075925878729229734e-02,-6.483349479926817094e-02,-6.890773081124404453e-02,-7.315910751939277978e-02,-7.723334353136863950e-02,-8.130757954334449922e-02,-8.538181555532037281e-02,-8.945605156729624641e-02,-9.353028757927212000e-02,-9.760452359124796584e-02,-1.018559002993967150e-01,-1.059301363113725747e-01,-1.100043723233484483e-01,-1.140786083353243219e-01,-1.181528443473001816e-01,-1.222270803592760691e-01,-1.264784570674248043e-01,-1.305526930794006502e-01,-1.346269290913765238e-01,-1.387011651033523973e-01,-1.427754011153282709e-01,-1.468496371273041445e-01,-1.509238731392799904e-01
-9.206255038241123456e-02,-7.141300637140310381e-02,-5.162386002752031300e-02,-3.183471368363754994e-02,-1.204556733975475913e-02,0.000000000000000000e+00,0.000000000000000000e+00,2.775557561562891351e-17,0.000000000000000000e+00,0.000000000000000000e+00,0.000000000000000000e+00,-3.542813923457260872e-03,-7.617049935433134467e-03,-1.169128594740900806e-02,-1.594266265555774331e-02,-2.001689866753361691e-02,-2.409113467950946275e-02,-2.816537069148539185e-02,-3.223960670346120994e-02,-3.631384271543708353e-02,-4.038807872741292937e-02,-4.463945543556169238e-02,-4.871369144753756597e-02,-5.278792745951343957e-02,-5.686216347148931316e-02,-6.093639948346518675e-02,-6.501063549544103259e-02,-6.908487150741690619e-02,-7.333624821556565532e-02,-7.741048422754150116e-02,-8.148472023951736087e-02,-8.555895625149324835e-02,-8.963319226346910806e-02,-9.370742827544496778e-02,-9.795880498359371691e-02,-1.020330409955695766e-01,-1.061072770075454363e-01,-1.101815130195213099e-01,-1.142557490314971835e-01,-1.183299850434730432e-01,-1.224042210554489307e-01,-1.266555977635976660e-01,-1.307298337755735118e-01,-1.348040697875493854e-01,-1.388783057995252590e-01,-1.429525418115011326e-01,-1.470267778234770062e-01
-1.109912990591686993e-01,-9.034175504816056856e-02,-7.055260870427776387e-02,-5.076346236039497306e-02,-3.097431601651218225e-02,-1.118516967262941919e-02,0.000000000000000000e+00,0.000000000000000000e+00,0.000000000000000000e+00,0.000000000000000000e+00,0.000000000000000000e+00,-2.775557561562891351e-17,-3.719954619630150283e-03,-7.794190631605996122e-03,-1.186842664358189747e-02,-1.611980335173060497e-02,-2.019403936370647856e-02,-2.426827537568235216e-02,-2.834251138765822575e-02,-3.241674739963407159e-02,-3.649098341160994519e-02,-4.074236011975868044e-02,-4.481659613173455403e-02,-4.889083214371042763e-02,-5.296506815568630122e-02,-5.703930416766217482e-02,-6.111354017963804841e-02,-6.518777619161389425e-02,-6.943915289976264338e-02,-7.351338891173851697e-02,-7.758762492371437669e-02,-8.166186093569022253e-02,-8.573609694766609612e-02,-8.981033295964196972e-02,-9.388456897161782944e-02,-9.813594567976657856e-02,-1.022101816917424383e-01,-1.062844177037182980e-01,-1.103586537156941716e-01,-1.144328897276700452e-01,-1.185071257396459049e-01,-1.225813617516217924e-01,-1.268327384597705276e-01,-1.309069744717464012e-01,-1.349812104837222471e-01,-1.390554464956981207e-01,-1.431296825076739943e-01
-1.299200477359261363e-01,-1.101309013920433594e-01,-8.948135738103521475e-02,-6.969221103715243781e-02,-4.990306469326963312e-02,-3.011391834938684231e-02,-1.032477200550407925e-02,0.000000000000000000e+00,0.000000000000000000e+00,0.000000000000000000e+00,2.775557561562891351e-17,0.000000000000000000e+00,0.000000000000000000e+00,-3.897095315802984183e-03,-7.971331327778857778e-03,-1.222270803592762078e-02,-1.629694404790349438e-02,-2.037118005987934022e-02,-2.444541607185518606e-02,-2.851965208383111516e-02,-3.259388809580696100e-02,-3.666812410778280684e-02,-4.091950081593154209e-02,-4.499373682790738793e-02,-4.906797283988328928e-02,-5.314220885185916288e-02,-5.721644486383503647e-02,-6.129068087581091007e-02,-6.536491688778675591e-02,-6.961629359593549116e-02,-7.369052960791137863e-02,-7.776476561988721059e-02,-8.183900163186308419e-02,-8.591323764383897166e-02,-8.998747365581483137e-02,-9.406170966779070497e-02,-9.831308637593944022e-02,-1.023873223879153138e-01,-1.064615583998911735e-01,-1.105357944118670471e-01,-1.146100304238429068e-01,-1.186842664358187804e-01,-1.229356431439675157e-01,-1.270098791559433893e-01,-1.310841151679192351e-01,-1.351583511798951087e-01,-1.392325871918709823e-01
-1.488487964126835872e-01,-1.290596500688008241e-01,-1.092705037249180194e-01,-8.862095971390988869e-02,-6.883181337002708400e-02,-4.904266702614429319e-02,-2.925352068226153013e-02,-9.464374338378739315e-03,0.000000000000000000e+00,0.000000000000000000e+00,0.000000000000000000e+00,0.000000000000000000e+00,0.000000000000000000e+00,0.000000000000000000e+00,-4.074236011975873595e-03,-8.148472023951719434e-03,-1.239984873210045468e-02,-1.647408474407632828e-02,-2.054832075605222963e-02,-2.462255676802807547e-02,-2.869679278000397682e-02,-3.277102879197982266e-02,-3.684526480395564074e-02,-4.109664151210440375e-02,-4.517087752408027734e-02,-4.924511353605615094e-02,-5.331934954803202453e-02,-5.739358556000789813e-02,-6.146782157198377172e-02,-6.554205758395961756e-02,-6.979343429210835281e-02,-7.386767030408424028e-02,-7.794190631606010000e-02,-8.201614232803595972e-02,-8.609037834001183331e-02,-9.016461435198769303e-02,-9.441599106013644216e-02,-9.849022707211230188e-02,-1.025644630840881755e-01,-1.066386990960640491e-01,-1.107129351080398949e-01,-1.147871711200157685e-01,-1.188614071319916421e-01,-1.231127838401403773e-01,-1.271870198521162509e-01,-1.312612558640920968e-01,-1.353354918760679704e-01
-1.677775450894410381e-01,-1.479883987455582472e-01,-1.281992524016754564e-01,-1.075497083906673534e-01,-8.776056204678454875e-02,-6.797141570290174406e-02,-4.818226935901898100e-02,-2.839312301513619019e-02,-8.603976671253399378e-03,0.000000000000000000e+00,0.000000000000000000e+00,-2.775557561562891351e-17,0.000000000000000000e+00,0.000000000000000000e+00,-1.771406961728616558e-04,-4.251376708148707495e-03,-8.325612720124608845e-03,-1.257698942827334410e-02,-1.665122544024921769e-02,-2.072546145222509129e-02,-2.479969746420093712e-02,-2.887393347617681072e-02,-3.294816948815265656e-02,-3.719954619630139181e-02,-4.127378220827726540e-02,-4.534801822025313900e-02,-4.942225423222901259e-02,-5.349649024420488619e-02,-5.757072625618075978e-02,-6.164496226815660562e-02,-6.589633897630534087e-02,-6.997057498828122835e-02,-7.404481100025711582e-02,-7.811904701223294778e-02,-8.219328302420882137e-02,-8.626751903618469497e-02,-9.034175504816056856e-02,-9.459313175630928994e-02,-9.866736776828516353e-02,-1.027416037802610371e-01,-1.068158397922369107e-01,-1.108900758042127704e-01,-1.149643118161886302e-01,-1.190385478281645038e-01,-1.232899245363132390e-01,-1.273641605482891126e-01,-1.314383965602649862e-01
-1.867062937661984889e-01,-1.669171474223156981e-01,-1.471280010784329073e-01,-1.273388547345501443e-01,-1.066893107235419996e-01,-8.690016437965920881e-02,-6.711101803577640412e-02,-4.732187169189364107e-02,-2.753272534801085025e-02,-7.743579004128031684e-03,-2.775557561562891351e-17,0.000000000000000000e+00,0.000000000000000000e+00,0.000000000000000000e+00,0.000000000000000000e+00,-3.542813923457233116e-04,-4.428517404321596906e-03,-8.679894112470304401e-03,-1.275413012444620575e-02,-1.682836613642207935e-02,-2.090260214839792519e-02,-2.497683816037382654e-02,-2.905107417234970013e-02,-3.312531018432551821e-02,-3.737668689247425347e-02,-4.145092290445012706e-02,-4.552515891642600065e-02,-4.959939492840184649e-02,-5.367363094037777560e-02,-5.774786695235362144e-02,-6.182210296432949503e-02,-6.607347967247823028e-02,-7.014771568445409000e-02,-7.422195169642996360e-02,-7.829618770840580944e-02,-8.237042372038168303e-02,-8.644465973235757050e-02,-9.051889574433343022e-02,-9.477027245248216547e-02,-9.884450846445803907e-02,-1.029187444764338988e-01,-1.069929804884097724e-01,-1.110672165003856321e-01,-1.151414525123615057e-01,-1.193928292205102271e-01,-1.234670652324861007e-01,-1.275413012444619743e-01
-1.927290774360758685e-01,-1.858458960990731490e-01,-1.660567497551903582e-01,-1.462676034113075674e-01,-1.256180594002994644e-01,-1.058289130564166736e-01,-8.603976671253386888e-02,-6.625062036865106418e-02,-4.646147402476830113e-02,-2.667232768088551031e-02,-6.883181337002719502e-03,0.000000000000000000e+00,0.000000000000000000e+00,-2.775557561562891351e-17,0.000000000000000000e+00,0.000000000000000000e+00,-5.314220885185849674e-04,-4.605658100494458562e-03,-8.857034808643193813e-03,-1.293127082061906741e-02,-1.700550683259494100e-02,-2.107974284457078684e-02,-2.515397885654666044e-02,-2.922821486852253403e-02,-3.330245088049840763e-02,-3.755382758864711512e-02,-4.162806360062301647e-02,-4.570229961259886231e-02,-4.977653562457476366e-02,-5.385077163655063726e-02,-5.792500764852648309e-02,-6.217638435667521835e-02,-6.625062036865109194e-02,-7.032485638062695166e-02,-7.439909239260282525e-02,-7.847332840457868497e-02,-8.254756441655455856e-02,-8.662180042853041828e-02,-9.087317713667916741e-02,-9.494741314865502713e-02,-9.902164916063088684e-02,-1.030958851726067604e-01,-1.071701211845826340e-01,-1.112443571965584937e-01,-1.153185932085343673e-01,-1.195699699166830887e-01,-1.236442059286589762e-01
-1.927290774360758685e-01,-1.927290774360758685e-01,-1.849854984319478091e-01,-1.651963520880650182e-01,-1.454072057441822274e-01,-1.247576617331741106e-01,-1.049685153892913336e-01,-8.517936904540852894e-02,-6.539022270152572425e-02,-4.560107635764293343e-02,-2.581193001376019813e-02,-6.022783669877379564e-03,2.775557561562891351e-17,0.000000000000000000e+00,0.000000000000000000e+00,0.000000000000000000e+00,0.000000000000000000e+00,-7.085627846914466232e-04,-4.782798796667320218e-03,-9.034175504816055469e-03,-1.310841151679192906e-02,-1.718264752876780266e-02,-2.125688354074367625e-02,-2.533111955271954985e-02,-2.940535556469542344e-02,-3.365673227284410318e-02,-3.773096828482000453e-02,-4.180520429679585037e-02,-4.587944030877172397e-02,-4.995367632074759756e-02,-5.402791233272347116e-02,-5.810214834469934475e-02,-6.235352505284808000e-02,-6.642776106482395360e-02,-7.050199707679982719e-02,-7.457623308877570079e-02,-7.865046910075154663e-02,-8.272470511272740634e-02,-8.679894112470329381e-02,-9.105031783285202907e-02,-9.512455384482787490e-02,-9.919878985680376238e-02,-1.032730258687796221e-01,-1.073472618807554957e-01,-1.114214978927313554e-01,-1.154957339047072290e-01,-1.197471106128559643e-01
-1.927290774360758685e-01,-1.927290774360758685e-01,-1.927290774360758685e-01,-1.841251007648224691e-01,-1.643359544209396783e-01,-1.445468080770568875e-01,-1.238972640660487706e-01,-1.041081177221659937e-01,-8.431897137828317512e-02,-6.452982503440041206e-02,-4.474067869051762125e-02,-2.495153234663483044e-02,-4.301988335626671933e-03,0.000000000000000000e+00,0.000000000000000000e+00,0.000000000000000000e+00,0.000000000000000000e+00,-2.775557561562891351e-17,-8.857034808643360346e-04,-5.137080189013043530e-03,-9.211316200988917124e-03,-1.328555221296479072e-02,-1.735978822494066431e-02,-2.143402423691653791e-02,-2.550826024889238375e-02,-2.958249626086828510e-02,-3.383387296901699259e-02,-3.790810898099283843e-02,-4.198234499296871203e-02,-4.605658100494458562e-02,-5.013081701692048697e-02,-5.420505302889636057e-02,-5.827928904087220641e-02,-6.253066574902094166e-02,-6.660490176099681525e-02,-7.067913777297267497e-02,-7.475337378494856244e-02,-7.882760979692440828e-02,-8.290184580890028188e-02,-8.715322251704901713e-02,-9.122745852902489072e-02,-9.530169454100075044e-02,-9.937593055297662403e-02,-1.034501665649524837e-01,-1.075244025769283435e-01,-1.115986385889042171e-01,-1.158500152970529523e-01
-1.927290774360758685e-01,-1.927290774360758685e-01,-1.927290774360758685e-01,-1.927290774360758685e-01,-1.832647030976971569e-01,-1.634755567538143661e-01,-1.428260127428062076e-01,-1.230368663989234307e-01,-1.032477200550406538e-01,-8.345857371115784906e-02,-6.366942736727504437e-02,-4.388028102339230907e-02,-2.409113467950949050e-02,-3.441590668501359751e-03,0.000000000000000000e+00,0.000000000000000000e+00,0.000000000000000000e+00,-2.775557561562891351e-17,0.000000000000000000e+00,-1.062844177037169935e-03,-5.314220885185905185e-03,-9.388456897161778780e-03,-1.346269290913765238e-02,-1.753692892111352597e-02,-2.161116493308939956e-02,-2.568540094506524540e-02,-2.975963695704114675e-02,-3.401101366518985425e-02,-3.808524967716572784e-02,-4.215948568914157368e-02,-4.623372170111747503e-02,-5.030795771309334863e-02,-5.438219372506922222e-02,-5.863357043321795747e-02,-6.270780644519380331e-02,-6.678204245716967691e-02,-7.085627846914555050e-02,-7.493051448112142410e-02,-7.900475049309725606e-02,-8.307898650507314353e-02,-8.733036321322187878e-02,-9.140459922519775238e-02,-9.547883523717361209e-02,-9.955307124914948569e-02,-1.036273072611253454e-01,-1.077015432731012190e-01,-1.218949415539519326e-01
-1.927290774360758685e-01,-1.927290774360758685e-01,-1.927290774360758685e-01,-1.927290774360758685e-01,-1.927290774360758685e-01,-1.824043054305717892e-01,-1.626151590866889984e-01,-1.419656150756808954e-01,-1.221764687317980907e-01,-1.023873223879152999e-01,-8.259817604403250912e-02,-6.280902970014970443e-02,-4.301988335626694138e-02,-2.323073701238415056e-02,-2.581193001376019813e-03,0.000000000000000000e+00,0.000000000000000000e+00,0.000000000000000000e+00,-2.775557561562891351e-17,0.000000000000000000e+00,-1.417125569382921002e-03,-5.491361581358766841e-03,-9.565597593334640436e-03,-1.363983360531051403e-02,-1.771406961728638763e-02,-2.178830562926226122e-02,-2.586254164123813482e-02,-3.011391834938687007e-02,-3.418815436136271591e-02,-3.826239037333856174e-02,-4.233662638531443534e-02,-4.641086239729033669e-02,-5.048509840926621028e-02,-5.455933442124208388e-02,-5.881071112939081913e-02,-6.288494714136666497e-02,-6.695918315334253856e-02,-7.103341916531841216e-02,-7.510765517729428575e-02,-7.918189118927013159e-02,-8.325612720124600519e-02,-8.750750390939474044e-02,-9.158173992137061403e-02,-9.565597593334648763e-02,-9.973021194532234734e-02,-1.176989213133572271e-01,-1.794712034568880787e-01
-1.927290774360758685e-01,-1.927290774360758685e-01,-1.927290774360758685e-01,-1.927290774360758685e-01,-1.927290774360758685e-01,-1.927290774360758685e-01,-1.815439077634464771e-01,-1.617547614195636863e-01,-1.411052174085555555e-01,-1.213160710646727647e-01,-1.015269247207899739e-01,-8.173777837690715531e-02,-6.194863203302436450e-02,-4.215948568914157368e-02,-2.150994167813347069e-02,-1.720795334250679876e-03,0.000000000000000000e+00,0.000000000000000000e+00,0.000000000000000000e+00,0.000000000000000000e+00,0.000000000000000000e+00,-1.594266265555782658e-03,-5.668502277531628497e-03,-9.742738289507502092e-03,-1.381697430148340344e-02,-1.789121031345924928e-02,-2.196544632543515063e-02,-2.603968233741099647e-02,-3.029105904555973172e-02,-3.436529505753557756e-02,-3.843953106951142340e-02,-4.251376708148729699e-02,-4.658800309346317059e-02,-5.066223910543907194e-02,-5.473647511741494553e-02,-5.898785182556368079e-02,-6.306208783753952662e-02,-6.713632384951540022e-02,-7.121055986149127381e-02,-7.528479587346714741e-02,-7.935903188544299325e-02,-8.361040859359174238e-02,-8.768464460556761597e-02,-9.175888061754347569e-02,-1.140011092807486914e-01,-1.811263618367532913e-01,-1.927290774360758685e-01
-1.927290774360758685e-01,-1.927290774360758685e-01,-1.927290774360758685e-01,-1.927290774360758685e-01,-1.927290774360758685e-01,-1.927290774360758685e-01,-1.927290774360758685e-01,-1.806835100963211371e-01,-1.600339660853130064e-01,-1.402448197414302156e-01,-1.204556733975474248e-01,-1.006665270536646339e-01,-8.087738070978182925e-02,-6.108823436589905231e-02,-4.129908802201626150e-02,-2.064954401100815851e-02,-8.603976671253399378e-04,0.000000000000000000e+00,0.000000000000000000e+00,0.000000000000000000e+00,0.000000000000000000e+00,0.000000000000000000e+00,-1.771406961728616558e-03,-5.845642973704490153e-03,-9.919878985680391503e-03,-1.399411499765623734e-02,-1.806835100963211094e-02,-2.214258702160798453e-02,-2.639396372975671978e-02,-3.046819974173259338e-02,-3.454243575370843922e-02,-3.861667176568428506e-02,-4.269090777766015865e-02,-4.676514378963603225e-02,-5.083937980161193360e-02,-5.509075650976069660e-02,-5.916499252173654244e-02,-6.323922853371238828e-02,-6.731346454568826188e-02,-7.138770055766414935e-02,-7.546193656964000906e-02,-7.953617258161585490e-02,-8.378754928976460403e-02,-1.108015054561263396e-01,-1.832797284246046599e-01,-1.927290774360758685e-01,-1.927290774360758685e-01
-1.927290774360758685e-01,-1.927290774360758685e-01,-1.927290774360758685e-01,-1.927290774360758685e-01,-1.927290774360758685e-01,-1.927290774360758685e-01,-1.927290774360758685e-01,-1.927290774360758685e-01,-1.798231124291957972e-01,-1.591735684181876664e-01,-1.393844220743048756e-01,-1.195952757304220848e-01,-9.980612938653928012e-02,-8.001698304265650319e-02,-6.022783669877371238e-02,-4.043869035489094932e-02,-1.978914634388279081e-02,0.000000000000000000e+00,0.000000000000000000e+00,-2.775557561562891351e-17,-2.775557561562891351e-17,0.000000000000000000e+00,0.000000000000000000e+00,-1.948547657901478214e-03,-6.022783669877351809e-03,-1.009701968185325316e-02,-1.417125569382909900e-02,-1.824549170580497259e-02,-2.231972771778084619e-02,-2.657110442592960919e-02,-3.064534043790545503e-02,-3.471957644988130087e-02,-3.879381246185717447e-02,-4.286804847383304806e-02,-4.694228448580892166e-02,-5.101652049778479525e-02,-5.526789720593353050e-02,-5.934213321790940410e-02,-6.341636922988524994e-02,-6.749060524186115129e-02,-7.156484125383702488e-02,-7.563907726581287072e-02,-1.079672543173605115e-01,-1.859313032204422123e-01,-1.927290774360758685e-01,-1.927290774360758685e-01,-1.927290774360758685e-01
-1.927290774360758685e-01,-1.927290774360758685e-01,-1.927290774360758685e-01,-1.927290774360758685e-01,-1.927290774360758685e-01,-1.927290774360758685e-01,-1.927290774360758685e-01,-1.927290774360758685e-01,-1.927290774360758685e-01,-1.781023170949451173e-01,-1.583131707510623265e-01,-1.385240244071795357e-01,-1.187348780632967310e-01,-9.894573171941395406e-02,-7.915658537553114937e-02,-5.936743903164837244e-02,-3.871789502064024169e-02,-1.892874867675747863e-02,0.000000000000000000e+00,-2.775557561562891351e-17,0.000000000000000000e+00,0.000000000000000000e+00,0.000000000000000000e+00,0.000000000000000000e+00,-2.125688354074367625e-03,-6.199924366050213465e-03,-1.027416037802608706e-02,-1.402274016697171444e-01,-1.443016376816930457e-01,-1.483758736936688916e-01,-1.526272504018176546e-01,-1.567014864137935004e-01,-3.489671714605416253e-02,-3.897095315803003612e-02,-4.304518917000590972e-02,-4.711942518198178331e-02,-5.137080189013054632e-02,-5.544503790210639216e-02,-5.951927391408226575e-02,-6.359350992605811159e-02,-6.766774593803398519e-02,-1.057696025554659275e-01,-1.890755505775105483e-01,-1.927290774360758685e-01,-1.927290774360758685e-01,-1.927290774360758685e-01,-1.927290774360758685e-01
-1.927290774360758685e-01,-1.927290774360758685e-01,-1.927290774360758685e-01,-1.927290774360758685e-01,-1.927290774360758685e-01,-1.927290774360758685e-01,-1.927290774360758685e-01,-1.927290774360758685e-01,-1.927290774360758685e-01,-1.927290774360758685e-01,-1.772419194278197774e-01,-1.574527730839369866e-01,-1.376636267400541958e-01,-1.178744803961713911e-01,-9.808533405228861413e-02,-7.829618770840580944e-02,-5.850704136452300475e-02,-3.785749735351492951e-02,-1.806835100963213869e-02,0.000000000000000000e+00,-2.775557561562891351e-17,0.000000000000000000e+00,0.000000000000000000e+00,2.775557561562891351e-17,0.000000000000000000e+00,-2.302829050247229281e-03,-6.377065062223075120e-03,-1.363303063539141602e-01,-1.404045423658900338e-01,-1.444787783778659074e-01,-1.487301550860146149e-01,-1.528043910979904885e-01,-3.099962183025117834e-02,-3.507385784222705194e-02,-3.914809385420292553e-02,-4.322232986617877137e-02,-4.729656587815467272e-02,-5.154794258630338022e-02,-5.562217859827928157e-02,-5.969641461025512741e-02,-1.040701590015575134e-01,-1.927290774360758685e-01,-1.927290774360758685e-01,-1.927290774360758685e-01,-1.927290774360758685e-01,-1.927290774360758685e-01,-1.927290774360758685e-01
-1.927290774360758685e-01,-1.927290774360758685e-01,-1.927290774360758685e-01,-1.927290774360758685e-01,-1.927290774360758685e-01,-1.927290774360758685e-01,-1.927290774360758685e-01,-1.927290774360758685e-01,-1.927290774360758685e-01,-1.927290774360758685e-01,-1.927290774360758685e-01,-1.763815217606944374e-01,-1.565923754168116466e-01,-1.368032290729288558e-01,-1.170140827290460650e-01,-9.722493638516327419e-02,-7.743579004128045562e-02,-5.678624603027238038e-02,-3.699709968638958957e-02,-1.720795334250679876e-02,0.000000000000000000e+00,0.000000000000000000e+00,0.000000000000000000e+00,0.000000000000000000e+00,0.000000000000000000e+00,0.000000000000000000e+00,-2.479969746420090937e-03,-1.324332110381111205e-01,-1.365074470500869941e-01,-1.405816830620628677e-01,-1.446559190740387690e-01,-1.489072957821874765e-01,-2.710252651444819416e-02,-3.117676252642404000e-02,-3.525099853839991360e-02,-3.932523455037575943e-02,-4.339947056235163303e-02,-4.747370657432750662e-02,-5.172508328247624187e-02,-1.028689236556352971e-01,-1.927290774360758685e-01,-1.927290774360758685e-01,-1.927290774360758685e-01,-1.927290774360758685e-01,-1.927290774360758685e-01,-1.927290774360758685e-01,-1.927290774360758685e-01
-1.927290774360758685e-01,-1.927290774360758685e-01,-1.927290774360758685e-01,-1.927290774360758685e-01,-1.927290774360758685e-01,-1.927290774360758685e-01,-1.927290774360758685e-01,-1.927290774360758685e-01,-1.927290774360758685e-01,-1.927290774360758685e-01,-1.927290774360758685e-01,-1.927290774360758685e-01,-1.755211240935690975e-01,-1.557319777496863067e-01,-1.359428314058035159e-01,-1.161536850619207389e-01,-9.636453871803793425e-02,-7.657539237415514344e-02,-5.592584836314701269e-02,-3.613670201926422187e-02,-1.634755567538143106e-02,0.000000000000000000e+00,0.000000000000000000e+00,0.000000000000000000e+00,0.000000000000000000e+00,0.000000000000000000e+00,-2.775557561562891351e-17,-1.285361157223081363e-01,-1.326103517342839822e-01,-1.366845877462598557e-01,-1.407588237582357293e-01,-1.448330597702116307e-01,-2.320543119864518222e-02,-2.727966721062105582e-02,-3.135390322259690166e-02,-3.542813923457274750e-02,-3.950237524654862109e-02,-4.357661125852452244e-02,-1.021658965176992229e-01,-1.927290774360758685e-01,-1.927290774360758685e-01,-1.927290774360758685e-01,-1.927290774360758685e-01,-1.927290774360758685e-01,-1.927290774360758685e-01,-1.927290774360758685e-01,-1.927290774360758685e-01
-1.927290774360758685e-01,-1.927290774360758685e-01,-1.927290774360758685e-01,-1.927290774360758685e-01,-1.927290774360758685e-01,-1.927290774360758685e-01,-1.927290774360758685e-01,-1.927290774360758685e-01,-1.927290774360758685e-01,-1.927290774360758685e-01,-1.927290774360758685e-01,-1.927290774360758685e-01,-1.927290774360758685e-01,-1.746607264264437576e-01,-1.548715800825609668e-01,-1.350824337386781759e-01,-1.152932873947953990e-01,-9.550414105091259431e-02,-7.571499470702980350e-02,-5.506545069602167275e-02,-3.527630435213888194e-02,-1.548715800825611888e-02,-2.775557561562891351e-17,0.000000000000000000e+00,0.000000000000000000e+00,0.000000000000000000e+00,0.000000000000000000e+00,-1.258790052797152115e-01,-1.287132564184809980e-01,-1.327874924304568716e-01,-1.368617284424327174e-01,-1.409359644544086188e-01,-1.930833588284214253e-02,-2.338257189481801612e-02,-2.745680790679388972e-02,-3.153104391876976331e-02,-3.560527993074563691e-02,-1.018559002993967011e-01,-1.927290774360758685e-01,-1.927290774360758685e-01,-1.927290774360758685e-01,-1.927290774360758685e-01,-1.927290774360758685e-01,-1.927290774360758685e-01,-1.927290774360758685e-01,-1.927290774360758685e-01,-1.927290774360758685e-01
-1.927290774360758685e-01,-1.927290774360758685e-01,-1.927290774360758685e-01,-1.927290774360758685e-01,-1.927290774360758685e-01,-1.927290774360758685e-01,-1.927290774360758685e-01,-1.927290774360758685e-01,-1.927290774360758685e-01,-1.927290774360758685e-01,-1.927290774360758685e-01,-1.927290774360758685e-01,-1.927290774360758685e-01,-1.927290774360758685e-01,-1.738003287593184176e-01,-1.540111824154356268e-01,-1.342220360715528360e-01,-1.144328897276700591e-01,-9.464374338378725438e-02,-7.399419937277912362e-02,-5.420505302889633281e-02,-3.441590668501354200e-02,-1.462676034113075119e-02,0.000000000000000000e+00,0.000000000000000000e+00,2.775557561562891351e-17,0.000000000000000000e+00,0.000000000000000000e+00,0.000000000000000000e+00,-3.011391834938675904e-03,-7.085627846914521744e-03,-1.115986385889042309e-02,-1.523409987086632444e-02,-1.948547657901503194e-02,-2.355971259099090553e-02,-2.763394860296677913e-02,-1.021548252241884225e-01,-1.927290774360758685e-01,-1.927290774360758685e-01,-1.927290774360758685e-01,-1.927290774360758685e-01,-1.927290774360758685e-01,-1.927290774360758685e-01,-1.927290774360758685e-01,-1.927290774360758685e-01,-1.927290774360758685e-01,-1.927290774360758685e-01
-1.927290774360758685e-01,-1.927290774360758685e-01,-1.927290774360758685e-01,-1.927290774360758685e-01,-1.927290774360758685e-01,-1.927290774360758685e-01,-1.927290774360758685e-01,-1.927290774360758685e-01,-1.927290774360758685e-01,-1.927290774360758685e-01,-1.927290774360758685e-01,-1.927290774360758685e-01,-1.927290774360758685e-01,-1.927290774360758685e-01,-1.927290774360758685e-01,-1.729399310921930777e-01,-1.531507847483102869e-01,-1.333616384044274961e-01,-1.135724920605447053e-01,-9.378334571666191444e-02,-7.313380170565378369e-02,-5.334465536177099287e-02,-3.355550901788820206e-02,-1.376636267400541125e-02,0.000000000000000000e+00,2.775557561562891351e-17,-2.775557561562891351e-17,0.000000000000000000e+00,0.000000000000000000e+00,0.000000000000000000e+00,-3.188532531111537560e-03,-7.262768543087383399e-03,-1.133700455506328475e-02,-1.541124056703915834e-02,-1.966261727518789360e-02,-1.029519583569663138e-01,-1.927290774360758685e-01,-1.927290774360758685e-01,-1.927290774360758685e-01,-1.927290774360758685e-01,-1.927290774360758685e-01,-1.927290774360758685e-01,-1.927290774360758685e-01,-1.927290774360758685e-01,-1.927290774360758685e-01,-1.927290774360758685e-01,-1.927290774360758685e-01
-1.927290774360758685e-01,-1.927290774360758685e-01,-1.927290774360758685e-01,-1.927290774360758685e-01,-1.927290774360758685e-01,-1.927290774360758685e-01,-1.927290774360758685e-01,-1.927290774360758685e-01,-1.927290774360758685e-01,-1.927290774360758685e-01,-1.927290774360758685e-01,-1.927290774360758685e-01,-1.927290774360758685e-01,-1.927290774360758685e-01,-1.927290774360758685e-01,-1.918686797689505286e-01,-1.720795334250677378e-01,-1.522903870811849469e-01,-1.325012407373021561e-01,-1.127120943934193653e-01,-9.292294804953657450e-02,-7.227340403852844375e-02,-5.248425769464565294e-02,-3.269511135076288988e-02,-1.290596500688007131e-02,0.000000000000000000e+00,0.000000000000000000e+00,0.000000000000000000e+00,-2.775557561562891351e-17,-2.775557561562891351e-17,0.000000000000000000e+00,-3.365673227284399216e-03,-7.439909239260272811e-03,-1.151414525123614641e-02,-1.042472996977303751e-01,-1.927290774360758685e-01,-1.927290774360758685e-01,-1.927290774360758685e-01,-1.927290774360758685e-01,-1.927290774360758685e-01,-1.927290774360758685e-01,-1.927290774360758685e-01,-1.927290774360758685e-01,-1.927290774360758685e-01,-1.927290774360758685e-01,-1.927290774360758685e-01,-1.927290774360758685e-01
-1.927290774360758685e-01,-1.927290774360758685e-01,-1.927290774360758685e-01,-1.927290774360758685e-01,-1.927290774360758685e-01,-1.927290774360758685e-01,-1.927290774360758685e-01,-1.927290774360758685e-01,-1.927290774360758685e-01,-1.927290774360758685e-01,-1.927290774360758685e-01,-1.927290774360758685e-01,-1.927290774360758685e-01,-1.927290774360758685e-01,-1.927290774360758685e-01,-1.927290774360758685e-01,-1.910082821018251886e-01,-1.712191357579423978e-01,-1.514299894140596070e-01,-1.316408430701768162e-01,-1.118516967262940393e-01,-9.120215271528590850e-02,-7.141300637140310381e-02,-5.162386002752034075e-02,-3.183471368363754994e-02,-1.204556733975475913e-02,0.000000000000000000e+00,0.000000000000000000e+00,-2.775557561562891351e-17,0.000000000000000000e+00,0.000000000000000000e+00,0.000000000000000000e+00,-3.542813923457260872e-03,-1.059578145451495895e-01,-1.927290774360758685e-01,-1.927290774360758685e-01,-1.927290774360758685e-01,-1.927290774360758685e-01,-1.927290774360758685e-01,-1.927290774360758685e-01,-1.927290774360758685e-01,-1.927290774360758685e-01,-1.927290774360758685e-01,-1.927290774360758685e-01,-1.927290774360758685e-01,-1.927290774360758685e-01,-1.927290774360758685e-01
