-2.269199917753975393e-01,-2.269199917753975393e-01,-2.269199917753975393e-01,-2.269199917753975393e-01,-2.269199917753975393e-01,-2.269199917753975393e-01,-2.269199917753975393e-01,-2.269199917753975393e-01,-2.269199917753975393e-01,-2.269199917753975393e-01,-2.269199917753975393e-01,-2.269199917753975393e-01,-2.269199917753975393e-01,-2.269199917753975393e-01,-2.204424078755589655e-01,-1.710082149557382858e-01,-1.516436483499050691e-01,-1.658261478358674379e-01,-1.800086473218297789e-01,-1.941911468077921199e-01,-2.083736462937544609e-01,-2.225561457797168297e-01,-2.269199917753975393e-01,-2.269199917753975393e-01,-2.269199917753975393e-01,-2.269199917753975393e-01,-2.269199917753975393e-01,-2.269199917753975393e-01,-2.269199917753975393e-01,-2.269199917753975393e-01,-2.269199917753975393e-01,-2.269199917753975393e-01,-2.269199917753975393e-01,-2.269199917753975393e-01,-2.269199917753975393e-01,-2.269199917753975393e-01,-2.269199917753975393e-01,-2.269199917753975393e-01,-2.269199917753975393e-01,-2.269199917753975393e-01,-2.269199917753975393e-01,-2.269199917753975393e-01,-2.269199917753975393e-01,-2.269199917753975393e-01,-2.269199917753975393e-01,-2.269199917753975393e-01,-2.269199917753975393e-01
-2.269199917753975393e-01,-2.269199917753975393e-01,-2.269199917753975393e-01,-2.269199917753975393e-01,-2.269199917753975393e-01,-2.269199917753975393e-01,-2.269199917753975393e-01,-2.269199917753975393e-01,-2.269199917753975393e-01,-2.269199917753975393e-01,-2.269199917753975393e-01,-2.269199917753975393e-01,-2.269199917753975393e-01,-1.908671234907697023e-01,-1.271651997178835369e-01,-1.270970146242010324e-01,-1.412795141101633734e-01,-1.554620135961257144e-01,-1.696445130820880554e-01,-1.838270125680503964e-01,-1.980095120540127651e-01,-2.121920115399751061e-01,-2.263745110259374471e-01,-2.269199917753975393e-01,-2.269199917753975393e-01,-2.269199917753975393e-01,-2.269199917753975393e-01,-2.269199917753975393e-01,-2.269199917753975393e-01,-2.269199917753975393e-01,-2.269199917753975393e-01,-2.269199917753975393e-01,-2.269199917753975393e-01,-2.269199917753975393e-01,-2.269199917753975393e-01,-2.269199917753975393e-01,-2.269199917753975393e-01,-2.269199917753975393e-01,-2.269199917753975393e-01,-2.269199917753975393e-01,-2.269199917753975393e-01,-2.269199917753975393e-01,-2.269199917753975393e-01,-2.269199917753975393e-01,-2.269199917753975393e-01,-2.269199917753975393e-01,-2.269199917753975393e-01
-2.269199917753975393e-01,-2.269199917753975393e-01,-2.269199917753975393e-01,-2.269199917753975393e-01,-2.269199917753975393e-01,-2.269199917753975393e-01,-2.269199917753975393e-01,-2.269199917753975393e-01,-2.269199917753975393e-01,-2.269199917753975393e-01,-2.269199917753975393e-01,-2.269199917753975393e-01,-1.460695169413598060e-01,-8.891336216199471898e-02,-1.030958616479570739e-01,-1.172783611339194010e-01,-1.314608606198817697e-01,-1.456433601058441107e-01,-1.598258595918064517e-01,-1.740083590777687927e-01,-1.881908585637311337e-01,-2.023733580496934747e-01,-2.165558575356558157e-01,-2.269199917753975393e-01,-2.269199917753975393e-01,-2.269199917753975393e-01,-2.269199917753975393e-01,-2.269199917753975393e-01,-2.269199917753975393e-01,-2.269199917753975393e-01,-2.269199917753975393e-01,-2.269199917753975393e-01,-2.269199917753975393e-01,-2.269199917753975393e-01,-2.269199917753975393e-01,-2.269199917753975393e-01,-2.269199917753975393e-01,-2.269199917753975393e-01,-2.269199917753975393e-01,-2.269199917753975393e-01,-2.269199917753975393e-01,-2.269199917753975393e-01,-2.269199917753975393e-01,-2.269199917753975393e-01,-2.269199917753975393e-01,-2.269199917753975393e-01,-2.269199917753975393e-01
-2.269199917753975393e-01,-2.269199917753975393e-01,-2.269199917753975393e-01,-2.269199917753975393e-01,-2.269199917753975393e-01,-2.269199917753975393e-01,-2.269199917753975393e-01,-2.269199917753975393e-01,-2.269199917753975393e-01,-2.269199917753975393e-01,-1.970890132892988700e-01,-9.436816965659564072e-02,-6.436672843629068219e-02,-7.854922792225302319e-02,-9.273172740821533644e-02,-1.069142268941776913e-01,-1.210967263801400323e-01,-1.352792258661023872e-01,-1.494617253520647282e-01,-1.636442248380270692e-01,-1.778267243239894102e-01,-1.920092238099517790e-01,-2.061917232959141200e-01,-2.203742227818764610e-01,-2.269199917753975393e-01,-2.269199917753975393e-01,-2.269199917753975393e-01,-2.269199917753975393e-01,-2.269199917753975393e-01,-2.269199917753975393e-01,-2.269199917753975393e-01,-2.269199917753975393e-01,-2.269199917753975393e-01,-2.269199917753975393e-01,-2.269199917753975393e-01,-2.269199917753975393e-01,-2.269199917753975393e-01,-2.269199917753975393e-01,-2.269199917753975393e-01,-2.269199917753975393e-01,-2.269199917753975393e-01,-2.269199917753975393e-01,-2.269199917753975393e-01,-2.269199917753975393e-01,-2.269199917753975393e-01,-2.269199917753975393e-01,-2.269199917753975393e-01
-2.269199917753975393e-01,-2.269199917753975393e-01,-2.269199917753975393e-01,-2.269199917753975393e-01,-2.269199917753975393e-01,-2.269199917753975393e-01,-2.269199917753975393e-01,-2.269199917753975393e-01,-2.269199917753975393e-01,-1.393873777604736908e-01,-3.192767011683592115e-02,-3.982009471058661765e-02,-5.400259419654895865e-02,-6.818509368251129965e-02,-8.236759316847364065e-02,-9.655009265443598165e-02,-1.107325921403983227e-01,-1.249150916263606775e-01,-1.390975911123230047e-01,-1.532800905982853734e-01,-1.680080708337078066e-01,-1.821905703196701476e-01,-1.963730698056324886e-01,-2.105555692915948296e-01,-2.247380687775571706e-01,-2.269199917753975393e-01,-2.269199917753975393e-01,-2.269199917753975393e-01,-2.269199917753975393e-01,-2.269199917753975393e-01,-2.269199917753975393e-01,-2.269199917753975393e-01,-2.269199917753975393e-01,-2.269199917753975393e-01,-2.269199917753975393e-01,-2.269199917753975393e-01,-2.269199917753975393e-01,-2.269199917753975393e-01,-2.269199917753975393e-01,-2.269199917753975393e-01,-2.269199917753975393e-01,-2.269199917753975393e-01,-2.269199917753975393e-01,-2.269199917753975393e-01,-2.269199917753975393e-01,-2.269199917753975393e-01,-2.269199917753975393e-01
-2.269199917753975393e-01,-2.269199917753975393e-01,-2.269199917753975393e-01,-2.269199917753975393e-01,-2.269199917753975393e-01,-2.269199917753975393e-01,-2.269199917753975393e-01,-2.127374922894351983e-01,-8.509499691577407376e-02,-1.636442248380304276e-03,-1.581894173434261752e-02,-3.000144122030501403e-02,-4.418394070626732728e-02,-5.836644019222966828e-02,-7.254893967819200928e-02,-8.673143916415437804e-02,-1.009139386501167190e-01,-1.150964381360790462e-01,-1.292789376220414010e-01,-1.434614371080037420e-01,-1.576439365939660830e-01,-1.718264360799284240e-01,-1.860089355658907651e-01,-2.001914350518531061e-01,-2.143739345378154748e-01,-2.269199917753975393e-01,-2.269199917753975393e-01,-2.269199917753975393e-01,-2.269199917753975393e-01,-2.269199917753975393e-01,-2.269199917753975393e-01,-2.269199917753975393e-01,-2.269199917753975393e-01,-2.269199917753975393e-01,-2.269199917753975393e-01,-2.269199917753975393e-01,-2.269199917753975393e-01,-2.269199917753975393e-01,-2.269199917753975393e-01,-2.269199917753975393e-01,-2.269199917753975393e-01,-2.269199917753975393e-01,-2.269199917753975393e-01,-2.269199917753975393e-01,-2.269199917753975393e-01,-2.269199917753975393e-01,-2.269199917753975393e-01
-2.269199917753975393e-01,-2.269199917753975393e-01,-2.269199917753975393e-01,-2.269199917753975393e-01,-2.269199917753975393e-01,-2.269199917753975393e-01,-1.630987440885670048e-01,-2.836499897192470976e-02,-2.775557561562891351e-17,0.000000000000000000e+00,-5.454807494600949491e-03,-1.963730698056323498e-02,-3.381980646652563149e-02,-4.800230595248800025e-02,-6.218480543845031350e-02,-7.636730492441265450e-02,-9.054980441037499550e-02,-1.047323038963373365e-01,-1.189148033822996775e-01,-1.330973028682620185e-01,-1.472798023542243873e-01,-1.614623018401867283e-01,-1.756448013261490693e-01,-1.898273008121114103e-01,-2.040098002980737513e-01,-2.181922997840360923e-01,-2.269199917753975393e-01,-2.269199917753975393e-01,-2.269199917753975393e-01,-2.269199917753975393e-01,-2.269199917753975393e-01,-2.269199917753975393e-01,-2.269199917753975393e-01,-2.269199917753975393e-01,-2.269199917753975393e-01,-2.269199917753975393e-01,-2.269199917753975393e-01,-2.269199917753975393e-01,-2.269199917753975393e-01,-2.269199917753975393e-01,-2.269199917753975393e-01,-2.269199917753975393e-01,-2.269199917753975393e-01,-2.269199917753975393e-01,-2.269199917753975393e-01,-2.269199917753975393e-01,-2.269199917753975393e-01
-2.269199917753975393e-01,-2.269199917753975393e-01,-2.269199917753975393e-01,-2.269199917753975393e-01,-2.269199917753975393e-01,-1.063687461447176130e-01,-2.775557561562891351e-17,-2.775557561562891351e-17,-2.775557561562891351e-17,-2.775557561562891351e-17,-2.775557561562891351e-17,-9.273172740821539195e-03,-2.345567222678390795e-02,-3.818365246220634113e-02,-5.236615194816868213e-02,-6.654865143413102313e-02,-8.073115092009336413e-02,-9.491365040605570513e-02,-1.090961498920180461e-01,-1.232786493779803871e-01,-1.374611488639427281e-01,-1.516436483499050969e-01,-1.658261478358674379e-01,-1.800086473218297789e-01,-1.941911468077921199e-01,-2.083736462937544609e-01,-2.225561457797168297e-01,-2.269199917753975393e-01,-2.269199917753975393e-01,-2.269199917753975393e-01,-2.269199917753975393e-01,-2.269199917753975393e-01,-2.269199917753975393e-01,-2.269199917753975393e-01,-2.269199917753975393e-01,-2.269199917753975393e-01,-2.269199917753975393e-01,-2.269199917753975393e-01,-2.269199917753975393e-01,-2.269199917753975393e-01,-2.269199917753975393e-01,-2.269199917753975393e-01,-2.269199917753975393e-01,-2.269199917753975393e-01,-2.269199917753975393e-01,-2.269199917753975393e-01,-2.269199917753975393e-01
-2.269199917753975393e-01,-2.269199917753975393e-01,-2.269199917753975393e-01,-1.925717508328324834e-01,-5.672999794384939176e-02,-2.775557561562891351e-17,0.000000000000000000e+00,-2.775557561562891351e-17,-2.775557561562891351e-17,0.000000000000000000e+00,-2.775557561562891351e-17,-2.775557561562891351e-17,-1.363701873650227658e-02,-2.781951822246461759e-02,-4.200201770842698634e-02,-5.618451719438932734e-02,-7.036701668035166835e-02,-8.454951616631398159e-02,-9.873201565227632259e-02,-1.129145151382386913e-01,-1.270970146242010324e-01,-1.412795141101633734e-01,-1.554620135961257144e-01,-1.696445130820880554e-01,-1.838270125680503964e-01,-1.980095120540127651e-01,-2.121920115399751061e-01,-2.263745110259374471e-01,-2.269199917753975393e-01,-2.269199917753975393e-01,-2.269199917753975393e-01,-2.269199917753975393e-01,-2.269199917753975393e-01,-2.269199917753975393e-01,-2.269199917753975393e-01,-2.269199917753975393e-01,-2.269199917753975393e-01,-2.269199917753975393e-01,-2.269199917753975393e-01,-2.269199917753975393e-01,-2.269199917753975393e-01,-2.269199917753975393e-01,-2.269199917753975393e-01,-2.269199917753975393e-01,-2.269199917753975393e-01,-2.269199917753975393e-01,-2.269199917753975393e-01
-2.269199917753975393e-01,-2.269199917753975393e-01,-1.452402658755445608e-01,-2.163874002453816670e-02,-4.171323378224262024e-03,0.000000000000000000e+00,-2.775557561562891351e-17,-5.551115123125782702e-17,-2.775557561562891351e-17,-2.775557561562891351e-17,-2.775557561562891351e-17,-2.775557561562891351e-17,-3.272884496760580797e-03,-1.745538398272289404e-02,-3.163788346868526280e-02,-4.582038295464760380e-02,-6.000288244060994480e-02,-7.418538192657228580e-02,-8.836788141253462681e-02,-1.025503808984969678e-01,-1.167328803844593088e-01,-1.309153798704216776e-01,-1.456433601058441107e-01,-1.598258595918064517e-01,-1.740083590777687927e-01,-1.881908585637311337e-01,-2.023733580496934747e-01,-2.165558575356558157e-01,-2.269199917753975393e-01,-2.269199917753975393e-01,-2.269199917753975393e-01,-2.269199917753975393e-01,-2.269199917753975393e-01,-2.269199917753975393e-01,-2.269199917753975393e-01,-2.269199917753975393e-01,-2.269199917753975393e-01,-2.269199917753975393e-01,-2.269199917753975393e-01,-2.269199917753975393e-01,-2.269199917753975393e-01,-2.269199917753975393e-01,-2.269199917753975393e-01,-2.269199917753975393e-01,-2.269199917753975393e-01,-2.269199917753975393e-01,-2.269199917753975393e-01
-2.162049048475840896e-01,-1.129907220076485641e-01,-3.378771936361615880e-02,-2.294227858023323297e-02,-1.209683779685025162e-02,-1.251397013467298036e-03,-5.551115123125782702e-17,-2.775557561562891351e-17,-2.775557561562891351e-17,-2.775557561562891351e-17,-2.775557561562891351e-17,0.000000000000000000e+00,0.000000000000000000e+00,-7.636730492441290430e-03,-2.181922997840360368e-02,-3.600172946436600019e-02,-5.018422895032831343e-02,-6.436672843629068219e-02,-7.854922792225302319e-02,-9.273172740821533644e-02,-1.069142268941777052e-01,-1.210967263801400184e-01,-1.352792258661023872e-01,-1.494617253520647282e-01,-1.636442248380270692e-01,-1.778267243239894380e-01,-1.920092238099517790e-01,-2.061917232959141200e-01,-2.203742227818764610e-01,-2.269199917753975393e-01,-2.269199917753975393e-01,-2.269199917753975393e-01,-2.269199917753975393e-01,-2.269199917753975393e-01,-2.269199917753975393e-01,-2.269199917753975393e-01,-2.269199917753975393e-01,-2.269199917753975393e-01,-2.269199917753975393e-01,-2.269199917753975393e-01,-2.269199917753975393e-01,-2.269199917753975393e-01,-2.269199917753975393e-01,-2.269199917753975393e-01,-2.269199917753975393e-01,-2.269199917753975393e-01,-2.269199917753975393e-01
-8.347860910671220380e-02,-5.214154222780273407e-02,-4.129610144441978048e-02,-3.045066066103679914e-02,-1.960521987765384555e-02,-8.759779094270864208e-03,-2.775557561562891351e-17,-2.775557561562891351e-17,0.000000000000000000e+00,-2.775557561562891351e-17,-2.775557561562891351e-17,0.000000000000000000e+00,-2.775557561562891351e-17,-2.775557561562891351e-17,-1.145509573866190789e-02,-2.563759522462424889e-02,-3.982009471058661765e-02,-5.400259419654895865e-02,-6.818509368251129965e-02,-8.236759316847361290e-02,-9.655009265443598165e-02,-1.107325921403983227e-01,-1.249150916263606637e-01,-1.390975911123230047e-01,-1.532800905982853457e-01,-1.674625900842477144e-01,-1.816450895702100554e-01,-1.958275890561723964e-01,-2.100100885421347374e-01,-2.247380687775571706e-01,-2.269199917753975393e-01,-2.269199917753975393e-01,-2.269199917753975393e-01,-2.269199917753975393e-01,-2.269199917753975393e-01,-2.269199917753975393e-01,-2.269199917753975393e-01,-2.269199917753975393e-01,-2.269199917753975393e-01,-2.269199917753975393e-01,-2.269199917753975393e-01,-2.269199917753975393e-01,-2.269199917753975393e-01,-2.269199917753975393e-01,-2.269199917753975393e-01,-2.269199917753975393e-01,-2.269199917753975393e-01
-7.091249742981173276e-02,-6.006705664642880693e-02,-4.922161586304579783e-02,-3.837617507966281649e-02,-2.753073429627986290e-02,-1.668529351289688156e-02,-5.839852729513955731e-03,-2.775557561562891351e-17,-2.775557561562891351e-17,-2.775557561562891351e-17,-2.775557561562891351e-17,-2.775557561562891351e-17,-2.775557561562891351e-17,-2.775557561562891351e-17,-1.090961498920212103e-03,-1.527346098488252535e-02,-3.000144122030495852e-02,-4.418394070626732728e-02,-5.836644019222969604e-02,-7.254893967819200928e-02,-8.673143916415437804e-02,-1.009139386501166913e-01,-1.150964381360790323e-01,-1.292789376220414010e-01,-1.434614371080037420e-01,-1.576439365939660830e-01,-1.718264360799284240e-01,-1.860089355658907651e-01,-2.001914350518531061e-01,-2.143739345378154748e-01,-2.269199917753975393e-01,-2.269199917753975393e-01,-2.269199917753975393e-01,-2.269199917753975393e-01,-2.269199917753975393e-01,-2.269199917753975393e-01,-2.269199917753975393e-01,-2.269199917753975393e-01,-2.269199917753975393e-01,-2.269199917753975393e-01,-2.269199917753975393e-01,-2.269199917753975393e-01,-2.269199917753975393e-01,-2.269199917753975393e-01,-2.269199917753975393e-01,-2.269199917753975393e-01,-2.269199917753975393e-01
-7.883801184843777787e-02,-6.799257106505476878e-02,-5.714713028167181519e-02,-4.588455716046643817e-02,-3.503911637708345683e-02,-2.419367559370047549e-02,-1.334823481031752190e-02,-2.502794026934540561e-03,-2.775557561562891351e-17,-5.551115123125782702e-17,-2.775557561562891351e-17,-2.775557561562891351e-17,-2.775557561562891351e-17,-2.775557561562891351e-17,-2.775557561562891351e-17,-5.454807494600893980e-03,-1.963730698056323498e-02,-3.381980646652563149e-02,-4.800230595248800025e-02,-6.218480543845031350e-02,-7.636730492441265450e-02,-9.054980441037499550e-02,-1.047323038963373365e-01,-1.189148033822996775e-01,-1.330973028682620185e-01,-1.472798023542243873e-01,-1.614623018401867283e-01,-1.756448013261490693e-01,-1.898273008121114103e-01,-2.040098002980737513e-01,-2.181922997840360923e-01,-2.269199917753975393e-01,-2.269199917753975393e-01,-2.269199917753975393e-01,-2.269199917753975393e-01,-2.269199917753975393e-01,-2.269199917753975393e-01,-2.269199917753975393e-01,-2.269199917753975393e-01,-2.269199917753975393e-01,-2.269199917753975393e-01,-2.269199917753975393e-01,-2.269199917753975393e-01,-2.269199917753975393e-01,-2.269199917753975393e-01,-2.269199917753975393e-01,-2.269199917753975393e-01
-8.634639392924137180e-02,-7.550095314585839046e-02,-6.465551236247540912e-02,-5.381007157909245553e-02,-4.296463079570944643e-02,-3.211919001232649284e-02,-2.127374922894353926e-02,-1.042830844556055792e-02,-2.775557561562891351e-17,-5.551115123125782702e-17,-2.775557561562891351e-17,-2.775557561562891351e-17,-2.775557561562891351e-17,-2.775557561562891351e-17,-2.775557561562891351e-17,-2.775557561562891351e-17,-9.273172740821539195e-03,-2.345567222678390795e-02,-3.763817171274627671e-02,-5.182067119870858996e-02,-6.600317068467095871e-02,-8.018567017063329971e-02,-9.436816965659561296e-02,-1.085506691425579678e-01,-1.232786493779803871e-01,-1.374611488639427559e-01,-1.516436483499050969e-01,-1.658261478358674379e-01,-1.800086473218297789e-01,-1.941911468077921199e-01,-2.083736462937544887e-01,-2.225561457797168297e-01,-2.269199917753975393e-01,-2.269199917753975393e-01,-2.269199917753975393e-01,-2.269199917753975393e-01,-2.269199917753975393e-01,-2.269199917753975393e-01,-2.269199917753975393e-01,-2.269199917753975393e-01,-2.269199917753975393e-01,-2.269199917753975393e-01,-2.269199917753975393e-01,-2.269199917753975393e-01,-2.269199917753975393e-01,-2.269199917753975393e-01,-2.269199917753975393e-01
-9.427190834786738916e-02,-8.342646756448443557e-02,-7.258102678110145423e-02,-6.173558599771847288e-02,-5.089014521433551930e-02,-4.004470443095251020e-02,-2.919926364756955661e-02,-1.835382286418654751e-02,-7.508382080803593928e-03,-2.775557561562891351e-17,-2.775557561562891351e-17,0.000000000000000000e+00,0.000000000000000000e+00,-2.775557561562891351e-17,-2.775557561562891351e-17,-2.775557561562891351e-17,-2.775557561562891351e-17,-1.363701873650227658e-02,-2.781951822246461759e-02,-4.200201770842701410e-02,-5.618451719438929959e-02,-7.036701668035166835e-02,-8.454951616631400935e-02,-9.873201565227635035e-02,-1.129145151382386775e-01,-1.270970146242010324e-01,-1.412795141101633734e-01,-1.554620135961257144e-01,-1.696445130820880554e-01,-1.838270125680503964e-01,-1.980095120540127651e-01,-2.121920115399751061e-01,-2.263745110259374471e-01,-2.269199917753975393e-01,-2.269199917753975393e-01,-2.269199917753975393e-01,-2.269199917753975393e-01,-2.269199917753975393e-01,-2.269199917753975393e-01,-2.269199917753975393e-01,-2.269199917753975393e-01,-2.269199917753975393e-01,-2.269199917753975393e-01,-2.269199917753975393e-01,-2.269199917753975393e-01,-2.269199917753975393e-01,-2.269199917753975393e-01
-1.017802904286709831e-01,-9.093484964528800174e-02,-8.008940886190504815e-02,-6.924396807852206681e-02,-5.839852729513908547e-02,-4.755308651175613188e-02,-3.670764572837312278e-02,-2.586220494499016920e-02,-1.501676416160721561e-02,-4.171323378224234268e-03,-2.775557561562891351e-17,-2.775557561562891351e-17,-2.775557561562891351e-17,-2.775557561562891351e-17,0.000000000000000000e+00,-2.775557561562891351e-17,-2.775557561562891351e-17,-3.272884496760580797e-03,-1.745538398272289404e-02,-3.163788346868526280e-02,-4.582038295464760380e-02,-6.000288244060994480e-02,-7.418538192657228580e-02,-8.836788141253462681e-02,-1.025503808984969817e-01,-1.167328803844593088e-01,-1.309153798704216776e-01,-1.450978793563840186e-01,-1.592803788423463596e-01,-1.734628783283087006e-01,-1.876453778142710416e-01,-2.023733580496934747e-01,-2.165558575356558157e-01,-2.269199917753975393e-01,-2.269199917753975393e-01,-2.269199917753975393e-01,-2.269199917753975393e-01,-2.269199917753975393e-01,-2.269199917753975393e-01,-2.269199917753975393e-01,-2.269199917753975393e-01,-2.269199917753975393e-01,-2.269199917753975393e-01,-2.269199917753975393e-01,-2.269199917753975393e-01,-2.269199917753975393e-01,-2.269199917753975393e-01
-1.097058048472969727e-01,-9.886036406391401909e-02,-8.801492328053106551e-02,-7.716948249714808417e-02,-6.632404171376513058e-02,-5.547860093038214924e-02,-4.463316014699916789e-02,-3.378771936361618655e-02,-2.294227858023323297e-02,-1.209683779685025162e-02,-1.251397013467298036e-03,-5.551115123125782702e-17,-2.775557561562891351e-17,-2.775557561562891351e-17,-2.775557561562891351e-17,-5.551115123125782702e-17,-2.775557561562891351e-17,-2.775557561562891351e-17,-5.477666081717777469e-02,-6.895916030314014344e-02,-8.314165978910251220e-02,-9.732415927506482545e-02,-1.115066587610271942e-01,-7.854922792225299544e-02,-9.273172740821536419e-02,-1.069142268941777052e-01,-1.210967263801400323e-01,-1.352792258661023872e-01,-1.494617253520647560e-01,-1.636442248380270692e-01,-1.778267243239894102e-01,-1.920092238099517790e-01,-2.061917232959141200e-01,-2.203742227818764610e-01,-2.269199917753975393e-01,-2.269199917753975393e-01,-2.269199917753975393e-01,-2.269199917753975393e-01,-2.269199917753975393e-01,-2.269199917753975393e-01,-2.269199917753975393e-01,-2.269199917753975393e-01,-2.269199917753975393e-01,-2.269199917753975393e-01,-2.269199917753975393e-01,-2.269199917753975393e-01,-2.269199917753975393e-01
-1.176313192659230039e-01,-1.067858784825400364e-01,-9.594043769915708286e-02,-8.509499691577410152e-02,-7.424955613239112018e-02,-6.298698301118571541e-02,-5.214154222780276182e-02,-4.129610144441980824e-02,-3.045066066103682689e-02,-1.960521987765381779e-02,-8.759779094270891964e-03,-2.775557561562891351e-17,-5.551115123125782702e-17,-2.775557561562891351e-17,-2.775557561562891351e-17,-2.775557561562891351e-17,-2.775557561562891351e-17,-2.775557561562891351e-17,-4.713993032473653977e-02,-5.859502606339844766e-02,-7.277752554936076090e-02,-8.696002503532315742e-02,-1.011425245212854707e-01,-6.818509368251129965e-02,-8.236759316847364065e-02,-9.655009265443598165e-02,-1.107325921403983227e-01,-1.249150916263606775e-01,-1.390975911123230047e-01,-1.532800905982853457e-01,-1.674625900842476867e-01,-1.816450895702100554e-01,-1.958275890561723964e-01,-2.100100885421347374e-01,-2.241925880280970784e-01,-2.269199917753975393e-01,-2.269199917753975393e-01,-2.269199917753975393e-01,-2.269199917753975393e-01,-2.269199917753975393e-01,-2.269199917753975393e-01,-2.269199917753975393e-01,-2.269199917753975393e-01,-2.269199917753975393e-01,-2.269199917753975393e-01,-2.269199917753975393e-01,-2.269199917753975393e-01
-1.251397013467265840e-01,-1.142942605633436304e-01,-1.034488197799606629e-01,-9.260337899657769545e-02,-8.175793821319476962e-02,-7.091249742981173276e-02,-6.006705664642877918e-02,-4.922161586304582559e-02,-3.837617507966281649e-02,-2.753073429627986290e-02,-1.668529351289688156e-02,-5.839852729513955731e-03,-2.775557561562891351e-17,-2.775557561562891351e-17,-2.775557561562891351e-17,-2.775557561562891351e-17,-2.775557561562891351e-17,0.000000000000000000e+00,-4.713993032473653977e-02,-4.823089182365672412e-02,-6.241339130961906512e-02,-7.659589079558140612e-02,-9.077839028154377488e-02,-5.782095944276957611e-02,-7.200345892873194487e-02,-8.618595841469428587e-02,-1.009139386501166913e-01,-1.150964381360790462e-01,-1.292789376220414010e-01,-1.434614371080037420e-01,-1.576439365939660830e-01,-1.718264360799284240e-01,-1.860089355658907651e-01,-2.001914350518531061e-01,-2.143739345378154748e-01,-2.269199917753975393e-01,-2.269199917753975393e-01,-2.269199917753975393e-01,-2.269199917753975393e-01,-2.269199917753975393e-01,-2.269199917753975393e-01,-2.269199917753975393e-01,-2.269199917753975393e-01,-2.269199917753975393e-01,-2.269199917753975393e-01,-2.269199917753975393e-01,-2.269199917753975393e-01
-1.330652157653526013e-01,-1.222197749819696477e-01,-1.113743341985866664e-01,-1.005288934152037128e-01,-8.968345263182073146e-02,-7.883801184843777787e-02,-6.799257106505476878e-02,-5.714713028167181519e-02,-4.630168949828886160e-02,-3.545624871490585250e-02,-2.461080793152289892e-02,-1.376536714813991757e-02,-2.502794026934540561e-03,-2.775557561562891351e-17,-5.551115123125782702e-17,-2.775557561562891351e-17,-2.775557561562891351e-17,-2.775557561562891351e-17,-4.713993032473653977e-02,-4.713993032473653977e-02,-5.259473781933743375e-02,-6.677723730529974699e-02,-8.095973679126214351e-02,-4.800230595248797250e-02,-6.218480543845031350e-02,-7.636730492441265450e-02,-9.054980441037499550e-02,-1.047323038963373365e-01,-1.189148033822996775e-01,-1.330973028682620463e-01,-1.472798023542243873e-01,-1.614623018401867283e-01,-1.756448013261490693e-01,-1.898273008121114103e-01,-2.040098002980737513e-01,-2.181922997840360923e-01,-2.269199917753975393e-01,-2.269199917753975393e-01,-2.269199917753975393e-01,-2.269199917753975393e-01,-2.269199917753975393e-01,-2.269199917753975393e-01,-2.269199917753975393e-01,-2.269199917753975393e-01,-2.269199917753975393e-01,-2.269199917753975393e-01,-2.269199917753975393e-01
-1.405735978461561952e-01,-1.297281570627732417e-01,-1.188827162793902603e-01,-1.080372754960073067e-01,-9.719183471262432539e-02,-8.634639392924137180e-02,-7.550095314585839046e-02,-6.465551236247543687e-02,-5.381007157909245553e-02,-4.296463079570947419e-02,-3.211919001232649284e-02,-2.127374922894351150e-02,-1.042830844556055792e-02,-2.775557561562891351e-17,0.000000000000000000e+00,-2.775557561562891351e-17,-2.775557561562891351e-17,-2.775557561562891351e-17,-4.713993032473653977e-02,-4.713993032473653977e-02,-4.713993032473651201e-02,-5.641310306555805121e-02,-7.059560255152039221e-02,-3.763817171274627671e-02,-5.182067119870858996e-02,-6.600317068467093096e-02,-8.018567017063329971e-02,-9.436816965659561296e-02,-1.085506691425579678e-01,-1.227331686285203088e-01,-1.369156681144826360e-01,-1.510981676004450047e-01,-1.652806670864073457e-01,-1.800086473218297789e-01,-1.941911468077921199e-01,-2.083736462937544609e-01,-2.225561457797168297e-01,-2.269199917753975393e-01,-2.269199917753975393e-01,-2.269199917753975393e-01,-2.269199917753975393e-01,-2.269199917753975393e-01,-2.269199917753975393e-01,-2.269199917753975393e-01,-2.269199917753975393e-01,-2.269199917753975393e-01,-2.269199917753975393e-01
-1.484991122647822126e-01,-1.376536714813992313e-01,-1.268082306980162777e-01,-1.159627899146333102e-01,-1.051173491312503427e-01,-9.427190834786738916e-02,-8.342646756448440781e-02,-7.258102678110145423e-02,-6.173558599771847288e-02,-5.089014521433549154e-02,-4.004470443095251020e-02,-2.919926364756955661e-02,-1.835382286418654751e-02,-7.508382080803621683e-03,-2.775557561562891351e-17,-2.775557561562891351e-17,0.000000000000000000e+00,-5.551115123125782702e-17,-2.775557561562891351e-17,-2.775557561562891351e-17,-2.775557561562891351e-17,-2.775557561562891351e-17,-1.363701873650227658e-02,-2.781951822246461759e-02,-4.200201770842698634e-02,-5.618451719438929959e-02,-7.036701668035166835e-02,-8.454951616631400935e-02,-9.873201565227635035e-02,-1.129145151382386913e-01,-1.270970146242010324e-01,-1.412795141101633734e-01,-1.554620135961257144e-01,-1.696445130820880554e-01,-1.838270125680503964e-01,-1.980095120540127651e-01,-2.121920115399751061e-01,-2.263745110259374471e-01,-2.269199917753975393e-01,-2.269199917753975393e-01,-2.269199917753975393e-01,-2.269199917753975393e-01,-2.269199917753975393e-01,-2.269199917753975393e-01,-2.269199917753975393e-01,-2.269199917753975393e-01,-2.269199917753975393e-01
-1.564246266834082300e-01,-1.455791859000252764e-01,-1.347337451166422950e-01,-1.238883043332593276e-01,-1.130428635498763601e-01,-1.021974227664933926e-01,-9.135198198311042517e-02,-8.008940886190504815e-02,-6.924396807852203906e-02,-5.839852729513911322e-02,-4.755308651175613188e-02,-3.670764572837312278e-02,-2.586220494499016920e-02,-1.501676416160718786e-02,-4.171323378224234268e-03,-2.775557561562891351e-17,-2.775557561562891351e-17,-2.775557561562891351e-17,-2.775557561562891351e-17,0.000000000000000000e+00,-2.775557561562891351e-17,-2.775557561562891351e-17,-3.272884496760580797e-03,-1.745538398272289404e-02,-3.163788346868526280e-02,-4.582038295464760380e-02,-6.000288244060994480e-02,-7.418538192657228580e-02,-8.836788141253462681e-02,-1.025503808984969678e-01,-1.167328803844593088e-01,-1.309153798704216776e-01,-1.450978793563840186e-01,-1.592803788423463596e-01,-1.734628783283087006e-01,-1.876453778142710416e-01,-2.018278773002333826e-01,-2.160103767861957236e-01,-2.269199917753975393e-01,-2.269199917753975393e-01,-2.269199917753975393e-01,-2.269199917753975393e-01,-2.269199917753975393e-01,-2.269199917753975393e-01,-2.269199917753975393e-01,-2.269199917753975393e-01,-2.269199917753975393e-01
-1.639330087642118516e-01,-1.530875679808288425e-01,-1.422421271974458890e-01,-1.313966864140629076e-01,-1.205512456306799540e-01,-1.097058048472969866e-01,-9.886036406391404685e-02,-8.801492328053103775e-02,-7.716948249714811192e-02,-6.632404171376510282e-02,-5.547860093038214924e-02,-4.463316014699914014e-02,-3.378771936361615880e-02,-2.294227858023323297e-02,-1.209683779685025162e-02,-1.251397013467270281e-03,-5.551115123125782702e-17,-2.775557561562891351e-17,-2.775557561562891351e-17,-2.775557561562891351e-17,0.000000000000000000e+00,-2.775557561562891351e-17,-2.775557561562891351e-17,-7.091249742981198256e-03,-2.127374922894353926e-02,-3.545624871490590801e-02,-4.963874820086822126e-02,-6.382124768683059002e-02,-7.854922792225302319e-02,-9.273172740821533644e-02,-1.069142268941776913e-01,-1.210967263801400462e-01,-1.352792258661023594e-01,-1.494617253520647282e-01,-1.636442248380270692e-01,-1.778267243239894380e-01,-1.920092238099517790e-01,-2.061917232959141200e-01,-2.203742227818764610e-01,-2.269199917753975393e-01,-2.269199917753975393e-01,-2.269199917753975393e-01,-2.269199917753975393e-01,-2.269199917753975393e-01,-2.269199917753975393e-01,-2.269199917753975393e-01,-2.269199917753975393e-01
-1.718585231828378412e-01,-1.610130823994548876e-01,-1.501676416160719341e-01,-1.393222008326889250e-01,-1.284767600493059714e-01,-1.176313192659229900e-01,-1.067858784825400364e-01,-9.594043769915708286e-02,-8.509499691577410152e-02,-7.424955613239112018e-02,-6.340411534900816659e-02,-5.255867456562518525e-02,-4.171323378224220391e-02,-3.086779299885925032e-02,-2.002235221547626898e-02,-8.759779094270891964e-03,-2.775557561562891351e-17,-2.775557561562891351e-17,-2.775557561562891351e-17,-2.775557561562891351e-17,-2.775557561562891351e-17,-2.775557561562891351e-17,-2.775557561562891351e-17,-2.775557561562891351e-17,-1.145509573866190789e-02,-2.563759522462424889e-02,-3.982009471058661765e-02,-5.400259419654893089e-02,-6.818509368251129965e-02,-8.236759316847361290e-02,-9.655009265443598165e-02,-1.107325921403983227e-01,-1.249150916263606637e-01,-1.390975911123230047e-01,-1.532800905982853457e-01,-1.674625900842476867e-01,-1.816450895702100554e-01,-1.958275890561723964e-01,-2.100100885421347374e-01,-2.241925880280970784e-01,-2.269199917753975393e-01,-2.269199917753975393e-01,-2.269199917753975393e-01,-2.269199917753975393e-01,-2.269199917753975393e-01,-2.269199917753975393e-01,-2.269199917753975393e-01
-1.797840376014638586e-01,-1.689385968180808772e-01,-1.576760236968755002e-01,-1.468305829134925466e-01,-1.359851421301095653e-01,-1.251397013467265840e-01,-1.142942605633436304e-01,-1.034488197799606629e-01,-9.260337899657769545e-02,-8.175793821319476962e-02,-7.091249742981176052e-02,-6.006705664642877918e-02,-4.922161586304579783e-02,-3.837617507966281649e-02,-2.753073429627983515e-02,-1.668529351289685381e-02,-5.839852729513955731e-03,-2.775557561562891351e-17,-2.775557561562891351e-17,-2.775557561562891351e-17,-2.775557561562891351e-17,0.000000000000000000e+00,-2.775557561562891351e-17,-2.775557561562891351e-17,-1.090961498920212103e-03,-1.527346098488255310e-02,-2.945596047084492186e-02,-4.363845995680723511e-02,-5.782095944276957611e-02,-7.200345892873194487e-02,-8.618595841469428587e-02,-1.003684579006565991e-01,-1.145509573866189540e-01,-1.287334568725813089e-01,-1.429159563585436499e-01,-1.576439365939660830e-01,-1.718264360799284240e-01,-1.860089355658907651e-01,-2.001914350518531061e-01,-2.143739345378154748e-01,-2.269199917753975393e-01,-2.269199917753975393e-01,-2.269199917753975393e-01,-2.269199917753975393e-01,-2.269199917753975393e-01,-2.269199917753975393e-01,-2.269199917753975393e-01
-1.872924196822674525e-01,-1.764469788988844989e-01,-1.656015381155015176e-01,-1.547560973321185362e-01,-1.439106565487355827e-01,-1.330652157653526013e-01,-1.222197749819696477e-01,-1.113743341985866803e-01,-1.005288934152037128e-01,-8.968345263182075922e-02,-7.883801184843777787e-02,-6.799257106505479653e-02,-5.714713028167184294e-02,-4.630168949828886160e-02,-3.545624871490588026e-02,-2.461080793152289892e-02,-1.376536714813994533e-02,-2.919926364756936232e-03,-2.775557561562891351e-17,-2.775557561562891351e-17,-2.775557561562891351e-17,-2.775557561562891351e-17,-5.551115123125782702e-17,-2.775557561562891351e-17,-2.775557561562891351e-17,-5.454807494600921736e-03,-1.963730698056326274e-02,-3.381980646652563149e-02,-4.800230595248797250e-02,-6.218480543845031350e-02,-7.636730492441265450e-02,-9.054980441037499550e-02,-1.047323038963373365e-01,-1.189148033822996775e-01,-1.330973028682620463e-01,-1.472798023542243873e-01,-1.614623018401867283e-01,-1.756448013261490693e-01,-1.898273008121114103e-01,-2.040098002980737513e-01,-2.181922997840360923e-01,-2.269199917753975393e-01,-2.269199917753975393e-01,-2.269199917753975393e-01,-2.269199917753975393e-01,-2.269199917753975393e-01,-2.269199917753975393e-01
-1.952179341008934699e-01,-1.843724933175104885e-01,-1.735270525341275349e-01,-1.626816117507445814e-01,-1.518361709673616000e-01,-1.409907301839786187e-01,-1.301452894005956651e-01,-1.192998486172126837e-01,-1.084544078338297163e-01,-9.719183471262432539e-02,-8.634639392924137180e-02,-7.550095314585841821e-02,-6.465551236247543687e-02,-5.381007157909242777e-02,-4.296463079570947419e-02,-3.211919001232652060e-02,-2.127374922894353926e-02,-1.042830844556055792e-02,-2.775557561562891351e-17,-2.775557561562891351e-17,-5.551115123125782702e-17,-2.775557561562891351e-17,-2.775557561562891351e-17,-5.551115123125782702e-17,-5.551115123125782702e-17,-2.775557561562891351e-17,-9.273172740821539195e-03,-2.345567222678388020e-02,-3.763817171274624895e-02,-5.182067119870858996e-02,-6.600317068467093096e-02,-8.018567017063329971e-02,-9.436816965659561296e-02,-1.085506691425579540e-01,-1.227331686285202950e-01,-1.369156681144826360e-01,-1.510981676004450047e-01,-1.652806670864073457e-01,-1.794631665723696867e-01,-1.936456660583320277e-01,-2.078281655442943687e-01,-2.220106650302567375e-01,-2.269199917753975393e-01,-2.269199917753975393e-01,-2.269199917753975393e-01,-2.269199917753975393e-01,-2.269199917753975393e-01
-2.027263161816970638e-01,-1.918808753983141102e-01,-1.810354346149311289e-01,-1.701899938315481475e-01,-1.593445530481651939e-01,-1.484991122647822126e-01,-1.376536714813992313e-01,-1.268082306980162777e-01,-1.159627899146333102e-01,-1.051173491312503427e-01,-9.427190834786738916e-02,-2.385446552493693806e-01,-2.276992144659863992e-01,-2.168537736826034179e-01,-5.089014521433549154e-02,-4.004470443095251020e-02,-2.919926364756952886e-02,-1.835382286418660303e-02,-7.508382080803621683e-03,-2.775557561562891351e-17,-2.775557561562891351e-17,-5.551115123125782702e-17,-5.551115123125782702e-17,-2.775557561562891351e-17,-2.775557561562891351e-17,-2.775557561562891351e-17,-2.775557561562891351e-17,-1.309153798704215665e-02,-2.727403747300452541e-02,-4.145653695896689417e-02,-5.618451719438929959e-02,-7.036701668035166835e-02,-8.454951616631400935e-02,-9.873201565227635035e-02,-1.129145151382386913e-01,-1.270970146242010324e-01,-1.412795141101633734e-01,-1.554620135961257144e-01,-1.696445130820880554e-01,-1.838270125680504241e-01,-1.980095120540127651e-01,-2.121920115399751061e-01,-2.263745110259374471e-01,-2.269199917753975393e-01,-2.269199917753975393e-01,-2.269199917753975393e-01,-2.269199917753975393e-01
-2.106518306003230812e-01,-1.998063898169401276e-01,-1.889609490335571462e-01,-1.781155082501741649e-01,-1.672700674667912113e-01,-1.564246266834082300e-01,-1.455791859000252764e-01,-1.347337451166422950e-01,-1.238883043332593276e-01,-1.130428635498763601e-01,-1.021974227664934065e-01,-2.464701696679953702e-01,-2.356247288846124444e-01,-2.247792881012294075e-01,-5.881565963296150890e-02,-4.797021884957855531e-02,-3.712477806619554621e-02,-2.586220494499016920e-02,-1.501676416160718786e-02,-4.171323378224234268e-03,-2.775557561562891351e-17,-2.775557561562891351e-17,-2.775557561562891351e-17,-2.775557561562891351e-17,-2.775557561562891351e-17,-2.775557561562891351e-17,-2.775557561562891351e-17,-3.272884496760580797e-03,-1.745538398272289404e-02,-3.163788346868526280e-02,-4.582038295464760380e-02,-6.000288244060994480e-02,-7.418538192657228580e-02,-8.836788141253462681e-02,-1.025503808984969678e-01,-1.167328803844593366e-01,-1.309153798704216776e-01,-1.450978793563840186e-01,-1.592803788423463596e-01,-1.734628783283087006e-01,-1.876453778142710416e-01,-2.018278773002333826e-01,-2.160103767861957236e-01,-2.269199917753975393e-01,-2.269199917753975393e-01,-2.269199917753975393e-01,-2.269199917753975393e-01
-2.185773450189490985e-01,-2.077319042355661449e-01,-1.968864634521831636e-01,-1.860410226688001822e-01,-1.747784495475948052e-01,-1.639330087642118516e-01,-1.530875679808288425e-01,-1.422421271974458890e-01,-1.313966864140629076e-01,-1.205512456306799540e-01,-1.097058048472969866e-01,-2.539785517487989641e-01,-2.431331109654160105e-01,-2.322876701820330292e-01,-6.632404171376510282e-02,-5.547860093038217699e-02,-4.463316014699916789e-02,-3.378771936361615880e-02,-2.294227858023320521e-02,-1.209683779685027938e-02,-1.251397013467298036e-03,-2.775557561562891351e-17,-2.775557561562891351e-17,-5.551115123125782702e-17,-2.775557561562891351e-17,-5.551115123125782702e-17,-2.775557561562891351e-17,-2.775557561562891351e-17,-7.091249742981198256e-03,-2.127374922894353926e-02,-4.021822969915228585e-02,-5.440072918511459910e-02,-6.858322867107696785e-02,-7.800374717279293102e-02,-9.218624665875524427e-02,-1.063687461447176130e-01,-1.205512456306799401e-01,-1.352792258661023872e-01,-1.494617253520647282e-01,-1.636442248380270692e-01,-1.778267243239894380e-01,-1.920092238099517790e-01,-2.061917232959141200e-01,-2.203742227818764610e-01,-2.269199917753975393e-01,-2.269199917753975393e-01,-2.269199917753975393e-01
-2.260857270997526924e-01,-2.152402863163697111e-01,-2.043948455329867575e-01,-1.935494047496038039e-01,-1.827039639662208226e-01,-1.718585231828378412e-01,-1.610130823994548876e-01,-1.501676416160719063e-01,-1.393222008326889250e-01,-1.284767600493059714e-01,-1.176313192659230039e-01,-1.067858784825400364e-01,-9.594043769915708286e-02,-8.509499691577410152e-02,-7.424955613239114793e-02,-6.340411534900816659e-02,-5.255867456562515749e-02,-4.171323378224220391e-02,-3.086779299885922256e-02,-2.002235221547626898e-02,-9.176911432093315391e-03,-2.775557561562891351e-17,0.000000000000000000e+00,0.000000000000000000e+00,-2.775557561562891351e-17,-2.775557561562891351e-17,-2.775557561562891351e-17,-2.775557561562891351e-17,-5.551115123125782702e-17,-1.145509573866190789e-02,-3.039957620887062673e-02,-4.458207569483299548e-02,-5.876457518079533648e-02,-6.818509368251129965e-02,-8.236759316847364065e-02,-9.655009265443598165e-02,-1.107325921403983227e-01,-1.249150916263606637e-01,-1.390975911123230047e-01,-1.532800905982853457e-01,-1.674625900842476867e-01,-1.816450895702100554e-01,-1.958275890561723964e-01,-2.100100885421347374e-01,-2.241925880280970784e-01,-2.269199917753975393e-01,-2.269199917753975393e-01
-2.269199917753975393e-01,-2.231658007349957562e-01,-2.123203599516127749e-01,-2.014749191682297935e-01,-1.906294783848468399e-01,-1.797840376014638586e-01,-1.689385968180808772e-01,-1.580931560346979237e-01,-1.472477152513149701e-01,-1.364022744679319887e-01,-1.255568336845490074e-01,-1.142942605633436304e-01,-1.034488197799606629e-01,-9.260337899657769545e-02,-8.175793821319474186e-02,-7.091249742981176052e-02,-6.006705664642880693e-02,-4.922161586304582559e-02,-3.837617507966281649e-02,-2.753073429627989066e-02,-1.668529351289690932e-02,-5.839852729513927976e-03,-2.775557561562891351e-17,-2.775557561562891351e-17,-2.775557561562891351e-17,-2.775557561562891351e-17,-2.775557561562891351e-17,-2.775557561562891351e-17,0.000000000000000000e+00,-1.090961498920212103e-03,-2.003544196912890318e-02,-3.421794145509127194e-02,-4.840044094105364070e-02,-5.782095944276960386e-02,-7.200345892873194487e-02,-8.618595841469428587e-02,-1.003684579006566269e-01,-1.145509573866189679e-01,-1.287334568725813089e-01,-1.429159563585436499e-01,-1.570984558445059909e-01,-1.712809553304683319e-01,-1.854634548164306729e-01,-1.996459543023930139e-01,-2.138284537883553826e-01,-2.269199917753975393e-01,-2.269199917753975393e-01
-2.269199917753975393e-01,-2.269199917753975393e-01,-2.198287420324163688e-01,-2.089833012490333874e-01,-1.981378604656504339e-01,-1.872924196822674525e-01,-1.764469788988844989e-01,-1.656015381155015453e-01,-1.547560973321185362e-01,-1.439106565487355827e-01,-1.330652157653526013e-01,-1.222197749819696477e-01,-1.113743341985866664e-01,-1.005288934152037128e-01,-8.968345263182073146e-02,-7.883801184843777787e-02,-6.799257106505479653e-02,-5.714713028167181519e-02,-4.630168949828883385e-02,-3.545624871490588026e-02,-2.461080793152289892e-02,-1.376536714813991757e-02,-2.919926364756991743e-03,-2.775557561562891351e-17,-2.775557561562891351e-17,-2.775557561562891351e-17,-2.775557561562891351e-17,0.000000000000000000e+00,0.000000000000000000e+00,-2.775557561562891351e-17,-4.909326745140857318e-03,-1.909182623110317056e-02,-3.381980646652563149e-02,-4.800230595248797250e-02,-6.218480543845031350e-02,-7.636730492441265450e-02,-9.054980441037496774e-02,-1.047323038963373365e-01,-1.189148033822996775e-01,-1.330973028682620185e-01,-1.472798023542243873e-01,-1.614623018401867283e-01,-1.756448013261490693e-01,-1.898273008121114103e-01,-2.040098002980737513e-01,-2.181922997840360923e-01,-2.269199917753975393e-01
-2.269199917753975393e-01,-2.269199917753975393e-01,-2.269199917753975393e-01,-2.169088156676594048e-01,-2.060633748842764512e-01,-1.952179341008934699e-01,-1.843724933175104885e-01,-1.735270525341275349e-01,-1.626816117507445814e-01,-1.518361709673616000e-01,-1.409907301839786187e-01,-1.301452894005956651e-01,-1.192998486172126837e-01,-1.084544078338297163e-01,-9.760896705044674881e-02,-8.676352626706379523e-02,-7.591808548368081389e-02,-6.507264470029783254e-02,-5.422720391691490671e-02,-4.296463079570947419e-02,-3.211919001232649284e-02,-2.127374922894351150e-02,-1.042830844556055792e-02,-2.775557561562891351e-17,0.000000000000000000e+00,-2.775557561562891351e-17,-2.775557561562891351e-17,-2.775557561562891351e-17,-2.775557561562891351e-17,-2.775557561562891351e-17,0.000000000000000000e+00,-9.273172740821566951e-03,-2.345567222678390795e-02,-3.763817171274627671e-02,-5.182067119870861771e-02,-6.600317068467095871e-02,-8.018567017063324420e-02,-9.436816965659561296e-02,-1.085506691425579540e-01,-1.227331686285203088e-01,-1.369156681144826637e-01,-1.510981676004450047e-01,-1.652806670864073457e-01,-1.794631665723696867e-01,-1.936456660583320277e-01,-2.078281655442943965e-01,-2.226243308733993342e-01
-2.269199917753975393e-01,-2.269199917753975393e-01,-2.269199917753975393e-01,-2.248343300862854222e-01,-2.139888893029024686e-01,-2.031434485195194872e-01,-1.918808753983141102e-01,-1.810354346149311289e-01,-1.701899938315481475e-01,-1.593445530481651939e-01,-1.484991122647822126e-01,-1.376536714813992313e-01,-1.268082306980162777e-01,-1.159627899146333241e-01,-1.051173491312503566e-01,-9.427190834786738916e-02,-8.342646756448440781e-02,-7.258102678110142647e-02,-6.173558599771847288e-02,-5.089014521433551930e-02,-4.004470443095251020e-02,-2.919926364756955661e-02,-1.835382286418660303e-02,-7.508382080803621683e-03,-2.775557561562891351e-17,-2.775557561562891351e-17,-5.551115123125782702e-17,-2.775557561562891351e-17,-2.775557561562891351e-17,-2.775557561562891351e-17,-2.775557561562891351e-17,-2.775557561562891351e-17,-1.309153798704215665e-02,-2.727403747300452541e-02,-4.145653695896692192e-02,-5.563903644492923517e-02,-6.982153593089157617e-02,-8.400403541685388942e-02,-9.818653490281625817e-02,-1.129145151382386913e-01,-3.953154410176815681e-01,-4.094979405036439646e-01,-4.236804399896062501e-01,-4.378629394755686466e-01,-1.838270125680503964e-01,-2.088509419495320485e-01,-2.264597423930405917e-01
-2.269199917753975393e-01,-2.269199917753975393e-01,-2.269199917753975393e-01,-2.269199917753975393e-01,-2.214972713837060625e-01,-2.106518306003230812e-01,-1.998063898169400998e-01,-1.889609490335571462e-01,-1.781155082501741926e-01,-1.672700674667912113e-01,-1.564246266834082300e-01,-1.455791859000252764e-01,-1.347337451166422950e-01,-1.238883043332593276e-01,-1.130428635498763601e-01,-1.021974227664934065e-01,-9.135198198311042517e-02,-8.050654119972747158e-02,-6.966110041634446248e-02,-5.881565963296150890e-02,-4.797021884957855531e-02,-3.712477806619554621e-02,-2.627933728281259262e-02,-1.543389649942963904e-02,-4.588455716046685451e-03,-2.775557561562891351e-17,-2.775557561562891351e-17,-2.775557561562891351e-17,-2.775557561562891351e-17,-2.775557561562891351e-17,-2.775557561562891351e-17,0.000000000000000000e+00,-3.272884496760553041e-03,-1.745538398272289404e-02,-3.163788346868526280e-02,-4.582038295464763156e-02,-6.000288244060994480e-02,-7.418538192657228580e-02,-8.836788141253462681e-02,-1.025503808984969678e-01,-3.849513067779398723e-01,-3.991338062639021578e-01,-4.133163057498645543e-01,-4.296125431399847594e-01,-2.052030394375176925e-01,-2.269199917753975393e-01,-2.269199917753975393e-01
-2.269199917753975393e-01,-2.269199917753975393e-01,-2.269199917753975393e-01,-2.269199917753975393e-01,-2.269199917753975393e-01,-2.185773450189490985e-01,-2.077319042355661449e-01,-1.968864634521831636e-01,-1.860410226688001822e-01,-1.751955818854172287e-01,-1.643501411020342751e-01,-1.535047003186512660e-01,-1.426592595352683124e-01,-1.313966864140629076e-01,-1.205512456306799540e-01,-1.097058048472970004e-01,-9.886036406391404685e-02,-8.801492328053103775e-02,-7.716948249714808417e-02,-6.632404171376510282e-02,-5.547860093038214924e-02,-4.463316014699916789e-02,-3.378771936361615880e-02,-2.294227858023323297e-02,-1.209683779685025162e-02,-1.251397013467325792e-03,-2.775557561562891351e-17,-2.775557561562891351e-17,-2.775557561562891351e-17,-2.775557561562891351e-17,0.000000000000000000e+00,-2.775557561562891351e-17,-2.775557561562891351e-17,-7.091249742981198256e-03,-2.127374922894356701e-02,-3.545624871490590801e-02,-4.963874820086819351e-02,-6.382124768683059002e-02,-7.800374717279293102e-02,-9.218624665875527202e-02,-3.745871725381981765e-01,-3.887696720241604620e-01,-4.259987331748116279e-01,-4.829503326731291457e-01,-2.269199917753975393e-01,-2.269199917753975393e-01,-2.269199917753975393e-01
-2.269199917753975393e-01,-2.269199917753975393e-01,-2.269199917753975393e-01,-2.269199917753975393e-01,-2.269199917753975393e-01,-2.260857270997526924e-01,-2.152402863163697111e-01,-2.043948455329867575e-01,-1.935494047496038039e-01,-1.827039639662208226e-01,-1.718585231828378412e-01,-1.610130823994548876e-01,-1.501676416160719341e-01,-1.393222008326889250e-01,-1.284767600493059714e-01,-1.176313192659229900e-01,-1.067858784825400364e-01,-9.594043769915708286e-02,-8.509499691577410152e-02,-1.194705916193164463e-01,-1.086251508359334927e-01,-9.777971005255053916e-02,-4.171323378224220391e-02,-3.086779299885925032e-02,-2.002235221547626898e-02,-9.176911432093287635e-03,-2.775557561562891351e-17,-2.775557561562891351e-17,0.000000000000000000e+00,-2.775557561562891351e-17,-5.551115123125782702e-17,-2.775557561562891351e-17,-2.775557561562891351e-17,-2.775557561562891351e-17,-1.145509573866190789e-02,-2.563759522462424889e-02,-3.982009471058661765e-02,-5.400259419654895865e-02,-6.818509368251132741e-02,-8.236759316847364065e-02,-3.647685190479165174e-01,-4.370447183513784806e-01,-4.951384181688780473e-01,-4.951384181688780473e-01,-2.269199917753975393e-01,-2.269199917753975393e-01,-2.269199917753975393e-01
-2.269199917753975393e-01,-2.269199917753975393e-01,-2.269199917753975393e-01,-2.269199917753975393e-01,-2.269199917753975393e-01,-2.269199917753975393e-01,-2.231658007349957562e-01,-2.123203599516127749e-01,-2.014749191682297935e-01,-1.906294783848468399e-01,-1.797840376014638586e-01,-1.689385968180808772e-01,-1.580931560346979237e-01,-1.472477152513149701e-01,-1.364022744679319887e-01,-1.255568336845490074e-01,-1.147113929011660538e-01,-1.038659521177831002e-01,-9.302051133440011887e-02,-1.273961060379424637e-01,-1.165506652545594823e-01,-1.052880921333541053e-01,-4.922161586304579783e-02,-3.837617507966281649e-02,-2.753073429627986290e-02,-1.668529351289690932e-02,-5.839852729513927976e-03,-2.775557561562891351e-17,-2.775557561562891351e-17,-2.775557561562891351e-17,-2.775557561562891351e-17,0.000000000000000000e+00,-2.775557561562891351e-17,-2.775557561562891351e-17,-1.090961498920212103e-03,-1.527346098488255310e-02,-2.945596047084489411e-02,-4.363845995680723511e-02,-5.782095944276957611e-02,-9.136802553456513376e-02,-1.873385448926997432e-01,-2.269199917753975393e-01,-2.269199917753975393e-01,-2.269199917753975393e-01,-2.269199917753975393e-01,-2.269199917753975393e-01,-2.269199917753975393e-01
-2.269199917753975393e-01,-2.269199917753975393e-01,-2.269199917753975393e-01,-2.269199917753975393e-01,-2.269199917753975393e-01,-2.269199917753975393e-01,-2.269199917753975393e-01,-2.202458743702387922e-01,-2.089833012490333874e-01,-1.981378604656504339e-01,-1.872924196822674525e-01,-1.764469788988844989e-01,-1.656015381155015176e-01,-1.547560973321185362e-01,-1.439106565487355827e-01,-1.330652157653526013e-01,-1.222197749819696339e-01,-1.113743341985866664e-01,-1.005288934152037128e-01,-1.349044881187460576e-01,-1.240590473353631040e-01,-1.132136065519801227e-01,-5.714713028167184294e-02,-4.630168949828886160e-02,-3.545624871490585250e-02,-2.461080793152289892e-02,-1.376536714813994533e-02,-2.919926364756991743e-03,-2.775557561562891351e-17,-2.775557561562891351e-17,-2.775557561562891351e-17,-2.775557561562891351e-17,0.000000000000000000e+00,-2.775557561562891351e-17,-2.775557561562891351e-17,-4.909326745140801806e-03,-1.909182623110314281e-02,-3.327432571706553932e-02,-1.147555126676665094e-01,-2.165899500824970958e-01,-2.269199917753975393e-01,-2.269199917753975393e-01,-2.269199917753975393e-01,-2.269199917753975393e-01,-2.269199917753975393e-01,-2.269199917753975393e-01,-2.269199917753975393e-01
-2.269199917753975393e-01,-2.269199917753975393e-01,-2.269199917753975393e-01,-2.269199917753975393e-01,-2.269199917753975393e-01,-2.269199917753975393e-01,-2.269199917753975393e-01,-2.269199917753975393e-01,-2.169088156676594048e-01,-2.060633748842764512e-01,-1.952179341008934699e-01,-1.843724933175104885e-01,-1.735270525341275349e-01,-1.626816117507445814e-01,-1.518361709673616000e-01,-1.409907301839786187e-01,-1.301452894005956651e-01,-1.192998486172126837e-01,-1.084544078338297302e-01,-9.760896705044677657e-02,-8.676352626706379523e-02,-7.591808548368081389e-02,-6.507264470029783254e-02,-5.422720391691487896e-02,-4.338176313353189761e-02,-3.253632235014894403e-02,-2.169088156676593493e-02,-1.084544078338298134e-02,-2.775557561562891351e-17,-2.775557561562891351e-17,-2.775557561562891351e-17,-2.775557561562891351e-17,-2.775557561562891351e-17,-2.775557561562891351e-17,-2.775557561562891351e-17,-2.775557561562891351e-17,-1.607463583565205134e-02,-1.442626119587732680e-01,-2.269199917753975393e-01,-2.269199917753975393e-01,-2.269199917753975393e-01,-2.269199917753975393e-01,-2.269199917753975393e-01,-2.269199917753975393e-01,-2.269199917753975393e-01,-2.269199917753975393e-01,-2.269199917753975393e-01
-2.269199917753975393e-01,-2.269199917753975393e-01,-2.269199917753975393e-01,-2.269199917753975393e-01,-2.269199917753975393e-01,-2.269199917753975393e-01,-2.269199917753975393e-01,-2.269199917753975393e-01,-2.248343300862854222e-01,-2.139888893029024686e-01,-2.031434485195194872e-01,-1.922980077361365336e-01,-1.814525669527535523e-01,-1.706071261693705710e-01,-1.597616853859876174e-01,-1.489162446026046638e-01,-1.376536714813992313e-01,-1.268082306980162777e-01,-1.159627899146333102e-01,-1.051173491312503427e-01,-9.427190834786738916e-02,-8.342646756448440781e-02,-7.258102678110145423e-02,-6.173558599771847288e-02,-5.089014521433549154e-02,-4.004470443095251020e-02,-2.919926364756955661e-02,-1.835382286418660303e-02,-7.508382080803621683e-03,-2.775557561562891351e-17,-2.775557561562891351e-17,-2.775557561562891351e-17,-5.551115123125782702e-17,-2.775557561562891351e-17,-2.775557561562891351e-17,-5.672999794384941952e-02,-1.914637430604916868e-01,-2.269199917753975393e-01,-2.269199917753975393e-01,-2.269199917753975393e-01,-2.269199917753975393e-01,-2.269199917753975393e-01,-2.269199917753975393e-01,-2.269199917753975393e-01,-2.269199917753975393e-01,-2.269199917753975393e-01,-2.269199917753975393e-01
-2.269199917753975393e-01,-2.269199917753975393e-01,-2.269199917753975393e-01,-2.269199917753975393e-01,-2.269199917753975393e-01,-2.269199917753975393e-01,-2.269199917753975393e-01,-2.269199917753975393e-01,-2.269199917753975393e-01,-2.214972713837060625e-01,-2.106518306003230812e-01,-1.998063898169400998e-01,-1.889609490335571462e-01,-1.781155082501741649e-01,-1.672700674667912113e-01,-1.564246266834082300e-01,-1.455791859000252764e-01,-1.347337451166422950e-01,-1.238883043332593276e-01,-1.130428635498763601e-01,-1.021974227664933926e-01,-9.135198198311042517e-02,-8.050654119972744382e-02,-6.966110041634446248e-02,-5.881565963296153665e-02,-4.797021884957855531e-02,-3.712477806619554621e-02,-2.627933728281259262e-02,-1.543389649942963904e-02,-4.588455716046685451e-03,-2.775557561562891351e-17,-2.775557561562891351e-17,-2.775557561562891351e-17,0.000000000000000000e+00,-1.063687461447176130e-01,-2.269199917753975393e-01,-2.269199917753975393e-01,-2.269199917753975393e-01,-2.269199917753975393e-01,-2.269199917753975393e-01,-2.269199917753975393e-01,-2.269199917753975393e-01,-2.269199917753975393e-01,-2.269199917753975393e-01,-2.269199917753975393e-01,-2.269199917753975393e-01,-2.269199917753975393e-01
-2.269199917753975393e-01,-2.269199917753975393e-01,-2.269199917753975393e-01,-2.269199917753975393e-01,-2.269199917753975393e-01,-2.269199917753975393e-01,-2.269199917753975393e-01,-2.269199917753975393e-01,-2.269199917753975393e-01,-2.269199917753975393e-01,-2.185773450189490985e-01,-2.077319042355661449e-01,-1.968864634521831636e-01,-1.860410226688001822e-01,-1.751955818854172287e-01,-1.643501411020342751e-01,-1.535047003186512660e-01,-1.426592595352683124e-01,-1.318138187518853310e-01,-1.209683779685023636e-01,-1.101229371851194100e-01,-9.927749640173644252e-02,-8.843205561835346118e-02,-7.758661483497050759e-02,-6.632404171376510282e-02,-5.547860093038217699e-02,-4.463316014699916789e-02,-3.378771936361615880e-02,-2.294227858023320521e-02,-1.209683779685025162e-02,-1.251397013467298036e-03,-2.775557561562891351e-17,-2.836499897192470976e-02,-1.630987440885670048e-01,-2.269199917753975393e-01,-2.269199917753975393e-01,-2.269199917753975393e-01,-2.269199917753975393e-01,-2.269199917753975393e-01,-2.269199917753975393e-01,-2.269199917753975393e-01,-2.269199917753975393e-01,-2.269199917753975393e-01,-2.269199917753975393e-01,-2.269199917753975393e-01,-2.269199917753975393e-01,-2.269199917753975393e-01
-2.269199917753975393e-01,-2.269199917753975393e-01,-2.269199917753975393e-01,-2.269199917753975393e-01,-2.269199917753975393e-01,-2.269199917753975393e-01,-2.269199917753975393e-01,-2.269199917753975393e-01,-2.269199917753975393e-01,-2.269199917753975393e-01,-2.260857270997526924e-01,-2.152402863163697389e-01,-2.043948455329867575e-01,-1.935494047496037762e-01,-1.827039639662208226e-01,-1.718585231828378412e-01,-1.610130823994548876e-01,-1.501676416160719063e-01,-1.393222008326889250e-01,-1.284767600493059714e-01,-1.176313192659230039e-01,-1.067858784825400364e-01,-9.594043769915708286e-02,-8.509499691577410152e-02,-7.424955613239112018e-02,-6.340411534900816659e-02,-5.255867456562518525e-02,-4.171323378224220391e-02,-3.086779299885925032e-02,-2.002235221547624122e-02,-9.176911432093315391e-03,-8.509499691577410152e-02,-2.127374922894351983e-01,-2.269199917753975393e-01,-2.269199917753975393e-01,-2.269199917753975393e-01,-2.269199917753975393e-01,-2.269199917753975393e-01,-2.269199917753975393e-01,-2.269199917753975393e-01,-2.269199917753975393e-01,-2.269199917753975393e-01,-2.269199917753975393e-01,-2.269199917753975393e-01,-2.269199917753975393e-01,-2.269199917753975393e-01,-2.269199917753975393e-01
