0.000000000000000000e+00,0.000000000000000000e+00,0.000000000000000000e+00,0.000000000000000000e+00,0.000000000000000000e+00,0.000000000000000000e+00,0.000000000000000000e+00,0.000000000000000000e+00,0.000000000000000000e+00,0.000000000000000000e+00,0.000000000000000000e+00,0.000000000000000000e+00,0.000000000000000000e+00,0.000000000000000000e+00,0.000000000000000000e+00,0.000000000000000000e+00,0.000000000000000000e+00,0.000000000000000000e+00,0.000000000000000000e+00,0.000000000000000000e+00,0.000000000000000000e+00,0.000000000000000000e+00,0.000000000000000000e+00,0.000000000000000000e+00,0.000000000000000000e+00,-7.488890845196409171e-03,-1.913827660439082479e-02,-3.078766236358523867e-02,-4.243704812277964561e-02,-5.408643388197406643e-02,-3.286790982058424015e-02,0.000000000000000000e+00,0.000000000000000000e+00,0.000000000000000000e+00,0.000000000000000000e+00,0.000000000000000000e+00,0.000000000000000000e+00,0.000000000000000000e+00,0.000000000000000000e+00,0.000000000000000000e+00,0.000000000000000000e+00,0.000000000000000000e+00,0.000000000000000000e+00,0.000000000000000000e+00,0.000000000000000000e+00,0.000000000000000000e+00,0.000000000000000000e+00
0.000000000000000000e+00,0.000000000000000000e+00,0.000000000000000000e+00,0.000000000000000000e+00,0.000000000000000000e+00,0.000000000000000000e+00,0.000000000000000000e+00,0.000000000000000000e+00,0.000000000000000000e+00,0.000000000000000000e+00,0.000000000000000000e+00,0.000000000000000000e+00,0.000000000000000000e+00,0.000000000000000000e+00,0.000000000000000000e+00,0.000000000000000000e+00,0.000000000000000000e+00,0.000000000000000000e+00,0.000000000000000000e+00,0.000000000000000000e+00,0.000000000000000000e+00,0.000000000000000000e+00,0.000000000000000000e+00,0.000000000000000000e+00,-2.496296948398802912e-03,-1.414568270759321809e-02,-2.579506846678762677e-02,-3.744445422598204065e-02,-4.867779049377665701e-02,-6.032717625297107089e-02,-7.197656201216548477e-02,-7.317270429993991132e-02,-3.870560424678769207e-02,0.000000000000000000e+00,0.000000000000000000e+00,0.000000000000000000e+00,0.000000000000000000e+00,0.000000000000000000e+00,0.000000000000000000e+00,0.000000000000000000e+00,0.000000000000000000e+00,0.000000000000000000e+00,0.000000000000000000e+00,0.000000000000000000e+00,0.000000000000000000e+00,0.000000000000000000e+00,0.000000000000000000e+00
0.000000000000000000e+00,0.000000000000000000e+00,0.000000000000000000e+00,0.000000000000000000e+00,0.000000000000000000e+00,0.000000000000000000e+00,0.000000000000000000e+00,0.000000000000000000e+00,0.000000000000000000e+00,0.000000000000000000e+00,0.000000000000000000e+00,0.000000000000000000e+00,0.000000000000000000e+00,0.000000000000000000e+00,0.000000000000000000e+00,0.000000000000000000e+00,0.000000000000000000e+00,0.000000000000000000e+00,0.000000000000000000e+00,0.000000000000000000e+00,0.000000000000000000e+00,0.000000000000000000e+00,0.000000000000000000e+00,0.000000000000000000e+00,-8.737039319395810411e-03,-2.038642507859022429e-02,-3.203581083778464511e-02,-4.368519659697905205e-02,-5.533458235617346593e-02,-6.698396811536787288e-02,-7.863335387456230063e-02,-9.028273963375671451e-02,-1.019321253929511284e-01,-8.873555558761370143e-02,-3.913465528479373456e-02,0.000000000000000000e+00,0.000000000000000000e+00,0.000000000000000000e+00,0.000000000000000000e+00,0.000000000000000000e+00,0.000000000000000000e+00,0.000000000000000000e+00,0.000000000000000000e+00,0.000000000000000000e+00,0.000000000000000000e+00,0.000000000000000000e+00,0.000000000000000000e+00
0.000000000000000000e+00,0.000000000000000000e+00,0.000000000000000000e+00,0.000000000000000000e+00,0.000000000000000000e+00,0.000000000000000000e+00,0.000000000000000000e+00,0.000000000000000000e+00,0.000000000000000000e+00,0.000000000000000000e+00,0.000000000000000000e+00,0.000000000000000000e+00,0.000000000000000000e+00,0.000000000000000000e+00,0.000000000000000000e+00,0.000000000000000000e+00,0.000000000000000000e+00,0.000000000000000000e+00,0.000000000000000000e+00,0.000000000000000000e+00,0.000000000000000000e+00,0.000000000000000000e+00,0.000000000000000000e+00,-3.744445422598204586e-03,-1.539383118179261760e-02,-2.704321694098703321e-02,-3.869260270018144016e-02,-5.034198845937586098e-02,-6.199137421857027486e-02,-7.364075997776467486e-02,-8.529014573695910262e-02,-9.652348200475370510e-02,-1.081728677639481190e-01,-1.198222535231425467e-01,-1.314716392823369606e-01,-9.839570471605282864e-02,-2.901945202513608185e-02,0.000000000000000000e+00,0.000000000000000000e+00,0.000000000000000000e+00,0.000000000000000000e+00,0.000000000000000000e+00,0.000000000000000000e+00,0.000000000000000000e+00,0.000000000000000000e+00,0.000000000000000000e+00,0.000000000000000000e+00
0.000000000000000000e+00,0.000000000000000000e+00,0.000000000000000000e+00,0.000000000000000000e+00,0.000000000000000000e+00,0.000000000000000000e+00,0.000000000000000000e+00,0.000000000000000000e+00,0.000000000000000000e+00,0.000000000000000000e+00,0.000000000000000000e+00,0.000000000000000000e+00,0.000000000000000000e+00,0.000000000000000000e+00,0.000000000000000000e+00,0.000000000000000000e+00,0.000000000000000000e+00,0.000000000000000000e+00,0.000000000000000000e+00,0.000000000000000000e+00,0.000000000000000000e+00,0.000000000000000000e+00,0.000000000000000000e+00,-9.985187793595213385e-03,-2.163457355278962380e-02,-3.328395931198403768e-02,-4.493334507117845156e-02,-5.658273083037286544e-02,-6.823211658956727932e-02,-7.988150234876169320e-02,-9.153088810795610708e-02,-1.031802738671505071e-01,-1.148296596263449348e-01,-1.264790453855393348e-01,-1.381284311447337487e-01,-1.497778169039281626e-01,-1.614272026631225765e-01,-1.027642243757507234e-01,-1.731806007951669502e-02,0.000000000000000000e+00,0.000000000000000000e+00,0.000000000000000000e+00,0.000000000000000000e+00,0.000000000000000000e+00,0.000000000000000000e+00,0.000000000000000000e+00,0.000000000000000000e+00
0.000000000000000000e+00,0.000000000000000000e+00,0.000000000000000000e+00,0.000000000000000000e+00,0.000000000000000000e+00,0.000000000000000000e+00,0.000000000000000000e+00,0.000000000000000000e+00,0.000000000000000000e+00,0.000000000000000000e+00,0.000000000000000000e+00,0.000000000000000000e+00,0.000000000000000000e+00,0.000000000000000000e+00,0.000000000000000000e+00,0.000000000000000000e+00,0.000000000000000000e+00,0.000000000000000000e+00,0.000000000000000000e+00,0.000000000000000000e+00,0.000000000000000000e+00,0.000000000000000000e+00,-4.992593896797605825e-03,-1.664197965599201884e-02,-2.829136541518643619e-02,-3.994075117438084660e-02,-5.159013693357526048e-02,-6.323952269276966742e-02,-7.488890845196409518e-02,-8.653829421115849518e-02,-9.818767997035292294e-02,-1.098370657295473507e-01,-1.214864514887417507e-01,-1.331358372479361507e-01,-1.443691735157307809e-01,-1.560185592749251948e-01,-1.676679450341195809e-01,-1.793173307933140226e-01,-1.849990066602425487e-01,-1.013080511558514252e-01,0.000000000000000000e+00,0.000000000000000000e+00,0.000000000000000000e+00,0.000000000000000000e+00,0.000000000000000000e+00,0.000000000000000000e+00,0.000000000000000000e+00
0.000000000000000000e+00,0.000000000000000000e+00,0.000000000000000000e+00,0.000000000000000000e+00,0.000000000000000000e+00,0.000000000000000000e+00,0.000000000000000000e+00,0.000000000000000000e+00,0.000000000000000000e+00,0.000000000000000000e+00,0.000000000000000000e+00,0.000000000000000000e+00,0.000000000000000000e+00,0.000000000000000000e+00,0.000000000000000000e+00,0.000000000000000000e+00,0.000000000000000000e+00,0.000000000000000000e+00,0.000000000000000000e+00,0.000000000000000000e+00,0.000000000000000000e+00,0.000000000000000000e+00,-1.164938575919441388e-02,-2.288272202698903024e-02,-3.453210778618344412e-02,-4.618149354537785800e-02,-5.783087930457226494e-02,-6.948026506376667188e-02,-8.112965082296109964e-02,-9.277903658215551352e-02,-1.044284223413499413e-01,-1.160778081005443552e-01,-1.277271938597387413e-01,-1.393765796189331829e-01,-1.510259653781275968e-01,-1.626753511373219829e-01,-1.743247368965164246e-01,-1.859741226557108384e-01,-1.976235084149052523e-01,-2.092728941740996662e-01,-1.763293389914427078e-01,-7.498346515455495132e-02,0.000000000000000000e+00,0.000000000000000000e+00,0.000000000000000000e+00,0.000000000000000000e+00,0.000000000000000000e+00
0.000000000000000000e+00,0.000000000000000000e+00,0.000000000000000000e+00,0.000000000000000000e+00,0.000000000000000000e+00,0.000000000000000000e+00,0.000000000000000000e+00,0.000000000000000000e+00,0.000000000000000000e+00,0.000000000000000000e+00,0.000000000000000000e+00,0.000000000000000000e+00,0.000000000000000000e+00,0.000000000000000000e+00,0.000000000000000000e+00,0.000000000000000000e+00,0.000000000000000000e+00,0.000000000000000000e+00,0.000000000000000000e+00,0.000000000000000000e+00,0.000000000000000000e+00,-6.240742370997007932e-03,-1.789012813019142181e-02,-2.953951388938583916e-02,-4.118889964858025304e-02,-5.283828540777466692e-02,-6.448767116696907387e-02,-7.613705692616348775e-02,-8.778644268535790163e-02,-9.943582844455231551e-02,-1.110852142037467433e-01,-1.227345999629411571e-01,-1.343839857221355572e-01,-1.460333714813299988e-01,-1.576827572405243849e-01,-1.693321429997188265e-01,-1.809815287589132127e-01,-2.089846236061881357e-01,-2.206340093653825774e-01,-2.261561207966890086e-01,-2.092115596924062071e-01,-1.922669985881234334e-01,-1.238692803940315140e-01,-3.982728313127181091e-02,0.000000000000000000e+00,0.000000000000000000e+00,0.000000000000000000e+00
0.000000000000000000e+00,0.000000000000000000e+00,0.000000000000000000e+00,0.000000000000000000e+00,0.000000000000000000e+00,0.000000000000000000e+00,0.000000000000000000e+00,0.000000000000000000e+00,0.000000000000000000e+00,0.000000000000000000e+00,0.000000000000000000e+00,0.000000000000000000e+00,0.000000000000000000e+00,0.000000000000000000e+00,0.000000000000000000e+00,0.000000000000000000e+00,0.000000000000000000e+00,0.000000000000000000e+00,0.000000000000000000e+00,0.000000000000000000e+00,-1.248148474199401456e-03,-1.289753423339381685e-02,-2.454691999258823074e-02,-3.619630575178264115e-02,-4.784569151097706197e-02,-5.949507727017146891e-02,-7.072841353796607833e-02,-8.237779929716049221e-02,-9.402718505635490609e-02,-1.056765708155493200e-01,-1.173259565747437339e-01,-1.289753423339381477e-01,-1.406247280931325616e-01,-1.522741138523269755e-01,-1.639234996115213894e-01,-1.755728853707158310e-01,-1.872222711299102449e-01,-2.156414154685849516e-01,-2.272908012277793932e-01,-2.164735144513845189e-01,-1.995289533471017451e-01,-1.825843922428189714e-01,-1.488700725590558771e-01,-1.319255114547731034e-01,-7.904940336596209816e-02,-1.838182298366390979e-02,0.000000000000000000e+00
0.000000000000000000e+00,0.000000000000000000e+00,0.000000000000000000e+00,0.000000000000000000e+00,0.000000000000000000e+00,0.000000000000000000e+00,0.000000000000000000e+00,0.000000000000000000e+00,0.000000000000000000e+00,0.000000000000000000e+00,0.000000000000000000e+00,0.000000000000000000e+00,0.000000000000000000e+00,0.000000000000000000e+00,0.000000000000000000e+00,0.000000000000000000e+00,0.000000000000000000e+00,0.000000000000000000e+00,0.000000000000000000e+00,0.000000000000000000e+00,-7.488890845196409171e-03,-1.913827660439082479e-02,-3.078766236358523520e-02,-4.243704812277964561e-02,-5.408643388197406643e-02,-6.573581964116848031e-02,-7.738520540036289419e-02,-8.903459115955730807e-02,-1.006839769187517220e-01,-1.123333626779461358e-01,-1.239827484371405497e-01,-1.356321341963349636e-01,-1.472815199555293775e-01,-1.589309057147237636e-01,-1.705802914739182330e-01,-1.822296772331126191e-01,-1.938790629923070052e-01,-2.222982073309817674e-01,-2.237354692103628861e-01,-2.067909081060800847e-01,-1.904515098983788901e-01,-1.735069487940960609e-01,-1.397926291103329666e-01,-1.228480680060501790e-01,-1.059035069017673913e-01,-8.895894579748461761e-02,-4.275854091158858700e-02
0.000000000000000000e+00,0.000000000000000000e+00,0.000000000000000000e+00,0.000000000000000000e+00,0.000000000000000000e+00,0.000000000000000000e+00,0.000000000000000000e+00,0.000000000000000000e+00,0.000000000000000000e+00,0.000000000000000000e+00,0.000000000000000000e+00,0.000000000000000000e+00,0.000000000000000000e+00,0.000000000000000000e+00,0.000000000000000000e+00,0.000000000000000000e+00,0.000000000000000000e+00,0.000000000000000000e+00,0.000000000000000000e+00,-2.496296948398803346e-03,-1.414568270759321636e-02,-2.579506846678763371e-02,-3.744445422598204065e-02,-4.909383998517645453e-02,-6.074322574437086841e-02,-7.239261150356528229e-02,-8.404199726275969617e-02,-9.569138302195411006e-02,-1.073407687811485378e-01,-1.185741050489431403e-01,-1.302234908081375542e-01,-1.418728765673319958e-01,-1.535222623265263819e-01,-1.651716480857208236e-01,-1.768210338449152375e-01,-1.884704196041095958e-01,-2.001198053633040652e-01,-2.285389497019787719e-01,-2.146580257616399479e-01,-1.977134646573572019e-01,-1.807689035530744004e-01,-1.638243424487916544e-01,-1.301100227650285324e-01,-1.131654616607457448e-01,-9.622090055646295714e-02,-7.927633945218015565e-02,-6.233177834789738192e-02
0.000000000000000000e+00,0.000000000000000000e+00,0.000000000000000000e+00,0.000000000000000000e+00,0.000000000000000000e+00,0.000000000000000000e+00,0.000000000000000000e+00,0.000000000000000000e+00,0.000000000000000000e+00,0.000000000000000000e+00,0.000000000000000000e+00,0.000000000000000000e+00,0.000000000000000000e+00,0.000000000000000000e+00,0.000000000000000000e+00,0.000000000000000000e+00,0.000000000000000000e+00,0.000000000000000000e+00,0.000000000000000000e+00,-8.737039319395810411e-03,-2.038642507859022429e-02,-3.203581083778463817e-02,-4.368519659697905205e-02,-5.533458235617345899e-02,-6.698396811536787288e-02,-7.863335387456228676e-02,-9.028273963375671451e-02,-1.019321253929511145e-01,-1.135815111521455423e-01,-1.252308969113399562e-01,-1.368802826705343700e-01,-1.485296684297287839e-01,-1.601790541889231978e-01,-1.718284399481176117e-01,-1.834778257073120256e-01,-1.951272114665064394e-01,-2.067765972257008533e-01,-2.219199805206182874e-01,-2.049754194163355137e-01,-1.880308583120527399e-01,-1.710862972077699662e-01,-1.541417361034871925e-01,-1.204274164197240704e-01,-1.034828553154412689e-01,-8.714345710774003273e-02,-7.019889600345724512e-02,-5.325433489917445751e-02
0.000000000000000000e+00,0.000000000000000000e+00,0.000000000000000000e+00,0.000000000000000000e+00,0.000000000000000000e+00,0.000000000000000000e+00,0.000000000000000000e+00,0.000000000000000000e+00,0.000000000000000000e+00,0.000000000000000000e+00,0.000000000000000000e+00,0.000000000000000000e+00,0.000000000000000000e+00,0.000000000000000000e+00,0.000000000000000000e+00,0.000000000000000000e+00,0.000000000000000000e+00,0.000000000000000000e+00,-3.744445422598204586e-03,-1.539383118179261760e-02,-2.704321694098703321e-02,-3.869260270018144710e-02,-5.034198845937586098e-02,-6.199137421857027486e-02,-7.364075997776468874e-02,-8.529014573695911650e-02,-9.693953149615351650e-02,-1.085889172553479165e-01,-1.202383030145423443e-01,-1.318876887737367443e-01,-1.435370745329311581e-01,-1.551864602921255720e-01,-1.664197965599202023e-01,-1.780691823191146161e-01,-1.897185680783090300e-01,-2.013679538375034717e-01,-2.130173395966978578e-01,-1.960727784924150563e-01,-1.791282173881322826e-01,-1.621836562838495088e-01,-1.452390951795667073e-01,-1.282945340752839336e-01,-1.113499729710011460e-01,-9.440541186671835838e-02,-7.746085076243558465e-02,-6.051628965815279704e-02,-4.357172855387001636e-02
0.000000000000000000e+00,0.000000000000000000e+00,0.000000000000000000e+00,0.000000000000000000e+00,0.000000000000000000e+00,0.000000000000000000e+00,0.000000000000000000e+00,0.000000000000000000e+00,0.000000000000000000e+00,0.000000000000000000e+00,0.000000000000000000e+00,0.000000000000000000e+00,0.000000000000000000e+00,0.000000000000000000e+00,0.000000000000000000e+00,0.000000000000000000e+00,0.000000000000000000e+00,0.000000000000000000e+00,-1.040123728499501264e-02,-2.205062304418942826e-02,-3.370000880338384214e-02,-4.493334507117845156e-02,-5.658273083037286544e-02,-6.823211658956727932e-02,-7.988150234876169320e-02,-9.153088810795610708e-02,-1.031802738671505348e-01,-1.148296596263449487e-01,-1.264790453855393348e-01,-1.381284311447337765e-01,-1.497778169039281904e-01,-1.614272026631226042e-01,-1.730765884223170181e-01,-1.847259741815114320e-01,-1.963753599407058459e-01,-2.080247456999002598e-01,-2.033347332513933958e-01,-1.863901721471106221e-01,-1.694456110428278484e-01,-1.525010499385450469e-01,-1.355564888342622731e-01,-1.186119277299794855e-01,-1.016673666256966979e-01,-8.472280552141391030e-02,-6.777824441713113657e-02,-5.083368331284834896e-02,-3.388912220856556828e-02
0.000000000000000000e+00,0.000000000000000000e+00,0.000000000000000000e+00,0.000000000000000000e+00,0.000000000000000000e+00,0.000000000000000000e+00,0.000000000000000000e+00,0.000000000000000000e+00,0.000000000000000000e+00,0.000000000000000000e+00,0.000000000000000000e+00,0.000000000000000000e+00,0.000000000000000000e+00,0.000000000000000000e+00,0.000000000000000000e+00,0.000000000000000000e+00,0.000000000000000000e+00,-4.992593896797606692e-03,-1.664197965599201884e-02,-2.829136541518643272e-02,-3.994075117438084660e-02,-5.159013693357526742e-02,-6.323952269276966742e-02,-7.488890845196408130e-02,-8.653829421115850906e-02,-9.818767997035290906e-02,-1.098370657295473368e-01,-1.214864514887417368e-01,-1.331358372479361507e-01,-1.447852230071305923e-01,-1.564346087663249785e-01,-1.680839945255194201e-01,-1.797333802847138062e-01,-1.913827660439082479e-01,-2.030321518031026617e-01,-2.105966880103717354e-01,-1.942572898026704853e-01,-1.773127286983877116e-01,-1.603681675941049378e-01,-1.434236064898221641e-01,-1.264790453855393626e-01,-1.095344842812565611e-01,-9.258992317697377350e-02,-7.564536207269099977e-02,-5.870080096840821215e-02,-4.175623986412543148e-02,-2.481167875984265081e-02
0.000000000000000000e+00,0.000000000000000000e+00,0.000000000000000000e+00,0.000000000000000000e+00,0.000000000000000000e+00,0.000000000000000000e+00,0.000000000000000000e+00,0.000000000000000000e+00,0.000000000000000000e+00,0.000000000000000000e+00,0.000000000000000000e+00,0.000000000000000000e+00,0.000000000000000000e+00,0.000000000000000000e+00,0.000000000000000000e+00,0.000000000000000000e+00,0.000000000000000000e+00,-1.164938575919441388e-02,-2.329877151838882776e-02,-3.494815727758324164e-02,-4.659754303677765552e-02,-5.824692879597206940e-02,-6.989631455516648328e-02,-8.154570031436089717e-02,-9.277903658215551352e-02,-1.044284223413499274e-01,-1.160778081005443552e-01,-1.277271938597387413e-01,-1.393765796189331829e-01,-1.510259653781275690e-01,-1.626753511373220107e-01,-1.743247368965164246e-01,-1.859741226557108384e-01,-1.976235084149052246e-01,-2.092728941740996662e-01,-2.015192445616487971e-01,-1.845746834573660233e-01,-1.676301223530832496e-01,-1.506855612488004759e-01,-1.337410001445177021e-01,-1.167964390402349006e-01,-9.985187793595211303e-02,-8.290731683166932542e-02,-6.596275572738655169e-02,-4.901819462310377101e-02,-3.207363351882098340e-02,-1.512907241453820099e-02
0.000000000000000000e+00,0.000000000000000000e+00,0.000000000000000000e+00,0.000000000000000000e+00,0.000000000000000000e+00,0.000000000000000000e+00,0.000000000000000000e+00,0.000000000000000000e+00,0.000000000000000000e+00,0.000000000000000000e+00,0.000000000000000000e+00,0.000000000000000000e+00,0.000000000000000000e+00,0.000000000000000000e+00,0.000000000000000000e+00,0.000000000000000000e+00,-6.240742370997007932e-03,-1.789012813019142181e-02,-2.953951388938583569e-02,-4.118889964858024610e-02,-5.283828540777466692e-02,-6.448767116696907387e-02,-7.613705692616348775e-02,-8.778644268535790163e-02,-9.943582844455231551e-02,-1.110852142037467294e-01,-1.227345999629411571e-01,-1.343839857221355572e-01,-1.460333714813299988e-01,-1.576827572405243849e-01,-1.693321429997188265e-01,-1.809815287589132127e-01,-1.926309145181076543e-01,-2.042803002773020404e-01,-2.087811993206271644e-01,-1.918366382163443629e-01,-1.748920771120615891e-01,-1.579475160077787876e-01,-1.410029549034960139e-01,-1.246635566957947638e-01,-1.077189955915119901e-01,-9.077443448722920250e-02,-7.382987338294642876e-02,-5.688531227866362727e-02,-3.994075117438084660e-02,-2.299619007009806593e-02,-6.051628965815280051e-03
0.000000000000000000e+00,0.000000000000000000e+00,0.000000000000000000e+00,0.000000000000000000e+00,0.000000000000000000e+00,0.000000000000000000e+00,0.000000000000000000e+00,0.000000000000000000e+00,0.000000000000000000e+00,0.000000000000000000e+00,0.000000000000000000e+00,0.000000000000000000e+00,0.000000000000000000e+00,0.000000000000000000e+00,0.000000000000000000e+00,-1.248148474199401456e-03,-1.289753423339381512e-02,-2.454691999258823074e-02,-3.619630575178264115e-02,-4.784569151097706197e-02,-5.949507727017147585e-02,-7.114446302936587585e-02,-8.279384878856030361e-02,-9.444323454775470361e-02,-1.060926203069491314e-01,-1.177420060661435453e-01,-1.293913918253379314e-01,-1.410407775845323730e-01,-1.522741138523269755e-01,-1.639234996115213894e-01,-1.755728853707158310e-01,-1.872222711299102171e-01,-1.988716568891046310e-01,-2.105210426482990727e-01,-1.997037558719042261e-01,-1.827591947676214523e-01,-1.658146336633386786e-01,-1.488700725590559049e-01,-1.319255114547731034e-01,-1.149809503504903158e-01,-9.803638924620752815e-02,-8.109182814192474054e-02,-6.414726703764196680e-02,-4.720270593335918613e-02,-3.025814482907639852e-02,-1.331358372479361611e-02,0.000000000000000000e+00
0.000000000000000000e+00,0.000000000000000000e+00,0.000000000000000000e+00,0.000000000000000000e+00,0.000000000000000000e+00,0.000000000000000000e+00,0.000000000000000000e+00,0.000000000000000000e+00,0.000000000000000000e+00,0.000000000000000000e+00,0.000000000000000000e+00,0.000000000000000000e+00,0.000000000000000000e+00,0.000000000000000000e+00,0.000000000000000000e+00,-7.904940336596208428e-03,-1.913827660439082479e-02,-3.078766236358523867e-02,-4.243704812277965255e-02,-5.408643388197407337e-02,-6.573581964116848031e-02,-7.738520540036289419e-02,-8.903459115955730807e-02,-1.006839769187517220e-01,-1.123333626779461358e-01,-1.239827484371405358e-01,-1.356321341963349636e-01,-1.472815199555293775e-01,-1.589309057147237914e-01,-1.705802914739182330e-01,-1.822296772331126191e-01,-1.938790629923070330e-01,-2.055284487515014469e-01,-2.069657106308825656e-01,-1.900211495265997919e-01,-1.730765884223170181e-01,-1.561320273180342166e-01,-1.391874662137514429e-01,-1.222429051094686553e-01,-1.052983440051858538e-01,-8.835378290090308007e-02,-7.140922179662030633e-02,-5.506982358891904933e-02,-3.812526248463626866e-02,-2.118070138035348104e-02,-4.236140276070696035e-03,0.000000000000000000e+00
0.000000000000000000e+00,0.000000000000000000e+00,0.000000000000000000e+00,0.000000000000000000e+00,0.000000000000000000e+00,0.000000000000000000e+00,0.000000000000000000e+00,0.000000000000000000e+00,0.000000000000000000e+00,0.000000000000000000e+00,0.000000000000000000e+00,0.000000000000000000e+00,0.000000000000000000e+00,0.000000000000000000e+00,-2.496296948398802912e-03,-1.414568270759321809e-02,-2.579506846678763024e-02,-3.744445422598204759e-02,-4.909383998517645453e-02,-6.074322574437086841e-02,-7.239261150356528229e-02,-8.404199726275969617e-02,-9.569138302195411006e-02,-1.073407687811485378e-01,-1.189901545403429517e-01,-1.306395402995373378e-01,-1.422889260587317795e-01,-1.539383118179261933e-01,-1.655876975771206072e-01,-1.772370833363150211e-01,-1.888864690955094350e-01,-2.001198053633040652e-01,-2.117691911224984791e-01,-1.978882671821596273e-01,-1.809437060778768536e-01,-1.639991449735940798e-01,-1.470545838693113061e-01,-1.301100227650285324e-01,-1.131654616607457309e-01,-9.622090055646294326e-02,-7.927633945218015565e-02,-6.233177834789738192e-02,-4.538721724361459431e-02,-2.844265613933181711e-02,-1.149809503504903123e-02,0.000000000000000000e+00,0.000000000000000000e+00
0.000000000000000000e+00,0.000000000000000000e+00,0.000000000000000000e+00,0.000000000000000000e+00,0.000000000000000000e+00,0.000000000000000000e+00,0.000000000000000000e+00,0.000000000000000000e+00,0.000000000000000000e+00,0.000000000000000000e+00,0.000000000000000000e+00,0.000000000000000000e+00,0.000000000000000000e+00,0.000000000000000000e+00,-9.153088810795611402e-03,-2.080247456999002181e-02,-3.245186032918444263e-02,-4.410124608837884957e-02,-5.575063184757326346e-02,-6.698396811536788675e-02,-7.863335387456228676e-02,-9.028273963375671451e-02,-1.019321253929511284e-01,-1.135815111521455423e-01,-1.252308969113399284e-01,-1.368802826705343700e-01,-1.485296684297287839e-01,-1.601790541889231978e-01,-1.718284399481176117e-01,-1.834778257073120256e-01,-4.830947097825661896e-01,-4.947440955417605757e-01,-4.931177202571976892e-01,-4.761731591529149155e-01,-4.592285980486321417e-01,-1.543165386282896179e-01,-1.373719775240068441e-01,-1.204274164197240704e-01,-1.034828553154412689e-01,-8.653829421115850906e-02,-6.959373310687572145e-02,-5.264917200259293384e-02,-3.570461089831015317e-02,-1.876004979402736902e-02,-1.815488689744584015e-03,0.000000000000000000e+00,0.000000000000000000e+00
0.000000000000000000e+00,0.000000000000000000e+00,0.000000000000000000e+00,0.000000000000000000e+00,0.000000000000000000e+00,0.000000000000000000e+00,0.000000000000000000e+00,0.000000000000000000e+00,0.000000000000000000e+00,0.000000000000000000e+00,0.000000000000000000e+00,0.000000000000000000e+00,0.000000000000000000e+00,-3.744445422598204586e-03,-1.539383118179261933e-02,-2.704321694098703321e-02,-3.869260270018144710e-02,-5.034198845937586098e-02,-6.199137421857026792e-02,-7.364075997776468874e-02,-8.529014573695910262e-02,-9.693953149615350262e-02,-1.085889172553479304e-01,-1.202383030145423443e-01,-1.318876887737367443e-01,-1.435370745329311859e-01,-1.551864602921255720e-01,-1.668358460513200137e-01,-1.784852318105143998e-01,-1.901346175697088137e-01,-4.897515016449629499e-01,-5.003796750161760842e-01,-4.834351139118932550e-01,-4.664905528076104813e-01,-4.501511545999092312e-01,-1.452390951795667351e-01,-1.282945340752839336e-01,-1.113499729710011460e-01,-9.440541186671835838e-02,-7.746085076243558465e-02,-6.051628965815279704e-02,-4.357172855387001636e-02,-2.662716744958723222e-02,-9.682606345304448081e-03,0.000000000000000000e+00,0.000000000000000000e+00,0.000000000000000000e+00
0.000000000000000000e+00,0.000000000000000000e+00,0.000000000000000000e+00,0.000000000000000000e+00,0.000000000000000000e+00,0.000000000000000000e+00,0.000000000000000000e+00,0.000000000000000000e+00,0.000000000000000000e+00,0.000000000000000000e+00,0.000000000000000000e+00,0.000000000000000000e+00,0.000000000000000000e+00,-1.040123728499501264e-02,-2.205062304418942826e-02,-3.370000880338383520e-02,-4.534939456257824908e-02,-5.699878032177266990e-02,-6.864816608096707684e-02,-8.029755184016150460e-02,-9.194693759935590460e-02,-1.035963233585503185e-01,-1.152457091177447462e-01,-1.264790453855393348e-01,-1.381284311447337487e-01,-1.497778169039281904e-01,-1.614272026631225765e-01,-1.730765884223170459e-01,-1.847259741815114320e-01,-1.963753599407058459e-01,-4.959922440159599821e-01,-4.913022315674531182e-01,-4.743576704631703445e-01,-4.574131093588875707e-01,-4.404685482546047970e-01,-1.355564888342622731e-01,-1.186119277299794994e-01,-1.016673666256966979e-01,-8.472280552141392418e-02,-6.777824441713113657e-02,-5.083368331284834896e-02,-3.388912220856556828e-02,-1.694456110428278414e-02,0.000000000000000000e+00,0.000000000000000000e+00,0.000000000000000000e+00,0.000000000000000000e+00
0.000000000000000000e+00,0.000000000000000000e+00,0.000000000000000000e+00,0.000000000000000000e+00,0.000000000000000000e+00,0.000000000000000000e+00,0.000000000000000000e+00,0.000000000000000000e+00,0.000000000000000000e+00,0.000000000000000000e+00,0.000000000000000000e+00,0.000000000000000000e+00,-4.992593896797605825e-03,-1.664197965599201884e-02,-2.829136541518643272e-02,-3.994075117438084660e-02,-5.159013693357526048e-02,-6.323952269276968130e-02,-7.488890845196408130e-02,-8.653829421115849518e-02,-9.818767997035292294e-02,-1.098370657295473368e-01,-1.214864514887417368e-01,-1.331358372479361507e-01,-1.447852230071305923e-01,-1.564346087663249785e-01,-1.680839945255193923e-01,-1.797333802847138062e-01,-1.913827660439082479e-01,-2.030321518031026340e-01,-4.985641863264314577e-01,-4.816196252221486285e-01,-4.646750641178658547e-01,-4.477305030135830810e-01,-4.307859419093003073e-01,-1.258738824889578389e-01,-1.089293213846750513e-01,-9.258992317697377350e-02,-7.564536207269098589e-02,-5.870080096840821215e-02,-4.175623986412543842e-02,-2.481167875984265081e-02,-7.867117655559863199e-03,0.000000000000000000e+00,0.000000000000000000e+00,0.000000000000000000e+00,0.000000000000000000e+00
0.000000000000000000e+00,0.000000000000000000e+00,0.000000000000000000e+00,0.000000000000000000e+00,0.000000000000000000e+00,0.000000000000000000e+00,0.000000000000000000e+00,0.000000000000000000e+00,0.000000000000000000e+00,0.000000000000000000e+00,0.000000000000000000e+00,0.000000000000000000e+00,-1.164938575919441388e-02,-2.329877151838882776e-02,-3.494815727758324164e-02,-4.659754303677765552e-02,-5.824692879597206940e-02,-6.989631455516648328e-02,-8.154570031436089717e-02,-9.319508607355531105e-02,-1.048444718327497249e-01,-1.164938575919441388e-01,-1.281432433511385527e-01,-1.397926291103329388e-01,-1.514420148695274082e-01,-1.626753511373219829e-01,-1.743247368965164246e-01,-1.859741226557108107e-01,-1.976235084149052523e-01,-2.092728941740996662e-01,-4.894867428777085472e-01,-4.725421817734257735e-01,-4.555976206691429997e-01,-4.386530595648602260e-01,-4.217084984605773967e-01,-1.167964390402349006e-01,-9.985187793595211303e-02,-8.290731683166932542e-02,-6.596275572738655169e-02,-4.901819462310377101e-02,-3.207363351882098340e-02,-1.512907241453820099e-02,0.000000000000000000e+00,0.000000000000000000e+00,0.000000000000000000e+00,0.000000000000000000e+00,0.000000000000000000e+00
0.000000000000000000e+00,0.000000000000000000e+00,0.000000000000000000e+00,0.000000000000000000e+00,0.000000000000000000e+00,0.000000000000000000e+00,0.000000000000000000e+00,0.000000000000000000e+00,0.000000000000000000e+00,0.000000000000000000e+00,0.000000000000000000e+00,-6.656791862396808923e-03,-1.830617762159122280e-02,-2.995556338078564015e-02,-4.118889964858024610e-02,-5.283828540777465999e-02,-6.448767116696907387e-02,-7.613705692616348775e-02,-8.778644268535790163e-02,-9.943582844455231551e-02,-1.110852142037467294e-01,-1.227345999629411571e-01,-1.343839857221355572e-01,-1.460333714813299710e-01,-1.576827572405243849e-01,-1.693321429997188265e-01,-1.809815287589132127e-01,-1.926309145181076266e-01,-2.042803002773020404e-01,-2.087811993206271644e-01,-1.918366382163443351e-01,-1.748920771120616169e-01,-1.579475160077788154e-01,-1.410029549034960139e-01,-1.240583937992132402e-01,-1.071138326949304664e-01,-9.016927159064766495e-02,-7.322471048636489122e-02,-5.628014938208210360e-02,-3.933558827779932293e-02,-2.299619007009806593e-02,-6.051628965815280051e-03,0.000000000000000000e+00,0.000000000000000000e+00,0.000000000000000000e+00,0.000000000000000000e+00,0.000000000000000000e+00
0.000000000000000000e+00,0.000000000000000000e+00,0.000000000000000000e+00,0.000000000000000000e+00,0.000000000000000000e+00,0.000000000000000000e+00,0.000000000000000000e+00,0.000000000000000000e+00,0.000000000000000000e+00,0.000000000000000000e+00,-1.248148474199401673e-03,-1.289753423339381512e-02,-2.454691999258822727e-02,-3.619630575178264115e-02,-4.784569151097706197e-02,-5.949507727017146891e-02,-7.114446302936588973e-02,-8.279384878856030361e-02,-9.444323454775471749e-02,-1.060926203069491314e-01,-1.177420060661435453e-01,-1.293913918253379591e-01,-1.410407775845323730e-01,-1.526901633437267869e-01,-1.643395491029212008e-01,-1.759889348621156147e-01,-1.876383206213100285e-01,-1.992877063805044702e-01,-2.105210426482990449e-01,-1.997037558719041983e-01,-1.827591947676214246e-01,-1.658146336633386786e-01,-1.488700725590558771e-01,-1.319255114547731034e-01,-1.149809503504903158e-01,-9.803638924620752815e-02,-8.109182814192475441e-02,-6.414726703764196680e-02,-4.720270593335917919e-02,-3.025814482907640199e-02,-1.331358372479361611e-02,0.000000000000000000e+00,0.000000000000000000e+00,0.000000000000000000e+00,0.000000000000000000e+00,0.000000000000000000e+00,0.000000000000000000e+00
0.000000000000000000e+00,0.000000000000000000e+00,0.000000000000000000e+00,0.000000000000000000e+00,0.000000000000000000e+00,0.000000000000000000e+00,0.000000000000000000e+00,0.000000000000000000e+00,0.000000000000000000e+00,0.000000000000000000e+00,-7.904940336596210163e-03,-1.955432609579062231e-02,-3.120371185498503619e-02,-4.285309761417945007e-02,-5.450248337337387089e-02,-6.615186913256827783e-02,-7.780125489176269171e-02,-8.903459115955730807e-02,-1.006839769187517220e-01,-1.123333626779461497e-01,-1.239827484371405636e-01,-1.356321341963349636e-01,-1.472815199555294052e-01,-1.589309057147237914e-01,-1.705802914739182330e-01,-1.822296772331126191e-01,-1.938790629923070330e-01,-2.055284487515014469e-01,-2.069657106308825378e-01,-1.900211495265997919e-01,-1.730765884223169904e-01,-1.561320273180342444e-01,-1.391874662137514429e-01,-1.222429051094686692e-01,-1.052983440051858677e-01,-8.835378290090308007e-02,-7.140922179662030633e-02,-5.446466069233751872e-02,-3.752009958805473805e-02,-2.057553848377195044e-02,-3.630977379489168030e-03,0.000000000000000000e+00,0.000000000000000000e+00,0.000000000000000000e+00,0.000000000000000000e+00,0.000000000000000000e+00,0.000000000000000000e+00
0.000000000000000000e+00,0.000000000000000000e+00,0.000000000000000000e+00,0.000000000000000000e+00,0.000000000000000000e+00,0.000000000000000000e+00,0.000000000000000000e+00,0.000000000000000000e+00,0.000000000000000000e+00,-2.496296948398803346e-03,-1.414568270759321636e-02,-2.579506846678763371e-02,-3.744445422598204065e-02,-4.909383998517646147e-02,-6.074322574437086841e-02,-7.239261150356528229e-02,-8.404199726275969617e-02,-9.569138302195411006e-02,-1.073407687811485378e-01,-1.189901545403429517e-01,-1.306395402995373378e-01,-1.422889260587317795e-01,-1.539383118179261933e-01,-1.655876975771206072e-01,-1.772370833363150489e-01,-1.888864690955094350e-01,-2.005358548547038489e-01,-2.121852406138982627e-01,-1.972831042855781036e-01,-1.803385431812953299e-01,-1.633939820770125839e-01,-1.464494209727297824e-01,-1.301100227650285324e-01,-1.131654616607457448e-01,-9.622090055646292939e-02,-7.927633945218016953e-02,-6.233177834789738192e-02,-4.538721724361459431e-02,-2.844265613933181364e-02,-1.149809503504903296e-02,0.000000000000000000e+00,0.000000000000000000e+00,0.000000000000000000e+00,0.000000000000000000e+00,0.000000000000000000e+00,0.000000000000000000e+00,0.000000000000000000e+00
0.000000000000000000e+00,0.000000000000000000e+00,0.000000000000000000e+00,0.000000000000000000e+00,0.000000000000000000e+00,0.000000000000000000e+00,0.000000000000000000e+00,0.000000000000000000e+00,0.000000000000000000e+00,-9.153088810795609667e-03,-2.080247456999002528e-02,-3.245186032918444263e-02,-4.410124608837885651e-02,-5.575063184757327039e-02,-6.740001760676767040e-02,-7.904940336596208428e-02,-9.069878912515651204e-02,-1.023481748843509259e-01,-1.139975606435453398e-01,-1.256469464027397676e-01,-1.368802826705343700e-01,-1.485296684297287839e-01,-1.601790541889231978e-01,-1.718284399481176117e-01,-1.834778257073120256e-01,-1.951272114665064394e-01,-2.067765972257008533e-01,-2.051502219411379946e-01,-1.882056608368551931e-01,-1.712610997325724194e-01,-1.543165386282896456e-01,-1.373719775240068719e-01,-1.204274164197240704e-01,-1.034828553154412828e-01,-8.653829421115849518e-02,-6.959373310687572145e-02,-5.264917200259293384e-02,-3.570461089831015317e-02,-1.876004979402736556e-02,-1.815488689744584015e-03,0.000000000000000000e+00,0.000000000000000000e+00,0.000000000000000000e+00,0.000000000000000000e+00,0.000000000000000000e+00,0.000000000000000000e+00,0.000000000000000000e+00
0.000000000000000000e+00,0.000000000000000000e+00,0.000000000000000000e+00,0.000000000000000000e+00,0.000000000000000000e+00,0.000000000000000000e+00,0.000000000000000000e+00,0.000000000000000000e+00,-4.160494913998004710e-03,-1.539383118179261760e-02,-2.704321694098703321e-02,-3.869260270018144710e-02,-5.034198845937586098e-02,-6.199137421857027486e-02,-7.364075997776468874e-02,-8.529014573695910262e-02,-9.693953149615353038e-02,-1.085889172553479165e-01,-1.202383030145423443e-01,-1.318876887737367443e-01,-1.435370745329311859e-01,-1.551864602921255720e-01,-1.668358460513199859e-01,-1.784852318105143998e-01,-1.901346175697088414e-01,-2.017840033289032553e-01,-2.124121767001163341e-01,-1.954676155958335326e-01,-1.785230544915507589e-01,-1.615784933872679852e-01,-1.446339322829852114e-01,-1.276893711787024099e-01,-1.107448100744196084e-01,-9.380024897013683471e-02,-7.685568786585406098e-02,-6.051628965815280398e-02,-4.357172855387000943e-02,-2.662716744958723222e-02,-9.682606345304448081e-03,0.000000000000000000e+00,0.000000000000000000e+00,0.000000000000000000e+00,0.000000000000000000e+00,0.000000000000000000e+00,0.000000000000000000e+00,0.000000000000000000e+00,0.000000000000000000e+00
0.000000000000000000e+00,0.000000000000000000e+00,0.000000000000000000e+00,0.000000000000000000e+00,0.000000000000000000e+00,0.000000000000000000e+00,0.000000000000000000e+00,0.000000000000000000e+00,-1.040123728499501264e-02,-2.205062304418942826e-02,-3.370000880338383520e-02,-4.534939456257825602e-02,-5.699878032177266296e-02,-6.864816608096709072e-02,-8.029755184016150460e-02,-9.194693759935590460e-02,-1.035963233585503185e-01,-1.152457091177447462e-01,-1.268950948769391462e-01,-1.385444806361335601e-01,-1.501938663953279740e-01,-1.618432521545223879e-01,-1.734926379137168295e-01,-1.847259741815114320e-01,-1.963753599407058459e-01,-2.080247456999002598e-01,-2.033347332513933958e-01,-1.863901721471106221e-01,-1.694456110428278484e-01,-1.525010499385450469e-01,-1.355564888342622731e-01,-1.186119277299794994e-01,-1.016673666256966979e-01,-8.472280552141392418e-02,-6.777824441713113657e-02,-5.083368331284834896e-02,-3.388912220856556828e-02,-1.694456110428278414e-02,0.000000000000000000e+00,0.000000000000000000e+00,0.000000000000000000e+00,0.000000000000000000e+00,0.000000000000000000e+00,0.000000000000000000e+00,0.000000000000000000e+00,0.000000000000000000e+00,0.000000000000000000e+00
0.000000000000000000e+00,0.000000000000000000e+00,0.000000000000000000e+00,0.000000000000000000e+00,0.000000000000000000e+00,0.000000000000000000e+00,0.000000000000000000e+00,-5.408643388197406816e-03,-1.705802914739181983e-02,-2.870741490658623024e-02,-4.035680066578065106e-02,-5.200618642497506494e-02,-6.323952269276966742e-02,-7.488890845196408130e-02,-8.653829421115849518e-02,-9.818767997035292294e-02,-1.098370657295473368e-01,-1.214864514887417507e-01,-1.331358372479361507e-01,-1.447852230071305923e-01,-1.564346087663249785e-01,-1.680839945255194201e-01,-1.797333802847138062e-01,-1.913827660439082479e-01,-2.030321518031026340e-01,-2.105966880103717631e-01,-1.936521269060889339e-01,-1.767075658018061879e-01,-1.597630046975233864e-01,-1.428184435932406127e-01,-1.258738824889578112e-01,-1.089293213846750374e-01,-9.198476028039224983e-02,-7.504019917610947610e-02,-5.809563807182668849e-02,-4.115107696754390088e-02,-2.420651586326112020e-02,-7.261954758978336061e-03,0.000000000000000000e+00,0.000000000000000000e+00,0.000000000000000000e+00,0.000000000000000000e+00,0.000000000000000000e+00,0.000000000000000000e+00,0.000000000000000000e+00,0.000000000000000000e+00,0.000000000000000000e+00
0.000000000000000000e+00,0.000000000000000000e+00,0.000000000000000000e+00,0.000000000000000000e+00,0.000000000000000000e+00,0.000000000000000000e+00,0.000000000000000000e+00,-1.164938575919441388e-02,-2.329877151838882776e-02,-3.494815727758324164e-02,-4.659754303677765552e-02,-5.824692879597206940e-02,-6.989631455516648328e-02,-8.154570031436089717e-02,-9.319508607355531105e-02,-1.048444718327497249e-01,-1.164938575919441388e-01,-1.281432433511385527e-01,-1.397926291103329666e-01,-1.514420148695273804e-01,-1.630914006287217943e-01,-1.747407863879162360e-01,-3.366760745124353083e-01,-3.483254602716298054e-01,-3.599748460308241915e-01,-3.511999840303919873e-01,-3.342554229261092136e-01,-1.676301223530832774e-01,-1.506855612488004759e-01,-1.337410001445177021e-01,-1.167964390402349006e-01,-9.985187793595209915e-02,-8.290731683166932542e-02,-6.596275572738655169e-02,-4.901819462310377101e-02,-3.207363351882099034e-02,-1.512907241453819926e-02,0.000000000000000000e+00,0.000000000000000000e+00,0.000000000000000000e+00,0.000000000000000000e+00,0.000000000000000000e+00,0.000000000000000000e+00,0.000000000000000000e+00,0.000000000000000000e+00,0.000000000000000000e+00,0.000000000000000000e+00
0.000000000000000000e+00,0.000000000000000000e+00,0.000000000000000000e+00,0.000000000000000000e+00,0.000000000000000000e+00,0.000000000000000000e+00,-6.656791862396808056e-03,-1.830617762159122280e-02,-2.995556338078563322e-02,-4.160494913998005057e-02,-5.325433489917446445e-02,-6.490372065836887139e-02,-7.655310641756328527e-02,-8.820249217675771303e-02,-9.985187793595212691e-02,-1.110852142037467294e-01,-1.227345999629411433e-01,-1.343839857221355572e-01,-1.460333714813299710e-01,-1.576827572405243849e-01,-1.693321429997188265e-01,-1.809815287589132127e-01,-3.429168168834323405e-01,-3.545662026426267821e-01,-3.590671016859519060e-01,-3.421225405816690768e-01,-3.251779794773863586e-01,-1.579475160077787876e-01,-1.410029549034960417e-01,-1.240583937992132402e-01,-1.071138326949304387e-01,-9.016927159064766495e-02,-7.322471048636489122e-02,-5.628014938208210360e-02,-3.933558827779931599e-02,-2.239102717351653532e-02,-5.446466069233752046e-03,0.000000000000000000e+00,0.000000000000000000e+00,0.000000000000000000e+00,0.000000000000000000e+00,0.000000000000000000e+00,0.000000000000000000e+00,0.000000000000000000e+00,0.000000000000000000e+00,0.000000000000000000e+00,0.000000000000000000e+00
0.000000000000000000e+00,0.000000000000000000e+00,0.000000000000000000e+00,0.000000000000000000e+00,0.000000000000000000e+00,-1.248148474199401456e-03,-1.289753423339381512e-02,-2.454691999258823074e-02,-3.619630575178264115e-02,-4.784569151097705503e-02,-5.949507727017147585e-02,-7.114446302936587585e-02,-8.279384878856030361e-02,-9.444323454775470361e-02,-1.060926203069491314e-01,-1.177420060661435453e-01,-1.293913918253379591e-01,-1.410407775845323730e-01,-1.526901633437267591e-01,-1.643395491029212008e-01,-1.759889348621156147e-01,-1.876383206213100285e-01,-3.495736087458291563e-01,-3.612229945050235980e-01,-3.493844953406474163e-01,-3.324399342363646426e-01,-3.154953731320818688e-01,-1.482649096624743534e-01,-1.313203485581915797e-01,-1.143757874539087921e-01,-9.803638924620752815e-02,-8.109182814192475441e-02,-6.414726703764196680e-02,-4.720270593335917919e-02,-3.025814482907639852e-02,-1.331358372479361611e-02,0.000000000000000000e+00,0.000000000000000000e+00,0.000000000000000000e+00,0.000000000000000000e+00,0.000000000000000000e+00,0.000000000000000000e+00,0.000000000000000000e+00,0.000000000000000000e+00,0.000000000000000000e+00,0.000000000000000000e+00,0.000000000000000000e+00
0.000000000000000000e+00,0.000000000000000000e+00,0.000000000000000000e+00,0.000000000000000000e+00,0.000000000000000000e+00,-7.904940336596210163e-03,-1.955432609579062578e-02,-3.120371185498503619e-02,-4.285309761417945007e-02,-5.450248337337386395e-02,-6.615186913256827783e-02,-7.780125489176267783e-02,-8.945064065095710559e-02,-1.011000264101515334e-01,-1.127494121693459334e-01,-1.243987979285403472e-01,-1.360481836877347472e-01,-1.476975694469291889e-01,-1.593469552061236028e-01,-1.705802914739182052e-01,-1.822296772331126191e-01,-1.938790629923070608e-01,-3.558143511168261330e-01,-3.572516129962072795e-01,-3.403070518919244503e-01,-3.233624907876417320e-01,-3.064179296833589028e-01,-1.391874662137514429e-01,-1.222429051094686692e-01,-1.052983440051858677e-01,-8.835378290090308007e-02,-7.140922179662030633e-02,-5.446466069233751872e-02,-3.752009958805474499e-02,-2.057553848377195391e-02,-3.630977379489168030e-03,0.000000000000000000e+00,0.000000000000000000e+00,0.000000000000000000e+00,0.000000000000000000e+00,0.000000000000000000e+00,0.000000000000000000e+00,0.000000000000000000e+00,0.000000000000000000e+00,0.000000000000000000e+00,0.000000000000000000e+00,0.000000000000000000e+00
0.000000000000000000e+00,0.000000000000000000e+00,0.000000000000000000e+00,0.000000000000000000e+00,-2.912346439798603470e-03,-1.456173219899301735e-02,-2.621111795818743123e-02,-3.744445422598204065e-02,-4.909383998517645453e-02,-6.074322574437086841e-02,-7.239261150356528229e-02,-8.404199726275969617e-02,-9.569138302195412393e-02,-1.073407687811485239e-01,-1.189901545403429517e-01,-1.306395402995373378e-01,-1.422889260587317795e-01,-1.539383118179261656e-01,-1.655876975771206072e-01,-1.772370833363149933e-01,-1.888864690955094350e-01,-2.005358548547038489e-01,-3.624711429792230044e-01,-3.475690066509028453e-01,-3.306244455466200716e-01,-3.136798844423372978e-01,-2.967353233380545241e-01,-1.295048598684469809e-01,-1.125602987641642072e-01,-9.561573765988141960e-02,-7.867117655559864586e-02,-6.172661545131585825e-02,-4.478205434703307064e-02,-2.844265613933181711e-02,-1.149809503504903296e-02,0.000000000000000000e+00,0.000000000000000000e+00,0.000000000000000000e+00,0.000000000000000000e+00,0.000000000000000000e+00,0.000000000000000000e+00,0.000000000000000000e+00,0.000000000000000000e+00,0.000000000000000000e+00,0.000000000000000000e+00,0.000000000000000000e+00,0.000000000000000000e+00
0.000000000000000000e+00,0.000000000000000000e+00,0.000000000000000000e+00,0.000000000000000000e+00,-9.153088810795611402e-03,-2.080247456999002528e-02,-3.245186032918444263e-02,-4.410124608837884957e-02,-5.575063184757326346e-02,-6.740001760676768428e-02,-7.904940336596208428e-02,-9.069878912515651204e-02,-1.023481748843509120e-01,-1.139975606435453398e-01,-1.256469464027397398e-01,-1.372963321619341537e-01,-1.489457179211285953e-01,-1.605951036803229814e-01,-1.722444894395174231e-01,-1.838938751987118370e-01,-1.955432609579062231e-01,-2.071926467171006370e-01,-2.051502219411379668e-01,-1.882056608368551653e-01,-1.712610997325724194e-01,-1.543165386282896456e-01,-1.373719775240068719e-01,-1.204274164197240843e-01,-1.034828553154412828e-01,-8.653829421115849518e-02,-6.959373310687572145e-02,-5.264917200259294078e-02,-3.570461089831015317e-02,-1.876004979402736902e-02,-1.815488689744584015e-03,0.000000000000000000e+00,0.000000000000000000e+00,0.000000000000000000e+00,0.000000000000000000e+00,0.000000000000000000e+00,0.000000000000000000e+00,0.000000000000000000e+00,0.000000000000000000e+00,0.000000000000000000e+00,0.000000000000000000e+00,0.000000000000000000e+00,0.000000000000000000e+00
0.000000000000000000e+00,0.000000000000000000e+00,0.000000000000000000e+00,-1.170139194561938987e-03,-1.235146927593157654e-02,-2.745926643238683421e-02,-3.910865219158124462e-02,-5.075803795077566544e-02,-6.240742370997007238e-02,-7.405680946916448626e-02,-8.570619522835890014e-02,-9.693953149615350262e-02,-1.085889172553479304e-01,-1.202383030145423304e-01,-1.318876887737367443e-01,-1.435370745329311859e-01,-1.551864602921255720e-01,-1.668358460513199859e-01,-1.784852318105143998e-01,-1.901346175697088414e-01,-2.017840033289032275e-01,-2.124121767001163341e-01,-1.954676155958335326e-01,-1.785230544915507589e-01,-1.615784933872679852e-01,-1.446339322829852114e-01,-1.276893711787024099e-01,-1.107448100744196223e-01,-9.380024897013684859e-02,-7.685568786585404710e-02,-5.991112676157127337e-02,-4.296656565728849270e-02,-2.602200455300570855e-02,-9.077443448722920943e-03,0.000000000000000000e+00,0.000000000000000000e+00,0.000000000000000000e+00,0.000000000000000000e+00,0.000000000000000000e+00,0.000000000000000000e+00,0.000000000000000000e+00,0.000000000000000000e+00,0.000000000000000000e+00,0.000000000000000000e+00,0.000000000000000000e+00,0.000000000000000000e+00,0.000000000000000000e+00
0.000000000000000000e+00,0.000000000000000000e+00,0.000000000000000000e+00,0.000000000000000000e+00,0.000000000000000000e+00,-1.369062857637468392e-02,-3.968072024225596794e-02,-5.699878032177266296e-02,-6.864816608096707684e-02,-8.029755184016149072e-02,-9.194693759935591848e-02,-1.035963233585503185e-01,-1.152457091177447324e-01,-1.268950948769391462e-01,-1.385444806361335601e-01,-1.501938663953279740e-01,-1.618432521545223879e-01,-1.734926379137168295e-01,-1.851420236729112156e-01,-1.967914094321056573e-01,-2.084407951913000434e-01,-2.027295703548118722e-01,-1.857850092505290984e-01,-1.688404481462463247e-01,-1.518958870419635232e-01,-1.355564888342622731e-01,-1.186119277299794855e-01,-1.016673666256966840e-01,-8.472280552141391030e-02,-6.777824441713113657e-02,-5.083368331284834896e-02,-3.388912220856556828e-02,-1.694456110428278414e-02,0.000000000000000000e+00,0.000000000000000000e+00,0.000000000000000000e+00,0.000000000000000000e+00,0.000000000000000000e+00,0.000000000000000000e+00,0.000000000000000000e+00,0.000000000000000000e+00,0.000000000000000000e+00,0.000000000000000000e+00,0.000000000000000000e+00,0.000000000000000000e+00,0.000000000000000000e+00,0.000000000000000000e+00
0.000000000000000000e+00,0.000000000000000000e+00,0.000000000000000000e+00,0.000000000000000000e+00,0.000000000000000000e+00,0.000000000000000000e+00,0.000000000000000000e+00,-3.182778609208473941e-02,-7.295167800763377453e-02,-8.695434370255830658e-02,-9.860372946175272046e-02,-1.102531152209471343e-01,-1.219025009801415482e-01,-1.335518867393359621e-01,-1.447852230071305923e-01,-1.564346087663249785e-01,-1.680839945255194201e-01,-1.797333802847138340e-01,-1.913827660439082479e-01,-2.030321518031026340e-01,-2.105966880103717354e-01,-1.936521269060889339e-01,-1.767075658018061879e-01,-1.597630046975234142e-01,-1.428184435932406127e-01,-1.258738824889578389e-01,-1.089293213846750374e-01,-9.198476028039223595e-02,-7.504019917610947610e-02,-5.809563807182668849e-02,-4.115107696754390088e-02,-2.420651586326112367e-02,-7.261954758978336061e-03,0.000000000000000000e+00,0.000000000000000000e+00,0.000000000000000000e+00,0.000000000000000000e+00,0.000000000000000000e+00,0.000000000000000000e+00,0.000000000000000000e+00,0.000000000000000000e+00,0.000000000000000000e+00,0.000000000000000000e+00,0.000000000000000000e+00,0.000000000000000000e+00,0.000000000000000000e+00,0.000000000000000000e+00
0.000000000000000000e+00,0.000000000000000000e+00,0.000000000000000000e+00,0.000000000000000000e+00,0.000000000000000000e+00,0.000000000000000000e+00,0.000000000000000000e+00,0.000000000000000000e+00,-7.644909404471334109e-03,-5.533458235617346593e-02,-1.048444718327497249e-01,-1.164938575919441388e-01,-1.281432433511385527e-01,-1.397926291103329666e-01,-1.514420148695274082e-01,-1.630914006287218221e-01,-1.747407863879162082e-01,-1.863901721471106221e-01,-1.980395579063050637e-01,-2.096889436654994499e-01,-2.009140816650673012e-01,-1.839695205607844997e-01,-1.670249594565017259e-01,-1.500803983522189522e-01,-1.331358372479361785e-01,-1.161912761436533770e-01,-9.924671503937057548e-02,-8.230215393508780175e-02,-6.596275572738655169e-02,-4.901819462310377101e-02,-3.207363351882099034e-02,-1.512907241453819926e-02,0.000000000000000000e+00,0.000000000000000000e+00,0.000000000000000000e+00,0.000000000000000000e+00,0.000000000000000000e+00,0.000000000000000000e+00,0.000000000000000000e+00,0.000000000000000000e+00,0.000000000000000000e+00,0.000000000000000000e+00,0.000000000000000000e+00,0.000000000000000000e+00,0.000000000000000000e+00,0.000000000000000000e+00,0.000000000000000000e+00
0.000000000000000000e+00,0.000000000000000000e+00,0.000000000000000000e+00,0.000000000000000000e+00,0.000000000000000000e+00,0.000000000000000000e+00,0.000000000000000000e+00,0.000000000000000000e+00,0.000000000000000000e+00,0.000000000000000000e+00,-2.090648694283997466e-02,-8.466607149985939940e-02,-1.348000352135353686e-01,-1.464494209727297824e-01,-1.580988067319241963e-01,-1.697481924911186102e-01,-1.813975782503130241e-01,-1.926309145181076266e-01,-2.042803002773020404e-01,-2.087811993206271644e-01,-1.918366382163443629e-01,-1.748920771120615891e-01,-1.579475160077788154e-01,-1.410029549034960139e-01,-1.240583937992132402e-01,-1.071138326949304664e-01,-9.016927159064765107e-02,-7.322471048636489122e-02,-5.628014938208211054e-02,-3.933558827779932293e-02,-2.239102717351653532e-02,-5.446466069233752046e-03,0.000000000000000000e+00,0.000000000000000000e+00,0.000000000000000000e+00,0.000000000000000000e+00,0.000000000000000000e+00,0.000000000000000000e+00,0.000000000000000000e+00,0.000000000000000000e+00,0.000000000000000000e+00,0.000000000000000000e+00,0.000000000000000000e+00,0.000000000000000000e+00,0.000000000000000000e+00,0.000000000000000000e+00,0.000000000000000000e+00
0.000000000000000000e+00,0.000000000000000000e+00,0.000000000000000000e+00,0.000000000000000000e+00,0.000000000000000000e+00,0.000000000000000000e+00,0.000000000000000000e+00,0.000000000000000000e+00,0.000000000000000000e+00,0.000000000000000000e+00,0.000000000000000000e+00,0.000000000000000000e+00,-4.407524299516636657e-02,-1.192891901122865583e-01,-1.643395491029212008e-01,-1.759889348621156424e-01,-1.876383206213100008e-01,-1.992877063805044702e-01,-2.109370921396988563e-01,-1.990985929753227024e-01,-1.821540318710399009e-01,-1.652094707667571549e-01,-1.482649096624743534e-01,-1.313203485581915797e-01,-1.143757874539088060e-01,-9.743122634962600448e-02,-8.048666524534321687e-02,-6.354210414106044313e-02,-4.659754303677765552e-02,-2.965298193249486791e-02,-1.270842082821208724e-02,0.000000000000000000e+00,0.000000000000000000e+00,0.000000000000000000e+00,0.000000000000000000e+00,0.000000000000000000e+00,0.000000000000000000e+00,0.000000000000000000e+00,0.000000000000000000e+00,0.000000000000000000e+00,0.000000000000000000e+00,0.000000000000000000e+00,0.000000000000000000e+00,0.000000000000000000e+00,0.000000000000000000e+00,0.000000000000000000e+00,0.000000000000000000e+00
0.000000000000000000e+00,0.000000000000000000e+00,0.000000000000000000e+00,0.000000000000000000e+00,0.000000000000000000e+00,0.000000000000000000e+00,0.000000000000000000e+00,0.000000000000000000e+00,0.000000000000000000e+00,0.000000000000000000e+00,0.000000000000000000e+00,0.000000000000000000e+00,0.000000000000000000e+00,0.000000000000000000e+00,-6.946726351716044079e-02,-1.598150108839483663e-01,-1.942951124837068166e-01,-2.059444982429012305e-01,-2.063605477343010419e-01,-1.894159866300182404e-01,-1.730765884223170181e-01,-1.561320273180342166e-01,-1.391874662137514429e-01,-1.222429051094686553e-01,-1.052983440051858538e-01,-8.835378290090308007e-02,-7.140922179662029246e-02,-5.446466069233751872e-02,-3.752009958805473805e-02,-2.057553848377195391e-02,-3.630977379489168030e-03,0.000000000000000000e+00,0.000000000000000000e+00,0.000000000000000000e+00,0.000000000000000000e+00,0.000000000000000000e+00,0.000000000000000000e+00,0.000000000000000000e+00,0.000000000000000000e+00,0.000000000000000000e+00,0.000000000000000000e+00,0.000000000000000000e+00,0.000000000000000000e+00,0.000000000000000000e+00,0.000000000000000000e+00,0.000000000000000000e+00,0.000000000000000000e+00
0.000000000000000000e+00,0.000000000000000000e+00,0.000000000000000000e+00,0.000000000000000000e+00,0.000000000000000000e+00,0.000000000000000000e+00,0.000000000000000000e+00,0.000000000000000000e+00,0.000000000000000000e+00,0.000000000000000000e+00,0.000000000000000000e+00,0.000000000000000000e+00,0.000000000000000000e+00,0.000000000000000000e+00,0.000000000000000000e+00,0.000000000000000000e+00,-1.002679274273519244e-01,-2.121852406138982627e-01,-1.972831042855781036e-01,-1.803385431812953299e-01,-1.633939820770125562e-01,-1.464494209727297824e-01,-1.295048598684469809e-01,-1.125602987641642072e-01,-9.561573765988141960e-02,-7.867117655559864586e-02,-6.172661545131585825e-02,-4.478205434703307064e-02,-2.783749324275028997e-02,-1.089293213846750583e-02,0.000000000000000000e+00,0.000000000000000000e+00,0.000000000000000000e+00,0.000000000000000000e+00,0.000000000000000000e+00,0.000000000000000000e+00,0.000000000000000000e+00,0.000000000000000000e+00,0.000000000000000000e+00,0.000000000000000000e+00,0.000000000000000000e+00,0.000000000000000000e+00,0.000000000000000000e+00,0.000000000000000000e+00,0.000000000000000000e+00,0.000000000000000000e+00,0.000000000000000000e+00
