-1.931744675660500843e-01,-1.931744675660500843e-01,-1.931744675660500843e-01,-1.931744675660500843e-01,-1.931744675660500843e-01,-1.931744675660500843e-01,-1.931744675660500843e-01,-1.931744675660500843e-01,-1.931744675660500843e-01,-1.931744675660500843e-01,-1.931744675660500843e-01,-1.931744675660500843e-01,-1.931744675660500843e-01,-1.931744675660500843e-01,-1.931744675660500843e-01,-1.931744675660500843e-01,-1.931744675660500843e-01,-1.931744675660500843e-01,-1.931744675660500843e-01,-1.931744675660500843e-01,-1.931744675660500843e-01,-1.931744675660500843e-01,-1.931744675660500843e-01,-1.931744675660500843e-01,-1.931744675660500843e-01,-1.931744675660500843e-01,-1.931744675660500843e-01,-1.931744675660500843e-01,-1.931744675660500843e-01,-1.931744675660500843e-01,-1.931744675660500843e-01,-1.931744675660500843e-01,-1.931744675660500843e-01,-1.931744675660500843e-01,-1.931744675660500843e-01,-1.931744675660500843e-01,-1.931744675660500843e-01,-1.931744675660500843e-01,-1.931744675660500843e-01,-1.931744675660500843e-01,-1.931744675660500843e-01,-1.931744675660500843e-01,-1.931744675660500843e-01,-1.931744675660500843e-01,-1.931744675660500843e-01,-1.931744675660500843e-01,-1.931744675660500843e-01
-1.931744675660500843e-01,-1.931744675660500843e-01,-1.931744675660500843e-01,-1.931744675660500843e-01,-1.931744675660500843e-01,-1.931744675660500843e-01,-1.931744675660500843e-01,-1.931744675660500843e-01,-1.931744675660500843e-01,-1.931744675660500843e-01,-1.931744675660500843e-01,-1.931744675660500843e-01,-1.931744675660500843e-01,-1.931744675660500843e-01,-1.931744675660500843e-01,-1.931744675660500843e-01,-1.931744675660500843e-01,-1.931744675660500843e-01,-1.931744675660500843e-01,-1.931744675660500843e-01,-1.931744675660500843e-01,-1.931744675660500843e-01,-1.931744675660500843e-01,-1.931744675660500843e-01,-1.931744675660500843e-01,-1.931744675660500843e-01,-1.931744675660500843e-01,-1.931744675660500843e-01,-1.931744675660500843e-01,-1.931744675660500843e-01,-1.931744675660500843e-01,-1.931744675660500843e-01,-1.931744675660500843e-01,-1.931744675660500843e-01,-1.931744675660500843e-01,-1.931744675660500843e-01,-1.931744675660500843e-01,-1.931744675660500843e-01,-1.931744675660500843e-01,-1.931744675660500843e-01,-1.931744675660500843e-01,-1.931744675660500843e-01,-1.931744675660500843e-01,-1.931744675660500843e-01,-1.931744675660500843e-01,-1.931744675660500843e-01,-1.931744675660500843e-01
-1.931744675660500843e-01,-1.931744675660500843e-01,-1.931744675660500843e-01,-1.931744675660500843e-01,-1.931744675660500843e-01,-1.931744675660500843e-01,-1.931744675660500843e-01,-1.931744675660500843e-01,-1.931744675660500843e-01,-1.931744675660500843e-01,-1.931744675660500843e-01,-1.931744675660500843e-01,-1.931744675660500843e-01,-1.931744675660500843e-01,-1.931744675660500843e-01,-1.931744675660500843e-01,-1.931744675660500843e-01,-1.931744675660500843e-01,-1.931744675660500843e-01,-1.931744675660500843e-01,-1.931744675660500843e-01,-1.931744675660500843e-01,-1.931744675660500843e-01,-1.931744675660500843e-01,-1.931744675660500843e-01,-1.931744675660500843e-01,-1.931744675660500843e-01,-1.931744675660500843e-01,-1.931744675660500843e-01,-1.931744675660500843e-01,-1.931744675660500843e-01,-1.931744675660500843e-01,-1.931744675660500843e-01,-1.931744675660500843e-01,-1.931744675660500843e-01,-1.931744675660500843e-01,-1.931744675660500843e-01,-1.931744675660500843e-01,-1.931744675660500843e-01,-1.931744675660500843e-01,-1.931744675660500843e-01,-1.931744675660500843e-01,-1.931744675660500843e-01,-1.931744675660500843e-01,-1.931744675660500843e-01,-1.931744675660500843e-01,-1.931744675660500843e-01
-1.931744675660500843e-01,-1.931744675660500843e-01,-1.931744675660500843e-01,-1.931744675660500843e-01,-1.931744675660500843e-01,-1.931744675660500843e-01,-1.931744675660500843e-01,-1.931744675660500843e-01,-1.931744675660500843e-01,-1.931744675660500843e-01,-1.931744675660500843e-01,-1.931744675660500843e-01,-1.931744675660500843e-01,-1.931744675660500843e-01,-1.931744675660500843e-01,-1.931744675660500843e-01,-1.931744675660500843e-01,-1.931744675660500843e-01,-1.931744675660500843e-01,-1.931744675660500843e-01,-1.931744675660500843e-01,-1.931744675660500843e-01,-1.931744675660500843e-01,-1.931744675660500843e-01,-1.931744675660500843e-01,-1.931744675660500843e-01,-1.931744675660500843e-01,-1.931744675660500843e-01,-1.931744675660500843e-01,-1.931744675660500843e-01,-1.931744675660500843e-01,-1.931744675660500843e-01,-1.931744675660500843e-01,-1.931744675660500843e-01,-1.931744675660500843e-01,-1.931744675660500843e-01,-1.931744675660500843e-01,-1.931744675660500843e-01,-1.931744675660500843e-01,-1.931744675660500843e-01,-1.931744675660500843e-01,-1.931744675660500843e-01,-1.931744675660500843e-01,-1.931744675660500843e-01,-1.931744675660500843e-01,-1.931744675660500843e-01,-1.931744675660500843e-01
-1.931744675660500843e-01,-1.931744675660500843e-01,-1.931744675660500843e-01,-1.931744675660500843e-01,-1.931744675660500843e-01,-1.931744675660500843e-01,-1.931744675660500843e-01,-1.931744675660500843e-01,-1.931744675660500843e-01,-1.931744675660500843e-01,-1.931744675660500843e-01,-1.931744675660500843e-01,-1.931744675660500843e-01,-1.931744675660500843e-01,-1.931744675660500843e-01,-1.931744675660500843e-01,-1.931744675660500843e-01,-1.931744675660500843e-01,-1.931744675660500843e-01,-1.931744675660500843e-01,-1.931744675660500843e-01,-1.931744675660500843e-01,-1.931744675660500843e-01,-1.931744675660500843e-01,-1.931744675660500843e-01,-1.931744675660500843e-01,-1.931744675660500843e-01,-1.931744675660500843e-01,-1.931744675660500843e-01,-1.931744675660500843e-01,-1.931744675660500843e-01,-1.931744675660500843e-01,-1.931744675660500843e-01,-1.931744675660500843e-01,-1.931744675660500843e-01,-1.931744675660500843e-01,-1.931744675660500843e-01,-1.931744675660500843e-01,-1.931744675660500843e-01,-1.931744675660500843e-01,-1.931744675660500843e-01,-1.931744675660500843e-01,-1.931744675660500843e-01,-1.931744675660500843e-01,-1.931744675660500843e-01,-1.931744675660500843e-01,-1.931744675660500843e-01
-1.931744675660500843e-01,-1.931744675660500843e-01,-1.931744675660500843e-01,-1.931744675660500843e-01,-1.931744675660500843e-01,-1.931744675660500843e-01,-1.931744675660500843e-01,-1.931744675660500843e-01,-1.931744675660500843e-01,-1.931744675660500843e-01,-1.931744675660500843e-01,-1.931744675660500843e-01,-1.931744675660500843e-01,-1.931744675660500843e-01,-1.931744675660500843e-01,-1.931744675660500843e-01,-1.931744675660500843e-01,-1.931744675660500843e-01,-1.931744675660500843e-01,-1.931744675660500843e-01,-1.931744675660500843e-01,-1.931744675660500843e-01,-1.931744675660500843e-01,-1.931744675660500843e-01,-1.931744675660500843e-01,-1.931744675660500843e-01,-1.931744675660500843e-01,-1.931744675660500843e-01,-1.931744675660500843e-01,-1.931744675660500843e-01,-1.931744675660500843e-01,-1.931744675660500843e-01,-1.931744675660500843e-01,-1.931744675660500843e-01,-1.931744675660500843e-01,-1.931744675660500843e-01,-1.931744675660500843e-01,-1.931744675660500843e-01,-1.931744675660500843e-01,-1.931744675660500843e-01,-1.931744675660500843e-01,-1.931744675660500843e-01,-1.931744675660500843e-01,-1.931744675660500843e-01,-1.931744675660500843e-01,-1.931744675660500843e-01,-1.931744675660500843e-01
-1.931744675660500843e-01,-1.931744675660500843e-01,-1.931744675660500843e-01,-1.931744675660500843e-01,-1.931744675660500843e-01,-1.931744675660500843e-01,-1.931744675660500843e-01,-1.931744675660500843e-01,-1.931744675660500843e-01,-1.931744675660500843e-01,-1.931744675660500843e-01,-1.931744675660500843e-01,-1.931744675660500843e-01,-1.931744675660500843e-01,-1.931744675660500843e-01,-1.931744675660500843e-01,-1.931744675660500843e-01,-1.931744675660500843e-01,-1.931744675660500843e-01,-1.931744675660500843e-01,-1.931744675660500843e-01,-1.931744675660500843e-01,-1.931744675660500843e-01,-1.931744675660500843e-01,-1.931744675660500843e-01,-1.931744675660500843e-01,-1.931744675660500843e-01,-1.931744675660500843e-01,-1.931744675660500843e-01,-1.931744675660500843e-01,-1.931744675660500843e-01,-1.931744675660500843e-01,-1.931744675660500843e-01,-1.931744675660500843e-01,-1.931744675660500843e-01,-1.931744675660500843e-01,-1.931744675660500843e-01,-1.931744675660500843e-01,-1.931744675660500843e-01,-1.931744675660500843e-01,-1.931744675660500843e-01,-1.931744675660500843e-01,-1.931744675660500843e-01,-1.931744675660500843e-01,-1.931744675660500843e-01,-1.931744675660500843e-01,-1.931744675660500843e-01
-1.931744675660500843e-01,-1.931744675660500843e-01,-1.931744675660500843e-01,-1.931744675660500843e-01,-1.931744675660500843e-01,-1.931744675660500843e-01,-1.931744675660500843e-01,-1.931744675660500843e-01,-1.931744675660500843e-01,-1.931744675660500843e-01,-1.931744675660500843e-01,-1.931744675660500843e-01,-1.931744675660500843e-01,-1.931744675660500843e-01,-1.931744675660500843e-01,-1.931744675660500843e-01,-1.931744675660500843e-01,-1.931744675660500843e-01,-1.931744675660500843e-01,-1.931744675660500843e-01,-1.931744675660500843e-01,-1.931744675660500843e-01,-1.931744675660500843e-01,-1.931744675660500843e-01,-1.931744675660500843e-01,-1.931744675660500843e-01,-1.931744675660500843e-01,-1.931744675660500843e-01,-1.931744675660500843e-01,-1.931744675660500843e-01,-1.931744675660500843e-01,-1.931744675660500843e-01,-1.931744675660500843e-01,-1.931744675660500843e-01,-1.931744675660500843e-01,-1.931744675660500843e-01,-1.931744675660500843e-01,-1.931744675660500843e-01,-1.931744675660500843e-01,-1.931744675660500843e-01,-1.931744675660500843e-01,-1.931744675660500843e-01,-1.931744675660500843e-01,-1.931744675660500843e-01,-1.931744675660500843e-01,-1.931744675660500843e-01,-1.931744675660500843e-01
-1.931744675660500843e-01,-1.931744675660500843e-01,-1.931744675660500843e-01,-1.931744675660500843e-01,-1.931744675660500843e-01,-1.931744675660500843e-01,-1.931744675660500843e-01,-1.931744675660500843e-01,-1.931744675660500843e-01,-1.931744675660500843e-01,-1.931744675660500843e-01,-1.931744675660500843e-01,-1.931744675660500843e-01,-1.931744675660500843e-01,-1.931744675660500843e-01,-1.931744675660500843e-01,-1.931744675660500843e-01,-1.931744675660500843e-01,-1.931744675660500843e-01,-1.931744675660500843e-01,-1.931744675660500843e-01,-1.931744675660500843e-01,-1.931744675660500843e-01,-1.931744675660500843e-01,-1.931744675660500843e-01,-1.931744675660500843e-01,-1.931744675660500843e-01,-1.931744675660500843e-01,-1.931744675660500843e-01,-1.931744675660500843e-01,-1.931744675660500843e-01,-1.931744675660500843e-01,-1.931744675660500843e-01,-1.931744675660500843e-01,-1.931744675660500843e-01,-1.931744675660500843e-01,-1.931744675660500843e-01,-1.931744675660500843e-01,-1.931744675660500843e-01,-1.931744675660500843e-01,-1.931744675660500843e-01,-1.931744675660500843e-01,-1.931744675660500843e-01,-1.931744675660500843e-01,-1.931744675660500843e-01,-1.931744675660500843e-01,-1.931744675660500843e-01
-1.931744675660500843e-01,-1.931744675660500843e-01,-1.931744675660500843e-01,-1.931744675660500843e-01,-1.931744675660500843e-01,-1.931744675660500843e-01,-1.931744675660500843e-01,-1.931744675660500843e-01,-1.931744675660500843e-01,-1.931744675660500843e-01,-1.931744675660500843e-01,-1.931744675660500843e-01,-1.931744675660500843e-01,-1.931744675660500843e-01,-1.931744675660500843e-01,-1.931744675660500843e-01,-1.931744675660500843e-01,-1.931744675660500843e-01,-1.931744675660500843e-01,-1.931744675660500843e-01,-1.931744675660500843e-01,-1.931744675660500843e-01,-1.931744675660500843e-01,-1.931744675660500843e-01,-1.931744675660500843e-01,-1.931744675660500843e-01,-1.931744675660500843e-01,-1.931744675660500843e-01,-1.931744675660500843e-01,-1.931744675660500843e-01,-1.931744675660500843e-01,-1.931744675660500843e-01,-1.931744675660500843e-01,-1.931744675660500843e-01,-1.931744675660500843e-01,-1.931744675660500843e-01,-1.931744675660500843e-01,-1.931744675660500843e-01,-1.931744675660500843e-01,-1.931744675660500843e-01,-1.931744675660500843e-01,-1.931744675660500843e-01,-1.931744675660500843e-01,-1.931744675660500843e-01,-1.931744675660500843e-01,-1.931744675660500843e-01,-1.931744675660500843e-01
-1.931744675660500843e-01,-1.931744675660500843e-01,-1.902693046749200367e-01,-1.907597867214744503e-01,-1.931744675660500843e-01,-1.931744675660500843e-01,-1.931744675660500843e-01,-1.931744675660500843e-01,-1.931744675660500843e-01,-1.931744675660500843e-01,-1.931744675660500843e-01,-1.931744675660500843e-01,-1.931744675660500843e-01,-1.931744675660500843e-01,-1.931744675660500843e-01,-1.931744675660500843e-01,-1.931744675660500843e-01,-1.931744675660500843e-01,-1.931744675660500843e-01,-1.931744675660500843e-01,-1.931744675660500843e-01,-1.931744675660500843e-01,-1.931744675660500843e-01,-1.931744675660500843e-01,-1.931744675660500843e-01,-1.931744675660500843e-01,-1.931744675660500843e-01,-1.931744675660500843e-01,-1.931744675660500843e-01,-1.931744675660500843e-01,-1.931744675660500843e-01,-1.931744675660500843e-01,-1.931744675660500843e-01,-1.931744675660500843e-01,-1.931744675660500843e-01,-1.931744675660500843e-01,-1.931744675660500843e-01,-1.931744675660500843e-01,-1.931744675660500843e-01,-1.931744675660500843e-01,-1.931744675660500843e-01,-1.931744675660500843e-01,-1.931744675660500843e-01,-1.931744675660500843e-01,-1.931744675660500843e-01,-1.931744675660500843e-01,-1.931744675660500843e-01
-1.931744675660500843e-01,-1.931744675660500843e-01,-1.678203186980060102e-01,-1.533322336305522615e-01,-1.641982974311425592e-01,-1.750643612317328845e-01,-1.859304250323232099e-01,-1.931744675660500843e-01,-1.931744675660500843e-01,-1.931744675660500843e-01,-1.931744675660500843e-01,-1.931744675660500843e-01,-1.931744675660500843e-01,-1.931744675660500843e-01,-1.931744675660500843e-01,-1.931744675660500843e-01,-1.931744675660500843e-01,-1.931744675660500843e-01,-1.931744675660500843e-01,-1.931744675660500843e-01,-1.931744675660500843e-01,-1.931744675660500843e-01,-1.931744675660500843e-01,-1.931744675660500843e-01,-1.931744675660500843e-01,-1.931744675660500843e-01,-1.931744675660500843e-01,-1.931744675660500843e-01,-1.931744675660500843e-01,-1.931744675660500843e-01,-1.931744675660500843e-01,-1.931744675660500843e-01,-1.931744675660500843e-01,-1.931744675660500843e-01,-1.931744675660500843e-01,-1.931744675660500843e-01,-1.931744675660500843e-01,-1.931744675660500843e-01,-1.931744675660500843e-01,-1.931744675660500843e-01,-1.931744675660500843e-01,-1.931744675660500843e-01,-1.931744675660500843e-01,-1.931744675660500843e-01,-1.931744675660500843e-01,-1.931744675660500843e-01,-1.931744675660500843e-01
-1.931744675660500843e-01,-1.931744675660500843e-01,-1.252615688123606130e-01,-1.159046805396300589e-01,-1.267707443402203982e-01,-1.376368081408106958e-01,-1.485028719414009934e-01,-1.593689357419913188e-01,-1.702349995425816442e-01,-1.811010633431719419e-01,-1.919671271437622673e-01,-1.931744675660500843e-01,-1.931744675660500843e-01,-1.931744675660500843e-01,-1.931744675660500843e-01,-1.931744675660500843e-01,-1.931744675660500843e-01,-1.931744675660500843e-01,-1.931744675660500843e-01,-1.931744675660500843e-01,-1.931744675660500843e-01,-1.931744675660500843e-01,-1.931744675660500843e-01,-1.931744675660500843e-01,-1.931744675660500843e-01,-1.931744675660500843e-01,-1.931744675660500843e-01,-1.931744675660500843e-01,-1.931744675660500843e-01,-1.931744675660500843e-01,-1.931744675660500843e-01,-1.931744675660500843e-01,-1.931744675660500843e-01,-1.931744675660500843e-01,-1.931744675660500843e-01,-1.931744675660500843e-01,-1.931744675660500843e-01,-1.931744675660500843e-01,-1.931744675660500843e-01,-1.931744675660500843e-01,-1.931744675660500843e-01,-1.931744675660500843e-01,-1.931744675660500843e-01,-1.931744675660500843e-01,-1.931744675660500843e-01,-1.931744675660500843e-01,-1.931744675660500843e-01
-1.931744675660500843e-01,-1.804973931320280611e-01,-6.881840407040534791e-02,-7.968446787099567330e-02,-9.055053167158599869e-02,-1.002092550498884932e-01,-1.110753188504788186e-01,-1.219413826510691301e-01,-1.328074464516594277e-01,-1.436735102522497531e-01,-1.545395740528400785e-01,-1.654056378534303762e-01,-1.762717016540207016e-01,-1.871377654546110270e-01,-1.931744675660500843e-01,-1.931744675660500843e-01,-1.931744675660500843e-01,-1.931744675660500843e-01,-1.931744675660500843e-01,-1.931744675660500843e-01,-1.931744675660500843e-01,-1.931744675660500843e-01,-1.931744675660500843e-01,-1.931744675660500843e-01,-1.931744675660500843e-01,-1.931744675660500843e-01,-1.931744675660500843e-01,-1.931744675660500843e-01,-1.931744675660500843e-01,-1.931744675660500843e-01,-1.931744675660500843e-01,-1.931744675660500843e-01,-1.931744675660500843e-01,-1.931744675660500843e-01,-1.931744675660500843e-01,-1.931744675660500843e-01,-1.931744675660500843e-01,-1.931744675660500843e-01,-1.931744675660500843e-01,-1.931744675660500843e-01,-1.931744675660500843e-01,-1.931744675660500843e-01,-1.931744675660500843e-01,-1.931744675660500843e-01,-1.931744675660500843e-01,-1.931744675660500843e-01,-1.931744675660500843e-01
-1.931744675660500843e-01,-1.284308374208661119e-01,-3.139085097948315917e-02,-4.225691478007345681e-02,-5.312297858066380996e-02,-6.398904238125410759e-02,-7.485510618184443299e-02,-8.451382956014692749e-02,-9.537989336073725288e-02,-1.062459571613275644e-01,-1.171120209619178620e-01,-1.279780847625081874e-01,-1.388441485630985128e-01,-1.497102123636888105e-01,-1.605762761642791359e-01,-1.714423399648694613e-01,-1.811010633431719419e-01,-1.919671271437622673e-01,-1.931744675660500843e-01,-1.931744675660500843e-01,-1.931744675660500843e-01,-1.931744675660500843e-01,-1.931744675660500843e-01,-1.931744675660500843e-01,-1.931744675660500843e-01,-1.931744675660500843e-01,-1.931744675660500843e-01,-1.931744675660500843e-01,-1.931744675660500843e-01,-1.931744675660500843e-01,-1.931744675660500843e-01,-1.931744675660500843e-01,-1.931744675660500843e-01,-1.931744675660500843e-01,-1.931744675660500843e-01,-1.931744675660500843e-01,-1.931744675660500843e-01,-1.931744675660500843e-01,-1.931744675660500843e-01,-1.931744675660500843e-01,-1.931744675660500843e-01,-1.931744675660500843e-01,-1.931744675660500843e-01,-1.931744675660500843e-01,-1.931744675660500843e-01,-1.931744675660500843e-01,-1.931744675660500843e-01
-1.931744675660500843e-01,-6.640372322582974163e-02,-2.775557561562891351e-17,-4.829361689151268067e-03,-1.569542548974156571e-02,-2.656148929033189110e-02,-3.742755309092221649e-02,-4.829361689151254189e-02,-5.915968069210283953e-02,-7.002574449269317880e-02,-7.968446787099567330e-02,-9.055053167158599869e-02,-1.014165954721763102e-01,-1.122826592727666217e-01,-1.231487230733569332e-01,-1.340147868739472448e-01,-1.448808506745375702e-01,-1.557469144751278955e-01,-1.654056378534303762e-01,-1.762717016540207016e-01,-1.871377654546110270e-01,-1.931744675660500843e-01,-1.931744675660500843e-01,-1.931744675660500843e-01,-1.931744675660500843e-01,-1.931744675660500843e-01,-1.931744675660500843e-01,-1.931744675660500843e-01,-1.931744675660500843e-01,-1.931744675660500843e-01,-1.931744675660500843e-01,-1.931744675660500843e-01,-1.931744675660500843e-01,-1.931744675660500843e-01,-1.931744675660500843e-01,-1.931744675660500843e-01,-1.931744675660500843e-01,-1.931744675660500843e-01,-1.931744675660500843e-01,-1.931744675660500843e-01,-1.931744675660500843e-01,-1.931744675660500843e-01,-1.931744675660500843e-01,-1.931744675660500843e-01,-1.931744675660500843e-01,-1.931744675660500843e-01,-1.931744675660500843e-01
-1.931744675660500843e-01,-1.811010633431722749e-02,-2.775557561562891351e-17,-5.551115123125782702e-17,0.000000000000000000e+00,-2.775557561562891351e-17,-2.775557561562891351e-17,-1.086606380059032539e-02,-2.173212760118065079e-02,-3.259819140177097618e-02,-4.346425520236130158e-02,-5.433031900295159922e-02,-6.398904238125410759e-02,-7.485510618184443299e-02,-8.572116998243473063e-02,-9.658723378302505602e-02,-1.074532975836153675e-01,-1.183193613842056791e-01,-1.291854251847960044e-01,-1.400514889853863298e-01,-1.509175527859766275e-01,-1.605762761642791359e-01,-1.714423399648694613e-01,-1.823084037654597589e-01,-1.931744675660500843e-01,-1.931744675660500843e-01,-1.931744675660500843e-01,-1.931744675660500843e-01,-1.931744675660500843e-01,-1.931744675660500843e-01,-1.931744675660500843e-01,-1.931744675660500843e-01,-1.931744675660500843e-01,-1.931744675660500843e-01,-1.931744675660500843e-01,-1.931744675660500843e-01,-1.931744675660500843e-01,-1.931744675660500843e-01,-1.931744675660500843e-01,-1.931744675660500843e-01,-1.931744675660500843e-01,-1.931744675660500843e-01,-1.931744675660500843e-01,-1.931744675660500843e-01,-1.931744675660500843e-01,-1.931744675660500843e-01,-1.931744675660500843e-01
-1.448808506745375702e-01,-2.775557561562891351e-17,-2.775557561562891351e-17,-2.775557561562891351e-17,-2.775557561562891351e-17,-2.775557561562891351e-17,-2.775557561562891351e-17,-5.551115123125782702e-17,-2.775557561562891351e-17,-2.775557561562891351e-17,-6.036702111439112839e-03,-1.690276591202941048e-02,-2.776882971261970812e-02,-3.863489351321003351e-02,-4.829361689151254189e-02,-5.915968069210283953e-02,-7.002574449269316492e-02,-8.089180829328347644e-02,-9.175787209387380183e-02,-1.026239358944641133e-01,-1.134899996950544387e-01,-1.243560634956447503e-01,-1.352221272962350618e-01,-1.448808506745375702e-01,-1.557469144751278955e-01,-1.666129782757181932e-01,-1.774790420763085186e-01,-1.883451058768988440e-01,-1.931744675660500843e-01,-1.931744675660500843e-01,-1.931744675660500843e-01,-1.931744675660500843e-01,-1.931744675660500843e-01,-1.931744675660500843e-01,-1.931744675660500843e-01,-1.931744675660500843e-01,-1.931744675660500843e-01,-1.931744675660500843e-01,-1.931744675660500843e-01,-1.931744675660500843e-01,-1.931744675660500843e-01,-1.931744675660500843e-01,-1.931744675660500843e-01,-1.931744675660500843e-01,-1.931744675660500843e-01,-1.931744675660500843e-01,-1.931744675660500843e-01
-9.055053167158599869e-02,-2.775557561562891351e-17,-2.775557561562891351e-17,-2.775557561562891351e-17,-2.775557561562891351e-17,-2.775557561562891351e-17,-2.775557561562891351e-17,-2.775557561562891351e-17,-2.775557561562891351e-17,-2.775557561562891351e-17,-2.775557561562891351e-17,-2.775557561562891351e-17,-2.775557561562891351e-17,-1.207340422287844772e-03,-1.207340422287817017e-02,-2.293946802346846781e-02,-3.380553182405879320e-02,-4.346425520236130158e-02,-5.433031900295159922e-02,-6.519638280354192461e-02,-7.606244660413223613e-02,-8.692851040472254764e-02,-9.779457420531285916e-02,-1.086606380059031846e-01,-1.195267018064934961e-01,-1.291854251847959767e-01,-1.400514889853863298e-01,-1.509175527859766275e-01,-1.617836165865669529e-01,-1.726496803871572783e-01,-1.835157441877475759e-01,-1.931744675660500843e-01,-1.931744675660500843e-01,-1.931744675660500843e-01,-1.931744675660500843e-01,-1.931744675660500843e-01,-1.931744675660500843e-01,-1.931744675660500843e-01,-1.931744675660500843e-01,-1.931744675660500843e-01,-1.931744675660500843e-01,-1.931744675660500843e-01,-1.931744675660500843e-01,-1.931744675660500843e-01,-1.931744675660500843e-01,-1.931744675660500843e-01,-1.931744675660500843e-01
-4.225691478007345681e-02,-2.775557561562891351e-17,-2.775557561562891351e-17,-2.775557561562891351e-17,-2.775557561562891351e-17,-2.775557561562891351e-17,-2.775557561562891351e-17,-2.775557561562891351e-17,-2.775557561562891351e-17,-2.775557561562891351e-17,-2.775557561562891351e-17,-2.775557561562891351e-17,-2.775557561562891351e-17,-2.775557561562891351e-17,-5.551115123125782702e-17,-2.775557561562891351e-17,-2.775557561562891351e-17,-7.244042533726902100e-03,-1.811010633431722749e-02,-2.776882971261970812e-02,-3.863489351321003351e-02,-4.950095731380035891e-02,-6.036702111439065654e-02,-7.123308491498098194e-02,-8.209914871557130733e-02,-9.296521251616161885e-02,-1.038312763167519165e-01,-1.146973401173422558e-01,-1.243560634956447503e-01,-1.352221272962350618e-01,-1.460881910968253872e-01,-1.569542548974157126e-01,-1.678203186980060102e-01,-1.786863824985963356e-01,-1.895524462991866332e-01,-1.931744675660500843e-01,-1.931744675660500843e-01,-1.931744675660500843e-01,-1.931744675660500843e-01,-1.931744675660500843e-01,-1.931744675660500843e-01,-1.931744675660500843e-01,-1.931744675660500843e-01,-1.931744675660500843e-01,-1.931744675660500843e-01,-1.931744675660500843e-01,-1.931744675660500843e-01
-2.775557561562891351e-17,-2.775557561562891351e-17,-2.775557561562891351e-17,-2.775557561562891351e-17,-5.551115123125782702e-17,-2.775557561562891351e-17,-5.551115123125782702e-17,-2.775557561562891351e-17,-2.775557561562891351e-17,-2.775557561562891351e-17,-2.775557561562891351e-17,-2.775557561562891351e-17,-2.775557561562891351e-17,-5.551115123125782702e-17,-2.775557561562891351e-17,-2.775557561562891351e-17,-2.775557561562891351e-17,-2.775557561562891351e-17,-2.775557561562891351e-17,-2.775557561562891351e-17,-2.414680844575634033e-03,-1.207340422287814241e-02,-2.293946802346849556e-02,-3.380553182405879320e-02,-4.467159562464909084e-02,-5.553765942523941623e-02,-6.640372322582974163e-02,-7.726978702642005314e-02,-8.813585082701036466e-02,-9.900191462760069006e-02,-1.086606380059031846e-01,-1.195267018064935099e-01,-1.303927656070838215e-01,-1.412588294076741469e-01,-1.521248932082644445e-01,-1.629909570088547699e-01,-1.738570208094450675e-01,-1.847230846100353929e-01,-1.931744675660500843e-01,-1.931744675660500843e-01,-1.931744675660500843e-01,-1.931744675660500843e-01,-1.931744675660500843e-01,-1.931744675660500843e-01,-1.931744675660500843e-01,-1.931744675660500843e-01,-1.931744675660500843e-01
-2.775557561562891351e-17,-2.775557561562891351e-17,-2.775557561562891351e-17,-2.775557561562891351e-17,-2.775557561562891351e-17,-2.775557561562891351e-17,-2.775557561562891351e-17,-2.775557561562891351e-17,-2.775557561562891351e-17,-2.775557561562891351e-17,-5.551115123125782702e-17,-5.551115123125782702e-17,-2.775557561562891351e-17,-5.551115123125782702e-17,0.000000000000000000e+00,-2.775557561562891351e-17,-2.775557561562891351e-17,-2.775557561562891351e-17,-2.775557561562891351e-17,-2.775557561562891351e-17,-5.551115123125782702e-17,-2.775557561562891351e-17,-2.775557561562891351e-17,-2.775557561562891351e-17,-7.244042533726929856e-03,-1.811010633431722749e-02,-2.897617013490752513e-02,-3.984223393549782277e-02,-5.070829773608814817e-02,-6.157436153667847356e-02,-7.244042533726879896e-02,-8.330648913785911047e-02,-9.296521251616160497e-02,-1.038312763167519304e-01,-1.146973401173422419e-01,-1.255634039179325812e-01,-1.364294677185228788e-01,-1.472955315191132042e-01,-1.581615953197035296e-01,-1.690276591202938272e-01,-1.798937229208841526e-01,-1.895524462991866332e-01,-1.931744675660500843e-01,-1.931744675660500843e-01,-1.931744675660500843e-01,-1.931744675660500843e-01,-1.931744675660500843e-01
-2.775557561562891351e-17,-2.775557561562891351e-17,-2.775557561562891351e-17,-2.775557561562891351e-17,-2.775557561562891351e-17,-2.775557561562891351e-17,-2.775557561562891351e-17,-2.775557561562891351e-17,-2.775557561562891351e-17,-2.775557561562891351e-17,-5.551115123125782702e-17,-2.775557561562891351e-17,-2.775557561562891351e-17,-2.775557561562891351e-17,-2.775557561562891351e-17,-2.775557561562891351e-17,-2.775557561562891351e-17,-2.775557561562891351e-17,-5.551115123125782702e-17,-2.775557561562891351e-17,-2.775557561562891351e-17,-2.775557561562891351e-17,-2.775557561562891351e-17,-2.775557561562891351e-17,-2.775557561562891351e-17,-2.775557561562891351e-17,-2.775557561562891351e-17,-2.414680844575661789e-03,-1.328074464516595943e-02,-2.414680844575628482e-02,-3.501287224634658246e-02,-4.587893604693690786e-02,-5.674499984752720549e-02,-6.761106364811755864e-02,-7.847712744870785628e-02,-8.813585082701036466e-02,-9.900191462760069006e-02,-1.098679784281910016e-01,-1.207340422287813131e-01,-1.316001060293716107e-01,-1.424661698299619361e-01,-1.533322336305522615e-01,-1.641982974311425869e-01,-1.750643612317328845e-01,-1.847230846100353929e-01,-1.931744675660500843e-01,-1.931744675660500843e-01
-2.775557561562891351e-17,-2.775557561562891351e-17,-2.775557561562891351e-17,-2.775557561562891351e-17,-2.775557561562891351e-17,-2.775557561562891351e-17,-2.775557561562891351e-17,-2.775557561562891351e-17,-2.775557561562891351e-17,-2.775557561562891351e-17,-2.775557561562891351e-17,-2.775557561562891351e-17,-2.775557561562891351e-17,-2.775557561562891351e-17,-2.775557561562891351e-17,-2.775557561562891351e-17,-2.775557561562891351e-17,-5.551115123125782702e-17,-2.775557561562891351e-17,-2.775557561562891351e-17,-2.775557561562891351e-17,-2.775557561562891351e-17,-2.775557561562891351e-17,-2.775557561562891351e-17,-2.775557561562891351e-17,-5.551115123125782702e-17,-2.775557561562891351e-17,-2.775557561562891351e-17,-2.775557561562891351e-17,-2.775557561562891351e-17,0.000000000000000000e+00,-8.451382956014719117e-03,-1.931744675660501676e-02,-3.018351055719534215e-02,-4.104957435778566754e-02,-5.191563815837596518e-02,-6.278170195896629058e-02,-7.244042533726879896e-02,-8.330648913785909659e-02,-9.417255293844942199e-02,-1.050386167390397474e-01,-1.159046805396300589e-01,-1.267707443402203704e-01,-1.376368081408106958e-01,-1.485028719414009934e-01,-1.593689357419913188e-01,-1.690276591202938272e-01
-2.775557561562891351e-17,-2.775557561562891351e-17,-2.775557561562891351e-17,-2.775557561562891351e-17,-2.775557561562891351e-17,-2.775557561562891351e-17,-2.775557561562891351e-17,-5.551115123125782702e-17,-2.775557561562891351e-17,-2.775557561562891351e-17,-2.775557561562891351e-17,-2.775557561562891351e-17,-2.775557561562891351e-17,-2.775557561562891351e-17,-2.775557561562891351e-17,-2.775557561562891351e-17,-5.551115123125782702e-17,-2.775557561562891351e-17,-2.775557561562891351e-17,-2.775557561562891351e-17,-2.775557561562891351e-17,-2.775557561562891351e-17,-2.775557561562891351e-17,-2.775557561562891351e-17,-2.775557561562891351e-17,-2.775557561562891351e-17,-2.775557561562891351e-17,-2.775557561562891351e-17,-2.775557561562891351e-17,-2.775557561562891351e-17,-2.775557561562891351e-17,-2.775557561562891351e-17,-2.775557561562891351e-17,-5.551115123125782702e-17,-3.622021266863478806e-03,-1.448808506745377644e-02,-2.535414886804407408e-02,-3.622021266863442723e-02,-4.708627646922472487e-02,-5.674499984752720549e-02,-6.761106364811755864e-02,-7.847712744870787016e-02,-8.934319124929818168e-02,-1.002092550498885071e-01,-1.110753188504788047e-01,-1.219413826510691162e-01,-1.328074464516594277e-01
-2.775557561562891351e-17,-2.775557561562891351e-17,-2.775557561562891351e-17,-2.775557561562891351e-17,-2.775557561562891351e-17,-2.775557561562891351e-17,-5.551115123125782702e-17,-2.775557561562891351e-17,-2.775557561562891351e-17,-5.551115123125782702e-17,-2.775557561562891351e-17,-2.775557561562891351e-17,-2.775557561562891351e-17,-2.775557561562891351e-17,-5.551115123125782702e-17,-2.775557561562891351e-17,-2.775557561562891351e-17,-2.775557561562891351e-17,-2.775557561562891351e-17,-2.775557561562891351e-17,-2.775557561562891351e-17,-2.775557561562891351e-17,-2.775557561562891351e-17,-5.551115123125782702e-17,-2.775557561562891351e-17,-2.775557561562891351e-17,-2.775557561562891351e-17,-5.551115123125782702e-17,-2.775557561562891351e-17,-2.775557561562891351e-17,-2.775557561562891351e-17,-2.775557561562891351e-17,-2.775557561562891351e-17,-2.775557561562891351e-17,-2.775557561562891351e-17,-2.775557561562891351e-17,-2.775557561562891351e-17,-2.775557561562891351e-17,-9.658723378302508378e-03,-2.052478717889283377e-02,-3.139085097948315917e-02,-4.225691478007351232e-02,-5.191563815837599294e-02,-6.278170195896629058e-02,-7.364776575955661597e-02,-8.451382956014694137e-02,-9.537989336073723901e-02
-2.775557561562891351e-17,-2.775557561562891351e-17,-2.775557561562891351e-17,-2.775557561562891351e-17,-2.775557561562891351e-17,-2.775557561562891351e-17,-2.775557561562891351e-17,-2.775557561562891351e-17,-2.775557561562891351e-17,-2.775557561562891351e-17,-2.775557561562891351e-17,-2.775557561562891351e-17,-2.775557561562891351e-17,-5.551115123125782702e-17,-2.775557561562891351e-17,-2.775557561562891351e-17,-5.551115123125782702e-17,-2.775557561562891351e-17,-2.775557561562891351e-17,-2.775557561562891351e-17,-2.775557561562891351e-17,-5.551115123125782702e-17,-2.775557561562891351e-17,-2.775557561562891351e-17,-2.775557561562891351e-17,-2.775557561562891351e-17,0.000000000000000000e+00,-2.775557561562891351e-17,-2.775557561562891351e-17,-2.775557561562891351e-17,0.000000000000000000e+00,-2.775557561562891351e-17,-2.775557561562891351e-17,-2.775557561562891351e-17,-5.551115123125782702e-17,-2.775557561562891351e-17,-2.775557561562891351e-17,-2.775557561562891351e-17,-2.775557561562891351e-17,-2.775557561562891351e-17,-2.775557561562891351e-17,-4.829361689151268067e-03,-1.569542548974159346e-02,-2.656148929033189110e-02,-3.622021266863442723e-02,-4.708627646922469712e-02,-5.795234026981502251e-02
-2.775557561562891351e-17,-2.775557561562891351e-17,-2.775557561562891351e-17,-5.551115123125782702e-17,-2.775557561562891351e-17,-2.775557561562891351e-17,-2.775557561562891351e-17,-2.775557561562891351e-17,-2.775557561562891351e-17,-2.775557561562891351e-17,-2.775557561562891351e-17,-2.775557561562891351e-17,-2.775557561562891351e-17,-2.775557561562891351e-17,-2.775557561562891351e-17,-2.775557561562891351e-17,-2.553506263638261053e-01,-2.553506263638261053e-01,-2.553506263638261053e-01,-2.775557561562891351e-17,-2.775557561562891351e-17,-2.775557561562891351e-17,-2.775557561562891351e-17,-2.775557561562891351e-17,-2.775557561562891351e-17,-2.775557561562891351e-17,-2.775557561562891351e-17,-2.775557561562891351e-17,-5.551115123125782702e-17,-5.551115123125782702e-17,-2.775557561562891351e-17,-2.775557561562891351e-17,-2.775557561562891351e-17,0.000000000000000000e+00,-2.775557561562891351e-17,-2.775557561562891351e-17,-2.775557561562891351e-17,-5.551115123125782702e-17,0.000000000000000000e+00,-2.775557561562891351e-17,-2.775557561562891351e-17,-2.775557561562891351e-17,-2.775557561562891351e-17,-2.775557561562891351e-17,-2.775557561562891351e-17,-1.086606380059032539e-02,-5.829190476358347972e-02
-2.775557561562891351e-17,-2.775557561562891351e-17,-2.775557561562891351e-17,-2.775557561562891351e-17,-2.775557561562891351e-17,-5.551115123125782702e-17,-2.775557561562891351e-17,-2.775557561562891351e-17,-5.551115123125782702e-17,-2.775557561562891351e-17,-5.551115123125782702e-17,-2.775557561562891351e-17,-2.775557561562891351e-17,-2.775557561562891351e-17,-2.775557561562891351e-17,-2.775557561562891351e-17,-2.553506263638261053e-01,-2.553506263638261053e-01,-2.553506263638261053e-01,-2.775557561562891351e-17,-2.775557561562891351e-17,-2.775557561562891351e-17,-2.775557561562891351e-17,0.000000000000000000e+00,-2.775557561562891351e-17,-2.775557561562891351e-17,-2.775557561562891351e-17,-2.775557561562891351e-17,-2.775557561562891351e-17,-2.775557561562891351e-17,-2.775557561562891351e-17,-2.775557561562891351e-17,-2.775557561562891351e-17,-2.775557561562891351e-17,-2.775557561562891351e-17,-2.775557561562891351e-17,-5.551115123125782702e-17,-2.775557561562891351e-17,-2.775557561562891351e-17,-2.775557561562891351e-17,-2.775557561562891351e-17,0.000000000000000000e+00,-2.775557561562891351e-17,-2.775557561562891351e-17,-5.551115123125782702e-17,0.000000000000000000e+00,-9.055053167158599869e-02
-2.775557561562891351e-17,-2.775557561562891351e-17,-2.775557561562891351e-17,-2.775557561562891351e-17,-2.775557561562891351e-17,-2.775557561562891351e-17,-2.775557561562891351e-17,-2.775557561562891351e-17,0.000000000000000000e+00,-5.551115123125782702e-17,-2.775557561562891351e-17,-2.775557561562891351e-17,-5.551115123125782702e-17,-2.775557561562891351e-17,-2.775557561562891351e-17,-2.775557561562891351e-17,-2.553506263638261053e-01,-2.553506263638261609e-01,-2.553506263638261053e-01,-5.551115123125782702e-17,-2.775557561562891351e-17,-2.775557561562891351e-17,-2.775557561562891351e-17,-2.775557561562891351e-17,-2.775557561562891351e-17,-2.775557561562891351e-17,0.000000000000000000e+00,-2.775557561562891351e-17,-2.775557561562891351e-17,-2.775557561562891351e-17,0.000000000000000000e+00,-2.775557561562891351e-17,-2.775557561562891351e-17,-2.775557561562891351e-17,0.000000000000000000e+00,-2.775557561562891351e-17,-2.775557561562891351e-17,-2.775557561562891351e-17,-2.775557561562891351e-17,-2.775557561562891351e-17,-2.775557561562891351e-17,-2.775557561562891351e-17,-2.775557561562891351e-17,-2.775557561562891351e-17,-5.551115123125782702e-17,-2.775557561562891351e-17,-1.448808506745375702e-01
-2.775557561562891351e-17,-2.775557561562891351e-17,-2.775557561562891351e-17,-2.775557561562891351e-17,-2.775557561562891351e-17,-2.775557561562891351e-17,-2.775557561562891351e-17,-2.775557561562891351e-17,-2.775557561562891351e-17,-2.775557561562891351e-17,-2.775557561562891351e-17,-2.775557561562891351e-17,-2.775557561562891351e-17,-2.775557561562891351e-17,-2.775557561562891351e-17,0.000000000000000000e+00,-5.551115123125782702e-17,-2.775557561562891351e-17,-2.775557561562891351e-17,-2.775557561562891351e-17,-2.775557561562891351e-17,-2.775557561562891351e-17,-2.775557561562891351e-17,-2.775557561562891351e-17,-5.551115123125782702e-17,-2.775557561562891351e-17,-5.551115123125782702e-17,-2.775557561562891351e-17,-2.775557561562891351e-17,0.000000000000000000e+00,-5.551115123125782702e-17,-2.775557561562891351e-17,-2.775557561562891351e-17,0.000000000000000000e+00,-2.775557561562891351e-17,-2.775557561562891351e-17,-2.775557561562891351e-17,-2.775557561562891351e-17,-2.775557561562891351e-17,-2.775557561562891351e-17,-2.775557561562891351e-17,-2.775557561562891351e-17,-2.775557561562891351e-17,-2.775557561562891351e-17,-2.775557561562891351e-17,-1.811010633431722749e-02,-1.931744675660500843e-01
-2.775557561562891351e-17,-2.775557561562891351e-17,-2.775557561562891351e-17,-2.775557561562891351e-17,-5.551115123125782702e-17,-2.775557561562891351e-17,-2.775557561562891351e-17,-2.775557561562891351e-17,-2.775557561562891351e-17,-2.775557561562891351e-17,-2.775557561562891351e-17,-5.551115123125782702e-17,-2.775557561562891351e-17,-2.775557561562891351e-17,-2.775557561562891351e-17,-2.775557561562891351e-17,-2.775557561562891351e-17,-2.775557561562891351e-17,-2.775557561562891351e-17,-2.775557561562891351e-17,-2.775557561562891351e-17,-2.775557561562891351e-17,-2.775557561562891351e-17,-2.775557561562891351e-17,-2.775557561562891351e-17,-2.775557561562891351e-17,-2.775557561562891351e-17,-2.775557561562891351e-17,-2.775557561562891351e-17,-2.775557561562891351e-17,0.000000000000000000e+00,-2.775557561562891351e-17,-5.551115123125782702e-17,-5.551115123125782702e-17,-2.775557561562891351e-17,-2.775557561562891351e-17,0.000000000000000000e+00,-5.551115123125782702e-17,-2.775557561562891351e-17,-2.775557561562891351e-17,-5.551115123125782702e-17,-2.775557561562891351e-17,-2.775557561562891351e-17,-2.775557561562891351e-17,-2.775557561562891351e-17,-6.640372322582974163e-02,-1.931744675660500843e-01
-2.775557561562891351e-17,-2.775557561562891351e-17,-2.775557561562891351e-17,-2.775557561562891351e-17,0.000000000000000000e+00,-5.551115123125782702e-17,-2.775557561562891351e-17,-2.775557561562891351e-17,-5.551115123125782702e-17,-2.775557561562891351e-17,-2.775557561562891351e-17,-5.551115123125782702e-17,-2.775557561562891351e-17,-5.551115123125782702e-17,-5.551115123125782702e-17,-5.551115123125782702e-17,-2.775557561562891351e-17,-2.775557561562891351e-17,-5.551115123125782702e-17,-2.775557561562891351e-17,-2.775557561562891351e-17,-2.775557561562891351e-17,-2.775557561562891351e-17,-2.775557561562891351e-17,-2.775557561562891351e-17,-2.775557561562891351e-17,0.000000000000000000e+00,-2.775557561562891351e-17,-2.775557561562891351e-17,-2.775557561562891351e-17,-2.775557561562891351e-17,-2.775557561562891351e-17,-2.775557561562891351e-17,-2.775557561562891351e-17,-2.775557561562891351e-17,-2.775557561562891351e-17,-2.775557561562891351e-17,0.000000000000000000e+00,-2.775557561562891351e-17,-5.551115123125782702e-17,-5.551115123125782702e-17,-5.551115123125782702e-17,-2.775557561562891351e-17,-2.775557561562891351e-17,0.000000000000000000e+00,-1.207340422287813131e-01,-1.931744675660500843e-01
-2.775557561562891351e-17,-2.775557561562891351e-17,-2.775557561562891351e-17,-2.775557561562891351e-17,-2.775557561562891351e-17,-2.775557561562891351e-17,-2.775557561562891351e-17,-2.775557561562891351e-17,-2.775557561562891351e-17,-2.775557561562891351e-17,-2.775557561562891351e-17,0.000000000000000000e+00,-5.551115123125782702e-17,-2.775557561562891351e-17,-2.775557561562891351e-17,-2.775557561562891351e-17,-2.775557561562891351e-17,-2.775557561562891351e-17,-2.775557561562891351e-17,-2.775557561562891351e-17,-5.551115123125782702e-17,-5.551115123125782702e-17,-5.551115123125782702e-17,-2.775557561562891351e-17,-2.775557561562891351e-17,-2.775557561562891351e-17,-5.551115123125782702e-17,-2.775557561562891351e-17,-2.775557561562891351e-17,-2.775557561562891351e-17,-2.775557561562891351e-17,-2.775557561562891351e-17,-2.775557561562891351e-17,-2.775557561562891351e-17,-2.775557561562891351e-17,-2.775557561562891351e-17,-2.775557561562891351e-17,0.000000000000000000e+00,-2.775557561562891351e-17,-2.775557561562891351e-17,-2.775557561562891351e-17,-2.775557561562891351e-17,-2.775557561562891351e-17,-2.775557561562891351e-17,0.000000000000000000e+00,-1.750643612317328845e-01,-1.931744675660500843e-01
-3.742755309092221649e-02,-2.656148929033191886e-02,-1.569542548974159346e-02,-4.829361689151268067e-03,-2.775557561562891351e-17,-2.775557561562891351e-17,-2.775557561562891351e-17,-2.775557561562891351e-17,-2.775557561562891351e-17,-2.775557561562891351e-17,-2.775557561562891351e-17,-2.775557561562891351e-17,-2.775557561562891351e-17,-2.775557561562891351e-17,-2.775557561562891351e-17,-2.775557561562891351e-17,-2.775557561562891351e-17,-2.775557561562891351e-17,-2.775557561562891351e-17,-2.775557561562891351e-17,-2.775557561562891351e-17,-2.775557561562891351e-17,-2.775557561562891351e-17,-2.775557561562891351e-17,-2.775557561562891351e-17,-2.775557561562891351e-17,-2.775557561562891351e-17,-2.775557561562891351e-17,0.000000000000000000e+00,-5.551115123125782702e-17,-2.775557561562891351e-17,-2.775557561562891351e-17,-2.775557561562891351e-17,-5.551115123125782702e-17,-2.775557561562891351e-17,-2.775557561562891351e-17,-2.775557561562891351e-17,-2.775557561562891351e-17,-2.775557561562891351e-17,-2.775557561562891351e-17,-2.775557561562891351e-17,-2.775557561562891351e-17,-2.775557561562891351e-17,-2.775557561562891351e-17,-4.225691478007348456e-02,-1.931744675660500843e-01,-1.931744675660500843e-01
-7.364776575955661597e-02,-6.278170195896629058e-02,-5.312297858066378220e-02,-4.225691478007345681e-02,-3.139085097948315917e-02,-2.052478717889286153e-02,-9.658723378302536133e-03,-5.551115123125782702e-17,-2.775557561562891351e-17,-2.775557561562891351e-17,-2.775557561562891351e-17,-5.551115123125782702e-17,-2.775557561562891351e-17,-2.775557561562891351e-17,-5.551115123125782702e-17,-2.775557561562891351e-17,-2.775557561562891351e-17,-2.775557561562891351e-17,-2.775557561562891351e-17,-2.775557561562891351e-17,-2.775557561562891351e-17,-2.775557561562891351e-17,0.000000000000000000e+00,-2.775557561562891351e-17,-2.775557561562891351e-17,-2.775557561562891351e-17,-2.775557561562891351e-17,-2.775557561562891351e-17,-2.775557561562891351e-17,-2.775557561562891351e-17,-2.775557561562891351e-17,-2.775557561562891351e-17,-5.551115123125782702e-17,0.000000000000000000e+00,-2.775557561562891351e-17,-5.551115123125782702e-17,-5.551115123125782702e-17,-2.775557561562891351e-17,-2.775557561562891351e-17,-2.775557561562891351e-17,-5.551115123125782702e-17,-2.775557561562891351e-17,-2.775557561562891351e-17,-2.775557561562891351e-17,-9.658723378302505602e-02,-1.931744675660500843e-01,-1.931744675660500843e-01
-1.110753188504788186e-01,-1.002092550498884932e-01,-8.934319124929818168e-02,-7.847712744870785628e-02,-6.761106364811755864e-02,-5.795234026981502251e-02,-4.708627646922472487e-02,-3.622021266863439948e-02,-2.535414886804407408e-02,-1.448808506745377644e-02,-3.622021266863478806e-03,-5.551115123125782702e-17,-2.775557561562891351e-17,-2.775557561562891351e-17,-2.775557561562891351e-17,-2.775557561562891351e-17,-2.775557561562891351e-17,-5.551115123125782702e-17,-5.551115123125782702e-17,-2.775557561562891351e-17,-2.775557561562891351e-17,-5.551115123125782702e-17,-5.551115123125782702e-17,-2.775557561562891351e-17,-2.775557561562891351e-17,-2.775557561562891351e-17,-2.775557561562891351e-17,-2.775557561562891351e-17,-2.775557561562891351e-17,0.000000000000000000e+00,-2.775557561562891351e-17,-2.775557561562891351e-17,-2.775557561562891351e-17,0.000000000000000000e+00,-2.775557561562891351e-17,-2.775557561562891351e-17,-2.775557561562891351e-17,-2.775557561562891351e-17,-2.775557561562891351e-17,-5.551115123125782702e-17,0.000000000000000000e+00,-2.775557561562891351e-17,-2.775557561562891351e-17,0.000000000000000000e+00,-1.509175527859766275e-01,-1.931744675660500843e-01,-1.931744675660500843e-01
-1.485028719414009934e-01,-1.376368081408106958e-01,-1.267707443402203982e-01,-1.159046805396300589e-01,-1.050386167390397474e-01,-9.417255293844944974e-02,-8.330648913785912435e-02,-7.364776575955660209e-02,-6.278170195896629058e-02,-5.191563815837599294e-02,-4.104957435778563979e-02,-3.018351055719534215e-02,-1.931744675660501676e-02,-8.451382956014719117e-03,0.000000000000000000e+00,-2.775557561562891351e-17,-2.775557561562891351e-17,-2.775557561562891351e-17,-2.775557561562891351e-17,-2.775557561562891351e-17,-2.775557561562891351e-17,-2.775557561562891351e-17,-2.775557561562891351e-17,-2.775557561562891351e-17,-5.551115123125782702e-17,-5.551115123125782702e-17,-2.775557561562891351e-17,-2.775557561562891351e-17,-2.775557561562891351e-17,-5.551115123125782702e-17,-2.775557561562891351e-17,-2.775557561562891351e-17,-2.775557561562891351e-17,-2.775557561562891351e-17,-2.775557561562891351e-17,-2.775557561562891351e-17,-2.775557561562891351e-17,-2.775557561562891351e-17,-2.775557561562891351e-17,-2.775557561562891351e-17,0.000000000000000000e+00,-2.775557561562891351e-17,-2.775557561562891351e-17,-1.811010633431722749e-02,-1.931744675660500843e-01,-1.931744675660500843e-01,-1.931744675660500843e-01
-1.859304250323232099e-01,-1.750643612317328845e-01,-1.641982974311425592e-01,-1.533322336305522615e-01,-1.424661698299619361e-01,-1.316001060293716385e-01,-1.207340422287813131e-01,-1.098679784281910016e-01,-9.900191462760067618e-02,-8.934319124929818168e-02,-7.847712744870787016e-02,-6.761106364811755864e-02,-5.674499984752723325e-02,-4.587893604693690786e-02,-3.501287224634661022e-02,-2.414680844575631258e-02,-1.328074464516595943e-02,-2.414680844575661789e-03,0.000000000000000000e+00,0.000000000000000000e+00,-2.775557561562891351e-17,-2.775557561562891351e-17,-2.775557561562891351e-17,-2.775557561562891351e-17,-2.775557561562891351e-17,-2.775557561562891351e-17,-2.775557561562891351e-17,-2.775557561562891351e-17,-5.551115123125782702e-17,0.000000000000000000e+00,-2.775557561562891351e-17,0.000000000000000000e+00,-5.551115123125782702e-17,-2.775557561562891351e-17,-2.775557561562891351e-17,-2.775557561562891351e-17,-5.551115123125782702e-17,-2.775557561562891351e-17,-2.775557561562891351e-17,-2.775557561562891351e-17,-2.775557561562891351e-17,-2.775557561562891351e-17,-2.775557561562891351e-17,-7.244042533726879896e-02,-1.931744675660500843e-01,-1.931744675660500843e-01,-1.931744675660500843e-01
-1.931744675660500843e-01,-1.931744675660500843e-01,-1.931744675660500843e-01,-1.907597867214744503e-01,-4.631481971154657318e-01,-4.522821333148754341e-01,-4.414160695142851365e-01,-4.305500057136948389e-01,-1.364294677185228788e-01,-1.255634039179325534e-01,-1.146973401173422419e-01,-1.038312763167519304e-01,-9.417255293844943587e-02,-8.330648913785912435e-02,-7.244042533726881283e-02,-6.157436153667847356e-02,-5.070829773608817592e-02,-3.984223393549785053e-02,-2.897617013490752513e-02,-1.811010633431722749e-02,-8.451382956014719117e-03,-2.775557561562891351e-17,-2.775557561562891351e-17,-2.775557561562891351e-17,-2.775557561562891351e-17,0.000000000000000000e+00,0.000000000000000000e+00,-2.775557561562891351e-17,-2.775557561562891351e-17,0.000000000000000000e+00,-2.775557561562891351e-17,-2.775557561562891351e-17,-2.775557561562891351e-17,-2.775557561562891351e-17,-2.775557561562891351e-17,-5.551115123125782702e-17,0.000000000000000000e+00,-2.775557561562891351e-17,-2.775557561562891351e-17,0.000000000000000000e+00,-5.551115123125782702e-17,-2.775557561562891351e-17,-2.775557561562891351e-17,-1.267707443402203704e-01,-1.931744675660500843e-01,-1.931744675660500843e-01,-1.931744675660500843e-01
-1.931744675660500843e-01,-1.931744675660500843e-01,-1.931744675660500843e-01,-1.931744675660500843e-01,-4.764289417606316634e-01,-4.764289417606316634e-01,-4.764289417606316634e-01,-4.679775588046169998e-01,-1.738570208094450675e-01,-1.629909570088547699e-01,-1.521248932082644445e-01,-1.412588294076741469e-01,-1.303927656070838215e-01,-1.195267018064934961e-01,-1.098679784281909877e-01,-9.900191462760069006e-02,-8.813585082701036466e-02,-7.726978702642005314e-02,-6.640372322582974163e-02,-5.553765942523941623e-02,-4.467159562464909084e-02,-3.380553182405879320e-02,-2.293946802346846781e-02,-1.328074464516595943e-02,-2.414680844575661789e-03,-5.551115123125782702e-17,-2.775557561562891351e-17,-2.775557561562891351e-17,-2.775557561562891351e-17,-2.775557561562891351e-17,-2.775557561562891351e-17,-2.775557561562891351e-17,-2.775557561562891351e-17,-2.775557561562891351e-17,-2.775557561562891351e-17,-2.071137531951612321e-01,-2.071137531951612043e-01,-2.071137531951612321e-01,-2.071137531951612321e-01,-2.071137531951612321e-01,-2.775557561562891351e-17,-2.775557561562891351e-17,-5.551115123125782702e-17,-1.811010633431719419e-01,-1.931744675660500843e-01,-1.931744675660500843e-01,-1.931744675660500843e-01
-1.931744675660500843e-01,-1.931744675660500843e-01,-1.931744675660500843e-01,-1.931744675660500843e-01,-4.764289417606316634e-01,-4.764289417606316634e-01,-4.764289417606316634e-01,-4.764289417606316634e-01,-1.931744675660500843e-01,-1.931744675660500843e-01,-1.895524462991866332e-01,-1.786863824985963356e-01,-1.678203186980060102e-01,-1.569542548974157126e-01,-1.460881910968253872e-01,-1.352221272962350618e-01,-1.255634039179325534e-01,-1.146973401173422419e-01,-1.038312763167519304e-01,-9.296521251616161885e-02,-8.209914871557130733e-02,-7.123308491498098194e-02,-6.036702111439065654e-02,-4.950095731380035891e-02,-3.863489351321003351e-02,-2.897617013490752513e-02,-1.811010633431722749e-02,-7.244042533726902100e-03,-5.551115123125782702e-17,-2.775557561562891351e-17,-2.775557561562891351e-17,-2.775557561562891351e-17,-5.551115123125782702e-17,-2.775557561562891351e-17,-2.775557561562891351e-17,-2.071137531951612321e-01,-2.071137531951612321e-01,-2.071137531951612321e-01,-2.071137531951612321e-01,-2.071137531951612321e-01,-2.775557561562891351e-17,-2.775557561562891351e-17,-4.829361689151254189e-02,-1.931744675660500843e-01,-1.931744675660500843e-01,-1.931744675660500843e-01,-1.931744675660500843e-01
-1.931744675660500843e-01,-1.931744675660500843e-01,-1.931744675660500843e-01,-1.931744675660500843e-01,-4.764289417606316634e-01,-4.764289417606316634e-01,-4.764289417606316634e-01,-4.764289417606316634e-01,-1.931744675660500843e-01,-1.931744675660500843e-01,-1.931744675660500843e-01,-1.931744675660500843e-01,-1.931744675660500843e-01,-1.931744675660500843e-01,-1.835157441877475759e-01,-1.726496803871572783e-01,-1.617836165865669529e-01,-1.509175527859766275e-01,-1.412588294076741191e-01,-1.303927656070838215e-01,-1.195267018064934961e-01,-1.086606380059031846e-01,-9.779457420531287304e-02,-8.692851040472254764e-02,-7.606244660413223613e-02,-6.519638280354192461e-02,-5.433031900295159922e-02,-4.467159562464909084e-02,-3.380553182405879320e-02,-2.293946802346844005e-02,-1.207340422287814241e-02,-1.207340422287872528e-03,0.000000000000000000e+00,-2.775557561562891351e-17,0.000000000000000000e+00,-2.071137531951612598e-01,-2.071137531951612321e-01,-2.071137531951612321e-01,-2.071137531951612321e-01,-2.071137531951612598e-01,-5.551115123125782702e-17,-2.775557561562891351e-17,-1.026239358944641272e-01,-1.931744675660500843e-01,-1.931744675660500843e-01,-1.931744675660500843e-01,-1.931744675660500843e-01
-1.931744675660500843e-01,-1.931744675660500843e-01,-1.931744675660500843e-01,-1.931744675660500843e-01,-1.931744675660500843e-01,-1.931744675660500843e-01,-1.931744675660500843e-01,-1.931744675660500843e-01,-1.931744675660500843e-01,-1.931744675660500843e-01,-1.931744675660500843e-01,-1.931744675660500843e-01,-1.931744675660500843e-01,-1.931744675660500843e-01,-1.931744675660500843e-01,-1.931744675660500843e-01,-1.931744675660500843e-01,-1.883451058768988440e-01,-1.774790420763085186e-01,-1.666129782757181932e-01,-1.557469144751278955e-01,-1.460881910968253872e-01,-1.352221272962350618e-01,-1.243560634956447503e-01,-1.134899996950544387e-01,-1.026239358944641133e-01,-9.175787209387380183e-02,-8.089180829328349032e-02,-7.002574449269319268e-02,-5.915968069210283953e-02,-4.950095731380035891e-02,-3.863489351321003351e-02,-2.776882971261970812e-02,-1.690276591202941048e-02,-6.036702111439085083e-03,-2.071137531951612321e-01,-2.071137531951612321e-01,-2.071137531951612321e-01,-2.071137531951612598e-01,-2.071137531951612043e-01,-2.775557561562891351e-17,-2.775557561562891351e-17,-1.569542548974157126e-01,-1.931744675660500843e-01,-1.931744675660500843e-01,-1.931744675660500843e-01,-1.931744675660500843e-01
-1.931744675660500843e-01,-1.931744675660500843e-01,-1.931744675660500843e-01,-1.931744675660500843e-01,-1.931744675660500843e-01,-1.931744675660500843e-01,-1.931744675660500843e-01,-1.931744675660500843e-01,-1.931744675660500843e-01,-1.931744675660500843e-01,-1.931744675660500843e-01,-1.931744675660500843e-01,-1.931744675660500843e-01,-1.931744675660500843e-01,-1.931744675660500843e-01,-1.931744675660500843e-01,-1.931744675660500843e-01,-1.931744675660500843e-01,-1.931744675660500843e-01,-1.931744675660500843e-01,-1.931744675660500843e-01,-1.823084037654597589e-01,-1.714423399648694613e-01,-1.617836165865669529e-01,-1.509175527859766275e-01,-1.400514889853863298e-01,-1.291854251847960044e-01,-1.183193613842056791e-01,-1.074532975836153814e-01,-9.658723378302505602e-02,-8.572116998243474451e-02,-7.485510618184441911e-02,-6.519638280354192461e-02,-5.433031900295159922e-02,-4.346425520236127382e-02,-2.397119445969321805e-01,-2.288458807963418551e-01,-2.179798169957515297e-01,-2.071137531951612321e-01,-2.071137531951612321e-01,-2.775557561562891351e-17,-2.414680844575631258e-02,-1.931744675660500843e-01,-1.931744675660500843e-01,-1.931744675660500843e-01,-1.931744675660500843e-01,-1.931744675660500843e-01
-1.931744675660500843e-01,-1.931744675660500843e-01,-1.931744675660500843e-01,-1.931744675660500843e-01,-1.931744675660500843e-01,-1.931744675660500843e-01,-1.931744675660500843e-01,-1.931744675660500843e-01,-1.931744675660500843e-01,-1.931744675660500843e-01,-1.931744675660500843e-01,-1.931744675660500843e-01,-1.931744675660500843e-01,-1.931744675660500843e-01,-1.931744675660500843e-01,-1.931744675660500843e-01,-1.931744675660500843e-01,-1.931744675660500843e-01,-1.931744675660500843e-01,-1.931744675660500843e-01,-1.931744675660500843e-01,-1.931744675660500843e-01,-1.931744675660500843e-01,-1.931744675660500843e-01,-1.871377654546110270e-01,-1.774790420763085186e-01,-1.666129782757181932e-01,-1.557469144751278955e-01,-1.448808506745375702e-01,-1.340147868739472448e-01,-1.231487230733569332e-01,-1.122826592727666217e-01,-1.014165954721763102e-01,-9.055053167158599869e-02,-8.089180829328349032e-02,-7.002574449269317880e-02,-5.915968069210286728e-02,-4.829361689151254189e-02,-3.742755309092218874e-02,-2.656148929033189110e-02,-1.569542548974159346e-02,-8.134456095164141476e-02,-1.931744675660500843e-01,-1.931744675660500843e-01,-1.931744675660500843e-01,-1.931744675660500843e-01,-1.931744675660500843e-01
-1.931744675660500843e-01,-1.931744675660500843e-01,-1.931744675660500843e-01,-1.931744675660500843e-01,-1.931744675660500843e-01,-1.931744675660500843e-01,-1.931744675660500843e-01,-1.931744675660500843e-01,-1.931744675660500843e-01,-1.931744675660500843e-01,-1.931744675660500843e-01,-1.931744675660500843e-01,-1.931744675660500843e-01,-1.931744675660500843e-01,-1.931744675660500843e-01,-1.931744675660500843e-01,-1.931744675660500843e-01,-1.931744675660500843e-01,-1.931744675660500843e-01,-1.931744675660500843e-01,-1.931744675660500843e-01,-1.931744675660500843e-01,-1.931744675660500843e-01,-1.931744675660500843e-01,-1.931744675660500843e-01,-1.931744675660500843e-01,-1.931744675660500843e-01,-1.919671271437622673e-01,-1.823084037654597589e-01,-1.714423399648694613e-01,-1.605762761642791359e-01,-1.497102123636888105e-01,-1.388441485630985128e-01,-1.279780847625081874e-01,-1.171120209619178620e-01,-1.062459571613275644e-01,-9.537989336073723901e-02,-8.572116998243474451e-02,-7.485510618184443299e-02,-6.398904238125410759e-02,-5.312297858066378220e-02,-1.460127323204323813e-01,-1.931744675660500843e-01,-1.931744675660500843e-01,-1.931744675660500843e-01,-1.931744675660500843e-01,-1.931744675660500843e-01
