-4.869509159380753377e-02,-4.869509159380753377e-02,-4.869509159380753377e-02,-4.869509159380753377e-02,-4.869509159380753377e-02,-4.869509159380753377e-02,-4.869509159380753377e-02,-4.869509159380753377e-02,-4.869509159380753377e-02,-4.869509159380753377e-02,-4.869509159380753377e-02,-4.869509159380753377e-02,-4.736358518303936116e-02,-4.298863554765821465e-02,-3.861368591227706815e-02,-3.423873627689592858e-02,-2.967357143997646773e-02,-2.529862180459532470e-02,-2.092367216921417819e-02,-1.654872253383303515e-02,-1.198355769691357431e-02,-7.608608061532434741e-03,-3.233658426151288234e-03,-6.938893903907228378e-18,-1.387778780781445676e-17,-6.938893903907228378e-18,-6.938893903907228378e-18,-6.938893903907228378e-18,-6.938893903907228378e-18,-6.938893903907228378e-18,-6.938893903907228378e-18,-6.938893903907228378e-18,-6.938893903907228378e-18,-2.891271063382322426e-02,-4.869509159380753377e-02,-4.869509159380753377e-02,-4.869509159380753377e-02,-4.869509159380753377e-02,-4.869509159380753377e-02,-4.869509159380753377e-02,-4.869509159380753377e-02,-4.869509159380753377e-02,-4.869509159380753377e-02,-4.869509159380753377e-02,-4.869509159380753377e-02,-4.869509159380753377e-02,-4.869509159380753377e-02
-4.869509159380753377e-02,-4.869509159380753377e-02,-4.869509159380753377e-02,-4.869509159380753377e-02,-4.869509159380753377e-02,-4.869509159380753377e-02,-4.869509159380753377e-02,-4.869509159380753377e-02,-4.869509159380753377e-02,-4.869509159380753377e-02,-4.869509159380753377e-02,-4.774401558611598290e-02,-4.317885074919652899e-02,-3.880390111381537555e-02,-3.442895147843423598e-02,-3.005400184305308947e-02,-2.548883700613363557e-02,-2.111388737075248906e-02,-1.673893773537134949e-02,-1.236398809999019605e-02,-7.798823263070742140e-03,-3.423873627689602572e-03,-6.938893903907228378e-18,-6.938893903907228378e-18,-6.938893903907228378e-18,-6.938893903907228378e-18,-6.938893903907228378e-18,0.000000000000000000e+00,-6.938893903907228378e-18,-6.938893903907228378e-18,-6.938893903907228378e-18,-6.938893903907228378e-18,-6.938893903907228378e-18,-6.938893903907228378e-18,-2.586926740921025730e-02,-4.869509159380753377e-02,-4.869509159380753377e-02,-4.869509159380753377e-02,-4.869509159380753377e-02,-4.869509159380753377e-02,-4.869509159380753377e-02,-4.869509159380753377e-02,-4.869509159380753377e-02,-4.869509159380753377e-02,-4.869509159380753377e-02,-4.869509159380753377e-02,-4.869509159380753377e-02
-4.869509159380753377e-02,-4.869509159380753377e-02,-4.869509159380753377e-02,-4.869509159380753377e-02,-4.869509159380753377e-02,-4.869509159380753377e-02,-4.869509159380753377e-02,-4.869509159380753377e-02,-4.869509159380753377e-02,-4.869509159380753377e-02,-4.793423078765429030e-02,-4.355928115227314379e-02,-3.899411631535368988e-02,-3.461916667997254338e-02,-3.024421704459140034e-02,-2.586926740921025383e-02,-2.130410257229079993e-02,-1.692915293690965689e-02,-1.255420330152851732e-02,-8.179253666147363877e-03,-3.614088829227909971e-03,-6.938893903907228378e-18,-6.938893903907228378e-18,-6.938893903907228378e-18,-1.387778780781445676e-17,-6.938893903907228378e-18,-6.938893903907228378e-18,-6.938893903907228378e-18,-6.938893903907228378e-18,-6.938893903907228378e-18,-6.938893903907228378e-18,-6.938893903907228378e-18,-6.938893903907228378e-18,-6.938893903907228378e-18,-6.938893903907228378e-18,-2.434754579690377035e-02,-4.869509159380753377e-02,-4.869509159380753377e-02,-4.869509159380753377e-02,-4.869509159380753377e-02,-4.869509159380753377e-02,-4.869509159380753377e-02,-4.869509159380753377e-02,-4.869509159380753377e-02,-4.869509159380753377e-02,-4.869509159380753377e-02,-4.869509159380753377e-02
-4.869509159380753377e-02,-4.869509159380753377e-02,-4.869509159380753377e-02,-4.869509159380753377e-02,-4.869509159380753377e-02,-4.869509159380753377e-02,-4.869509159380753377e-02,-4.869509159380753377e-02,-4.869509159380753377e-02,-4.812444598919260463e-02,-4.374949635381145813e-02,-3.937454671843031162e-02,-3.480938188151085078e-02,-3.043443224612971121e-02,-2.605948261074856817e-02,-2.168453297536742166e-02,-1.711936813844796429e-02,-1.274441850306681778e-02,-8.369468867685678215e-03,-3.994519232304531708e-03,-6.938893903907228378e-18,-1.387778780781445676e-17,-6.938893903907228378e-18,-6.938893903907228378e-18,-6.938893903907228378e-18,-6.938893903907228378e-18,-6.938893903907228378e-18,-6.938893903907228378e-18,-1.387778780781445676e-17,-6.938893903907228378e-18,-6.938893903907228378e-18,-6.938893903907228378e-18,-6.938893903907228378e-18,-6.938893903907228378e-18,-6.938893903907228378e-18,-6.938893903907228378e-18,-2.282582418459728341e-02,-4.869509159380753377e-02,-4.869509159380753377e-02,-4.869509159380753377e-02,-4.869509159380753377e-02,-4.869509159380753377e-02,-4.869509159380753377e-02,-4.869509159380753377e-02,-4.869509159380753377e-02,-4.869509159380753377e-02,-4.869509159380753377e-02
-4.869509159380753377e-02,-4.869509159380753377e-02,-4.869509159380753377e-02,-4.869509159380753377e-02,-4.869509159380753377e-02,-2.891027230718096197e-01,-2.891027230718096197e-01,-2.891027230718096197e-01,-4.850487639226922637e-02,-4.393971155534976553e-02,-3.956476191996861902e-02,-3.518981228458747945e-02,-3.062464744766802555e-02,-2.624969781228687904e-02,-2.187474817690572906e-02,-1.749979854152458603e-02,-1.293463370460513212e-02,-8.559684069223985614e-03,-4.184734433842839108e-03,-6.938893903907228378e-18,0.000000000000000000e+00,-6.938893903907228378e-18,-6.938893903907228378e-18,-1.387778780781445676e-17,-6.938893903907228378e-18,-6.938893903907228378e-18,-6.938893903907228378e-18,-6.938893903907228378e-18,-6.938893903907228378e-18,-1.387778780781445676e-17,-6.938893903907228378e-18,-6.938893903907228378e-18,-6.938893903907228378e-18,-6.938893903907228378e-18,-6.938893903907228378e-18,-6.938893903907228378e-18,-6.938893903907228378e-18,-2.130410257229079993e-02,-4.869509159380753377e-02,-4.869509159380753377e-02,-4.869509159380753377e-02,-4.869509159380753377e-02,-4.869509159380753377e-02,-4.869509159380753377e-02,-4.869509159380753377e-02,-4.869509159380753377e-02,-4.869509159380753377e-02
-4.869509159380753377e-02,-4.869509159380753377e-02,-4.869509159380753377e-02,-4.869509159380753377e-02,-4.869509159380753377e-02,-2.891027230718096197e-01,-2.891027230718096197e-01,-2.891027230718096197e-01,-4.432014195842638726e-02,-3.975497712150693336e-02,-3.538002748612578685e-02,-3.100507785074464381e-02,-2.643991301382518644e-02,-2.206496337844404340e-02,-1.769001374306290036e-02,-1.331506410768175386e-02,-8.749899270762299952e-03,-4.374949635381153445e-03,-6.938893903907228378e-18,-6.938893903907228378e-18,-6.938893903907228378e-18,-6.938893903907228378e-18,-6.938893903907228378e-18,-6.938893903907228378e-18,-6.938893903907228378e-18,-6.938893903907228378e-18,-1.387778780781445676e-17,-6.938893903907228378e-18,-6.938893903907228378e-18,-6.938893903907228378e-18,-6.938893903907228378e-18,-6.938893903907228378e-18,-6.938893903907228378e-18,0.000000000000000000e+00,-6.938893903907228378e-18,-6.938893903907228378e-18,-6.938893903907228378e-18,0.000000000000000000e+00,-1.893433818645934644e-02,-4.869509159380753377e-02,-4.869509159380753377e-02,-4.869509159380753377e-02,-4.869509159380753377e-02,-4.869509159380753377e-02,-4.869509159380753377e-02,-4.869509159380753377e-02,-4.869509159380753377e-02
-4.869509159380753377e-02,-4.869509159380753377e-02,-4.869509159380753377e-02,-4.869509159380753377e-02,-4.869509159380753377e-02,-2.891027230718096197e-01,-2.891027230718096197e-01,-2.849179886379668014e-01,-4.013540752458355509e-02,-3.557024268766410119e-02,-3.119529305228295468e-02,-2.682034341690180818e-02,-2.244539378152066167e-02,-1.788022894460120776e-02,-1.350527930922006126e-02,-9.130329673838921689e-03,-4.565164836919460845e-03,-1.902152015383212769e-04,-6.938893903907228378e-18,-6.938893903907228378e-18,-6.938893903907228378e-18,-6.938893903907228378e-18,-6.938893903907228378e-18,-6.938893903907228378e-18,-6.938893903907228378e-18,-6.938893903907228378e-18,-6.938893903907228378e-18,-6.938893903907228378e-18,-6.938893903907228378e-18,-6.938893903907228378e-18,-6.938893903907228378e-18,-6.938893903907228378e-18,-6.938893903907228378e-18,-6.938893903907228378e-18,-6.938893903907228378e-18,-6.938893903907228378e-18,-6.938893903907228378e-18,-1.014481074871002864e-03,-2.472797619998051699e-03,-1.931873140623468349e-02,-4.869509159380753377e-02,-4.869509159380753377e-02,-4.869509159380753377e-02,-4.869509159380753377e-02,-7.654391416244192559e-02,-7.654391416244192559e-02,-7.654391416244192559e-02
-4.869509159380753377e-02,-4.869509159380753377e-02,-4.869509159380753377e-02,-4.869509159380753377e-02,-4.869509159380753377e-02,-4.869509159380753377e-02,-4.470057236150300900e-02,-4.032562272612186249e-02,-3.595067309074072293e-02,-3.138550825382126208e-02,-2.701055861844011904e-02,-2.263560898305897601e-02,-1.826065934767782950e-02,-1.369549451075836866e-02,-9.320544875377229088e-03,-4.945595239996082582e-03,-5.706456046149430139e-04,-6.938893903907228378e-18,-6.938893903907228378e-18,-6.938893903907228378e-18,-6.938893903907228378e-18,-6.938893903907228378e-18,-6.938893903907228378e-18,-6.938893903907228378e-18,-6.938893903907228378e-18,-6.938893903907228378e-18,-6.938893903907228378e-18,-6.938893903907228378e-18,-6.938893903907228378e-18,-6.938893903907228378e-18,-6.938893903907228378e-18,-6.938893903907228378e-18,-6.938893903907228378e-18,-6.938893903907228378e-18,-6.938893903907228378e-18,-6.938893903907228378e-18,-9.510760076915578121e-04,-2.409392552818613586e-03,-3.867709097945662422e-03,-5.326025643072711258e-03,-1.992504236113804700e-02,-4.869509159380753377e-02,-4.869509159380753377e-02,-4.869509159380753377e-02,-7.654391416244192559e-02,-7.654391416244192559e-02,-7.654391416244192559e-02
-4.869509159380753377e-02,-4.869509159380753377e-02,-4.869509159380753377e-02,-4.869509159380753377e-02,-4.869509159380753377e-02,-4.489078756304132334e-02,-4.051583792766017683e-02,-3.614088829227903032e-02,-3.176593865689789076e-02,-2.720077381997842991e-02,-2.282582418459728688e-02,-1.845087454921614384e-02,-1.407592491383499039e-02,-9.510760076915543426e-03,-5.135810441534389981e-03,-7.608608061532504130e-04,-6.938893903907228378e-18,-6.938893903907228378e-18,-6.938893903907228378e-18,-6.938893903907228378e-18,-6.938893903907228378e-18,-6.938893903907228378e-18,-6.938893903907228378e-18,-6.938893903907228378e-18,-6.938893903907228378e-18,-6.938893903907228378e-18,-6.938893903907228378e-18,-6.938893903907228378e-18,-6.938893903907228378e-18,-6.938893903907228378e-18,-6.938893903907228378e-18,-6.938893903907228378e-18,-6.938893903907228378e-18,-6.938893903907228378e-18,-6.938893903907228378e-18,-8.242658733326954645e-04,-2.345987485639182413e-03,-3.804304030766231248e-03,-5.262620575893266206e-03,-6.720937121020321980e-03,-8.242658733326801990e-03,-1.944950435729227156e-02,-4.634910410816837217e-02,-4.869509159380753377e-02,-7.654391416244192559e-02,-7.654391416244192559e-02,-7.654391416244192559e-02
-4.869509159380753377e-02,-4.869509159380753377e-02,-4.869509159380753377e-02,-4.869509159380753377e-02,-4.527121796611794508e-02,-4.070605312919848423e-02,-3.633110349381733772e-02,-3.195615385843619816e-02,-2.758120422305505165e-02,-2.301603938613559427e-02,-1.864108975075445124e-02,-1.426614011537330473e-02,-9.891190479992165163e-03,-5.326025643072704319e-03,-9.510760076915647510e-04,-6.938893903907228378e-18,-6.938893903907228378e-18,-6.938893903907228378e-18,-6.938893903907228378e-18,-6.938893903907228378e-18,-6.938893903907228378e-18,-1.387778780781445676e-17,-6.938893903907228378e-18,-6.938893903907228378e-18,-6.938893903907228378e-18,-6.938893903907228378e-18,-1.387778780781445676e-17,-6.938893903907228378e-18,-6.938893903907228378e-18,-6.938893903907228378e-18,-6.938893903907228378e-18,-6.938893903907228378e-18,-6.938893903907228378e-18,-6.938893903907228378e-18,-7.608608061532504130e-04,-2.219177351280306187e-03,-3.740898963586779258e-03,-5.199215508713828093e-03,-6.657532053840876929e-03,-8.115848598967925764e-03,-9.637570211274412713e-03,-1.109588675640146155e-02,-2.046002261546454870e-02,-4.544360049251203876e-02,-4.869509159380753377e-02,-4.869509159380753377e-02,-4.869509159380753377e-02
-4.869509159380753377e-02,-4.869509159380753377e-02,-4.869509159380753377e-02,-4.546143316765625247e-02,-4.108648353227510597e-02,-3.652131869535565206e-02,-3.214636905997450556e-02,-2.777141942459335905e-02,-2.339646978921221948e-02,-1.883130495229276211e-02,-1.445635531691161907e-02,-1.008140568153047256e-02,-5.706456046149326056e-03,-1.141291209229865211e-03,-6.938893903907228378e-18,-6.938893903907228378e-18,-1.387778780781445676e-17,-1.387778780781445676e-17,-6.938893903907228378e-18,-6.938893903907228378e-18,-6.938893903907228378e-18,-6.938893903907228378e-18,-6.938893903907228378e-18,-6.938893903907228378e-18,-6.938893903907228378e-18,-6.938893903907228378e-18,-6.938893903907228378e-18,-6.938893903907228378e-18,-6.938893903907228378e-18,-6.938893903907228378e-18,-6.938893903907228378e-18,-6.938893903907228378e-18,-6.938893903907228378e-18,-6.974557389738192392e-04,-2.155772284100868075e-03,-3.614088829227916910e-03,-5.135810441534396920e-03,-6.594126986661438816e-03,-2.545347354949619723e-01,-2.559930520400890419e-01,-2.575147736523955566e-01,-2.589730901975225708e-01,-1.394911477947611417e-02,-2.164886762507899076e-02,-4.472434926169530089e-02,-4.869509159380753377e-02,-4.869509159380753377e-02
-4.869509159380753377e-02,-4.869509159380753377e-02,-4.565164836919456681e-02,-4.127669873381342031e-02,-3.690174909843227380e-02,-3.233658426151281295e-02,-2.796163462613167339e-02,-2.358668499075052688e-02,-1.921173535536938384e-02,-1.464657051844993341e-02,-1.027162088306877996e-02,-5.896671247687640394e-03,-1.521721612306493887e-03,-1.387778780781445676e-17,-6.938893903907228378e-18,-6.938893903907228378e-18,0.000000000000000000e+00,-6.938893903907228378e-18,-6.938893903907228378e-18,-6.938893903907228378e-18,-6.938893903907228378e-18,-6.938893903907228378e-18,-6.938893903907228378e-18,-6.938893903907228378e-18,-6.938893903907228378e-18,-6.938893903907228378e-18,-6.938893903907228378e-18,-6.938893903907228378e-18,-6.938893903907228378e-18,-6.938893903907228378e-18,0.000000000000000000e+00,-1.387778780781445676e-17,-6.340506717943741877e-04,-2.092367216921429962e-03,-3.550683762048478798e-03,-5.009000307175520694e-03,-6.530721919482007642e-03,-7.989038464609049539e-03,-2.559296469729095969e-01,-2.573879635180366665e-01,-2.589096851303431257e-01,-2.603680016754701954e-01,-1.534402625742373183e-02,-1.680234280255078066e-02,-2.306953741156824930e-02,-4.417748055727265671e-02,-4.869509159380753377e-02
-4.869509159380753377e-02,-4.584186357073287421e-02,-4.146691393535172770e-02,-3.709196429997058120e-02,-3.271701466458944163e-02,-2.815184982766998426e-02,-2.377690019228883775e-02,-1.940195055690769471e-02,-1.502700092152654820e-02,-1.046183608460709430e-02,-6.086886449225947793e-03,-1.711936813844808225e-03,-6.938893903907228378e-18,-6.938893903907228378e-18,-1.387778780781445676e-17,-6.938893903907228378e-18,-6.938893903907228378e-18,-6.938893903907228378e-18,0.000000000000000000e+00,-6.938893903907228378e-18,-6.938893903907228378e-18,-6.938893903907228378e-18,-1.387778780781445676e-17,-6.938893903907228378e-18,-6.938893903907228378e-18,-6.938893903907228378e-18,-6.938893903907228378e-18,-6.938893903907228378e-18,-6.938893903907228378e-18,-6.938893903907228378e-18,-6.938893903907228378e-18,-5.072405374355049013e-04,-1.965557082562553737e-03,-3.487278694869033746e-03,-4.945595239996082582e-03,-6.403911785123131417e-03,-7.925633397429618365e-03,-9.383949942556667201e-03,-2.573245584508572215e-01,-2.587828749959842911e-01,-2.603045966082907503e-01,-2.617629131534178200e-01,-1.673893773537134949e-02,-1.819725428049839833e-02,-1.971897589280487834e-02,-2.375708610879526464e-02,-4.299457977270628589e-02
-4.622229397380949595e-02,-4.165712913689004204e-02,-3.728217950150889554e-02,-3.290722986612774903e-02,-2.853228023074660252e-02,-2.396711539382714862e-02,-1.959216575844599864e-02,-1.521721612306486254e-02,-1.084226648768371604e-02,-6.277101650764255192e-03,-1.902152015383115624e-03,-6.938893903907228378e-18,-6.938893903907228378e-18,-6.938893903907228378e-18,-6.938893903907228378e-18,-6.938893903907228378e-18,-6.938893903907228378e-18,-6.938893903907228378e-18,-1.387778780781445676e-17,-6.938893903907228378e-18,-6.938893903907228378e-18,-6.938893903907228378e-18,-6.938893903907228378e-18,-6.938893903907228378e-18,-6.938893903907228378e-18,-6.938893903907228378e-18,-6.938893903907228378e-18,-6.938893903907228378e-18,-1.387778780781445676e-17,-6.938893903907228378e-18,-4.438354702560667886e-04,-1.902152015383115624e-03,-3.360468560510164460e-03,-4.882190172816651408e-03,-6.340506717943700243e-03,-7.798823263070742140e-03,-9.320544875377229088e-03,-1.077886142050427792e-02,-2.587194699288048461e-01,-2.601777864739318602e-01,-2.616995080862383749e-01,-2.631578246313654446e-01,-1.813384921331896021e-02,-1.959216575844600558e-02,-2.111388737075248906e-02,-2.257220391587953789e-02,-2.557205615680664332e-02
-4.203755953996666378e-02,-3.747239470304720294e-02,-3.309744506766605643e-02,-2.872249543228491339e-02,-2.434754579690377035e-02,-1.978238095998431645e-02,-1.540743132460316994e-02,-1.103248168922202344e-02,-6.657532053840883868e-03,-2.092367216921416084e-03,-6.938893903907228378e-18,-6.938893903907228378e-18,-6.938893903907228378e-18,-6.938893903907228378e-18,-6.938893903907228378e-18,-6.938893903907228378e-18,-6.938893903907228378e-18,-6.938893903907228378e-18,-6.938893903907228378e-18,-6.938893903907228378e-18,-6.938893903907228378e-18,-6.938893903907228378e-18,-6.938893903907228378e-18,-6.938893903907228378e-18,-6.938893903907228378e-18,-6.938893903907228378e-18,-6.938893903907228378e-18,-1.387778780781445676e-17,-6.938893903907228378e-18,-3.804304030766217370e-04,-1.838746948203684450e-03,-3.297063493330726347e-03,-4.755380038457775183e-03,-6.277101650764262131e-03,-7.735418195891304027e-03,-9.193734741018352863e-03,-1.065205128614540170e-02,-1.217377289845188865e-02,-1.363208944357893054e-02,-1.509040598870598632e-02,-1.654872253383303515e-02,-1.807044414613952557e-02,-1.952876069126656747e-02,-2.098707723639361283e-02,-2.250879884870009978e-02,-2.396711539382714862e-02,-2.542543193895419745e-02
-3.785282510612382467e-02,-3.328766026920437077e-02,-2.891271063382322773e-02,-2.453776099844208122e-02,-2.016281136306093819e-02,-1.559764652614147734e-02,-1.122269689076033777e-02,-6.847747255379191267e-03,-2.472797619998051699e-03,-6.938893903907228378e-18,-6.938893903907228378e-18,-6.938893903907228378e-18,-6.938893903907228378e-18,-6.938893903907228378e-18,-1.387778780781445676e-17,-6.938893903907228378e-18,-6.938893903907228378e-18,-6.938893903907228378e-18,-6.938893903907228378e-18,-6.938893903907228378e-18,-6.938893903907228378e-18,-6.938893903907228378e-18,-6.938893903907228378e-18,-6.938893903907228378e-18,-6.938893903907228378e-18,-6.938893903907228378e-18,-6.938893903907228378e-18,-6.938893903907228378e-18,-2.536202687177524506e-04,-1.775341881024239399e-03,-3.233658426151288234e-03,-4.691974971278337070e-03,-6.150291516405385905e-03,-7.672013128711872854e-03,-9.130329673838914750e-03,-1.058864621896597052e-02,-1.204696276409301936e-02,-1.356868437639949937e-02,-1.502700092152654820e-02,-1.648531746665359704e-02,-1.794363401178064588e-02,-1.946535562408713282e-02,-2.092367216921418166e-02,-2.238198871434122703e-02,-2.390371032664771050e-02,-2.536202687177475934e-02,-2.682034341690181165e-02
-1.583118093636168844e-01,-1.539368597282357309e-01,-1.493716948913162978e-01,-1.449967452559351444e-01,-1.597807692921809908e-02,-1.141291209229864517e-02,-7.037962456917505605e-03,-2.663012821536352159e-03,-6.938893903907228378e-18,-6.938893903907228378e-18,-6.938893903907228378e-18,0.000000000000000000e+00,-6.938893903907228378e-18,-6.938893903907228378e-18,0.000000000000000000e+00,-6.938893903907228378e-18,-6.938893903907228378e-18,-6.938893903907228378e-18,-6.938893903907228378e-18,-6.938893903907228378e-18,-6.938893903907228378e-18,-6.938893903907228378e-18,-6.938893903907228378e-18,-6.938893903907228378e-18,-6.938893903907228378e-18,-6.938893903907228378e-18,-6.938893903907228378e-18,-1.902152015383143380e-04,-1.648531746665370112e-03,-3.170253358971857061e-03,-4.628569904098898957e-03,-6.086886449225947793e-03,-7.545202994352996628e-03,-9.066924606659483576e-03,-1.052524115178653241e-02,-1.198355769691357431e-02,-1.344187424204062314e-02,-1.496359585434711009e-02,-1.642191239947416587e-02,-1.788022894460121123e-02,-1.933854548972825660e-02,-2.086026710203474355e-02,-2.231858364716178891e-02,-2.377690019228884122e-02,-2.523521673741588658e-02,-2.675693834972237353e-02,-2.821525489484941890e-02
-1.541270749297740383e-01,-1.497521252943929126e-01,-1.451869604574734518e-01,-1.408120108220922984e-01,-1.179334249537526691e-02,-7.418392859994120403e-03,-2.853228023074666497e-03,-6.938893903907228378e-18,-6.938893903907228378e-18,-1.387778780781445676e-17,-6.938893903907228378e-18,-6.938893903907228378e-18,-6.938893903907228378e-18,-6.938893903907228378e-18,-6.938893903907228378e-18,-6.938893903907228378e-18,-6.938893903907228378e-18,-6.938893903907228378e-18,-6.938893903907228378e-18,-1.387778780781445676e-17,-6.938893903907228378e-18,-6.938893903907228378e-18,-6.938893903907228378e-18,-6.938893903907228378e-18,-6.938893903907228378e-18,-6.938893903907228378e-18,-1.268101343588831642e-04,-1.585126679485938939e-03,-3.043443224612980835e-03,-4.565164836919467783e-03,-6.023481382046509680e-03,-7.481797927173558516e-03,-8.940114472300607351e-03,-1.046183608460709430e-02,-1.192015262973413620e-02,-1.337846917486118503e-02,-1.483678571998824081e-02,-1.635850733229472775e-02,-1.781682387742177659e-02,-1.927514042254882196e-02,-2.073345696767586732e-02,-2.225517857998235080e-02,-2.371349512510940311e-02,-2.517181167023645194e-02,-2.663012821536350078e-02,-2.815184982766998426e-02,-2.961016637279702962e-02
-1.499423404959312200e-01,-1.455673908605500666e-01,-1.410022260236306058e-01,-1.366272763882494801e-01,-7.608608061532434741e-03,-3.233658426151288234e-03,-6.938893903907228378e-18,-6.938893903907228378e-18,-1.387778780781445676e-17,-6.938893903907228378e-18,-6.938893903907228378e-18,0.000000000000000000e+00,-6.938893903907228378e-18,-6.938893903907228378e-18,-6.938893903907228378e-18,-6.938893903907228378e-18,-6.938893903907228378e-18,-6.938893903907228378e-18,-1.387778780781445676e-17,-6.938893903907228378e-18,-6.938893903907228378e-18,-6.938893903907228378e-18,-6.938893903907228378e-18,-6.938893903907228378e-18,-6.938893903907228378e-18,-6.340506717944505155e-05,-1.521721612306500826e-03,-2.980038157433542723e-03,-4.438354702560591558e-03,-5.960076314867078506e-03,-7.418392859994120403e-03,-8.876709405121176177e-03,-1.033502595024821807e-02,-1.185674756255470502e-02,-1.331506410768174692e-02,-1.477338065280880269e-02,-1.623169719793585153e-02,-1.775341881024233501e-02,-1.921173535536938731e-02,-2.067005190049642921e-02,-2.212836844562347804e-02,-2.365009005792996499e-02,-2.510840660305701383e-02,-2.656672314818406266e-02,-2.802503969331111150e-02,-2.954676130561759151e-02,-3.100507785074464381e-02
-1.457576060620883740e-01,-1.413826564267072206e-01,-1.368174915897877875e-01,-1.324425419544066340e-01,-3.423873627689595633e-03,-6.938893903907228378e-18,-6.938893903907228378e-18,-6.938893903907228378e-18,-6.938893903907228378e-18,-6.938893903907228378e-18,-6.938893903907228378e-18,-6.938893903907228378e-18,-6.938893903907228378e-18,0.000000000000000000e+00,-6.938893903907228378e-18,-6.938893903907228378e-18,-6.938893903907228378e-18,-6.938893903907228378e-18,-6.938893903907228378e-18,-6.938893903907228378e-18,-6.938893903907228378e-18,-6.938893903907228378e-18,-6.938893903907228378e-18,-6.938893903907228378e-18,-6.938893903907228378e-18,-1.458316545127055774e-03,-2.916633090254111549e-03,-4.374949635381153445e-03,-5.833266180508202281e-03,-7.354987792814682290e-03,-8.813304337941731126e-03,-1.027162088306878690e-02,-1.172993742819582880e-02,-1.325165904050231575e-02,-1.470997558562936458e-02,-1.616829213075641342e-02,-1.762660867588346572e-02,-1.914833028818994573e-02,-2.060664683331699457e-02,-2.206496337844403993e-02,-2.352327992357108877e-02,-2.504500153587757572e-02,-2.650331808100462455e-02,-2.796163462613167339e-02,-2.941995117125872222e-02,-3.094167278356520570e-02,-3.239998932869225801e-02
-1.692915293690965689e-02,-1.255420330152851038e-02,-7.989038464609056478e-03,-3.614088829227909971e-03,-6.938893903907228378e-18,-6.938893903907228378e-18,-6.938893903907228378e-18,-6.938893903907228378e-18,-6.938893903907228378e-18,-6.938893903907228378e-18,-6.938893903907228378e-18,-6.938893903907228378e-18,-6.938893903907228378e-18,-1.387778780781445676e-17,-6.938893903907228378e-18,-6.938893903907228378e-18,0.000000000000000000e+00,-6.938893903907228378e-18,-6.938893903907228378e-18,-6.938893903907228378e-18,-6.938893903907228378e-18,-6.938893903907228378e-18,-6.938893903907228378e-18,-1.387778780781445676e-17,-1.331506410768186488e-03,-2.853228023074673436e-03,-4.311544568201715333e-03,-5.769861113328757229e-03,-7.228177658455813004e-03,-8.749899270762299952e-03,-1.020821581588934879e-02,-1.166653236101639762e-02,-1.312484890614343952e-02,-1.464657051844992647e-02,-1.610488706357698224e-02,-1.756320360870402414e-02,-1.902152015383107644e-02,-2.054324176613755645e-02,-2.200155831126460529e-02,-2.345987485639165412e-02,-2.491819140151869949e-02,-2.643991301382518644e-02,-2.789822955895223527e-02,-2.935654610407928411e-02,-3.081486264920633295e-02,-3.233658426151281989e-02,-3.379490080663986873e-02
-1.274441850306681778e-02,-8.369468867685678215e-03,-3.804304030766224309e-03,-6.938893903907228378e-18,-6.938893903907228378e-18,-6.938893903907228378e-18,-6.938893903907228378e-18,-6.938893903907228378e-18,-6.938893903907228378e-18,-6.938893903907228378e-18,-6.938893903907228378e-18,-6.938893903907228378e-18,-6.938893903907228378e-18,-6.938893903907228378e-18,-6.938893903907228378e-18,-6.938893903907228378e-18,-6.938893903907228378e-18,-6.938893903907228378e-18,-6.938893903907228378e-18,-6.938893903907228378e-18,-6.938893903907228378e-18,-6.938893903907228378e-18,-6.938893903907228378e-18,-1.268101343588748375e-03,-2.726417888715797211e-03,-4.248139501022277220e-03,-5.706456046149332995e-03,-7.164772591276374891e-03,-8.623089136403423727e-03,-1.014481074870991067e-02,-1.160312729383695951e-02,-1.306144383896400835e-02,-1.451976038409105024e-02,-1.604148199639753719e-02,-1.749979854152458950e-02,-1.895811508665163833e-02,-2.041643163177868370e-02,-2.193815324408517065e-02,-2.339646978921221601e-02,-2.485478633433926832e-02,-2.631310287946631715e-02,-2.783482449177280063e-02,-2.929314103689984600e-02,-3.075145758202689483e-02,-3.220977412715395061e-02,-3.373149573946043062e-02,-3.518981228458747945e-02
-8.559684069223985614e-03,-4.184734433842839108e-03,-6.938893903907228378e-18,-6.938893903907228378e-18,-6.938893903907228378e-18,-6.938893903907228378e-18,-6.938893903907228378e-18,-1.387778780781445676e-17,-6.938893903907228378e-18,-6.938893903907228378e-18,-6.938893903907228378e-18,-6.938893903907228378e-18,-6.938893903907228378e-18,-6.938893903907228378e-18,-6.938893903907228378e-18,-6.938893903907228378e-18,-6.938893903907228378e-18,-1.387778780781445676e-17,0.000000000000000000e+00,-1.387778780781445676e-17,-6.938893903907228378e-18,-1.387778780781445676e-17,-1.204696276409310263e-03,-2.663012821536359098e-03,-4.121329366663407934e-03,-5.643050978969887943e-03,-7.101367524096936779e-03,-8.559684069223978675e-03,-1.001800061435103445e-02,-1.153972222665752140e-02,-1.821663933691419213e-01,-1.836247099142689909e-01,-1.850830264593960328e-01,-1.866047480717025198e-01,-1.880630646168295894e-01,-2.035302656459924905e-02,-2.181134310972629442e-02,-2.333306472203277790e-02,-2.479138126715983020e-02,-2.624969781228687904e-02,-2.770801435741392441e-02,-2.922973596972040788e-02,-3.068805251484746019e-02,-3.214636905997450556e-02,-3.360468560510155439e-02,-3.512640721740804134e-02,-3.658472376253509017e-02
-4.374949635381153445e-03,-6.938893903907228378e-18,-6.938893903907228378e-18,-6.938893903907228378e-18,-6.938893903907228378e-18,-6.938893903907228378e-18,-1.387778780781445676e-17,-6.938893903907228378e-18,-6.938893903907228378e-18,-6.938893903907228378e-18,-6.938893903907228378e-18,-6.938893903907228378e-18,-6.938893903907228378e-18,-6.938893903907228378e-18,-6.938893903907228378e-18,-6.938893903907228378e-18,-1.387778780781445676e-17,-6.938893903907228378e-18,-6.938893903907228378e-18,-6.938893903907228378e-18,-1.387778780781445676e-17,-1.077886142050434037e-03,-2.599607754356920986e-03,-4.057924299483969821e-03,-5.516240844611018657e-03,-7.037962456917498666e-03,-8.496279002044547501e-03,-9.954595547171603276e-03,-1.141291209229864517e-02,-1.293463370460513212e-02,-1.835613048470895459e-01,-1.850196213922166155e-01,-1.864779379373436574e-01,-1.879996595496501444e-01,-1.894579760947771863e-01,-2.174793804254685631e-02,-2.320625458767390514e-02,-2.472797619998039209e-02,-2.618629274510744093e-02,-2.764460929023448976e-02,-2.910292583536153513e-02,-3.062464744766802208e-02,-3.208296399279507438e-02,-3.354128053792211628e-02,-3.499959708304916511e-02,-3.652131869535565206e-02,-3.797963524048270090e-02
-1.902152015383143380e-04,-6.938893903907228378e-18,-6.938893903907228378e-18,-6.938893903907228378e-18,-6.938893903907228378e-18,-6.938893903907228378e-18,-6.938893903907228378e-18,-6.938893903907228378e-18,-6.938893903907228378e-18,-6.938893903907228378e-18,-6.938893903907228378e-18,0.000000000000000000e+00,-6.938893903907228378e-18,-6.938893903907228378e-18,-6.938893903907228378e-18,-6.938893903907228378e-18,-6.938893903907228378e-18,-6.938893903907228378e-18,-6.938893903907228378e-18,-6.938893903907228378e-18,-1.014481074871002864e-03,-2.472797619998051699e-03,-3.994519232304538647e-03,-5.452835777431580544e-03,-6.911152322558622441e-03,-8.369468867685671276e-03,-9.891190479992158224e-03,-1.134950702511921400e-02,-1.280782357024625590e-02,-1.426614011537330473e-02,-1.849562163250371705e-01,-1.864145328701642124e-01,-1.878728494152912543e-01,-1.893945710275977412e-01,-1.908528875727247831e-01,-2.314284952049447050e-02,-2.460116606562151934e-02,-2.612288767792800628e-02,-2.758120422305505165e-02,-2.903952076818210049e-02,-3.049783731330914932e-02,-3.201955892561563627e-02,-3.347787547074268510e-02,-3.493619201586972700e-02,-3.639450856099678278e-02,-3.791623017330326278e-02,-3.937454671843031162e-02
-6.938893903907228378e-18,-6.938893903907228378e-18,-6.938893903907228378e-18,-6.938893903907228378e-18,-6.938893903907228378e-18,-6.938893903907228378e-18,-6.938893903907228378e-18,-6.938893903907228378e-18,-6.938893903907228378e-18,-6.938893903907228378e-18,-6.938893903907228378e-18,-1.387778780781445676e-17,-6.938893903907228378e-18,-6.938893903907228378e-18,0.000000000000000000e+00,-6.938893903907228378e-18,-6.938893903907228378e-18,-6.938893903907228378e-18,-6.938893903907228378e-18,-9.510760076915578121e-04,-2.409392552818613586e-03,-3.867709097945655483e-03,-5.389430710252142431e-03,-6.847747255379191267e-03,-8.306063800506240102e-03,-9.764380345633288938e-03,-1.128610195793977589e-02,-1.274441850306682472e-02,-1.420273504819386662e-02,-1.566105159332092239e-02,-1.863511278029847673e-01,-1.878094443481118370e-01,-1.892677608932388789e-01,-1.907894825055453381e-01,-1.922477990506724077e-01,-2.453776099844208122e-02,-2.599607754356913353e-02,-2.751779915587561354e-02,-2.897611570100266237e-02,-3.043443224612971121e-02,-3.189274879125676004e-02,-3.341447040356324699e-02,-3.487278694869029583e-02,-3.633110349381734466e-02,-3.778942003894439350e-02,-3.931114165125087351e-02,-4.076945819637792234e-02
-6.938893903907228378e-18,-6.938893903907228378e-18,-6.938893903907228378e-18,-6.938893903907228378e-18,-6.938893903907228378e-18,-6.938893903907228378e-18,-6.938893903907228378e-18,-6.938893903907228378e-18,-6.938893903907228378e-18,-6.938893903907228378e-18,-6.938893903907228378e-18,-6.938893903907228378e-18,-6.938893903907228378e-18,-6.938893903907228378e-18,-6.938893903907228378e-18,-6.938893903907228378e-18,-6.938893903907228378e-18,-6.938893903907228378e-18,-8.876709405121266383e-04,-2.345987485639175474e-03,-3.804304030766217370e-03,-5.262620575893266206e-03,-6.784342188199753154e-03,-8.242658733326795051e-03,-9.700975278453850825e-03,-1.115929182358089966e-02,-1.268101343588738661e-02,-1.413932998101442851e-02,-1.559764652614147734e-02,-1.705596307126852618e-02,-1.877460392809323919e-01,-1.892043558260594338e-01,-1.906626723711864757e-01,-1.921209889163135176e-01,-1.936427105286200323e-01,-2.593267247638969542e-02,-2.739098902151674425e-02,-2.891271063382322426e-02,-3.037102717895027656e-02,-3.182934372407732193e-02,-3.328766026920437077e-02,-3.480938188151085771e-02,-3.626769842663790655e-02,-3.772601497176495539e-02,-3.918433151689200422e-02,-4.070605312919848423e-02,-4.216436967432553307e-02
-6.938893903907228378e-18,-6.938893903907228378e-18,-6.938893903907228378e-18,-6.938893903907228378e-18,-1.387778780781445676e-17,0.000000000000000000e+00,-6.938893903907228378e-18,-6.938893903907228378e-18,-6.938893903907228378e-18,-6.938893903907228378e-18,-6.938893903907228378e-18,-6.938893903907228378e-18,-6.938893903907228378e-18,-6.938893903907228378e-18,-6.938893903907228378e-18,-1.387778780781445676e-17,0.000000000000000000e+00,-7.608608061532504130e-04,-2.282582418459744300e-03,-3.740898963586793136e-03,-5.199215508713835032e-03,-6.657532053840883868e-03,-8.179253666147363877e-03,-9.637570211274412713e-03,-1.109588675640146155e-02,-1.255420330152850344e-02,-1.407592491383499733e-02,-1.553424145896204617e-02,-1.699255800408909500e-02,-1.845087454921614384e-02,-1.997259616152262732e-02,-2.143091270664967268e-02,-2.288922925177672152e-02,-2.434754579690377035e-02,-2.586926740921025730e-02,-2.732758395433730614e-02,-2.878590049946435150e-02,-3.024421704459140034e-02,-3.176593865689789076e-02,-3.322425520202493265e-02,-3.468257174715198149e-02,-3.614088829227903032e-02,-3.766260990458551727e-02,-3.912092644971256611e-02,-4.057924299483961494e-02,-4.210096460714610189e-02,-4.355928115227314379e-02
-6.938893903907228378e-18,-6.938893903907228378e-18,-6.938893903907228378e-18,-6.938893903907228378e-18,-6.938893903907228378e-18,-6.938893903907228378e-18,-6.938893903907228378e-18,-6.938893903907228378e-18,-6.938893903907228378e-18,-6.938893903907228378e-18,-6.938893903907228378e-18,-6.938893903907228378e-18,0.000000000000000000e+00,-6.938893903907228378e-18,-1.387778780781445676e-17,-6.938893903907228378e-18,-6.974557389738192392e-04,-2.155772284100868075e-03,-3.677493896407341145e-03,-5.135810441534396920e-03,-6.594126986661445755e-03,-8.052443531788487652e-03,-9.574165144094974600e-03,-1.103248168922203037e-02,-1.249079823434907227e-02,-1.394911477947612111e-02,-1.547083639178260805e-02,-1.692915293690965689e-02,-1.838746948203670920e-02,-1.984578602716375456e-02,-2.136750763947023804e-02,-2.282582418459728341e-02,-2.428414072972433224e-02,-2.574245727485138455e-02,-2.726417888715786456e-02,-2.872249543228491339e-02,-3.018081197741196223e-02,-3.163912852253901453e-02,-3.316085013484550148e-02,-3.461916667997254338e-02,-3.607748322509959221e-02,-3.753579977022664105e-02,-3.905752138253312800e-02,-4.051583792766017683e-02,-4.197415447278722567e-02,-4.349587608509371262e-02,-4.495419263022075451e-02
-6.938893903907228378e-18,-6.938893903907228378e-18,-6.938893903907228378e-18,-6.938893903907228378e-18,-6.938893903907228378e-18,-6.938893903907228378e-18,-6.938893903907228378e-18,-6.938893903907228378e-18,-6.938893903907228378e-18,-1.387778780781445676e-17,-6.938893903907228378e-18,-6.938893903907228378e-18,-6.938893903907228378e-18,-6.938893903907228378e-18,-6.938893903907228378e-18,-6.340506717943741877e-04,-2.092367216921429962e-03,-3.550683762048478798e-03,-5.072405374354958807e-03,-6.530721919482007642e-03,-7.989038464609056478e-03,-9.447355009736105314e-03,-1.096907662204259226e-02,-1.242739316716964110e-02,-1.388570971229668299e-02,-1.534402625742373183e-02,-1.686574786973022572e-02,-1.832406441485727108e-02,-1.978238095998431645e-02,-2.124069750511136528e-02,-2.276241911741784529e-02,-2.422073566254490107e-02,-2.567905220767194296e-02,-2.713736875279899180e-02,-2.865909036510547875e-02,-3.011740691023252758e-02,-3.157572345535957642e-02,-3.303404000048662525e-02,-3.455576161279311220e-02,-3.601407815792015410e-02,-3.747239470304720294e-02,-3.893071124817425177e-02,-4.045243286048073872e-02,-4.191074940560778755e-02,-4.336906595073483639e-02,-4.482738249586188523e-02,-4.634910410816837217e-02
-6.938893903907228378e-18,-1.387778780781445676e-17,-6.938893903907228378e-18,-6.938893903907228378e-18,-6.938893903907228378e-18,-6.938893903907228378e-18,-6.938893903907228378e-18,-6.938893903907228378e-18,-6.938893903907228378e-18,-6.938893903907228378e-18,-6.938893903907228378e-18,-6.938893903907228378e-18,0.000000000000000000e+00,-6.938893903907228378e-18,-5.706456046149430139e-04,-2.028962149741991849e-03,-3.487278694869040685e-03,-4.945595239996089520e-03,-6.467316852302569530e-03,-7.925633397429618365e-03,-9.383949942556667201e-03,-1.084226648768370910e-02,-1.236398809999019605e-02,-1.382230464511724488e-02,-1.528062119024430066e-02,-1.673893773537134949e-02,-1.826065934767783297e-02,-1.971897589280487834e-02,-2.117729243793192717e-02,-2.263560898305897601e-02,-2.415733059536545949e-02,-2.561564714049250832e-02,-2.707396368561955369e-02,-2.853228023074660252e-02,-3.005400184305308947e-02,-3.151231838818013831e-02,-3.297063493330718714e-02,-3.442895147843423598e-02,-3.595067309074072293e-02,-3.740898963586776482e-02,-3.886730618099481366e-02,-4.032562272612186249e-02,-4.184734433842834944e-02,-4.330566088355539828e-02,-4.476397742868244711e-02,-4.622229397380949595e-02,-4.774401558611598290e-02
-6.938893903907228378e-18,-6.938893903907228378e-18,-6.938893903907228378e-18,-6.938893903907228378e-18,-6.938893903907228378e-18,-1.387778780781445676e-17,-6.938893903907228378e-18,-6.938893903907228378e-18,-6.938893903907228378e-18,-6.938893903907228378e-18,-6.938893903907228378e-18,-6.938893903907228378e-18,-6.938893903907228378e-18,-4.438354702560667886e-04,-1.965557082562553737e-03,-3.423873627689602572e-03,-4.882190172816644469e-03,-6.340506717943693304e-03,-7.862228330250180253e-03,-9.320544875377229088e-03,-1.077886142050427792e-02,-1.223717796563132676e-02,-1.375889957793780677e-02,-1.521721612306486254e-02,-1.667553266819191138e-02,-1.813384921331895674e-02,-1.965557082562544022e-02,-2.111388737075248906e-02,-2.257220391587953442e-02,-2.403052046100658673e-02,-2.555224207331307021e-02,-2.701055861844011904e-02,-2.846887516356716441e-02,-2.992719170869421672e-02,-3.144891332100070713e-02,-3.290722986612774903e-02,-3.436554641125479787e-02,-3.582386295638184670e-02,-3.734558456868833365e-02,-3.880390111381537555e-02,-4.026221765894243132e-02,-4.172053420406948016e-02,-4.324225581637596016e-02,-4.470057236150300900e-02,-4.615888890663005784e-02,-4.761720545175710667e-02,-4.869509159380753377e-02
-6.938893903907228378e-18,-6.938893903907228378e-18,-1.387778780781445676e-17,0.000000000000000000e+00,-6.938893903907228378e-18,-6.938893903907228378e-18,-6.938893903907228378e-18,-6.938893903907228378e-18,-6.938893903907228378e-18,-6.938893903907228378e-18,-6.938893903907228378e-18,-6.938893903907228378e-18,-3.804304030766286759e-04,-1.838746948203677511e-03,-3.360468560510164460e-03,-4.818785105637206356e-03,-6.277101650764255192e-03,-7.735418195891310966e-03,-9.257139808197790976e-03,-1.071545635332483981e-02,-1.217377289845188865e-02,-1.363208944357893748e-02,-1.515381105588542443e-02,-1.661212760101247327e-02,-1.807044414613952210e-02,-1.952876069126657094e-02,-2.105048230357305442e-02,-2.250879884870009978e-02,-2.396711539382714862e-02,-2.542543193895419745e-02,-2.694715355126068440e-02,-2.840547009638772977e-02,-2.986378664151478207e-02,-3.132210318664183091e-02,-3.284382479894831786e-02,-3.430214134407535975e-02,-3.576045788920240859e-02,-3.721877443432945742e-02,-3.874049604663594437e-02,-4.019881259176299321e-02,-4.165712913689004204e-02,-4.311544568201709088e-02,-4.463716729432357089e-02,-4.609548383945061972e-02,-4.755380038457766856e-02,-4.869509159380753377e-02,-4.869509159380753377e-02
-3.043443224612973896e-03,-6.938893903907228378e-18,-6.938893903907228378e-18,-6.938893903907228378e-18,-1.387778780781445676e-17,-6.938893903907228378e-18,-6.938893903907228378e-18,-6.938893903907228378e-18,-6.938893903907228378e-18,-6.938893903907228378e-18,-1.387778780781445676e-17,-3.170253358971905633e-04,-1.775341881024239399e-03,-3.233658426151288234e-03,-4.755380038457775183e-03,-6.213696583584817079e-03,-7.672013128711865915e-03,-9.130329673838914750e-03,-1.065205128614540170e-02,-1.211036783127245053e-02,-1.356868437639949937e-02,-1.502700092152654820e-02,-1.654872253383303515e-02,-1.800703907896008052e-02,-1.946535562408712935e-02,-2.092367216921417819e-02,-2.244539378152066167e-02,-2.390371032664771050e-02,-2.536202687177475934e-02,-2.682034341690181165e-02,-2.834206502920829512e-02,-2.980038157433534049e-02,-3.125869811946239279e-02,-3.271701466458944163e-02,-3.423873627689592164e-02,-3.569705282202297048e-02,-3.715536936715002625e-02,-3.861368591227706815e-02,-4.013540752458355509e-02,-4.159372406971060393e-02,-4.305204061483765277e-02,-4.451035715996470160e-02,-4.603207877227118161e-02,-4.749039531739823045e-02,-4.869509159380753377e-02,-4.869509159380753377e-02,-4.869509159380753377e-02
-3.804304030766213901e-02,-4.565164836919467783e-03,-6.938893903907228378e-18,-6.938893903907228378e-18,-6.938893903907228378e-18,-6.938893903907228378e-18,-6.938893903907228378e-18,-6.938893903907228378e-18,-1.387778780781445676e-17,-6.938893903907228378e-18,-1.902152015383143380e-04,-1.711936813844808225e-03,-3.170253358971850122e-03,-4.628569904098898957e-03,-6.086886449225947793e-03,-7.608608061532434741e-03,-9.066924606659483576e-03,-1.052524115178653241e-02,-1.198355769691357431e-02,-1.350527930922006126e-02,-1.496359585434711009e-02,-1.642191239947416587e-02,-1.794363401178064588e-02,-1.940195055690769471e-02,-2.086026710203474355e-02,-2.231858364716178891e-02,-2.384030525946827239e-02,-2.529862180459532123e-02,-2.675693834972237006e-02,-2.821525489484941890e-02,-2.973697650715590585e-02,-3.119529305228295468e-02,-3.265360959741000352e-02,-3.411192614253705235e-02,-3.563364775484353930e-02,-3.709196429997058120e-02,-3.855028084509763003e-02,-4.000859739022467887e-02,-4.153031900253116582e-02,-4.298863554765821465e-02,-4.444695209278526349e-02,-4.590526863791231232e-02,-4.742699025021879927e-02,-4.869509159380753377e-02,-4.869509159380753377e-02,-4.869509159380753377e-02,-4.869509159380753377e-02
-4.869509159380753377e-02,-4.108648353227510597e-02,-7.608608061532434741e-03,-6.938893903907228378e-18,-6.938893903907228378e-18,-6.938893903907228378e-18,-6.938893903907228378e-18,-6.938893903907228378e-18,-6.938893903907228378e-18,-1.268101343588831642e-04,-1.585126679485938939e-03,-3.106848291792418948e-03,-4.565164836919467783e-03,-6.023481382046509680e-03,-7.481797927173551577e-03,-9.003519539480045464e-03,-1.046183608460709430e-02,-1.192015262973413620e-02,-1.337846917486119197e-02,-1.490019078716767892e-02,-1.635850733229472082e-02,-1.781682387742177312e-02,-1.933854548972826354e-02,-2.079686203485530543e-02,-2.225517857998235080e-02,-2.371349512510940311e-02,-2.523521673741588311e-02,-2.669353328254293542e-02,-2.815184982766998426e-02,-2.961016637279703309e-02,-3.113188798510351657e-02,-3.259020453023056541e-02,-3.404852107535761424e-02,-3.550683762048466308e-02,-3.702855923279115002e-02,-3.848687577791819192e-02,-3.994519232304524770e-02,-4.140350886817228959e-02,-4.292523048047877654e-02,-4.438354702560582538e-02,-4.584186357073287421e-02,-4.730018011585992305e-02,-4.869509159380753377e-02,-4.869509159380753377e-02,-4.869509159380753377e-02,-4.869509159380753377e-02,-4.869509159380753377e-02
-4.869509159380753377e-02,-4.869509159380753377e-02,-4.260820514458159292e-02,-9.130329673838914750e-03,-6.938893903907228378e-18,-1.387778780781445676e-17,0.000000000000000000e+00,-6.938893903907228378e-18,-6.340506717944505155e-05,-1.521721612306500826e-03,-2.980038157433542723e-03,-4.501759769740029671e-03,-5.960076314867078506e-03,-7.418392859994120403e-03,-8.876709405121169238e-03,-1.039843101742765619e-02,-1.185674756255470502e-02,-1.331506410768175386e-02,-1.477338065280880269e-02,-1.629510226511528964e-02,-1.775341881024233848e-02,-1.921173535536938731e-02,-2.067005190049643268e-02,-2.219177351280291616e-02,-2.365009005792996499e-02,-2.510840660305701036e-02,-2.663012821536350078e-02,-2.808844476049054961e-02,-2.954676130561759498e-02,-3.100507785074464381e-02,-3.252679946305112729e-02,-3.398511600817817613e-02,-3.544343255330522496e-02,-3.690174909843227380e-02,-3.842347071073876075e-02,-3.988178725586580958e-02,-4.134010380099285842e-02,-4.279842034611990031e-02,-4.432014195842638726e-02,-4.577845850355343610e-02,-4.723677504868048493e-02,-4.869509159380753377e-02,-4.869509159380753377e-02,-4.869509159380753377e-02,-4.869509159380753377e-02,-4.869509159380753377e-02,-4.869509159380753377e-02
-4.869509159380753377e-02,-4.869509159380753377e-02,-4.869509159380753377e-02,-4.412992675688807986e-02,-1.065205128614540170e-02,-6.938893903907228378e-18,-6.938893903907228378e-18,-6.938893903907228378e-18,-1.458316545127062713e-03,-2.916633090254104610e-03,-4.374949635381153445e-03,-5.896671247687640394e-03,-7.354987792814689229e-03,-8.813304337941731126e-03,-1.027162088306878690e-02,-1.179334249537527385e-02,-1.325165904050231575e-02,-1.470997558562936458e-02,-1.616829213075641342e-02,-1.769001374306290036e-02,-1.914833028818994573e-02,-2.060664683331699457e-02,-2.206496337844403993e-02,-2.358668499075053035e-02,-2.504500153587757572e-02,-2.650331808100462455e-02,-2.796163462613167339e-02,-2.948335623843815687e-02,-3.094167278356520917e-02,-3.239998932869225801e-02,-3.385830587381930684e-02,-3.538002748612578685e-02,-3.683834403125283569e-02,-3.829666057637988452e-02,-3.981838218868637147e-02,-4.127669873381342031e-02,-4.273501527894046914e-02,-4.419333182406751798e-02,-4.571505343637399799e-02,-4.717336998150104682e-02,-4.863168652662809566e-02,-4.869509159380753377e-02,-4.869509159380753377e-02,-4.869509159380753377e-02,-4.869509159380753377e-02,-4.869509159380753377e-02,-4.869509159380753377e-02
-4.869509159380753377e-02,-4.869509159380753377e-02,-4.869509159380753377e-02,-4.869509159380753377e-02,-4.565164836919456681e-02,-1.369549451075837559e-02,-1.387778780781445676e-17,-1.394911477947617662e-03,-2.853228023074666497e-03,-4.311544568201715333e-03,-5.769861113328771107e-03,-7.291582725635244178e-03,-8.749899270762299952e-03,-1.020821581588934879e-02,-1.166653236101639762e-02,-1.318825397332287763e-02,-1.464657051844992647e-02,-1.610488706357697530e-02,-1.756320360870402414e-02,-1.908492522101051109e-02,-2.054324176613755645e-02,-2.200155831126460529e-02,-2.345987485639165412e-02,-2.498159646869813760e-02,-2.643991301382518991e-02,-2.789822955895223527e-02,-2.935654610407928411e-02,-3.087826771638577106e-02,-3.233658426151281989e-02,-3.379490080663986873e-02,-3.525321735176691756e-02,-3.677493896407339757e-02,-3.823325550920044641e-02,-3.969157205432749524e-02,-4.121329366663398219e-02,-4.267161021176103103e-02,-4.412992675688807986e-02,-4.558824330201512870e-02,-4.710996491432160871e-02,-4.856828145944865754e-02,-4.869509159380753377e-02,-4.869509159380753377e-02,-4.869509159380753377e-02,-4.869509159380753377e-02,-4.869509159380753377e-02,-4.869509159380753377e-02,-4.869509159380753377e-02
-4.869509159380753377e-02,-4.869509159380753377e-02,-4.869509159380753377e-02,-4.869509159380753377e-02,-4.869509159380753377e-02,-4.869509159380753377e-02,-1.608903579678212098e-02,-2.789822955895228385e-03,-4.248139501022277220e-03,-5.706456046149332995e-03,-7.164772591276374891e-03,-8.686494203582854901e-03,-1.014481074870991067e-02,-1.160312729383695951e-02,-1.306144383896400835e-02,-1.458316545127048836e-02,-1.604148199639754413e-02,-1.749979854152458950e-02,-1.895811508665163833e-02,-2.047983669895812181e-02,-2.193815324408517065e-02,-2.339646978921221601e-02,-2.485478633433926485e-02,-2.637650794664575180e-02,-2.783482449177279716e-02,-2.929314103689984600e-02,-3.075145758202689483e-02,-3.227317919433338178e-02,-3.373149573946043062e-02,-3.518981228458747945e-02,-3.664812882971452829e-02,-3.816985044202100830e-02,-3.962816698714806407e-02,-4.108648353227510597e-02,-4.254480007740215480e-02,-4.406652168970864175e-02,-4.552483823483569059e-02,-4.698315477996273942e-02,-4.850487639226922637e-02,-4.869509159380753377e-02,-4.869509159380753377e-02,-4.869509159380753377e-02,-4.869509159380753377e-02,-4.869509159380753377e-02,-4.869509159380753377e-02,-4.869509159380753377e-02,-4.869509159380753377e-02
-4.869509159380753377e-02,-4.869509159380753377e-02,-4.869509159380753377e-02,-4.869509159380753377e-02,-4.869509159380753377e-02,-4.869509159380753377e-02,-4.869509159380753377e-02,-1.948516970758070593e-02,-5.643050978969894882e-03,-7.101367524096936779e-03,-8.559684069223992553e-03,-1.008140568153047950e-02,-1.153972222665752140e-02,-1.299803877178456329e-02,-1.445635531691161907e-02,-1.597807692921810602e-02,-1.743639347434514791e-02,-1.889471001947220369e-02,-2.035302656459924558e-02,-2.187474817690573253e-02,-2.333306472203277790e-02,-2.479138126715983020e-02,-2.624969781228687904e-02,-2.777141942459335905e-02,-2.922973596972040788e-02,-3.068805251484745672e-02,-3.214636905997450556e-02,-3.366809067228099250e-02,-3.512640721740804134e-02,-3.658472376253509017e-02,-3.804304030766213901e-02,-3.956476191996861902e-02,-4.102307846509567479e-02,-4.248139501022271669e-02,-4.393971155534976553e-02,-4.546143316765625247e-02,-4.691974971278330131e-02,-4.837806625791035015e-02,-4.869509159380753377e-02,-4.869509159380753377e-02,-4.869509159380753377e-02,-4.869509159380753377e-02,-4.869509159380753377e-02,-4.869509159380753377e-02,-4.869509159380753377e-02,-4.869509159380753377e-02,-4.869509159380753377e-02
-4.869509159380753377e-02,-4.869509159380753377e-02,-4.869509159380753377e-02,-4.869509159380753377e-02,-4.869509159380753377e-02,-4.869509159380753377e-02,-4.869509159380753377e-02,-4.869509159380753377e-02,-2.265938588325126096e-02,-8.496279002044547501e-03,-9.954595547171603276e-03,-1.147631715947808329e-02,-1.293463370460513212e-02,-1.439295024973217402e-02,-1.585126679485922979e-02,-1.737298840716571674e-02,-1.883130495229276558e-02,-2.028962149741981094e-02,-2.174793804254685978e-02,-2.326965965485334326e-02,-2.472797619998039556e-02,-2.618629274510744093e-02,-2.764460929023448629e-02,-2.916633090254097324e-02,-3.062464744766802208e-02,-3.208296399279507438e-02,-3.354128053792211628e-02,-3.506300215022860323e-02,-3.652131869535565206e-02,-3.797963524048270090e-02,-3.943795178560974973e-02,-4.095967339791623668e-02,-4.241798994304328552e-02,-4.387630648817032741e-02,-4.533462303329737625e-02,-4.685634464560386320e-02,-4.831466119073091203e-02,-4.869509159380753377e-02,-4.869509159380753377e-02,-4.869509159380753377e-02,-4.869509159380753377e-02,-4.869509159380753377e-02,-4.869509159380753377e-02,-4.869509159380753377e-02,-4.869509159380753377e-02,-4.869509159380753377e-02,-4.869509159380753377e-02
-4.869509159380753377e-02,-4.869509159380753377e-02,-4.869509159380753377e-02,-4.869509159380753377e-02,-4.869509159380753377e-02,-4.869509159380753377e-02,-4.869509159380753377e-02,-4.869509159380753377e-02,-4.869509159380753377e-02,-2.686789721728638849e-02,-1.134950702511920706e-02,-1.287122863742569401e-02,-1.432954518255274284e-02,-1.578786172767979168e-02,-1.724617827280684051e-02,-1.876789988511332399e-02,-2.022621643024037283e-02,-2.168453297536742166e-02,-2.314284952049446703e-02,-2.466457113280095398e-02,-2.612288767792800628e-02,-2.758120422305505165e-02,-2.903952076818210049e-02,-3.056124238048858396e-02,-3.201955892561563627e-02,-3.347787547074268510e-02,-3.493619201586972700e-02,-3.645791362817621395e-02,-3.791623017330326278e-02,-3.937454671843031162e-02,-1.831416034004103577e-01,-1.846633250127168169e-01,-1.861216415578438865e-01,-1.875799581029709284e-01,-4.672953451124499391e-02,-4.825125612355147392e-02,-4.869509159380753377e-02,-4.869509159380753377e-02,-4.869509159380753377e-02,-4.869509159380753377e-02,-4.869509159380753377e-02,-4.869509159380753377e-02,-4.869509159380753377e-02,-4.869509159380753377e-02,-4.869509159380753377e-02,-4.869509159380753377e-02,-4.869509159380753377e-02
-4.869509159380753377e-02,-4.869509159380753377e-02,-4.869509159380753377e-02,-4.869509159380753377e-02,-4.869509159380753377e-02,-4.869509159380753377e-02,-4.869509159380753377e-02,-4.869509159380753377e-02,-4.869509159380753377e-02,-4.869509159380753377e-02,-2.959629651435153122e-02,-1.426614011537330473e-02,-1.572445666050036051e-02,-1.718277320562740934e-02,-1.864108975075445124e-02,-2.016281136306093472e-02,-2.162112790818798355e-02,-2.307944445331502892e-02,-2.453776099844208122e-02,-2.605948261074856470e-02,-2.751779915587561354e-02,-2.897611570100266237e-02,-3.043443224612971121e-02,-3.195615385843619816e-02,-3.341447040356324699e-02,-3.487278694869029583e-02,-3.633110349381733772e-02,-3.785282510612382467e-02,-3.931114165125087351e-02,-4.076945819637792234e-02,-1.845365148783579545e-01,-1.860582364906644415e-01,-1.875165530357914834e-01,-1.889748695809185253e-01,-4.812444598919260463e-02,-4.869509159380753377e-02,-4.869509159380753377e-02,-4.869509159380753377e-02,-4.869509159380753377e-02,-4.869509159380753377e-02,-4.869509159380753377e-02,-4.869509159380753377e-02,-4.869509159380753377e-02,-4.869509159380753377e-02,-4.869509159380753377e-02,-4.869509159380753377e-02,-4.869509159380753377e-02
-4.869509159380753377e-02,-4.869509159380753377e-02,-4.869509159380753377e-02,-4.869509159380753377e-02,-4.869509159380753377e-02,-4.869509159380753377e-02,-4.869509159380753377e-02,-4.869509159380753377e-02,-4.869509159380753377e-02,-4.869509159380753377e-02,-4.869509159380753377e-02,-3.217807159356422808e-02,-1.711936813844796429e-02,-1.857768468357501659e-02,-2.003600122870206890e-02,-2.155772284100854891e-02,-2.301603938613559427e-02,-2.447435593126264311e-02,-2.593267247638969542e-02,-2.745439408869617542e-02,-2.891271063382322426e-02,-3.037102717895027656e-02,-3.182934372407732193e-02,-3.335106533638380888e-02,-3.480938188151085771e-02,-3.626769842663790655e-02,-3.772601497176495539e-02,-3.924773658407143540e-02,-4.070605312919849117e-02,-4.216436967432553307e-02,-1.859314263563055791e-01,-1.874531479686120661e-01,-1.889114645137391080e-01,-1.903697810588661499e-01,-4.869509159380753377e-02,-4.869509159380753377e-02,-4.869509159380753377e-02,-4.869509159380753377e-02,-4.869509159380753377e-02,-4.869509159380753377e-02,-4.869509159380753377e-02,-4.869509159380753377e-02,-4.869509159380753377e-02,-4.869509159380753377e-02,-4.869509159380753377e-02,-4.869509159380753377e-02,-4.869509159380753377e-02
-4.869509159380753377e-02,-4.869509159380753377e-02,-4.869509159380753377e-02,-4.869509159380753377e-02,-4.869509159380753377e-02,-4.869509159380753377e-02,-4.869509159380753377e-02,-4.869509159380753377e-02,-4.869509159380753377e-02,-4.869509159380753377e-02,-4.869509159380753377e-02,-4.869509159380753377e-02,-3.454783597939568157e-02,-1.997259616152262385e-02,-2.143091270664967268e-02,-2.295263431895615963e-02,-2.441095086408320847e-02,-2.586926740921025730e-02,-2.732758395433730614e-02,-2.884930556664378615e-02,-3.030762211177083845e-02,-3.176593865689789076e-02,-3.322425520202493265e-02,-3.474597681433141960e-02,-3.620429335945846844e-02,-3.766260990458551727e-02,-3.912092644971256611e-02,-4.064264806201904612e-02,-4.210096460714610189e-02,-4.355928115227314379e-02,-1.873263378342531760e-01,-1.888480594465596629e-01,-1.903063759916867048e-01,-1.910038317306605171e-01,-4.869509159380753377e-02,-4.869509159380753377e-02,-4.869509159380753377e-02,-4.869509159380753377e-02,-4.869509159380753377e-02,-4.869509159380753377e-02,-4.869509159380753377e-02,-4.869509159380753377e-02,-4.869509159380753377e-02,-4.869509159380753377e-02,-4.869509159380753377e-02,-4.869509159380753377e-02,-4.869509159380753377e-02
-4.869509159380753377e-02,-4.869509159380753377e-02,-4.869509159380753377e-02,-4.869509159380753377e-02,-4.869509159380753377e-02,-4.869509159380753377e-02,-4.869509159380753377e-02,-4.869509159380753377e-02,-4.869509159380753377e-02,-4.869509159380753377e-02,-4.869509159380753377e-02,-4.869509159380753377e-02,-4.869509159380753377e-02,-3.759326061235800792e-02,-2.282582418459728341e-02,-2.434754579690377035e-02,-2.580586234203081919e-02,-2.726417888715786803e-02,-2.872249543228491339e-02,-3.024421704459139687e-02,-3.170253358971844571e-02,-3.316085013484550148e-02,-3.461916667997254338e-02,-3.614088829227903032e-02,-3.759920483740607916e-02,-3.905752138253312800e-02,-4.051583792766017683e-02,-4.203755953996665684e-02,-4.349587608509371262e-02,-4.495419263022075451e-02,-4.641250917534780335e-02,-4.793423078765429030e-02,-4.869509159380753377e-02,-4.869509159380753377e-02,-4.869509159380753377e-02,-4.869509159380753377e-02,-4.869509159380753377e-02,-4.869509159380753377e-02,-4.869509159380753377e-02,-4.869509159380753377e-02,-4.869509159380753377e-02,-4.869509159380753377e-02,-4.869509159380753377e-02,-4.869509159380753377e-02,-4.869509159380753377e-02,-4.869509159380753377e-02,-4.869509159380753377e-02
