1.243745632118582745e-02,1.243745632118582745e-02,1.243745632118582745e-02,1.243745632118582745e-02,1.243745632118582745e-02,1.243745632118582745e-02,1.243745632118582745e-02,1.243745632118582745e-02,1.243745632118582745e-02,1.243745632118582745e-02,1.243745632118582745e-02,1.243745632118582745e-02,1.243745632118582745e-02,1.243745632118582745e-02,1.243745632118582745e-02,1.243745632118582745e-02,1.243745632118582745e-02,1.243745632118582745e-02,1.243745632118582745e-02,1.243745632118582745e-02,1.243745632118582745e-02,1.208792593276842783e-02,8.592622048594423037e-03,4.922552970211720169e-03,1.427249086037715373e-03,-2.242819992344985761e-03,-5.738123876518990557e-03,-9.408192954901695160e-03,-1.290349683907569822e-02,-1.657356591745839935e-02,-2.006886980163240242e-02,-2.373893888001511743e-02,-2.723424276418912049e-02,-3.090431184257182162e-02,-2.561766471775863557e-02,9.280760000791180367e-03,1.243745632118582745e-02,1.243745632118582745e-02,1.243745632118582745e-02,1.243745632118582745e-02,1.243745632118582745e-02,1.243745632118582745e-02,1.243745632118582745e-02,1.243745632118582745e-02,1.243745632118582745e-02,1.243745632118582745e-02,1.243745632118582745e-02
1.243745632118582745e-02,1.243745632118582745e-02,1.243745632118582745e-02,1.243745632118582745e-02,1.243745632118582745e-02,1.243745632118582745e-02,1.243745632118582745e-02,1.243745632118582745e-02,1.243745632118582745e-02,1.243745632118582745e-02,1.243745632118582745e-02,1.243745632118582745e-02,1.243745632118582745e-02,1.243745632118582745e-02,1.243745632118582745e-02,1.243745632118582745e-02,1.243745632118582745e-02,1.243745632118582745e-02,1.243745632118582745e-02,1.243745632118582745e-02,1.138886515593362687e-02,7.893561271759622078e-03,4.223492193376919210e-03,7.281883092029144133e-04,-2.941880769179786720e-03,-6.437184653353789782e-03,-1.010725373173649785e-02,-1.360255761591049745e-02,-1.727262669429320205e-02,-2.076793057846720858e-02,-2.443799965684990971e-02,-2.793330354102391971e-02,-3.160337261940662085e-02,-3.509867650358061697e-02,-3.876874558196332504e-02,-2.516982890759884156e-02,1.243745632118582745e-02,1.243745632118582745e-02,1.243745632118582745e-02,1.243745632118582745e-02,1.243745632118582745e-02,1.243745632118582745e-02,1.243745632118582745e-02,1.243745632118582745e-02,1.243745632118582745e-02,1.243745632118582745e-02,1.243745632118582745e-02
1.243745632118582745e-02,1.243745632118582745e-02,1.243745632118582745e-02,1.243745632118582745e-02,1.243745632118582745e-02,1.243745632118582745e-02,1.243745632118582745e-02,1.243745632118582745e-02,1.243745632118582745e-02,1.243745632118582745e-02,1.243745632118582745e-02,1.243745632118582745e-02,1.243745632118582745e-02,1.243745632118582745e-02,1.243745632118582745e-02,1.243745632118582745e-02,1.243745632118582745e-02,1.243745632118582745e-02,1.243745632118582745e-02,1.068980437909882591e-02,7.194500494924821986e-03,3.524431416542118251e-03,2.912753236811518875e-05,-3.640941546014589414e-03,-7.136245430188592476e-03,-1.080631450857129708e-02,-1.430161839274530014e-02,-1.797168747112800127e-02,-2.146699135530200087e-02,-2.513706043368470894e-02,-2.863236431785871894e-02,-3.230243339624142007e-02,-3.579773728041542313e-02,-3.946780635879811733e-02,-4.296311024297212733e-02,-4.663317932135482846e-02,-2.275588466259117343e-02,1.243745632118582745e-02,1.243745632118582745e-02,1.243745632118582745e-02,1.243745632118582745e-02,1.243745632118582745e-02,1.243745632118582745e-02,1.243745632118582745e-02,1.243745632118582745e-02,1.243745632118582745e-02,1.243745632118582745e-02
1.243745632118582745e-02,1.243745632118582745e-02,1.243745632118582745e-02,1.243745632118582745e-02,1.243745632118582745e-02,1.243745632118582745e-02,1.243745632118582745e-02,1.243745632118582745e-02,1.243745632118582745e-02,1.243745632118582745e-02,1.243745632118582745e-02,1.243745632118582745e-02,1.243745632118582745e-02,1.243745632118582745e-02,1.243745632118582745e-02,1.243745632118582745e-02,1.243745632118582745e-02,1.243745632118582745e-02,9.990743602264024956e-03,6.495439718090021894e-03,2.825370639707317291e-03,-6.699332444666875053e-04,-4.340002322849388638e-03,-7.835306207023391700e-03,-1.150537528540609630e-02,-1.500067916958009936e-02,-1.867074824796280397e-02,-2.216605213213680703e-02,-2.583612121051952204e-02,-2.933142509469352510e-02,-3.300149417307621930e-02,-3.649679805725021542e-02,-4.016686713563292349e-02,-4.366217101980693349e-02,-4.733224009818963463e-02,-5.082754398236363769e-02,-5.449761306074633882e-02,-1.837583198273562077e-02,1.243745632118582745e-02,1.243745632118582745e-02,1.243745632118582745e-02,1.243745632118582745e-02,1.243745632118582745e-02,1.243745632118582745e-02,1.243745632118582745e-02,1.243745632118582745e-02,1.243745632118582745e-02
1.243745632118582745e-02,1.243745632118582745e-02,1.243745632118582745e-02,1.243745632118582745e-02,1.243745632118582745e-02,1.243745632118582745e-02,1.243745632118582745e-02,1.243745632118582745e-02,1.243745632118582745e-02,1.243745632118582745e-02,1.243745632118582745e-02,1.243745632118582745e-02,1.243745632118582745e-02,1.243745632118582745e-02,1.243745632118582745e-02,1.243745632118582745e-02,1.243745632118582745e-02,9.291682825429223996e-03,5.621613747046520261e-03,2.126309862872516332e-03,-1.543759215510186536e-03,-5.039063099684187863e-03,-8.709132178066892466e-03,-1.220443606224089553e-02,-1.587450514062360013e-02,-1.936980902479760319e-02,-2.303987810318031126e-02,-2.653518198735432126e-02,-3.020525106573702240e-02,-3.370055494991101852e-02,-3.719585883408502158e-02,-4.086592791246772272e-02,-4.436123179664173272e-02,-4.803130087502444079e-02,-5.152660475919842997e-02,-5.519667383758113111e-02,-5.869197772175514805e-02,-6.236204680013784918e-02,-1.202967086803219746e-02,1.243745632118582745e-02,1.243745632118582745e-02,1.243745632118582745e-02,1.243745632118582745e-02,1.243745632118582745e-02,1.243745632118582745e-02,1.243745632118582745e-02,1.243745632118582745e-02
1.243745632118582745e-02,1.243745632118582745e-02,1.243745632118582745e-02,1.243745632118582745e-02,1.243745632118582745e-02,1.243745632118582745e-02,1.243745632118582745e-02,1.243745632118582745e-02,1.243745632118582745e-02,1.243745632118582745e-02,1.243745632118582745e-02,1.243745632118582745e-02,1.243745632118582745e-02,1.243745632118582745e-02,1.243745632118582745e-02,1.208792593276842783e-02,8.592622048594423037e-03,4.922552970211720169e-03,1.427249086037715373e-03,-2.242819992344987495e-03,-5.738123876518990557e-03,-9.408192954901695160e-03,-1.290349683907569822e-02,-1.657356591745839935e-02,-2.006886980163240242e-02,-2.373893888001511049e-02,-2.723424276418912049e-02,-3.090431184257182162e-02,-3.439961572674582468e-02,-3.806968480512851888e-02,-4.156498868930252888e-02,-4.523505776768523001e-02,-4.873036165185923307e-02,-5.240043073024193421e-02,-5.589573461441593727e-02,-5.956580369279863840e-02,-6.306110757697265534e-02,-6.585735068431186612e-02,-6.096392524646825073e-02,-2.242819992344987495e-03,1.243745632118582745e-02,1.243745632118582745e-02,1.243745632118582745e-02,1.243745632118582745e-02,1.243745632118582745e-02,1.243745632118582745e-02,1.243745632118582745e-02
1.243745632118582745e-02,1.243745632118582745e-02,1.243745632118582745e-02,1.243745632118582745e-02,1.243745632118582745e-02,1.243745632118582745e-02,1.243745632118582745e-02,1.243745632118582745e-02,1.243745632118582745e-02,1.243745632118582745e-02,1.243745632118582745e-02,1.243745632118582745e-02,1.243745632118582745e-02,1.243745632118582745e-02,1.138886515593362687e-02,7.893561271759622078e-03,4.223492193376919210e-03,7.281883092029144133e-04,-2.941880769179788455e-03,-6.437184653353789782e-03,-1.010725373173649785e-02,-1.360255761591050092e-02,-1.727262669429319858e-02,-2.076793057846720164e-02,-2.443799965684990971e-02,-2.793330354102392665e-02,-3.160337261940662085e-02,-3.509867650358061697e-02,-3.876874558196333198e-02,-4.226404946613732810e-02,-4.593411854452003618e-02,-4.942942242869403230e-02,-5.309949150707674037e-02,-5.659479539125074343e-02,-6.026486446963344457e-02,-6.376016835380744763e-02,-6.585735068431185224e-02,-6.585735068431185224e-02,-6.585735068431185224e-02,-5.117707437078103383e-02,7.544030883342222465e-03,1.243745632118582745e-02,1.243745632118582745e-02,1.243745632118582745e-02,1.243745632118582745e-02,1.243745632118582745e-02,1.243745632118582745e-02
1.243745632118582745e-02,1.243745632118582745e-02,1.243745632118582745e-02,1.243745632118582745e-02,1.243745632118582745e-02,1.243745632118582745e-02,1.243745632118582745e-02,1.243745632118582745e-02,1.243745632118582745e-02,1.243745632118582745e-02,1.243745632118582745e-02,1.243745632118582745e-02,1.243745632118582745e-02,1.068980437909882591e-02,7.194500494924821986e-03,3.524431416542118251e-03,2.912753236811518875e-05,-3.640941546014589414e-03,-7.136245430188592476e-03,-1.080631450857129708e-02,-1.430161839274530014e-02,-1.797168747112799780e-02,-2.146699135530200087e-02,-2.513706043368470894e-02,-2.863236431785871894e-02,-3.230243339624142007e-02,-3.579773728041542313e-02,-3.946780635879811733e-02,-4.296311024297212733e-02,-4.663317932135482846e-02,-5.012848320552883152e-02,-5.379855228391154653e-02,-5.729385616808554960e-02,-6.096392524646825073e-02,-6.445922913064225379e-02,-6.585735068431183836e-02,-6.585735068431185224e-02,-6.585735068431185224e-02,-6.585735068431185224e-02,-6.585735068431185224e-02,-4.139022349509383081e-02,1.243745632118582745e-02,1.243745632118582745e-02,1.243745632118582745e-02,1.243745632118582745e-02,1.243745632118582745e-02,1.243745632118582745e-02
1.243745632118582745e-02,1.243745632118582745e-02,1.243745632118582745e-02,1.243745632118582745e-02,1.243745632118582745e-02,1.243745632118582745e-02,1.243745632118582745e-02,1.243745632118582745e-02,1.243745632118582745e-02,1.243745632118582745e-02,1.243745632118582745e-02,1.243745632118582745e-02,9.990743602264024956e-03,6.495439718090020159e-03,2.825370639707317291e-03,-6.699332444666857705e-04,-4.340002322849388638e-03,-7.835306207023395170e-03,-1.150537528540609977e-02,-1.500067916958009936e-02,-1.867074824796280397e-02,-2.216605213213680703e-02,-2.583612121051951510e-02,-2.933142509469352510e-02,-3.300149417307621930e-02,-3.649679805725022236e-02,-4.016686713563292349e-02,-4.366217101980693349e-02,-4.733224009818963463e-02,-5.082754398236363769e-02,-5.449761306074633882e-02,-5.799291694492034188e-02,-6.166298602330304301e-02,-6.515828990747705995e-02,-6.585735068431185224e-02,-6.585735068431185224e-02,-6.585735068431185224e-02,-6.585735068431185224e-02,-6.585735068431185224e-02,-6.585735068431185224e-02,-6.585735068431185224e-02,-3.160337261940661391e-02,1.243745632118582745e-02,1.243745632118582745e-02,1.243745632118582745e-02,1.243745632118582745e-02,1.243745632118582745e-02
1.243745632118582745e-02,1.243745632118582745e-02,1.243745632118582745e-02,1.243745632118582745e-02,1.243745632118582745e-02,1.243745632118582745e-02,1.243745632118582745e-02,1.243745632118582745e-02,1.243745632118582745e-02,1.243745632118582745e-02,1.243745632118582745e-02,9.291682825429223996e-03,5.621613747046520261e-03,2.126309862872516332e-03,-1.368994021301486730e-03,-5.039063099684187863e-03,-8.534366983858190925e-03,-1.220443606224089553e-02,-1.569973994641489859e-02,-1.936980902479760319e-02,-2.286511290897161319e-02,-2.653518198735432126e-02,-3.003048587152832433e-02,-3.370055494991102546e-02,-3.719585883408502158e-02,-4.086592791246772965e-02,-4.436123179664173272e-02,-4.803130087502442691e-02,-5.152660475919844385e-02,-5.519667383758114498e-02,-5.869197772175514805e-02,-6.236204680013784918e-02,-6.585735068431185224e-02,-6.585735068431185224e-02,-6.585735068431186612e-02,-6.585735068431185224e-02,-6.585735068431185224e-02,-6.585735068431185224e-02,-6.585735068431185224e-02,-6.585735068431185224e-02,-6.585735068431185224e-02,-6.585735068431185224e-02,-2.181652174371941089e-02,1.243745632118582745e-02,1.243745632118582745e-02,1.243745632118582745e-02,1.243745632118582745e-02
1.243745632118582745e-02,1.243745632118582745e-02,1.243745632118582745e-02,1.243745632118582745e-02,1.243745632118582745e-02,1.243745632118582745e-02,1.243745632118582745e-02,1.243745632118582745e-02,1.243745632118582745e-02,1.208792593276842783e-02,8.592622048594423037e-03,4.922552970211719302e-03,1.427249086037715373e-03,-2.242819992344987495e-03,-5.738123876518990557e-03,-9.408192954901691690e-03,-1.290349683907569822e-02,-1.657356591745840282e-02,-2.006886980163240242e-02,-2.373893888001511049e-02,-2.723424276418912049e-02,-3.090431184257182162e-02,-3.439961572674581775e-02,-3.806968480512851888e-02,-4.156498868930252888e-02,-4.506029257347653194e-02,-4.873036165185923307e-02,-5.222566553603323614e-02,-5.589573461441593727e-02,-5.939103849858994033e-02,-6.306110757697265534e-02,-6.585735068431185224e-02,-6.585735068431185224e-02,-6.585735068431185224e-02,-6.585735068431185224e-02,-6.585735068431185224e-02,-6.585735068431185224e-02,-6.585735068431185224e-02,-6.585735068431185224e-02,-6.585735068431185224e-02,-6.585735068431185224e-02,-6.585735068431185224e-02,-6.585735068431185224e-02,-1.202967086803219746e-02,1.243745632118582745e-02,1.243745632118582745e-02,1.243745632118582745e-02
1.243745632118582745e-02,1.243745632118582745e-02,1.243745632118582745e-02,1.243745632118582745e-02,1.243745632118582745e-02,1.243745632118582745e-02,1.243745632118582745e-02,1.243745632118582745e-02,1.138886515593362687e-02,7.893561271759622078e-03,4.223492193376919210e-03,7.281883092029161481e-04,-2.941880769179786720e-03,-6.437184653353789782e-03,-1.010725373173649785e-02,-1.360255761591050092e-02,-1.727262669429320205e-02,-2.076793057846720164e-02,-2.443799965684991665e-02,-2.793330354102391971e-02,-3.160337261940661391e-02,-3.509867650358062391e-02,-3.876874558196332504e-02,-4.226404946613732116e-02,-4.593411854452002924e-02,-4.942942242869404618e-02,-5.309949150707672649e-02,-5.659479539125074343e-02,-6.026486446963344457e-02,-6.376016835380744763e-02,-6.585735068431185224e-02,-6.585735068431185224e-02,-6.585735068431185224e-02,-6.585735068431185224e-02,-6.585735068431185224e-02,-6.585735068431185224e-02,-6.585735068431186612e-02,-6.585735068431185224e-02,-6.585735068431183836e-02,-6.585735068431185224e-02,-6.585735068431185224e-02,-6.585735068431186612e-02,-6.585735068431185224e-02,-6.341063796539005148e-02,-1.975210788712915971e-03,1.243745632118582745e-02,1.243745632118582745e-02
1.243745632118582745e-02,1.243745632118582745e-02,1.243745632118582745e-02,1.243745632118582745e-02,1.243745632118582745e-02,1.243745632118582745e-02,1.243745632118582745e-02,1.068980437909882591e-02,7.194500494924821118e-03,3.524431416542118251e-03,2.912753236811345403e-05,-3.640941546014589414e-03,-7.136245430188592476e-03,-1.080631450857129708e-02,-1.430161839274529667e-02,-1.797168747112800474e-02,-2.146699135530200780e-02,-2.513706043368471588e-02,-2.863236431785872588e-02,-3.230243339624142007e-02,-3.579773728041542313e-02,-3.946780635879813121e-02,-4.296311024297212733e-02,-4.663317932135484234e-02,-5.012848320552883152e-02,-5.379855228391154653e-02,-5.729385616808553572e-02,-6.096392524646823685e-02,-6.445922913064223991e-02,-6.585735068431185224e-02,-6.585735068431185224e-02,-6.585735068431185224e-02,-6.585735068431185224e-02,-6.585735068431185224e-02,-6.585735068431185224e-02,-6.585735068431185224e-02,-6.585735068431185224e-02,-6.585735068431185224e-02,-6.585735068431185224e-02,-6.585735068431185224e-02,-6.585735068431186612e-02,-6.585735068431185224e-02,-6.585735068431185224e-02,-6.341063796539005148e-02,-4.587586347978379886e-02,8.206682244716876837e-03,1.243745632118582745e-02
1.243745632118582745e-02,1.243745632118582745e-02,1.243745632118582745e-02,1.243745632118582745e-02,1.243745632118582745e-02,1.243745632118582745e-02,9.990743602264024956e-03,6.495439718090021027e-03,2.825370639707317291e-03,-6.699332444666857705e-04,-4.340002322849388638e-03,-7.835306207023391700e-03,-1.150537528540609630e-02,-1.500067916958009936e-02,-1.867074824796280397e-02,-2.216605213213680703e-02,-2.583612121051951510e-02,-2.933142509469351816e-02,-3.300149417307621930e-02,-3.649679805725022930e-02,-4.016686713563292349e-02,-4.366217101980692655e-02,-4.733224009818963463e-02,-5.082754398236363769e-02,-5.449761306074633882e-02,-5.799291694492034188e-02,-6.166298602330304301e-02,-6.515828990747705995e-02,-6.585735068431185224e-02,-6.585735068431185224e-02,-6.585735068431185224e-02,-6.585735068431185224e-02,-6.585735068431185224e-02,-6.585735068431185224e-02,-6.585735068431185224e-02,-6.585735068431185224e-02,-6.585735068431185224e-02,-6.585735068431185224e-02,-6.585735068431185224e-02,-6.585735068431185224e-02,-6.585735068431183836e-02,-6.585735068431185224e-02,-6.259506705908278457e-02,-5.851721252754644997e-02,-5.423546526943329171e-02,-3.059665228193357567e-02,1.243745632118582745e-02
1.243745632118582745e-02,1.243745632118582745e-02,1.243745632118582745e-02,1.243745632118582745e-02,1.243745632118582745e-02,9.291682825429223996e-03,5.796378941255220935e-03,2.126309862872516332e-03,-1.368994021301486730e-03,-5.039063099684191332e-03,-8.534366983858190925e-03,-1.220443606224089900e-02,-1.569973994641490206e-02,-1.936980902479760319e-02,-2.286511290897161319e-02,-2.653518198735432126e-02,-3.003048587152831739e-02,-3.370055494991101852e-02,-3.719585883408502158e-02,-4.086592791246772965e-02,-4.436123179664172578e-02,-4.803130087502443385e-02,-5.152660475919844385e-02,-5.519667383758113111e-02,-5.869197772175514805e-02,-6.236204680013784918e-02,-6.585735068431185224e-02,-6.585735068431185224e-02,-6.585735068431185224e-02,-6.585735068431185224e-02,-6.585735068431185224e-02,-6.585735068431185224e-02,-6.585735068431185224e-02,-6.585735068431185224e-02,-6.585735068431185224e-02,-6.585735068431185224e-02,-6.585735068431185224e-02,-6.585735068431185224e-02,-6.585735068431185224e-02,-6.585735068431185224e-02,-6.585735068431185224e-02,-6.177949615277551765e-02,-5.770164162123918306e-02,-5.341989436312602479e-02,-4.934203983158967632e-02,-4.506029257347652500e-02,-1.761123425807255977e-02
1.243745632118582745e-02,1.243745632118582745e-02,1.243745632118582745e-02,1.208792593276842783e-02,8.592622048594423037e-03,4.922552970211719302e-03,1.427249086037715373e-03,-2.242819992344987495e-03,-5.738123876518990557e-03,-9.408192954901695160e-03,-1.290349683907569475e-02,-1.639880072324970128e-02,-2.006886980163240242e-02,-2.356417368580641242e-02,-2.723424276418912049e-02,-3.072954664836312355e-02,-3.439961572674582468e-02,-3.789491961091982081e-02,-4.156498868930252194e-02,-4.506029257347653194e-02,-4.873036165185923307e-02,-5.222566553603323614e-02,-5.589573461441593727e-02,-5.939103849858994033e-02,-6.306110757697265534e-02,-6.585735068431185224e-02,-6.585735068431185224e-02,-6.585735068431185224e-02,-6.585735068431185224e-02,-6.585735068431185224e-02,-6.585735068431185224e-02,-6.585735068431185224e-02,-6.585735068431185224e-02,-6.585735068431185224e-02,-6.585735068431185224e-02,-6.585735068431185224e-02,-6.585735068431185224e-02,-6.585735068431185224e-02,-6.585735068431185224e-02,-6.524567250458140899e-02,-6.096392524646825073e-02,-5.688607071493191614e-02,-5.260432345681875788e-02,-4.852646892528240941e-02,-4.424472166716925114e-02,-4.016686713563292349e-02,-3.588511987751977217e-02
1.243745632118582745e-02,1.243745632118582745e-02,1.138886515593362687e-02,7.893561271759622078e-03,4.223492193376919210e-03,7.281883092029144133e-04,-2.941880769179786720e-03,-6.437184653353793251e-03,-1.010725373173649438e-02,-1.360255761591049745e-02,-1.727262669429320205e-02,-2.076793057846720164e-02,-2.443799965684990971e-02,-2.793330354102391971e-02,-3.160337261940662085e-02,-3.509867650358062391e-02,-3.876874558196332504e-02,-4.226404946613732116e-02,-4.593411854452003618e-02,-4.942942242869403230e-02,-5.309949150707674037e-02,-5.659479539125074343e-02,-6.009009927542474649e-02,-6.376016835380744763e-02,-6.585735068431185224e-02,-6.585735068431185224e-02,-6.585735068431185224e-02,-6.585735068431185224e-02,-6.585735068431185224e-02,-6.585735068431185224e-02,-6.585735068431185224e-02,-6.585735068431185224e-02,-6.585735068431185224e-02,-6.585735068431183836e-02,-6.585735068431185224e-02,-6.585735068431185224e-02,-6.585735068431185224e-02,-6.585735068431185224e-02,-6.443010159827412819e-02,-6.014835434016098381e-02,-5.607049980862463534e-02,-5.178875255051149096e-02,-4.771089801897514249e-02,-4.342915076086199810e-02,-3.935129622932565657e-02,-3.506954897121250525e-02,-3.099169443967616372e-02
1.243745632118582745e-02,1.068980437909882591e-02,7.194500494924821986e-03,3.524431416542118251e-03,2.912753236811518875e-05,-3.640941546014589414e-03,-7.136245430188592476e-03,-1.080631450857129708e-02,-1.430161839274529667e-02,-1.797168747112800474e-02,-2.146699135530200087e-02,-2.513706043368471588e-02,-2.863236431785871894e-02,-3.230243339624142007e-02,-3.579773728041542313e-02,-3.946780635879811733e-02,-4.296311024297212733e-02,-4.663317932135483540e-02,-5.012848320552883152e-02,-5.379855228391154653e-02,-5.729385616808554960e-02,-6.096392524646825073e-02,-6.445922913064225379e-02,-6.585735068431185224e-02,-6.585735068431185224e-02,-6.585735068431185224e-02,-6.585735068431185224e-02,-6.585735068431185224e-02,-6.585735068431185224e-02,-6.585735068431185224e-02,-6.585735068431185224e-02,-6.585735068431185224e-02,-6.585735068431185224e-02,-6.585735068431185224e-02,-6.585735068431185224e-02,-6.585735068431185224e-02,-6.585735068431185224e-02,-6.361453069196686128e-02,-5.933278343385371689e-02,-5.525492890231736842e-02,-5.097318164420421016e-02,-4.689532711266787557e-02,-4.261357985455471731e-02,-3.853572532301838965e-02,-3.425397806490523833e-02,-3.017612353336890374e-02,-2.589437627525574548e-02
9.990743602264024956e-03,6.495439718090021027e-03,2.825370639707315557e-03,-6.699332444666857705e-04,-4.340002322849388638e-03,-7.835306207023391700e-03,-1.150537528540609977e-02,-1.500067916958009936e-02,-1.867074824796280050e-02,-2.216605213213680703e-02,-2.583612121051951510e-02,-2.933142509469351816e-02,-3.300149417307621930e-02,-3.649679805725021542e-02,-4.016686713563292349e-02,-4.366217101980692655e-02,-4.733224009818963463e-02,-5.082754398236363769e-02,-5.449761306074633882e-02,-5.799291694492034188e-02,-6.166298602330304301e-02,-6.515828990747705995e-02,-6.585735068431185224e-02,-6.585735068431185224e-02,-6.585735068431185224e-02,-6.585735068431185224e-02,-6.585735068431185224e-02,-6.585735068431185224e-02,-6.585735068431185224e-02,-6.585735068431185224e-02,-6.585735068431185224e-02,-6.585735068431185224e-02,-6.585735068431185224e-02,-6.585735068431185224e-02,-6.585735068431185224e-02,-6.585735068431185224e-02,-6.259506705908278457e-02,-5.851721252754644997e-02,-5.423546526943329171e-02,-5.015761073789695712e-02,-4.607975620636060865e-02,-4.179800894824746427e-02,-3.772015441671111580e-02,-3.343840715859797141e-02,-2.936055262706162988e-02,-2.507880536894847856e-02,-2.100095083741213703e-02
5.796378941255220935e-03,2.126309862872516332e-03,-1.368994021301486730e-03,-5.039063099684187863e-03,-8.534366983858194394e-03,-1.220443606224089900e-02,-1.569973994641490206e-02,-1.936980902479760319e-02,-2.286511290897160625e-02,-2.653518198735431433e-02,-3.003048587152831739e-02,-3.370055494991101852e-02,-3.719585883408502158e-02,-4.086592791246772272e-02,-4.436123179664173272e-02,-4.803130087502443385e-02,-5.152660475919842997e-02,-5.519667383758114498e-02,-5.869197772175514805e-02,-6.236204680013784918e-02,-6.585735068431185224e-02,-6.585735068431185224e-02,-6.585735068431185224e-02,-6.585735068431185224e-02,-6.585735068431185224e-02,-6.585735068431185224e-02,-6.585735068431185224e-02,-6.585735068431185224e-02,-6.585735068431186612e-02,-6.585735068431185224e-02,-6.585735068431185224e-02,-6.585735068431185224e-02,-6.585735068431185224e-02,-6.585735068431185224e-02,-6.585735068431185224e-02,-6.177949615277551765e-02,-5.770164162123918306e-02,-5.341989436312602479e-02,-4.934203983158967632e-02,-4.506029257347652500e-02,-4.098243804194019041e-02,-3.670069078382703909e-02,-3.262283625229071143e-02,-2.834108899417754623e-02,-2.426323446264120470e-02,-1.998148720452805338e-02,-1.590363267299171879e-02
1.427249086037715373e-03,-2.068054798136287689e-03,-5.738123876518990557e-03,-9.233427760692997088e-03,-1.290349683907569822e-02,-1.639880072324970128e-02,-2.006886980163240242e-02,-2.356417368580641242e-02,-2.723424276418912049e-02,-3.072954664836312355e-02,-3.439961572674581775e-02,-3.789491961091982775e-02,-4.156498868930252888e-02,-4.506029257347653194e-02,-4.873036165185923307e-02,-5.222566553603323614e-02,-5.589573461441593727e-02,-5.939103849858994033e-02,-6.306110757697264146e-02,-6.585735068431185224e-02,-6.585735068431185224e-02,-6.585735068431185224e-02,-6.585735068431185224e-02,-6.585735068431185224e-02,-6.585735068431185224e-02,-6.585735068431185224e-02,-6.585735068431185224e-02,-6.585735068431185224e-02,-6.585735068431185224e-02,-6.585735068431185224e-02,-6.585735068431185224e-02,-6.585735068431185224e-02,-6.585735068431185224e-02,-6.524567250458140899e-02,-6.096392524646825073e-02,-5.688607071493191614e-02,-5.260432345681874400e-02,-4.852646892528240941e-02,-4.424472166716926502e-02,-4.016686713563291655e-02,-3.588511987751977217e-02,-3.180726534598343758e-02,-2.752551808787027932e-02,-2.344766355633393778e-02,-1.916591629822078646e-02,-1.508806176668445187e-02,-1.080631450857129361e-02
-2.941880769179786720e-03,-6.437184653353789782e-03,-1.010725373173649785e-02,-1.360255761591049745e-02,-1.727262669429320205e-02,-2.076793057846720858e-02,-2.426323446264121164e-02,-2.793330354102391971e-02,-3.142860742519792278e-02,-3.509867650358062391e-02,-3.859398038775462003e-02,-4.226404946613732810e-02,-4.575935335031133810e-02,-4.942942242869403230e-02,-5.292472631286804230e-02,-5.659479539125072955e-02,-6.009009927542474649e-02,-6.376016835380744763e-02,-6.585735068431185224e-02,-6.585735068431185224e-02,-6.585735068431185224e-02,-6.585735068431185224e-02,-6.585735068431185224e-02,-6.585735068431185224e-02,-6.585735068431186612e-02,-6.585735068431185224e-02,-6.585735068431185224e-02,-6.585735068431185224e-02,-6.585735068431185224e-02,-6.585735068431185224e-02,-6.585735068431185224e-02,-6.585735068431185224e-02,-6.443010159827412819e-02,-6.014835434016098381e-02,-5.607049980862464922e-02,-1.391428550165488831e-01,-1.350650004850125208e-01,-1.307832532268993764e-01,-3.935129622932565657e-02,-3.506954897121250525e-02,-3.099169443967616372e-02,-2.670994718156301240e-02,-2.263209265002667087e-02,-1.835034539191351607e-02,-1.427249086037718148e-02,-9.990743602264030160e-03,-5.912889070727692098e-03
-7.136245430188592476e-03,-1.080631450857129708e-02,-1.430161839274530014e-02,-1.797168747112800127e-02,-2.146699135530200780e-02,-2.513706043368471588e-02,-2.863236431785871894e-02,-3.230243339624142007e-02,-3.579773728041541619e-02,-3.946780635879811733e-02,-4.296311024297212733e-02,-4.663317932135483540e-02,-5.012848320552884540e-02,-5.379855228391153266e-02,-5.729385616808553572e-02,-6.096392524646823685e-02,-6.445922913064225379e-02,-6.585735068431185224e-02,-6.585735068431185224e-02,-6.585735068431185224e-02,-6.585735068431185224e-02,-6.585735068431185224e-02,-6.585735068431185224e-02,-6.585735068431185224e-02,-6.585735068431185224e-02,-6.585735068431185224e-02,-6.585735068431183836e-02,-6.585735068431185224e-02,-6.585735068431185224e-02,-6.585735068431185224e-02,-6.585735068431185224e-02,-6.361453069196686128e-02,-5.933278343385371689e-02,-5.525492890231736842e-02,-5.097318164420422404e-02,-1.342494295787052816e-01,-1.299676823205920817e-01,-1.258898277890557749e-01,-3.425397806490523833e-02,-3.017612353336890374e-02,-2.589437627525574548e-02,-2.181652174371940395e-02,-1.753477448560625263e-02,-1.345691995406991456e-02,-9.175172695956759772e-03,-5.097318164420425179e-03,-8.155709063072686532e-04
-1.150537528540609630e-02,-1.500067916958009936e-02,-1.867074824796280397e-02,-2.216605213213680703e-02,-2.583612121051951510e-02,-2.933142509469351816e-02,-3.300149417307621930e-02,-3.649679805725022236e-02,-4.016686713563292349e-02,-4.366217101980693349e-02,-4.733224009818963463e-02,-5.082754398236363769e-02,-5.449761306074633882e-02,-5.799291694492034188e-02,-6.166298602330305689e-02,-6.515828990747704608e-02,-6.585735068431185224e-02,-6.585735068431186612e-02,-6.585735068431185224e-02,-6.585735068431185224e-02,-6.585735068431185224e-02,-6.585735068431185224e-02,-6.585735068431183836e-02,-6.585735068431185224e-02,-6.585735068431185224e-02,-6.585735068431185224e-02,-6.585735068431185224e-02,-6.585735068431185224e-02,-6.585735068431185224e-02,-6.585735068431185224e-02,-6.279895978565959436e-02,-5.851721252754644997e-02,-5.443935799601011538e-02,-5.015761073789694324e-02,-4.607975620636061559e-02,-1.291521114142848425e-01,-1.250742568827484802e-01,-1.207925096246353497e-01,-2.936055262706163682e-02,-2.507880536894847162e-02,-2.100095083741213703e-02,-1.671920357929897877e-02,-1.264134904776264764e-02,-8.359601789649492853e-03,-4.281747258113154792e-03,-1.734723475976807094e-18,4.077854531536336327e-03
-1.569973994641490206e-02,-1.936980902479760319e-02,-2.286511290897160625e-02,-2.653518198735432126e-02,-3.003048587152831739e-02,-3.370055494991101852e-02,-3.719585883408502158e-02,-4.086592791246772965e-02,-4.436123179664173272e-02,-4.803130087502443385e-02,-5.152660475919844385e-02,-5.519667383758113111e-02,-5.869197772175513417e-02,-6.236204680013783530e-02,-6.585735068431185224e-02,-6.585735068431185224e-02,-6.585735068431185224e-02,-6.585735068431185224e-02,-6.585735068431185224e-02,-6.585735068431185224e-02,-6.585735068431185224e-02,-6.585735068431185224e-02,-6.585735068431186612e-02,-6.585735068431185224e-02,-6.585735068431185224e-02,-6.585735068431186612e-02,-6.585735068431185224e-02,-6.585735068431185224e-02,-6.585735068431185224e-02,-6.177949615277551765e-02,-5.770164162123918306e-02,-5.341989436312601092e-02,-4.934203983158968326e-02,-4.506029257347653194e-02,-4.098243804194019041e-02,-3.670069078382703909e-02,-3.262283625229071143e-02,-2.854498172075436990e-02,-2.426323446264121164e-02,-2.018537993110487011e-02,-1.590363267299171185e-02,-1.182577814145538073e-02,-7.544030883342225935e-03,-3.466176351805887873e-03,8.155709063072669185e-04,4.893425437843604113e-03,9.175172695956758037e-03
-2.006886980163240242e-02,-2.356417368580640548e-02,-2.723424276418912049e-02,-3.072954664836312355e-02,-3.439961572674581775e-02,-3.789491961091982081e-02,-4.156498868930252888e-02,-4.506029257347653194e-02,-4.873036165185923307e-02,-5.222566553603323614e-02,-5.589573461441593727e-02,-5.939103849858994033e-02,-6.306110757697265534e-02,-6.585735068431185224e-02,-6.585735068431185224e-02,-6.585735068431185224e-02,-6.585735068431186612e-02,-6.585735068431185224e-02,-6.585735068431185224e-02,-6.585735068431185224e-02,-6.585735068431185224e-02,-6.585735068431185224e-02,-6.585735068431185224e-02,-6.585735068431185224e-02,-6.585735068431183836e-02,-6.585735068431185224e-02,-6.585735068431185224e-02,-6.524567250458140899e-02,-6.096392524646825073e-02,-5.688607071493191614e-02,-5.260432345681874400e-02,-4.852646892528240941e-02,-4.424472166716926502e-02,-4.016686713563293043e-02,-3.588511987751977217e-02,-3.180726534598343064e-02,-2.752551808787027932e-02,-2.344766355633393778e-02,-1.916591629822078646e-02,-1.508806176668444840e-02,-1.080631450857129361e-02,-6.728459977034959016e-03,-2.446712718921804225e-03,1.631141812614533837e-03,5.708996344150871032e-03,9.990743602264024956e-03,1.243745632118582745e-02
-2.426323446264121164e-02,-2.793330354102391971e-02,-3.142860742519792278e-02,-3.509867650358061697e-02,-3.859398038775462003e-02,-4.226404946613732810e-02,-4.575935335031133810e-02,-4.942942242869404618e-02,-5.292472631286802842e-02,-5.659479539125074343e-02,-6.009009927542474649e-02,-6.376016835380744763e-02,-6.585735068431185224e-02,-6.585735068431185224e-02,-6.585735068431185224e-02,-6.585735068431185224e-02,-6.585735068431185224e-02,-6.585735068431185224e-02,-6.585735068431186612e-02,-6.585735068431185224e-02,-6.585735068431185224e-02,-6.585735068431185224e-02,-6.585735068431185224e-02,-6.585735068431183836e-02,-6.585735068431185224e-02,-6.585735068431185224e-02,-6.443010159827412819e-02,-6.014835434016098381e-02,-5.607049980862463534e-02,-5.178875255051149096e-02,-4.771089801897514249e-02,-4.342915076086199117e-02,-3.935129622932565657e-02,-3.506954897121250525e-02,-3.099169443967617066e-02,-2.670994718156301240e-02,-2.263209265002667087e-02,-1.835034539191351607e-02,-1.427249086037718148e-02,-9.990743602264026690e-03,-5.912889070727688628e-03,-1.631141812614537306e-03,2.446712718921800755e-03,6.728459977034955547e-03,1.080631450857129187e-02,1.243745632118582745e-02,1.243745632118582745e-02
-2.863236431785871894e-02,-3.230243339624142007e-02,-3.579773728041542313e-02,-3.929304116458942620e-02,-4.296311024297212733e-02,-4.645841412714613039e-02,-5.012848320552883152e-02,-5.362378708970283459e-02,-5.729385616808553572e-02,-6.078916005225953878e-02,-6.445922913064225379e-02,-6.585735068431183836e-02,-6.585735068431185224e-02,-6.585735068431185224e-02,-6.585735068431185224e-02,-6.585735068431185224e-02,-6.585735068431185224e-02,-6.585735068431183836e-02,-6.585735068431185224e-02,-6.585735068431185224e-02,-6.585735068431185224e-02,-6.585735068431185224e-02,-6.585735068431185224e-02,-6.585735068431185224e-02,-6.585735068431185224e-02,-6.361453069196687515e-02,-5.933278343385371689e-02,-5.525492890231738230e-02,-5.097318164420421016e-02,-4.689532711266786863e-02,-4.261357985455472425e-02,-3.853572532301838965e-02,-3.425397806490523833e-02,-3.017612353336890374e-02,-2.589437627525575242e-02,-2.181652174371940395e-02,-1.753477448560625263e-02,-1.345691995406991109e-02,-9.175172695956759772e-03,-5.097318164420425179e-03,-8.155709063072703879e-04,3.262283625229069409e-03,7.544030883342222465e-03,1.162188541487856053e-02,1.243745632118582745e-02,1.243745632118582745e-02,1.243745632118582745e-02
-3.300149417307621930e-02,-3.649679805725021542e-02,-4.016686713563292349e-02,-4.366217101980693349e-02,-4.733224009818964156e-02,-5.082754398236363769e-02,-5.449761306074633882e-02,-5.799291694492034188e-02,-6.166298602330304301e-02,-6.515828990747704608e-02,-6.585735068431185224e-02,-6.585735068431186612e-02,-6.585735068431185224e-02,-6.585735068431185224e-02,-6.585735068431186612e-02,-6.585735068431185224e-02,-6.585735068431185224e-02,-6.585735068431185224e-02,-6.585735068431185224e-02,-6.585735068431185224e-02,-6.585735068431185224e-02,-6.585735068431185224e-02,-6.585735068431185224e-02,-6.585735068431185224e-02,-6.279895978565959436e-02,-5.851721252754644997e-02,-5.443935799601010150e-02,-5.015761073789694324e-02,-4.607975620636060865e-02,-4.179800894824745733e-02,-3.772015441671112967e-02,-3.343840715859797141e-02,-2.936055262706163682e-02,-2.507880536894847856e-02,-2.100095083741213703e-02,-1.671920357929898224e-02,-1.264134904776264418e-02,-8.359601789649492853e-03,-4.281747258113154792e-03,-1.734723475976807094e-18,4.077854531536336327e-03,8.359601789649489384e-03,1.243745632118582745e-02,1.243745632118582745e-02,1.243745632118582745e-02,1.243745632118582745e-02,1.243745632118582745e-02
-3.719585883408502158e-02,-4.086592791246772965e-02,-4.436123179664173272e-02,-4.803130087502443385e-02,-5.152660475919842997e-02,-5.519667383758113111e-02,-5.869197772175513417e-02,-6.236204680013784918e-02,-6.585735068431185224e-02,-6.585735068431185224e-02,-6.585735068431185224e-02,-6.585735068431185224e-02,-6.585735068431185224e-02,-6.585735068431183836e-02,-6.585735068431185224e-02,-6.585735068431185224e-02,-6.585735068431185224e-02,-6.585735068431185224e-02,-6.585735068431185224e-02,-6.585735068431186612e-02,-6.585735068431185224e-02,-6.585735068431185224e-02,-6.585735068431185224e-02,-6.198338887935234132e-02,-5.770164162123918306e-02,-5.362378708970283459e-02,-4.934203983158968326e-02,-4.526418530005334867e-02,-4.098243804194019041e-02,-3.690458351040385582e-02,-3.262283625229070450e-02,-2.854498172075436990e-02,-2.426323446264121164e-02,-2.018537993110487011e-02,-1.590363267299171185e-02,-1.182577814145537726e-02,-7.544030883342225935e-03,-3.466176351805891342e-03,8.155709063072651838e-04,4.893425437843603246e-03,9.175172695956758037e-03,1.243745632118582745e-02,1.243745632118582745e-02,1.243745632118582745e-02,1.243745632118582745e-02,1.243745632118582745e-02,1.243745632118582745e-02
-4.156498868930252888e-02,-4.506029257347653194e-02,-4.873036165185923307e-02,-5.222566553603323614e-02,-5.589573461441593727e-02,-5.939103849858994033e-02,-6.306110757697265534e-02,-6.585735068431185224e-02,-6.585735068431185224e-02,-6.585735068431185224e-02,-6.585735068431185224e-02,-6.585735068431185224e-02,-6.585735068431185224e-02,-6.585735068431185224e-02,-6.585735068431185224e-02,-6.585735068431185224e-02,-6.585735068431185224e-02,-6.585735068431185224e-02,-6.585735068431185224e-02,-6.585735068431185224e-02,-6.585735068431183836e-02,-6.524567250458140899e-02,-6.096392524646825073e-02,-5.688607071493191614e-02,-5.260432345681875788e-02,-4.852646892528241634e-02,-4.424472166716925114e-02,-4.016686713563293043e-02,-3.588511987751977217e-02,-3.180726534598343758e-02,-2.752551808787027932e-02,-2.344766355633394472e-02,-1.936980902479760319e-02,-1.508806176668445187e-02,-1.101020723514811381e-02,-6.728459977034959016e-03,-2.650605445498620955e-03,1.631141812614533837e-03,5.708996344150871032e-03,9.990743602264024956e-03,1.243745632118582745e-02,1.243745632118582745e-02,1.243745632118582745e-02,1.243745632118582745e-02,1.243745632118582745e-02,1.243745632118582745e-02,1.243745632118582745e-02
-4.575935335031132423e-02,-4.942942242869403230e-02,-5.292472631286804230e-02,-5.659479539125074343e-02,-6.009009927542474649e-02,-6.376016835380746151e-02,-6.585735068431185224e-02,-6.585735068431185224e-02,-6.585735068431185224e-02,-6.585735068431185224e-02,-6.585735068431185224e-02,-6.585735068431185224e-02,-6.585735068431186612e-02,-6.585735068431185224e-02,-6.585735068431185224e-02,-6.585735068431185224e-02,-6.585735068431185224e-02,-6.585735068431185224e-02,-6.585735068431185224e-02,-6.585735068431185224e-02,-6.443010159827412819e-02,-6.014835434016098381e-02,-5.607049980862463534e-02,-5.178875255051147708e-02,-4.771089801897514249e-02,-4.342915076086199810e-02,-3.935129622932565657e-02,-3.506954897121250525e-02,-3.099169443967617066e-02,-2.670994718156301240e-02,-2.263209265002667780e-02,-1.835034539191351954e-02,-1.427249086037718148e-02,-9.990743602264026690e-03,-5.912889070727692098e-03,-1.631141812614537306e-03,2.446712718921800755e-03,6.728459977034955547e-03,1.080631450857129187e-02,1.243745632118582745e-02,1.243745632118582745e-02,1.243745632118582745e-02,1.243745632118582745e-02,1.243745632118582745e-02,1.243745632118582745e-02,1.243745632118582745e-02,1.243745632118582745e-02
-2.275588466259117343e-02,-5.362378708970283459e-02,-5.729385616808553572e-02,-6.078916005225953878e-02,-6.445922913064223991e-02,-6.585735068431185224e-02,-6.585735068431185224e-02,-6.585735068431185224e-02,-6.585735068431185224e-02,-6.585735068431185224e-02,-6.585735068431185224e-02,-6.585735068431185224e-02,-6.585735068431185224e-02,-6.585735068431185224e-02,-6.585735068431185224e-02,-6.585735068431185224e-02,-6.585735068431185224e-02,-6.585735068431186612e-02,-6.585735068431185224e-02,-6.361453069196687515e-02,-5.933278343385371689e-02,-5.525492890231738230e-02,-5.097318164420421016e-02,-4.689532711266787557e-02,-4.261357985455472425e-02,-3.853572532301838965e-02,-3.425397806490523833e-02,-3.017612353336890374e-02,-2.589437627525574548e-02,-2.181652174371940395e-02,-1.753477448560625263e-02,-1.345691995406991456e-02,-9.175172695956759772e-03,-5.097318164420425179e-03,-8.155709063072686532e-04,3.262283625229067674e-03,7.544030883342222465e-03,1.162188541487856053e-02,1.243745632118582745e-02,1.243745632118582745e-02,1.243745632118582745e-02,1.243745632118582745e-02,1.243745632118582745e-02,1.243745632118582745e-02,1.243745632118582745e-02,1.243745632118582745e-02,1.243745632118582745e-02
1.243745632118582745e-02,-3.598342529926216310e-02,-6.148822082909433107e-02,-6.515828990747705995e-02,-6.585735068431185224e-02,-6.585735068431183836e-02,-6.585735068431185224e-02,-6.585735068431185224e-02,-6.585735068431185224e-02,-6.585735068431185224e-02,-6.585735068431185224e-02,-6.585735068431185224e-02,-6.585735068431185224e-02,-6.585735068431185224e-02,-6.585735068431185224e-02,-6.585735068431185224e-02,-6.585735068431185224e-02,-6.585735068431185224e-02,-6.279895978565959436e-02,-5.851721252754644997e-02,-5.443935799601010150e-02,-5.015761073789695712e-02,-4.607975620636060865e-02,-4.179800894824745039e-02,-3.772015441671112274e-02,-3.343840715859797141e-02,-2.936055262706162988e-02,-2.507880536894847856e-02,-2.100095083741213703e-02,-1.671920357929898224e-02,-1.264134904776264418e-02,-8.359601789649492853e-03,-4.281747258113154792e-03,0.000000000000000000e+00,4.077854531536336327e-03,8.359601789649489384e-03,1.243745632118582745e-02,1.243745632118582745e-02,1.243745632118582745e-02,1.243745632118582745e-02,1.243745632118582745e-02,1.243745632118582745e-02,1.243745632118582745e-02,1.243745632118582745e-02,1.243745632118582745e-02,1.243745632118582745e-02,1.243745632118582745e-02
1.243745632118582745e-02,7.762487376103097657e-03,-5.117707437078103383e-02,-6.585735068431185224e-02,-6.585735068431185224e-02,-6.585735068431185224e-02,-6.585735068431185224e-02,-6.585735068431185224e-02,-6.585735068431185224e-02,-6.585735068431185224e-02,-6.585735068431185224e-02,-6.585735068431185224e-02,-6.585735068431185224e-02,-6.585735068431185224e-02,-6.585735068431185224e-02,-6.585735068431185224e-02,-6.585735068431185224e-02,-6.198338887935232744e-02,-5.770164162123918306e-02,-5.362378708970283459e-02,-4.934203983158967632e-02,-4.526418530005334173e-02,-4.098243804194019041e-02,-3.690458351040385582e-02,-3.262283625229070450e-02,-2.854498172075436990e-02,-2.426323446264120470e-02,-2.018537993110487011e-02,-1.590363267299171879e-02,-1.182577814145538420e-02,-7.544030883342225935e-03,-3.466176351805887873e-03,8.155709063072651838e-04,4.893425437843603246e-03,9.175172695956758037e-03,1.243745632118582745e-02,1.243745632118582745e-02,1.243745632118582745e-02,1.243745632118582745e-02,1.243745632118582745e-02,1.243745632118582745e-02,1.243745632118582745e-02,1.243745632118582745e-02,1.243745632118582745e-02,1.243745632118582745e-02,1.243745632118582745e-02,1.243745632118582745e-02
1.243745632118582745e-02,1.243745632118582745e-02,-2.242819992344987495e-03,-6.341063796539005148e-02,-6.585735068431185224e-02,-6.585735068431185224e-02,-6.585735068431185224e-02,-6.585735068431185224e-02,-6.585735068431185224e-02,-6.585735068431185224e-02,-6.585735068431185224e-02,-6.585735068431185224e-02,-6.585735068431185224e-02,-6.585735068431185224e-02,-6.585735068431185224e-02,-6.524567250458140899e-02,-6.096392524646825073e-02,-5.688607071493191614e-02,-5.280821618339556767e-02,-4.852646892528240941e-02,-4.444861439374607481e-02,-4.016686713563292349e-02,-3.608901260409658890e-02,-3.180726534598343758e-02,-2.772941081444709605e-02,-2.344766355633394472e-02,-1.936980902479760319e-02,-1.508806176668445187e-02,-1.101020723514811381e-02,-6.728459977034962486e-03,-2.650605445498620955e-03,1.631141812614533837e-03,5.708996344150871032e-03,9.990743602264024956e-03,1.243745632118582745e-02,1.243745632118582745e-02,1.243745632118582745e-02,1.243745632118582745e-02,1.243745632118582745e-02,1.243745632118582745e-02,1.243745632118582745e-02,1.243745632118582745e-02,1.243745632118582745e-02,1.243745632118582745e-02,1.243745632118582745e-02,1.243745632118582745e-02,1.243745632118582745e-02
1.243745632118582745e-02,1.243745632118582745e-02,1.243745632118582745e-02,-1.202967086803219746e-02,-6.585735068431185224e-02,-6.585735068431185224e-02,-6.585735068431185224e-02,-6.585735068431185224e-02,-6.585735068431185224e-02,-6.585735068431185224e-02,-6.585735068431185224e-02,-6.585735068431185224e-02,-6.585735068431185224e-02,-6.585735068431185224e-02,-6.443010159827412819e-02,-6.014835434016098381e-02,-5.607049980862464922e-02,-5.178875255051149096e-02,-4.771089801897514249e-02,-4.342915076086199810e-02,-3.935129622932565657e-02,-3.506954897121250525e-02,-3.099169443967617066e-02,-2.670994718156301240e-02,-2.263209265002667780e-02,-1.835034539191351607e-02,-1.427249086037718148e-02,-9.990743602264026690e-03,-5.912889070727692098e-03,-1.835034539191354036e-03,2.446712718921800755e-03,6.524567250458138817e-03,1.080631450857129187e-02,1.243745632118582745e-02,1.243745632118582745e-02,1.243745632118582745e-02,1.243745632118582745e-02,1.243745632118582745e-02,1.243745632118582745e-02,1.243745632118582745e-02,1.243745632118582745e-02,1.243745632118582745e-02,1.243745632118582745e-02,1.243745632118582745e-02,1.243745632118582745e-02,1.243745632118582745e-02,1.243745632118582745e-02
1.243745632118582745e-02,1.243745632118582745e-02,1.243745632118582745e-02,1.243745632118582745e-02,-2.181652174371941089e-02,-6.585735068431185224e-02,-6.585735068431185224e-02,-6.585735068431185224e-02,-6.585735068431183836e-02,-6.585735068431185224e-02,-6.585735068431185224e-02,-6.585735068431185224e-02,-6.585735068431185224e-02,-6.361453069196687515e-02,-5.933278343385371689e-02,-5.525492890231738230e-02,-5.097318164420421016e-02,-4.689532711266787557e-02,-4.261357985455473119e-02,-3.853572532301838965e-02,-3.425397806490523833e-02,-3.017612353336890374e-02,-2.589437627525574548e-02,-2.181652174371940395e-02,-1.753477448560625263e-02,-1.345691995406991109e-02,-9.175172695956763241e-03,-5.097318164420421710e-03,-8.155709063072686532e-04,3.262283625229069409e-03,7.544030883342222465e-03,1.162188541487856053e-02,1.243745632118582745e-02,1.243745632118582745e-02,1.243745632118582745e-02,1.243745632118582745e-02,1.243745632118582745e-02,1.243745632118582745e-02,1.243745632118582745e-02,1.243745632118582745e-02,1.243745632118582745e-02,1.243745632118582745e-02,1.243745632118582745e-02,1.243745632118582745e-02,1.243745632118582745e-02,1.243745632118582745e-02,1.243745632118582745e-02
1.243745632118582745e-02,1.243745632118582745e-02,1.243745632118582745e-02,1.243745632118582745e-02,1.243745632118582745e-02,-3.160337261940661391e-02,-6.585735068431185224e-02,-6.585735068431185224e-02,-6.585735068431185224e-02,-6.585735068431185224e-02,-6.585735068431183836e-02,-6.585735068431185224e-02,-6.279895978565959436e-02,-5.851721252754644997e-02,-5.443935799601010150e-02,-5.015761073789694324e-02,-4.607975620636060865e-02,-4.179800894824745733e-02,-3.772015441671112967e-02,-3.343840715859797141e-02,-2.936055262706162988e-02,-2.507880536894847856e-02,-2.100095083741213703e-02,-1.671920357929898224e-02,-1.264134904776264764e-02,-8.359601789649492853e-03,-4.281747258113154792e-03,0.000000000000000000e+00,4.077854531536334592e-03,8.359601789649489384e-03,1.243745632118582745e-02,1.243745632118582745e-02,1.243745632118582745e-02,1.243745632118582745e-02,1.243745632118582745e-02,1.243745632118582745e-02,1.243745632118582745e-02,1.243745632118582745e-02,1.243745632118582745e-02,1.243745632118582745e-02,1.243745632118582745e-02,1.243745632118582745e-02,1.243745632118582745e-02,1.243745632118582745e-02,1.243745632118582745e-02,1.243745632118582745e-02,1.243745632118582745e-02
1.243745632118582745e-02,1.243745632118582745e-02,1.243745632118582745e-02,1.243745632118582745e-02,1.243745632118582745e-02,1.243745632118582745e-02,-4.139022349509383081e-02,-6.585735068431185224e-02,-6.585735068431185224e-02,-6.585735068431185224e-02,-6.585735068431185224e-02,-6.198338887935232744e-02,-5.770164162123918306e-02,-5.362378708970283459e-02,-4.934203983158967632e-02,-4.526418530005334173e-02,-4.098243804194019735e-02,-3.690458351040385582e-02,-3.262283625229069756e-02,-2.854498172075436990e-02,-2.426323446264121164e-02,-2.018537993110487011e-02,-1.590363267299171532e-02,-1.182577814145538073e-02,-7.544030883342225935e-03,-3.466176351805891342e-03,8.155709063072651838e-04,4.893425437843603246e-03,9.175172695956758037e-03,1.243745632118582745e-02,-7.670729132301129516e-02,-7.670729132301129516e-02,-7.670729132301129516e-02,-7.670729132301129516e-02,-7.670729132301129516e-02,1.243745632118582745e-02,1.243745632118582745e-02,1.243745632118582745e-02,1.243745632118582745e-02,1.243745632118582745e-02,1.243745632118582745e-02,1.243745632118582745e-02,1.243745632118582745e-02,1.243745632118582745e-02,1.243745632118582745e-02,1.243745632118582745e-02,1.243745632118582745e-02
1.243745632118582745e-02,1.243745632118582745e-02,1.243745632118582745e-02,1.243745632118582745e-02,1.243745632118582745e-02,1.243745632118582745e-02,7.544030883342222465e-03,-5.117707437078103383e-02,-6.585735068431185224e-02,-6.524567250458140899e-02,-6.116781797304507440e-02,-5.688607071493191614e-02,-5.280821618339556767e-02,-4.852646892528240941e-02,-4.444861439374607481e-02,-4.016686713563292349e-02,-3.608901260409658196e-02,-3.180726534598343758e-02,-2.772941081444709605e-02,-2.344766355633394472e-02,-1.936980902479760319e-02,-1.508806176668444840e-02,-1.101020723514811034e-02,-6.728459977034959016e-03,-2.650605445498620955e-03,1.631141812614532102e-03,5.708996344150871899e-03,9.990743602264024956e-03,1.243745632118582745e-02,1.243745632118582745e-02,-7.670729132301129516e-02,-7.670729132301129516e-02,-7.670729132301129516e-02,-7.670729132301129516e-02,-7.670729132301129516e-02,1.243745632118582745e-02,1.243745632118582745e-02,1.243745632118582745e-02,1.243745632118582745e-02,1.243745632118582745e-02,1.243745632118582745e-02,1.243745632118582745e-02,1.243745632118582745e-02,1.243745632118582745e-02,1.243745632118582745e-02,1.243745632118582745e-02,1.243745632118582745e-02
1.243745632118582745e-02,1.243745632118582745e-02,1.243745632118582745e-02,1.243745632118582745e-02,1.243745632118582745e-02,1.243745632118582745e-02,1.243745632118582745e-02,-2.242819992344987495e-03,-5.962587922830787923e-02,-6.014835434016098381e-02,-5.607049980862464922e-02,-5.178875255051147708e-02,-4.771089801897514249e-02,-4.342915076086199117e-02,-3.935129622932565657e-02,-3.527344169778931504e-02,-3.099169443967617066e-02,-2.691383990813982913e-02,-2.263209265002667780e-02,-1.855423811849033627e-02,-1.427249086037718495e-02,-1.019463632884084342e-02,-5.912889070727692098e-03,-1.835034539191354036e-03,2.446712718921802490e-03,6.524567250458137950e-03,1.080631450857129187e-02,1.243745632118582745e-02,1.243745632118582745e-02,1.243745632118582745e-02,-7.670729132301129516e-02,-7.670729132301129516e-02,-7.670729132301129516e-02,-7.670729132301129516e-02,-7.670729132301129516e-02,1.243745632118582745e-02,1.243745632118582745e-02,1.243745632118582745e-02,1.243745632118582745e-02,1.243745632118582745e-02,1.243745632118582745e-02,1.243745632118582745e-02,1.243745632118582745e-02,1.243745632118582745e-02,1.243745632118582745e-02,1.243745632118582745e-02,1.243745632118582745e-02
1.243745632118582745e-02,1.243745632118582745e-02,1.243745632118582745e-02,1.243745632118582745e-02,1.243745632118582745e-02,1.243745632118582745e-02,1.243745632118582745e-02,1.243745632118582745e-02,-9.990743602264030160e-03,-5.525492890231738230e-02,-5.097318164420421016e-02,-4.689532711266787557e-02,-4.261357985455472425e-02,-3.853572532301838272e-02,-3.425397806490523833e-02,-3.017612353336890374e-02,-2.589437627525574548e-02,-2.181652174371940395e-02,-1.753477448560625263e-02,-1.345691995406991803e-02,-9.175172695956759772e-03,-5.097318164420421710e-03,-8.155709063072686532e-04,3.262283625229067674e-03,7.544030883342222465e-03,1.162188541487856053e-02,1.243745632118582745e-02,1.243745632118582745e-02,1.243745632118582745e-02,1.243745632118582745e-02,-7.670729132301129516e-02,-7.670729132301129516e-02,-7.670729132301129516e-02,-7.670729132301129516e-02,-7.670729132301129516e-02,1.243745632118582745e-02,1.243745632118582745e-02,1.243745632118582745e-02,1.243745632118582745e-02,1.243745632118582745e-02,1.243745632118582745e-02,1.243745632118582745e-02,1.243745632118582745e-02,1.243745632118582745e-02,1.243745632118582745e-02,1.243745632118582745e-02,1.243745632118582745e-02
1.243745632118582745e-02,1.243745632118582745e-02,1.243745632118582745e-02,1.243745632118582745e-02,1.243745632118582745e-02,1.243745632118582745e-02,1.243745632118582745e-02,1.243745632118582745e-02,1.243745632118582745e-02,-1.494788551716288300e-02,-4.607975620636060865e-02,-4.179800894824745733e-02,-3.772015441671112274e-02,-3.343840715859797141e-02,-2.936055262706163682e-02,-2.507880536894847856e-02,-2.100095083741213703e-02,-1.671920357929898571e-02,-1.264134904776264418e-02,-8.359601789649492853e-03,-4.281747258113154792e-03,-1.734723475976807094e-18,4.077854531536336327e-03,8.359601789649489384e-03,1.243745632118582745e-02,1.243745632118582745e-02,1.243745632118582745e-02,1.243745632118582745e-02,1.243745632118582745e-02,1.243745632118582745e-02,-7.670729132301129516e-02,-7.670729132301129516e-02,-7.670729132301129516e-02,-7.670729132301129516e-02,-7.670729132301129516e-02,1.243745632118582745e-02,1.243745632118582745e-02,1.243745632118582745e-02,1.243745632118582745e-02,1.243745632118582745e-02,1.243745632118582745e-02,1.243745632118582745e-02,1.243745632118582745e-02,1.243745632118582745e-02,1.243745632118582745e-02,1.243745632118582745e-02,1.243745632118582745e-02
1.243745632118582745e-02,1.243745632118582745e-02,1.243745632118582745e-02,1.243745632118582745e-02,1.243745632118582745e-02,1.243745632118582745e-02,1.243745632118582745e-02,1.243745632118582745e-02,1.243745632118582745e-02,1.243745632118582745e-02,-1.761123425807255977e-02,-3.690458351040386276e-02,-3.262283625229069756e-02,-2.854498172075436990e-02,-2.426323446264121164e-02,-2.018537993110487011e-02,-1.590363267299171532e-02,-1.182577814145538073e-02,-7.544030883342225935e-03,-3.466176351805887873e-03,8.155709063072669185e-04,4.893425437843603246e-03,9.175172695956758037e-03,1.243745632118582745e-02,1.243745632118582745e-02,1.243745632118582745e-02,1.243745632118582745e-02,1.243745632118582745e-02,1.243745632118582745e-02,1.243745632118582745e-02,1.243745632118582745e-02,1.243745632118582745e-02,1.243745632118582745e-02,1.243745632118582745e-02,1.243745632118582745e-02,1.243745632118582745e-02,1.243745632118582745e-02,1.243745632118582745e-02,1.243745632118582745e-02,1.243745632118582745e-02,1.243745632118582745e-02,1.243745632118582745e-02,1.243745632118582745e-02,1.243745632118582745e-02,1.243745632118582745e-02,1.243745632118582745e-02,1.243745632118582745e-02
1.243745632118582745e-02,1.243745632118582745e-02,1.243745632118582745e-02,1.243745632118582745e-02,1.243745632118582745e-02,1.243745632118582745e-02,1.243745632118582745e-02,1.243745632118582745e-02,1.243745632118582745e-02,1.243745632118582745e-02,1.243745632118582745e-02,-1.798078982499303966e-02,-2.772941081444709605e-02,-2.344766355633394472e-02,-1.936980902479760319e-02,-1.508806176668444840e-02,-1.101020723514811034e-02,-6.728459977034962486e-03,-2.650605445498619220e-03,1.631141812614535572e-03,5.708996344150871032e-03,9.990743602264024956e-03,1.243745632118582745e-02,1.243745632118582745e-02,1.243745632118582745e-02,1.243745632118582745e-02,1.243745632118582745e-02,1.243745632118582745e-02,1.243745632118582745e-02,1.243745632118582745e-02,1.243745632118582745e-02,1.243745632118582745e-02,1.243745632118582745e-02,1.243745632118582745e-02,1.243745632118582745e-02,1.243745632118582745e-02,1.243745632118582745e-02,1.243745632118582745e-02,1.243745632118582745e-02,1.243745632118582745e-02,1.243745632118582745e-02,1.243745632118582745e-02,1.243745632118582745e-02,1.243745632118582745e-02,1.243745632118582745e-02,1.243745632118582745e-02,1.243745632118582745e-02
1.243745632118582745e-02,1.243745632118582745e-02,1.243745632118582745e-02,1.243745632118582745e-02,1.243745632118582745e-02,1.243745632118582745e-02,1.243745632118582745e-02,1.243745632118582745e-02,1.243745632118582745e-02,1.243745632118582745e-02,1.243745632118582745e-02,9.978000306852974344e-03,-1.605655221792433307e-02,-1.855423811849033280e-02,-1.427249086037717801e-02,-1.019463632884084342e-02,-5.912889070727688628e-03,-1.835034539191354036e-03,2.446712718921800755e-03,6.524567250458138817e-03,1.080631450857129187e-02,1.243745632118582745e-02,1.243745632118582745e-02,1.243745632118582745e-02,1.243745632118582745e-02,1.243745632118582745e-02,1.243745632118582745e-02,1.243745632118582745e-02,1.243745632118582745e-02,1.243745632118582745e-02,1.243745632118582745e-02,1.243745632118582745e-02,1.243745632118582745e-02,1.243745632118582745e-02,1.243745632118582745e-02,1.243745632118582745e-02,1.243745632118582745e-02,1.243745632118582745e-02,1.243745632118582745e-02,1.243745632118582745e-02,1.243745632118582745e-02,1.243745632118582745e-02,1.243745632118582745e-02,1.243745632118582745e-02,1.243745632118582745e-02,1.243745632118582745e-02,1.243745632118582745e-02
