-1.983297426782724970e-01,-1.983297426782724970e-01,-1.983297426782724970e-01,-1.983297426782724970e-01,-1.983297426782724970e-01,-1.983297426782724970e-01,-1.983297426782724970e-01,-1.983297426782724970e-01,-1.983297426782724970e-01,-1.983297426782724970e-01,-1.983297426782724970e-01,-1.983297426782724970e-01,-1.983297426782724970e-01,-1.983297426782724970e-01,-1.735385248434884453e-01,-1.549451114674003926e-01,-1.301538936326163409e-01,-1.053626757978322753e-01,-8.676926242174423654e-02,-6.197804458696018481e-02,-3.718682675217613309e-02,-1.239560891739205362e-02,-2.775557561562891351e-17,-2.775557561562891351e-17,-2.775557561562891351e-17,-1.301538936326165907e-02,-3.222858318521931720e-02,-5.206155745304655302e-02,-7.189453172087378885e-02,-9.172750598870103855e-02,-1.109406998106586828e-01,-1.307736740784859464e-01,-1.506066483463131822e-01,-1.704396226141404180e-01,-1.902725968819676816e-01,-1.983297426782724970e-01,-1.983297426782724970e-01,-1.983297426782724970e-01,-1.983297426782724970e-01,-1.983297426782724970e-01,-1.983297426782724970e-01,-1.983297426782724970e-01,-1.983297426782724970e-01,-1.983297426782724970e-01,-1.983297426782724970e-01,-1.983297426782724970e-01,-1.983297426782724970e-01
-1.983297426782724970e-01,-1.983297426782724970e-01,-1.983297426782724970e-01,-1.983297426782724970e-01,-1.983297426782724970e-01,-1.938899692919950624e-01,-1.821498973846574221e-01,-1.665957919642760687e-01,-1.510714836807153794e-01,-1.284256596970184128e-01,-1.019658022002777331e-01,-7.675742445000452441e-02,-4.314625411630690355e-02,-6.197804458696026808e-03,-2.775557561562891351e-17,-2.775557561562891351e-17,-2.775557561562891351e-17,-2.775557561562891351e-17,-2.775557561562891351e-17,-2.775557561562891351e-17,-5.551115123125782702e-17,0.000000000000000000e+00,-2.775557561562891351e-17,-2.775557561562891351e-17,-2.775557561562891351e-17,-1.053626757978323725e-02,-3.036924184761050083e-02,-4.958243566956813120e-02,-6.941540993739539478e-02,-8.924838420522264448e-02,-1.090813584730498942e-01,-1.289143327408771300e-01,-1.481275265628347881e-01,-1.679605008306620240e-01,-1.877934750984892598e-01,-1.983297426782724970e-01,-1.983297426782724970e-01,-1.983297426782724970e-01,-1.983297426782724970e-01,-1.983297426782724970e-01,-1.983297426782724970e-01,-1.983297426782724970e-01,-1.983297426782724970e-01,-1.983297426782724970e-01,-1.983297426782724970e-01,-1.983297426782724970e-01,-1.983297426782724970e-01
-1.983297426782724970e-01,-1.932344322819406768e-01,-1.811963890063965077e-01,-1.653443122178085978e-01,-1.473766387149542945e-01,-1.292003852543553988e-01,-1.139442512021806020e-01,-9.868811715000580520e-02,-8.343198309783098066e-02,-6.817584904565618387e-02,-5.339646918261184427e-02,-3.814033513043701973e-02,-2.288420107826222294e-02,-7.628067026087426150e-03,-2.775557561562891351e-17,-2.775557561562891351e-17,-2.775557561562891351e-17,-2.775557561562891351e-17,0.000000000000000000e+00,-2.775557561562891351e-17,-2.775557561562891351e-17,-2.775557561562891351e-17,-2.775557561562891351e-17,-2.775557561562891351e-17,-2.775557561562891351e-17,-8.057145796304870933e-03,-2.789012006413213451e-02,-4.772309433195934258e-02,-6.693628815391697295e-02,-8.676926242174422266e-02,-1.066022366895714862e-01,-1.264352109573987359e-01,-1.462681852252259718e-01,-1.654813790471836299e-01,-1.853143533150108657e-01,-1.983297426782724970e-01,-1.983297426782724970e-01,-1.983297426782724970e-01,-1.983297426782724970e-01,-1.983297426782724970e-01,-1.983297426782724970e-01,-1.983297426782724970e-01,-1.983297426782724970e-01,-1.983297426782724970e-01,-1.983297426782724970e-01,-1.983297426782724970e-01,-1.983297426782724970e-01
-1.983297426782724970e-01,-1.911784298413155558e-01,-1.763990499782712162e-01,-1.611429159260964195e-01,-1.458867818739215949e-01,-1.306306478217467981e-01,-1.153745137695720013e-01,-1.005951339065276479e-01,-8.533899985435283719e-02,-7.008286580217804040e-02,-5.482673175000321586e-02,-4.004735188695887627e-02,-2.479121783478407948e-02,-9.535083782609282688e-03,-2.775557561562891351e-17,0.000000000000000000e+00,-2.775557561562891351e-17,-2.775557561562891351e-17,-2.775557561562891351e-17,-2.775557561562891351e-17,-2.775557561562891351e-17,-5.551115123125782702e-17,-5.551115123125782702e-17,-2.775557561562891351e-17,-5.551115123125782702e-17,-5.578024012826449107e-03,-2.541099828065371269e-02,-4.524397254848094851e-02,-6.507694681630815658e-02,-8.490992108413542017e-02,-1.041231149060930783e-01,-1.239560891739203280e-01,-1.437890634417475499e-01,-1.636220377095748135e-01,-1.834550119774020494e-01,-1.983297426782724970e-01,-1.983297426782724970e-01,-1.983297426782724970e-01,-1.983297426782724970e-01,-1.983297426782724970e-01,-1.983297426782724970e-01,-1.983297426782724970e-01,-1.983297426782724970e-01,-1.983297426782724970e-01,-1.983297426782724970e-01,-1.983297426782724970e-01,-1.983297426782724970e-01
-1.983297426782724970e-01,-1.930854465978374124e-01,-1.778293125456625878e-01,-1.630499326826182482e-01,-1.477937986304434514e-01,-1.325376645782686547e-01,-1.172815305260938440e-01,-1.020253964739190333e-01,-8.724601661087469373e-02,-7.198988255869989694e-02,-5.673374850652507240e-02,-4.147761445435030336e-02,-2.622148040217547882e-02,-1.144210053913113923e-02,-5.551115123125782702e-17,-2.775557561562891351e-17,-2.775557561562891351e-17,-2.775557561562891351e-17,-2.775557561562891351e-17,-2.775557561562891351e-17,-2.775557561562891351e-17,-2.775557561562891351e-17,-2.775557561562891351e-17,-2.775557561562891351e-17,-2.775557561562891351e-17,-3.718682675217632738e-03,-2.355165694304489632e-02,-4.276485076500255444e-02,-6.259782503282979027e-02,-8.243079930065701222e-02,-1.022637735684842758e-01,-1.214769673904419200e-01,-1.413099416582691559e-01,-1.611429159260964195e-01,-1.809758901939236553e-01,-1.983297426782724970e-01,-1.983297426782724970e-01,-1.983297426782724970e-01,-1.983297426782724970e-01,-1.983297426782724970e-01,-1.983297426782724970e-01,-1.983297426782724970e-01,-1.983297426782724970e-01,-1.983297426782724970e-01,-1.983297426782724970e-01,-1.983297426782724970e-01,-1.983297426782724970e-01
-1.983297426782724970e-01,-1.949924633543592689e-01,-1.797363293021844444e-01,-1.644801952500096476e-01,-1.492240611978348508e-01,-1.344446813347904834e-01,-1.191885472826156867e-01,-1.039324132304408760e-01,-8.867627917826607920e-02,-7.389689931522173960e-02,-5.864076526304692893e-02,-4.338463121087213215e-02,-2.812849715869733536e-02,-1.287236310652251081e-02,-2.775557561562891351e-17,-2.775557561562891351e-17,-2.775557561562891351e-17,-2.775557561562891351e-17,0.000000000000000000e+00,-5.551115123125782702e-17,-2.775557561562891351e-17,-2.775557561562891351e-17,-2.775557561562891351e-17,-2.775557561562891351e-17,-2.775557561562891351e-17,-1.239560891739238668e-03,-2.107253515956653001e-02,-4.090550942739371032e-02,-6.011870324935136845e-02,-7.995167751717859039e-02,-9.978465178500586785e-02,-1.196176260528331176e-01,-1.394506003206603395e-01,-1.586637941426179976e-01,-1.784967684104452612e-01,-1.983297426782724970e-01,-1.983297426782724970e-01,-1.983297426782724970e-01,-1.983297426782724970e-01,-1.983297426782724970e-01,-1.983297426782724970e-01,-1.983297426782724970e-01,-1.983297426782724970e-01,-1.983297426782724970e-01,-1.983297426782724970e-01,-1.983297426782724970e-01,-1.983297426782724970e-01
-1.983297426782724970e-01,-1.964227259217506405e-01,-1.816433460587063009e-01,-1.663872120065315041e-01,-1.511310779543566796e-01,-1.358749439021818828e-01,-1.210955640391375432e-01,-1.058394299869627464e-01,-9.058329593478792185e-02,-7.532716188261311119e-02,-6.007102783043832828e-02,-4.529164796739398868e-02,-3.003551391521919189e-02,-1.477937986304433959e-02,-2.775557561562891351e-17,0.000000000000000000e+00,-2.775557561562891351e-17,-2.775557561562891351e-17,-2.775557561562891351e-17,-2.775557561562891351e-17,-2.775557561562891351e-17,0.000000000000000000e+00,-2.775557561562891351e-17,-2.775557561562891351e-17,-2.775557561562891351e-17,-2.775557561562891351e-17,-1.859341337608808042e-02,-3.842638764391531625e-02,-5.825936191174255208e-02,-7.809233617956980178e-02,-9.730553000152745990e-02,-1.171385042693547096e-01,-1.369714785371819454e-01,-1.568044528050092090e-01,-1.760176466269668394e-01,-1.958506208947941030e-01,-1.983297426782724970e-01,-1.983297426782724970e-01,-1.983297426782724970e-01,-1.983297426782724970e-01,-1.983297426782724970e-01,-1.983297426782724970e-01,-1.983297426782724970e-01,-1.983297426782724970e-01,-1.983297426782724970e-01,-1.983297426782724970e-01,-1.983297426782724970e-01
-1.983297426782724970e-01,-1.983297426782724970e-01,-1.830736086260977002e-01,-1.682942287630533607e-01,-1.530380947108785361e-01,-1.377819606587037393e-01,-1.225258266065289425e-01,-1.072696925543541180e-01,-9.249031269130977839e-02,-7.723417863913498160e-02,-6.197804458696018481e-02,-4.672191053478538803e-02,-3.194253067174102068e-02,-1.668639661956619613e-02,-1.430262567391427098e-03,-2.775557561562891351e-17,-2.775557561562891351e-17,-2.775557561562891351e-17,-2.775557561562891351e-17,-2.775557561562891351e-17,-2.775557561562891351e-17,-2.775557561562891351e-17,-2.775557561562891351e-17,-2.775557561562891351e-17,-2.775557561562891351e-17,-2.775557561562891351e-17,-1.611429159260968635e-02,-3.594726586043692218e-02,-5.578024012826415801e-02,-7.561321439609139383e-02,-9.544618866391864354e-02,-1.146593824858763017e-01,-1.344923567537035236e-01,-1.543253310215307872e-01,-1.741583052893580508e-01,-1.939912795571852866e-01,-1.983297426782724970e-01,-1.983297426782724970e-01,-1.983297426782724970e-01,-1.983297426782724970e-01,-1.983297426782724970e-01,-1.983297426782724970e-01,-1.983297426782724970e-01,-1.983297426782724970e-01,-1.983297426782724970e-01,-1.983297426782724970e-01,-1.983297426782724970e-01
-1.983297426782724970e-01,-1.983297426782724970e-01,-1.849806253826195568e-01,-1.697244913304447322e-01,-1.549451114674003926e-01,-1.396889774152255681e-01,-1.244328433630507852e-01,-1.091767093108759745e-01,-9.392057525870117773e-02,-7.914119539565683814e-02,-6.388506134348201360e-02,-4.862892729130721681e-02,-3.337279323913242002e-02,-1.811665918695759547e-02,-3.337279323913283635e-03,-2.775557561562891351e-17,-2.775557561562891351e-17,-2.775557561562891351e-17,-2.775557561562891351e-17,-2.775557561562891351e-17,-2.775557561562891351e-17,-2.775557561562891351e-17,-5.551115123125782702e-17,-2.775557561562891351e-17,-2.775557561562891351e-17,-2.775557561562891351e-17,-1.425495025500086999e-02,-3.408792452282813357e-02,-5.330111834478576394e-02,-7.313409261261297201e-02,-9.296706688044024947e-02,-1.128000411482674992e-01,-1.320132349702251295e-01,-1.518462092380523654e-01,-1.716791835058796289e-01,-1.915121577737068925e-01,-1.983297426782724970e-01,-1.983297426782724970e-01,-1.983297426782724970e-01,-1.983297426782724970e-01,-1.983297426782724970e-01,-1.983297426782724970e-01,-1.983297426782724970e-01,-1.983297426782724970e-01,-1.983297426782724970e-01,-1.983297426782724970e-01,-1.983297426782724970e-01
-1.983297426782724970e-01,-1.983297426782724970e-01,-1.868876421391413856e-01,-1.716315080869665888e-01,-1.563753740347917920e-01,-1.411192399826169674e-01,-1.263398601195726279e-01,-1.110837260673978311e-01,-9.582759201522300652e-02,-8.057145796304820973e-02,-6.531532391087341294e-02,-5.053594404782907334e-02,-3.527980999565424880e-02,-2.002367594347945201e-02,-4.767541891304655222e-03,-2.775557561562891351e-17,-2.775557561562891351e-17,-2.775557561562891351e-17,-2.775557561562891351e-17,-2.775557561562891351e-17,0.000000000000000000e+00,-2.775557561562891351e-17,-2.775557561562891351e-17,-2.775557561562891351e-17,-2.775557561562891351e-17,-2.775557561562891351e-17,-1.177582847152247592e-02,-3.160880273934971174e-02,-5.144177700717694757e-02,-7.065497082913457794e-02,-9.048794509696182764e-02,-1.103209193647890773e-01,-1.301538936326163132e-01,-1.499868679004435768e-01,-1.692000617224012349e-01,-1.890330359902284707e-01,-1.983297426782724970e-01,-1.983297426782724970e-01,-1.983297426782724970e-01,-1.983297426782724970e-01,-1.983297426782724970e-01,-1.983297426782724970e-01,-1.983297426782724970e-01,-1.983297426782724970e-01,-1.983297426782724970e-01,-1.983297426782724970e-01,-1.983297426782724970e-01
-1.983297426782724970e-01,-1.983297426782724970e-01,-1.883179047065327849e-01,-1.735385248434884453e-01,-1.582823907913136208e-01,-1.430262567391388240e-01,-1.277701226869640272e-01,-1.129907428239196737e-01,-9.773460877174486305e-02,-8.247847471957006626e-02,-6.722234066739526948e-02,-5.196620661522047269e-02,-3.718682675217613309e-02,-2.193069270000130855e-02,-6.674558647826511759e-03,-2.775557561562891351e-17,-2.775557561562891351e-17,-2.775557561562891351e-17,-2.775557561562891351e-17,-2.775557561562891351e-17,-5.551115123125782702e-17,-5.551115123125782702e-17,-2.775557561562891351e-17,-2.775557561562891351e-17,-2.775557561562891351e-17,-2.775557561562891351e-17,-9.296706688044054090e-03,-2.912968095587128992e-02,-4.896265522369855350e-02,-6.879562949152576157e-02,-8.862860375935303903e-02,-1.078417975813106833e-01,-1.276747718491379191e-01,-1.475077461169651549e-01,-1.673407203847924185e-01,-1.865539142067500766e-01,-1.983297426782724970e-01,-1.983297426782724970e-01,-1.983297426782724970e-01,-1.983297426782724970e-01,-1.983297426782724970e-01,-1.983297426782724970e-01,-1.983297426782724970e-01,-1.983297426782724970e-01,-1.983297426782724970e-01,-1.983297426782724970e-01,-1.983297426782724970e-01
-1.983297426782724970e-01,-1.983297426782724970e-01,-1.902249214630546414e-01,-1.749687874108798169e-01,-1.601894075478354773e-01,-1.449332734956606805e-01,-1.296771394434858837e-01,-1.144210053913110592e-01,-9.916487133913626240e-02,-8.438549147609192280e-02,-6.912935742391709826e-02,-5.387322337174230147e-02,-3.861708931956750468e-02,-2.383770945652319284e-02,-8.581575404348340541e-03,0.000000000000000000e+00,-2.775557561562891351e-17,-2.775557561562891351e-17,-2.775557561562891351e-17,-2.775557561562891351e-17,-2.775557561562891351e-17,-2.775557561562891351e-17,-2.775557561562891351e-17,-2.775557561562891351e-17,-2.775557561562891351e-17,-2.775557561562891351e-17,-7.437365350435237721e-03,-2.665055917239289585e-02,-4.648353344022013167e-02,-6.631650770804736750e-02,-8.614948197587463108e-02,-1.059824562437018808e-01,-1.251956500656595250e-01,-1.450286243334867609e-01,-1.648615986013140244e-01,-1.846945728691412603e-01,-1.983297426782724970e-01,-1.983297426782724970e-01,-1.983297426782724970e-01,-1.983297426782724970e-01,-1.983297426782724970e-01,-1.983297426782724970e-01,-1.983297426782724970e-01,-1.983297426782724970e-01,-1.983297426782724970e-01,-1.983297426782724970e-01,-1.983297426782724970e-01
-1.983297426782724970e-01,-1.983297426782724970e-01,-1.921319382195764702e-01,-1.768758041674016734e-01,-1.616196701152268766e-01,-1.463635360630520799e-01,-1.315841562000077403e-01,-1.163280221478329157e-01,-1.010718880956581189e-01,-8.581575404348329439e-02,-7.103637418043895480e-02,-5.578024012826413025e-02,-4.052410607608936122e-02,-2.526797202391453667e-02,-1.001183797173973988e-02,-2.775557561562891351e-17,-5.551115123125782702e-17,-2.775557561562891351e-17,-2.775557561562891351e-17,-5.551115123125782702e-17,-2.775557561562891351e-17,-2.775557561562891351e-17,-2.775557561562891351e-17,-2.775557561562891351e-17,0.000000000000000000e+00,-2.775557561562891351e-17,-4.958243566956843651e-03,-2.479121783478410723e-02,-4.462419210261134306e-02,-6.383738592456894567e-02,-8.367036019239620925e-02,-1.035033344602234728e-01,-1.233363087280507225e-01,-1.431692829958779445e-01,-1.623824768178356026e-01,-1.822154510856628662e-01,-1.983297426782724970e-01,-1.983297426782724970e-01,-1.983297426782724970e-01,-1.983297426782724970e-01,-1.983297426782724970e-01,-1.983297426782724970e-01,-1.983297426782724970e-01,-1.983297426782724970e-01,-1.983297426782724970e-01,-1.983297426782724970e-01,-1.983297426782724970e-01
-1.983297426782724970e-01,-1.983297426782724970e-01,-1.940389549760983268e-01,-1.787828209239235300e-01,-1.635266868717487054e-01,-1.482705528195739086e-01,-1.330144187673991119e-01,-1.182350389043547723e-01,-1.029789048521799477e-01,-8.772277080000516480e-02,-7.246663674783035414e-02,-5.721050269565552959e-02,-4.243112283261121775e-02,-2.717498878043642097e-02,-1.191885472826156867e-02,-2.775557561562891351e-17,-2.775557561562891351e-17,-5.551115123125782702e-17,0.000000000000000000e+00,-5.551115123125782702e-17,0.000000000000000000e+00,-2.775557561562891351e-17,-5.551115123125782702e-17,-5.551115123125782702e-17,-2.775557561562891351e-17,-2.775557561562891351e-17,-2.479121783478449581e-03,-2.231209605130568541e-02,-4.214507031913292123e-02,-6.197804458696015706e-02,-8.119123840891780131e-02,-1.010242126767450788e-01,-1.208571869445723285e-01,-1.406901612123995504e-01,-1.605231354802268140e-01,-1.797363293021844444e-01,-1.983297426782724970e-01,-1.983297426782724970e-01,-1.983297426782724970e-01,-1.983297426782724970e-01,-1.983297426782724970e-01,-1.983297426782724970e-01,-1.983297426782724970e-01,-1.983297426782724970e-01,-1.983297426782724970e-01,-1.983297426782724970e-01,-1.983297426782724970e-01
-1.983297426782724970e-01,-1.983297426782724970e-01,-1.954692175434897261e-01,-1.802130834913149293e-01,-1.654337036282705897e-01,-1.501775695760957652e-01,-1.349214355239209684e-01,-1.196653014717461577e-01,-1.048859216087018181e-01,-8.962978755652699359e-02,-7.437365350435221067e-02,-5.911751945217741389e-02,-4.386138540000258934e-02,-2.908200553695827750e-02,-1.382587148478342520e-02,-2.775557561562891351e-17,-5.551115123125782702e-17,-2.775557561562891351e-17,-5.551115123125782702e-17,-2.775557561562891351e-17,-2.775557561562891351e-17,-5.551115123125782702e-17,-2.775557561562891351e-17,-2.775557561562891351e-17,0.000000000000000000e+00,-2.775557561562891351e-17,-6.197804458696332119e-04,-1.983297426782729134e-02,-3.966594853565452716e-02,-5.949892280348176299e-02,-7.933189707130899881e-02,-9.916487133913626240e-02,-1.183780651610939066e-01,-1.382110394289211563e-01,-1.580440136967484199e-01,-1.778769879645756558e-01,-1.970901817865332861e-01,-1.983297426782724970e-01,-1.983297426782724970e-01,-1.983297426782724970e-01,-1.983297426782724970e-01,-1.983297426782724970e-01,-1.983297426782724970e-01,-1.983297426782724970e-01,-1.983297426782724970e-01,-1.983297426782724970e-01,-1.983297426782724970e-01
-1.983297426782724970e-01,-1.983297426782724970e-01,-1.973762343000115826e-01,-1.821201002478367581e-01,-1.668639661956619613e-01,-1.520845863326176217e-01,-1.368284522804428249e-01,-1.215723182282680004e-01,-1.063161841760931897e-01,-9.106005012391839293e-02,-7.628067026087405333e-02,-6.102453620869924267e-02,-4.576840215652444588e-02,-3.051226810434962133e-02,-1.573288824130528174e-02,-4.767541891304849511e-04,-2.775557561562891351e-17,-2.775557561562891351e-17,-2.775557561562891351e-17,-2.775557561562891351e-17,-2.775557561562891351e-17,-2.775557561562891351e-17,-2.775557561562891351e-17,-2.775557561562891351e-17,-2.775557561562891351e-17,-2.775557561562891351e-17,-2.775557561562891351e-17,-1.797363293021850272e-02,-3.718682675217610534e-02,-5.701980102000334116e-02,-7.685277528783059087e-02,-9.668574955565785445e-02,-1.165187238234851042e-01,-1.357319176454427345e-01,-1.555648919132699981e-01,-1.753978661810972339e-01,-1.952308404489244975e-01,-1.983297426782724970e-01,-1.983297426782724970e-01,-1.983297426782724970e-01,-1.983297426782724970e-01,-1.983297426782724970e-01,-1.983297426782724970e-01,-1.983297426782724970e-01,-1.983297426782724970e-01,-1.983297426782724970e-01,-1.983297426782724970e-01
-1.983297426782724970e-01,-1.983297426782724970e-01,-1.983297426782724970e-01,-1.840271170043586146e-01,-1.687709829521838178e-01,-1.535148489000089933e-01,-1.382587148478341965e-01,-1.234793349847898569e-01,-1.082232009326150463e-01,-9.296706688044023559e-02,-7.771093282826543880e-02,-6.293155296522109921e-02,-4.767541891304630242e-02,-3.241928486087150563e-02,-1.716315080869668108e-02,-1.907016756521856538e-03,-2.775557561562891351e-17,-2.775557561562891351e-17,-2.775557561562891351e-17,-2.775557561562891351e-17,-2.775557561562891351e-17,-2.775557561562891351e-17,-5.551115123125782702e-17,-2.775557561562891351e-17,-2.775557561562891351e-17,-2.775557561562891351e-17,-2.775557561562891351e-17,-1.549451114674008090e-02,-3.532748541456731672e-02,-5.516045968239455255e-02,-7.437365350435218292e-02,-9.420662777217946038e-02,-1.140396020400066962e-01,-1.338725763078339459e-01,-1.537055505756611817e-01,-1.729187443976188399e-01,-1.927517186654460757e-01,-1.983297426782724970e-01,-1.983297426782724970e-01,-1.983297426782724970e-01,-1.983297426782724970e-01,-1.983297426782724970e-01,-1.983297426782724970e-01,-1.983297426782724970e-01,-1.983297426782724970e-01,-1.983297426782724970e-01,-1.983297426782724970e-01
-1.983297426782724970e-01,-1.983297426782724970e-01,-1.983297426782724970e-01,-1.859341337608804712e-01,-1.706779997087056744e-01,-1.554218656565308776e-01,-1.401657316043560531e-01,-1.249095975521812563e-01,-1.101302176891368889e-01,-9.487408363696209213e-02,-7.961794958478729534e-02,-6.436181553261247079e-02,-4.910568148043767400e-02,-3.432630161739333441e-02,-1.907016756521853762e-02,-3.814033513043713075e-03,-2.775557561562891351e-17,-2.775557561562891351e-17,-2.775557561562891351e-17,-2.775557561562891351e-17,-2.775557561562891351e-17,0.000000000000000000e+00,-2.775557561562891351e-17,-2.775557561562891351e-17,-2.775557561562891351e-17,-2.775557561562891351e-17,-2.775557561562891351e-17,-1.301538936326165907e-02,-3.284836363108892265e-02,-5.268133789891615848e-02,-7.251431216674339431e-02,-9.172750598870103855e-02,-1.115604802565282883e-01,-1.313934545243555241e-01,-1.512264287921827877e-01,-1.710594030600100235e-01,-1.902725968819676816e-01,-1.983297426782724970e-01,-1.983297426782724970e-01,-1.983297426782724970e-01,-1.983297426782724970e-01,-1.983297426782724970e-01,-1.983297426782724970e-01,-1.983297426782724970e-01,-1.983297426782724970e-01,-1.983297426782724970e-01,-1.983297426782724970e-01
-1.983297426782724970e-01,-1.983297426782724970e-01,-1.983297426782724970e-01,-1.873643963282718428e-01,-1.721082622760970460e-01,-1.573288824130527064e-01,-1.420727483608779096e-01,-1.268166143087031128e-01,-1.115604802565282883e-01,-9.678110039348394866e-02,-8.152496634130913800e-02,-6.626883228913435508e-02,-5.101269823695953054e-02,-3.575656418478473375e-02,-2.097718432174036640e-02,-5.721050269565569613e-03,-2.775557561562891351e-17,-2.775557561562891351e-17,-2.775557561562891351e-17,-2.775557561562891351e-17,-2.775557561562891351e-17,-5.551115123125782702e-17,0.000000000000000000e+00,-2.775557561562891351e-17,-2.775557561562891351e-17,-2.775557561562891351e-17,-2.775557561562891351e-17,-1.115604802565287046e-02,-3.036924184761050083e-02,-5.020221611543776441e-02,-7.003519038326497248e-02,-8.986816465109223606e-02,-1.097011389189194858e-01,-1.289143327408771300e-01,-1.487473070087043658e-01,-1.685802812765316294e-01,-1.884132555443588652e-01,-1.983297426782724970e-01,-1.983297426782724970e-01,-1.983297426782724970e-01,-1.983297426782724970e-01,-1.983297426782724970e-01,-1.983297426782724970e-01,-3.842164399049757817e-01,-3.842164399049757817e-01,-3.842164399049757817e-01,-1.983297426782724970e-01
-1.983297426782724970e-01,-1.983297426782724970e-01,-1.983297426782724970e-01,-1.892714130847936993e-01,-1.740152790326189025e-01,-1.587591449804441057e-01,-1.439797651173997384e-01,-1.287236310652249416e-01,-1.134674970130501448e-01,-9.821136296087533413e-02,-8.295522890870052346e-02,-6.817584904565618387e-02,-5.291971499348141483e-02,-3.766358094130659029e-02,-2.240744688913176574e-02,-7.628067026087426150e-03,-2.775557561562891351e-17,-2.775557561562891351e-17,-2.775557561562891351e-17,-2.775557561562891351e-17,-2.775557561562891351e-17,-2.775557561562891351e-17,0.000000000000000000e+00,-2.775557561562891351e-17,-2.775557561562891351e-17,-2.775557561562891351e-17,-2.775557561562891351e-17,-8.676926242174448634e-03,-2.850990051000171221e-02,-4.834287477782892029e-02,-6.755606859978657841e-02,-8.738904286761382811e-02,-1.072220171354410778e-01,-1.270549914032683136e-01,-1.462681852252259718e-01,-1.661011594930532076e-01,-1.859341337608804712e-01,-1.983297426782724970e-01,-1.983297426782724970e-01,-1.983297426782724970e-01,-1.983297426782724970e-01,-1.983297426782724970e-01,-1.983297426782724970e-01,-3.842164399049757817e-01,-3.842164399049757817e-01,-3.842164399049757817e-01,-1.983297426782724970e-01
-1.983297426782724970e-01,-1.983297426782724970e-01,-1.983297426782724970e-01,-1.911784298413155558e-01,-1.759222957891407590e-01,-1.606661617369659345e-01,-1.454100276847911377e-01,-1.301538936326163132e-01,-1.153745137695719875e-01,-1.001183797173971768e-01,-8.486224566522236612e-02,-6.960611161304758321e-02,-5.482673175000324362e-02,-3.957059769782844683e-02,-2.431446364565362228e-02,-9.058329593478825492e-03,-2.775557561562891351e-17,-2.775557561562891351e-17,0.000000000000000000e+00,-2.775557561562891351e-17,-2.775557561562891351e-17,-2.775557561562891351e-17,-2.775557561562891351e-17,-2.775557561562891351e-17,-2.775557561562891351e-17,-2.775557561562891351e-17,-2.775557561562891351e-17,-6.197804458696054564e-03,-2.603077872652329039e-02,-4.586375299435055397e-02,-6.569672726217778980e-02,-8.490992108413542017e-02,-1.047428953519626699e-01,-1.245758696197899196e-01,-1.444088438876171554e-01,-1.642418181554444190e-01,-1.834550119774020494e-01,-1.983297426782724970e-01,-1.983297426782724970e-01,-1.983297426782724970e-01,-1.983297426782724970e-01,-1.983297426782724970e-01,-1.983297426782724970e-01,-3.842164399049757817e-01,-3.842164399049757817e-01,-3.842164399049757817e-01,-1.983297426782724970e-01
-1.983297426782724970e-01,-1.983297426782724970e-01,-1.983297426782724970e-01,-1.926086924087069552e-01,-1.778293125456625878e-01,-1.625731784934877910e-01,-1.473170444413129943e-01,-1.320609103891381975e-01,-1.168047763369633868e-01,-1.020253964739190333e-01,-8.676926242174422266e-02,-7.151312836956941199e-02,-5.625699431739461520e-02,-4.100086026521981841e-02,-2.622148040217550657e-02,-1.096534635000065427e-02,-2.775557561562891351e-17,-2.775557561562891351e-17,-2.775557561562891351e-17,-2.775557561562891351e-17,-2.775557561562891351e-17,-2.775557561562891351e-17,-5.551115123125782702e-17,-2.775557561562891351e-17,-2.775557561562891351e-17,-2.775557561562891351e-17,-2.775557561562891351e-17,-4.338463121087238195e-03,-2.355165694304489632e-02,-4.338463121087213215e-02,-6.321760547869936797e-02,-8.305057974652660380e-02,-1.022637735684842758e-01,-1.220967478363115116e-01,-1.419297221041387613e-01,-1.617626963719660249e-01,-1.815956706397932607e-01,-1.983297426782724970e-01,-1.983297426782724970e-01,-1.983297426782724970e-01,-1.983297426782724970e-01,-1.999244400539608724e-01,-1.999244400539608724e-01,-1.999244400539608724e-01,-1.999244400539608724e-01,-1.999244400539608724e-01,-1.983297426782724970e-01
-1.983297426782724970e-01,-1.983297426782724970e-01,-1.983297426782724970e-01,-1.945157091652287840e-01,-1.792595751130539872e-01,-1.640034410608791904e-01,-1.492240611978348230e-01,-1.339679271456600262e-01,-1.187117930934852295e-01,-1.034556590413104188e-01,-8.819952498913560812e-02,-7.342014512609128241e-02,-5.816401107391647174e-02,-4.290787702174167495e-02,-2.765174296956687816e-02,-1.287236310652251081e-02,-2.775557561562891351e-17,-2.775557561562891351e-17,0.000000000000000000e+00,-2.775557561562891351e-17,-2.775557561562891351e-17,-2.775557561562891351e-17,-2.775557561562891351e-17,-2.775557561562891351e-17,-2.775557561562891351e-17,-5.551115123125782702e-17,-2.775557561562891351e-17,-1.859341337608844125e-03,-2.169231560543607995e-02,-4.090550942739373808e-02,-6.073848369522097390e-02,-8.057145796304819585e-02,-1.004044322308754733e-01,-1.202374064987027230e-01,-1.394506003206603673e-01,-1.592835745884876031e-01,-1.791165488563148389e-01,-1.983297426782724970e-01,-1.983297426782724970e-01,-1.983297426782724970e-01,-1.983297426782724970e-01,-1.999244400539608724e-01,-1.999244400539608724e-01,-1.999244400539608724e-01,-1.999244400539608724e-01,-1.999244400539608724e-01,-1.983297426782724970e-01
-1.983297426782724970e-01,-1.983297426782724970e-01,-1.983297426782724970e-01,-1.964227259217506405e-01,-1.811665918695758437e-01,-1.659104578174010469e-01,-1.506543237652262501e-01,-1.358749439021818828e-01,-1.206188098500070860e-01,-1.053626757978322614e-01,-9.010654174565745078e-02,-7.485040769348266787e-02,-6.007102783043830052e-02,-4.481489377826353149e-02,-2.955875972608870694e-02,-1.430262567391388240e-02,0.000000000000000000e+00,-5.551115123125782702e-17,0.000000000000000000e+00,0.000000000000000000e+00,-5.551115123125782702e-17,-2.775557561562891351e-17,-2.775557561562891351e-17,-2.775557561562891351e-17,-2.775557561562891351e-17,-2.775557561562891351e-17,-2.775557561562891351e-17,-2.775557561562891351e-17,-1.921319382195771364e-02,-3.904616808978492171e-02,-5.887914235761215753e-02,-7.809233617956980178e-02,-9.792531044739705148e-02,-1.177582847152243151e-01,-1.375912589830515509e-01,-1.568044528050092090e-01,-1.766374270728364448e-01,-1.964704013406636807e-01,-1.983297426782724970e-01,-1.983297426782724970e-01,-1.983297426782724970e-01,-1.999244400539608724e-01,-1.999244400539608724e-01,-1.999244400539608724e-01,-1.999244400539608724e-01,-1.999244400539608724e-01,-1.983297426782724970e-01
-1.983297426782724970e-01,-1.983297426782724970e-01,-1.983297426782724970e-01,-1.978529884891420398e-01,-1.830736086260977002e-01,-1.678174745739228757e-01,-1.525613405217480789e-01,-1.373052064695732821e-01,-1.220490724173984715e-01,-1.072696925543541180e-01,-9.201355850217932120e-02,-7.675742445000452441e-02,-6.150129039782969986e-02,-4.672191053478536027e-02,-3.146577648261056348e-02,-1.620964243043573894e-02,-9.535083782609421466e-04,-2.775557561562891351e-17,-2.775557561562891351e-17,-2.775557561562891351e-17,-2.775557561562891351e-17,-2.775557561562891351e-17,-2.775557561562891351e-17,-2.775557561562891351e-17,-2.775557561562891351e-17,-2.775557561562891351e-17,-2.775557561562891351e-17,-2.775557561562891351e-17,-1.673407203847929181e-02,-3.656704630630652764e-02,-5.640002057413376346e-02,-7.623299484196099929e-02,-9.544618866391864354e-02,-1.152791629317459071e-01,-1.351121371995731568e-01,-1.549451114674003926e-01,-1.747780857352276285e-01,-1.939912795571852866e-01,-1.983297426782724970e-01,-1.983297426782724970e-01,-1.983297426782724970e-01,-1.999244400539608724e-01,-1.999244400539608724e-01,-1.999244400539608724e-01,-1.999244400539608724e-01,-1.999244400539608724e-01,-1.983297426782724970e-01
-1.983297426782724970e-01,-1.983297426782724970e-01,-1.983297426782724970e-01,-1.983297426782724970e-01,-1.845038711934890718e-01,-1.697244913304447322e-01,-1.544683572782699355e-01,-1.392122232260951109e-01,-1.239560891739203141e-01,-1.086999551217455173e-01,-9.392057525870116386e-02,-7.866444120652635319e-02,-6.340830715435155640e-02,-4.815217310217675961e-02,-3.289603905000196282e-02,-1.811665918695759547e-02,-2.860525134782826440e-03,-2.775557561562891351e-17,-2.775557561562891351e-17,-2.775557561562891351e-17,0.000000000000000000e+00,-2.775557561562891351e-17,-2.775557561562891351e-17,-2.775557561562891351e-17,-2.775557561562891351e-17,-2.775557561562891351e-17,-2.775557561562891351e-17,-2.775557561562891351e-17,-1.487473070087047544e-02,-3.408792452282813357e-02,-5.392089879065534164e-02,-7.375387305848257746e-02,-9.358684732630984104e-02,-1.128000411482674992e-01,-1.326330154160947350e-01,-1.524659896839219986e-01,-1.722989639517492344e-01,-1.921319382195764702e-01,-1.983297426782724970e-01,-1.983297426782724970e-01,-1.983297426782724970e-01,-1.999244400539608724e-01,-1.999244400539608724e-01,-1.999244400539608724e-01,-1.999244400539608724e-01,-1.999244400539608724e-01,-1.983297426782724970e-01
-1.983297426782724970e-01,-1.983297426782724970e-01,-1.983297426782724970e-01,-1.983297426782724970e-01,-1.864108879500109284e-01,-1.711547538978361316e-01,-1.558986198456613070e-01,-1.411192399826169952e-01,-1.258631059304421707e-01,-1.106069718782673739e-01,-9.535083782609254932e-02,-8.009470377391775253e-02,-6.531532391087341294e-02,-5.005918985869858839e-02,-3.480305580652381936e-02,-1.954692175434899482e-02,-4.767541891304655222e-03,-2.775557561562891351e-17,-2.775557561562891351e-17,-2.775557561562891351e-17,-2.775557561562891351e-17,-2.775557561562891351e-17,-2.775557561562891351e-17,-2.775557561562891351e-17,-2.775557561562891351e-17,-2.775557561562891351e-17,-2.775557561562891351e-17,-2.775557561562891351e-17,-1.239560891739205362e-02,-3.222858318521931720e-02,-5.144177700717694757e-02,-7.127475127500418339e-02,-9.110772554283144697e-02,-1.109406998106586828e-01,-1.307736740784859464e-01,-1.499868679004435768e-01,-1.698198421682708403e-01,-1.896528164360980762e-01,-1.983297426782724970e-01,-1.983297426782724970e-01,-1.983297426782724970e-01,-1.983297426782724970e-01,-1.983297426782724970e-01,-1.983297426782724970e-01,-1.983297426782724970e-01,-1.983297426782724970e-01,-1.983297426782724970e-01
-1.983297426782724970e-01,-1.983297426782724970e-01,-1.983297426782724970e-01,-1.983297426782724970e-01,-1.883179047065327849e-01,-1.730617706543579881e-01,-1.578056366021831636e-01,-1.425495025500083668e-01,-1.277701226869640272e-01,-1.125139886347892165e-01,-9.725785458261440586e-02,-8.200172053043960907e-02,-6.674558647826478452e-02,-5.196620661522047269e-02,-3.671007256304567590e-02,-2.145393851087082360e-02,-6.197804458696026808e-03,-2.775557561562891351e-17,-2.775557561562891351e-17,-2.775557561562891351e-17,0.000000000000000000e+00,-2.775557561562891351e-17,-2.775557561562891351e-17,-2.775557561562891351e-17,-2.775557561562891351e-17,-2.775557561562891351e-17,-2.775557561562891351e-17,-2.775557561562891351e-17,-9.916487133913659546e-03,-2.974946140174089537e-02,-4.958243566956813120e-02,-6.941540993739536702e-02,-8.862860375935302515e-02,-1.084615780271802887e-01,-1.282945522950075246e-01,-1.481275265628347604e-01,-1.673407203847924185e-01,-1.871736946526196821e-01,-1.983297426782724970e-01,-1.983297426782724970e-01,-1.983297426782724970e-01,-1.983297426782724970e-01,-1.983297426782724970e-01,-1.983297426782724970e-01,-1.983297426782724970e-01,-1.983297426782724970e-01,-1.983297426782724970e-01
-1.983297426782724970e-01,-1.983297426782724970e-01,-1.983297426782724970e-01,-1.983297426782724970e-01,-1.897481672739241565e-01,-1.749687874108798169e-01,-1.597126533587050201e-01,-1.444565193065302233e-01,-1.292003852543553988e-01,-1.139442512021806020e-01,-9.916487133913624852e-02,-8.390873728696146561e-02,-6.865260323478666882e-02,-5.339646918261184427e-02,-3.861708931956750468e-02,-2.336095526739270789e-02,-8.104821215217911101e-03,-2.775557561562891351e-17,-2.775557561562891351e-17,-2.775557561562891351e-17,-2.775557561562891351e-17,-2.775557561562891351e-17,0.000000000000000000e+00,-2.775557561562891351e-17,-2.775557561562891351e-17,-2.775557561562891351e-17,-2.775557561562891351e-17,-2.775557561562891351e-17,-7.437365350435265476e-03,-2.727033961826250130e-02,-4.710331388608973713e-02,-6.693628815391697295e-02,-8.676926242174422266e-02,-1.059824562437018808e-01,-1.258154305115291305e-01,-1.456484047793563663e-01,-1.654813790471836299e-01,-1.853143533150108657e-01,-1.983297426782724970e-01,-1.983297426782724970e-01,-1.983297426782724970e-01,-1.983297426782724970e-01,-1.983297426782724970e-01,-1.983297426782724970e-01,-1.983297426782724970e-01,-1.983297426782724970e-01,-1.983297426782724970e-01
-1.983297426782724970e-01,-1.983297426782724970e-01,-1.983297426782724970e-01,-1.983297426782724970e-01,-1.916551840304460130e-01,-1.763990499782712162e-01,-1.616196701152268766e-01,-1.463635360630520799e-01,-1.311074020108772553e-01,-1.158512679587024585e-01,-1.005951339065276479e-01,-8.581575404348329439e-02,-7.055961999130849760e-02,-5.530348593913370081e-02,-4.004735188695890402e-02,-2.479121783478407948e-02,-1.001183797173973988e-02,-2.775557561562891351e-17,-2.775557561562891351e-17,-2.775557561562891351e-17,-5.551115123125782702e-17,-2.775557561562891351e-17,-2.775557561562891351e-17,-5.551115123125782702e-17,-2.775557561562891351e-17,-2.775557561562891351e-17,-2.775557561562891351e-17,-2.775557561562891351e-17,-5.578024012826476863e-03,-2.541099828065368493e-02,-4.462419210261134306e-02,-6.445716637043857888e-02,-8.429014063826581471e-02,-1.041231149060930644e-01,-1.233363087280507087e-01,-1.431692829958779445e-01,-1.630022572637052081e-01,-1.828352315315324716e-01,-1.983297426782724970e-01,-1.983297426782724970e-01,-1.983297426782724970e-01,-1.983297426782724970e-01,-1.983297426782724970e-01,-1.983297426782724970e-01,-1.983297426782724970e-01,-1.983297426782724970e-01,-1.983297426782724970e-01
-1.983297426782724970e-01,-1.983297426782724970e-01,-1.983297426782724970e-01,-1.983297426782724970e-01,-1.935622007869678696e-01,-1.783060667347930728e-01,-1.630499326826182482e-01,-1.477937986304434514e-01,-1.330144187673991119e-01,-1.177582847152243012e-01,-1.025021506630495044e-01,-8.724601661087469373e-02,-7.198988255869986919e-02,-5.721050269565555735e-02,-4.195436864348073280e-02,-2.669823459130590826e-02,-1.144210053913111147e-02,-2.775557561562891351e-17,-2.775557561562891351e-17,-2.775557561562891351e-17,-2.775557561562891351e-17,-2.775557561562891351e-17,-5.551115123125782702e-17,-2.775557561562891351e-17,-2.775557561562891351e-17,-5.551115123125782702e-17,-2.775557561562891351e-17,-2.775557561562891351e-17,-3.098902229348055037e-03,-2.293187649717529086e-02,-4.276485076500252669e-02,-6.197804458696015706e-02,-8.181101885478740676e-02,-1.016439931226146565e-01,-1.214769673904419200e-01,-1.413099416582691559e-01,-1.605231354802268140e-01,-1.803561097480540498e-01,-1.983297426782724970e-01,-1.983297426782724970e-01,-1.983297426782724970e-01,-1.983297426782724970e-01,-1.983297426782724970e-01,-1.983297426782724970e-01,-1.983297426782724970e-01,-1.983297426782724970e-01,-1.983297426782724970e-01
-1.983297426782724970e-01,-1.983297426782724970e-01,-1.983297426782724970e-01,-1.983297426782724970e-01,-1.949924633543592689e-01,-1.802130834913149293e-01,-1.649569494391401048e-01,-1.497008153869653080e-01,-1.344446813347904834e-01,-1.196653014717461438e-01,-1.044091674195713471e-01,-8.915303336739653639e-02,-7.389689931522172572e-02,-5.864076526304692893e-02,-4.386138540000258934e-02,-2.860525134782782031e-02,-1.334911729565299576e-02,0.000000000000000000e+00,-2.775557561562891351e-17,-2.775557561562891351e-17,-2.775557561562891351e-17,-2.775557561562891351e-17,-2.775557561562891351e-17,0.000000000000000000e+00,0.000000000000000000e+00,-2.775557561562891351e-17,-2.775557561562891351e-17,-2.775557561562891351e-17,-6.197804458696054564e-04,-2.045275471369689679e-02,-4.028572898152413262e-02,-6.011870324935136845e-02,-7.995167751717859039e-02,-9.916487133913626240e-02,-1.189978456069635121e-01,-1.388308198747907340e-01,-1.586637941426179976e-01,-1.778769879645756558e-01,-1.977099622324028916e-01,-1.983297426782724970e-01,-1.983297426782724970e-01,-1.983297426782724970e-01,-1.983297426782724970e-01,-1.983297426782724970e-01,-1.983297426782724970e-01,-1.983297426782724970e-01,-1.983297426782724970e-01
-1.983297426782724970e-01,-1.983297426782724970e-01,-1.983297426782724970e-01,-1.983297426782724970e-01,-1.968994801108810977e-01,-1.816433460587063009e-01,-1.668639661956619613e-01,-1.516078321434871645e-01,-1.363516980913123400e-01,-1.210955640391375571e-01,-1.058394299869627325e-01,-9.106005012391839293e-02,-7.580391607174359614e-02,-6.054778201956878547e-02,-4.529164796739398868e-02,-3.051226810434964909e-02,-1.525613405217482454e-02,-2.775557561562891351e-17,-2.775557561562891351e-17,-2.775557561562891351e-17,-2.775557561562891351e-17,-2.775557561562891351e-17,-2.775557561562891351e-17,0.000000000000000000e+00,-2.775557561562891351e-17,-2.775557561562891351e-17,-2.775557561562891351e-17,-2.775557561562891351e-17,-2.775557561562891351e-17,-1.859341337608808042e-02,-3.780660719804571079e-02,-5.763958146587297438e-02,-7.747255573370019632e-02,-9.730553000152745990e-02,-1.165187238234851042e-01,-1.363516980913123400e-01,-1.561846723591396036e-01,-1.760176466269668394e-01,-1.958506208947941030e-01,-1.983297426782724970e-01,-1.983297426782724970e-01,-1.983297426782724970e-01,-1.983297426782724970e-01,-1.983297426782724970e-01,-1.983297426782724970e-01,-1.983297426782724970e-01,-1.983297426782724970e-01
-1.983297426782724970e-01,-1.983297426782724970e-01,-1.983297426782724970e-01,-1.983297426782724970e-01,-1.983297426782724970e-01,-1.835503628152281574e-01,-1.682942287630533329e-01,-1.535148489000089933e-01,-1.382587148478341965e-01,-1.230025807956593997e-01,-1.077464467434845891e-01,-9.249031269130977839e-02,-7.771093282826543880e-02,-6.245479877609061425e-02,-4.719866472391584522e-02,-3.194253067174102068e-02,-1.668639661956622389e-02,-1.907016756521856538e-03,-2.775557561562891351e-17,-2.775557561562891351e-17,-2.775557561562891351e-17,-2.775557561562891351e-17,-2.775557561562891351e-17,-2.775557561562891351e-17,-2.775557561562891351e-17,-2.775557561562891351e-17,-2.775557561562891351e-17,-2.775557561562891351e-17,-8.742564887116315020e-02,-1.035399404637727810e-01,-1.233729147316000446e-01,-5.516045968239455255e-02,-7.499343395022178838e-02,-9.482640821804905196e-02,-1.146593824858763017e-01,-1.338725763078339459e-01,-1.537055505756612095e-01,-1.735385248434884453e-01,-1.933714991113156811e-01,-1.983297426782724970e-01,-1.983297426782724970e-01,-1.983297426782724970e-01,-1.983297426782724970e-01,-1.983297426782724970e-01,-1.983297426782724970e-01,-1.983297426782724970e-01,-1.983297426782724970e-01
-1.983297426782724970e-01,-1.983297426782724970e-01,-1.983297426782724970e-01,-1.983297426782724970e-01,-1.983297426782724970e-01,-1.854573795717500140e-01,-1.702012455195751894e-01,-1.549451114674003926e-01,-1.396889774152255959e-01,-1.249095975521812563e-01,-1.096534635000064317e-01,-9.439732944783163493e-02,-7.914119539565682426e-02,-6.388506134348201360e-02,-4.910568148043767400e-02,-3.384954742826287721e-02,-1.859341337608808042e-02,-3.337279323913283635e-03,-2.775557561562891351e-17,-2.775557561562891351e-17,-2.775557561562891351e-17,-2.775557561562891351e-17,-2.775557561562891351e-17,-2.775557561562891351e-17,-2.775557561562891351e-17,-2.775557561562891351e-17,-2.775557561562891351e-17,-2.775557561562891351e-17,-8.742564887116315020e-02,-1.010608186802943870e-01,-1.208937929481216506e-01,-5.330111834478576394e-02,-7.251431216674336655e-02,-9.234728643457063013e-02,-1.121802607023978937e-01,-1.320132349702251295e-01,-1.518462092380523654e-01,-1.710594030600100235e-01,-1.908923773278372871e-01,-1.983297426782724970e-01,-1.983297426782724970e-01,-1.983297426782724970e-01,-1.983297426782724970e-01,-1.983297426782724970e-01,-1.983297426782724970e-01,-1.983297426782724970e-01,-1.983297426782724970e-01
-1.983297426782724970e-01,-1.983297426782724970e-01,-1.983297426782724970e-01,-1.983297426782724970e-01,-1.983297426782724970e-01,-1.868876421391413856e-01,-1.721082622760970460e-01,-1.568521282239222492e-01,-1.415959941717474524e-01,-1.263398601195726279e-01,-1.115604802565282883e-01,-9.630434620435346371e-02,-8.104821215217866692e-02,-6.579207810000387013e-02,-5.053594404782907334e-02,-3.575656418478473375e-02,-2.050043013260990921e-02,-5.244296080435112417e-03,-2.775557561562891351e-17,-2.775557561562891351e-17,-2.775557561562891351e-17,-2.775557561562891351e-17,-2.775557561562891351e-17,-2.775557561562891351e-17,-2.775557561562891351e-17,-2.775557561562891351e-17,-2.775557561562891351e-17,-2.775557561562891351e-17,-8.742564887116315020e-02,-9.858169689681599290e-02,-1.184146711646432287e-01,-5.082199656130734211e-02,-7.065497082913460569e-02,-9.048794509696184152e-02,-1.097011389189194858e-01,-1.295341131867467355e-01,-1.493670874545739991e-01,-1.692000617224012349e-01,-1.884132555443588652e-01,-1.983297426782724970e-01,-1.983297426782724970e-01,-1.983297426782724970e-01,-1.983297426782724970e-01,-1.983297426782724970e-01,-1.983297426782724970e-01,-1.983297426782724970e-01,-1.983297426782724970e-01
-1.983297426782724970e-01,-1.983297426782724970e-01,-1.983297426782724970e-01,-1.983297426782724970e-01,-1.983297426782724970e-01,-1.887946588956632421e-01,-1.735385248434884453e-01,-1.587591449804440780e-01,-1.435030109282692812e-01,-1.282468768760944844e-01,-1.129907428239196876e-01,-9.773460877174486305e-02,-8.295522890870052346e-02,-6.769909485652572667e-02,-5.244296080435092988e-02,-3.718682675217613309e-02,-2.240744688913179350e-02,-7.151312836956968955e-03,-2.775557561562891351e-17,0.000000000000000000e+00,-2.775557561562891351e-17,-2.775557561562891351e-17,-2.775557561562891351e-17,-2.775557561562891351e-17,-2.775557561562891351e-17,-2.775557561562891351e-17,-2.775557561562891351e-17,-2.775557561562891351e-17,-2.775557561562891351e-17,-9.296706688044054090e-03,-2.912968095587131767e-02,-4.834287477782892029e-02,-6.817584904565618387e-02,-8.800882331348341969e-02,-1.078417975813106833e-01,-1.270549914032683136e-01,-1.468879656710955772e-01,-1.667209399389228131e-01,-1.865539142067500766e-01,-1.983297426782724970e-01,-1.983297426782724970e-01,-1.983297426782724970e-01,-1.983297426782724970e-01,-1.983297426782724970e-01,-1.983297426782724970e-01,-1.983297426782724970e-01,-1.983297426782724970e-01
-1.983297426782724970e-01,-1.983297426782724970e-01,-1.983297426782724970e-01,-1.983297426782724970e-01,-1.983297426782724970e-01,-1.907016756521850986e-01,-1.754455416000103019e-01,-1.601894075478354773e-01,-1.449332734956606805e-01,-1.301538936326163409e-01,-1.148977595804415303e-01,-9.964162552826671959e-02,-8.438549147609192280e-02,-6.960611161304758321e-02,-5.434997756087278642e-02,-3.909384350869796187e-02,-2.383770945652316509e-02,-8.581575404348340541e-03,-2.775557561562891351e-17,-2.775557561562891351e-17,-2.775557561562891351e-17,-2.775557561562891351e-17,-2.775557561562891351e-17,-5.551115123125782702e-17,-2.775557561562891351e-17,-2.775557561562891351e-17,-2.775557561562891351e-17,-2.775557561562891351e-17,-2.775557561562891351e-17,-6.817584904565660020e-03,-2.665055917239289585e-02,-4.648353344022013167e-02,-6.569672726217776204e-02,-8.552970153000501174e-02,-1.053626757978322892e-01,-1.251956500656595250e-01,-1.450286243334867609e-01,-1.642418181554444190e-01,-1.840747924232716548e-01,-1.983297426782724970e-01,-1.983297426782724970e-01,-1.983297426782724970e-01,-1.983297426782724970e-01,-1.983297426782724970e-01,-1.983297426782724970e-01,-1.983297426782724970e-01,-1.983297426782724970e-01
-1.983297426782724970e-01,-1.983297426782724970e-01,-1.983297426782724970e-01,-1.983297426782724970e-01,-1.983297426782724970e-01,-1.926086924087069552e-01,-1.773525583565321306e-01,-1.620964243043573338e-01,-1.468402902521825371e-01,-1.315841562000077403e-01,-1.168047763369633868e-01,-1.015486422847885761e-01,-8.629250823261376546e-02,-7.103637418043898255e-02,-5.578024012826415801e-02,-4.100086026521984617e-02,-2.574472621304502162e-02,-1.048859216087019708e-02,-5.551115123125782702e-17,-2.775557561562891351e-17,-2.775557561562891351e-17,-2.775557561562891351e-17,-2.775557561562891351e-17,-2.775557561562891351e-17,-2.775557561562891351e-17,0.000000000000000000e+00,-2.775557561562891351e-17,0.000000000000000000e+00,-2.775557561562891351e-17,-4.338463121087238195e-03,-2.417143738891450178e-02,-4.400441165674176536e-02,-6.383738592456897343e-02,-8.305057974652660380e-02,-1.028835540143538813e-01,-1.227165282821811310e-01,-1.425495025500083668e-01,-1.623824768178356304e-01,-1.815956706397932607e-01,-1.983297426782724970e-01,-1.983297426782724970e-01,-1.983297426782724970e-01,-1.983297426782724970e-01,-1.983297426782724970e-01,-1.983297426782724970e-01,-1.983297426782724970e-01,-1.983297426782724970e-01
-1.983297426782724970e-01,-1.983297426782724970e-01,-1.983297426782724970e-01,-1.983297426782724970e-01,-1.983297426782724970e-01,-1.940389549760983268e-01,-1.787828209239235300e-01,-1.640034410608791904e-01,-1.487473070087043658e-01,-1.334911729565295690e-01,-1.182350389043547723e-01,-1.034556590413104188e-01,-8.819952498913560812e-02,-7.294339093696081133e-02,-5.768725688478598679e-02,-4.243112283261121775e-02,-2.765174296956687816e-02,-1.239560891739205362e-02,-2.775557561562891351e-17,-5.551115123125782702e-17,-2.775557561562891351e-17,-5.551115123125782702e-17,-2.775557561562891351e-17,-2.117460609020695439e-01,-2.117460609020695439e-01,-2.117460609020695439e-01,-2.117460609020695161e-01,-2.117460609020695439e-01,0.000000000000000000e+00,-2.479121783478421825e-03,-2.169231560543610771e-02,-4.152528987326334353e-02,-6.135826414109055160e-02,-8.119123840891780131e-02,-1.010242126767450649e-01,-1.202374064987027230e-01,-1.400703807665299450e-01,-1.599033550343572085e-01,-1.797363293021844444e-01,-1.983297426782724970e-01,-1.983297426782724970e-01,-1.983297426782724970e-01,-1.983297426782724970e-01,-1.983297426782724970e-01,-1.983297426782724970e-01,-1.983297426782724970e-01,-1.983297426782724970e-01
-1.983297426782724970e-01,-1.983297426782724970e-01,-1.983297426782724970e-01,-1.983297426782724970e-01,-1.983297426782724970e-01,-1.959459717326201833e-01,-1.806898376804453865e-01,-1.654337036282705620e-01,-1.506543237652262224e-01,-1.353981897130514256e-01,-1.201420556608766149e-01,-1.048859216087018043e-01,-8.962978755652699359e-02,-7.485040769348265399e-02,-5.959427364130784333e-02,-4.433813958913307429e-02,-2.908200553695827750e-02,-1.382587148478345296e-02,-2.775557561562891351e-17,-2.775557561562891351e-17,-5.551115123125782702e-17,-2.775557561562891351e-17,-2.775557561562891351e-17,-2.117460609020695161e-01,-2.117460609020695439e-01,-2.117460609020695161e-01,-2.117460609020695439e-01,-2.117460609020695439e-01,-2.775557561562891351e-17,-2.775557561562891351e-17,-1.983297426782729134e-02,-3.966594853565452716e-02,-5.887914235761218529e-02,-7.871211662543939336e-02,-9.854509089326665694e-02,-1.183780651610939066e-01,-1.375912589830515509e-01,-1.574242332508787867e-01,-1.772572075187060503e-01,-1.970901817865332861e-01,-1.983297426782724970e-01,-1.983297426782724970e-01,-1.983297426782724970e-01,-1.983297426782724970e-01,-1.983297426782724970e-01,-1.983297426782724970e-01,-1.983297426782724970e-01
-1.983297426782724970e-01,-1.983297426782724970e-01,-1.983297426782724970e-01,-1.983297426782724970e-01,-1.983297426782724970e-01,-1.978529884891420398e-01,-1.825968544369672153e-01,-1.673407203847924185e-01,-1.520845863326176217e-01,-1.368284522804428249e-01,-1.220490724173984715e-01,-1.067929383652236608e-01,-9.153680431304885012e-02,-7.628067026087403946e-02,-6.150129039782969986e-02,-4.624515634565490307e-02,-3.098902229348010628e-02,-1.573288824130528174e-02,-4.767541891304849511e-04,-2.775557561562891351e-17,-2.775557561562891351e-17,-2.775557561562891351e-17,-2.775557561562891351e-17,-2.117460609020695439e-01,-2.117460609020695439e-01,-2.117460609020695439e-01,-2.117460609020695439e-01,-2.117460609020695439e-01,-2.775557561562891351e-17,-2.775557561562891351e-17,-1.735385248434886951e-02,-3.718682675217613309e-02,-5.701980102000336892e-02,-7.623299484196099929e-02,-9.606596910978826287e-02,-1.158989433776154987e-01,-1.357319176454427345e-01,-1.555648919132699981e-01,-1.747780857352276285e-01,-1.946110600030548921e-01,-1.983297426782724970e-01,-1.983297426782724970e-01,-1.983297426782724970e-01,-1.983297426782724970e-01,-1.983297426782724970e-01,-1.983297426782724970e-01,-1.983297426782724970e-01
-1.983297426782724970e-01,-1.983297426782724970e-01,-1.983297426782724970e-01,-1.983297426782724970e-01,-1.983297426782724970e-01,-1.983297426782724970e-01,-1.845038711934890718e-01,-1.692477371413142750e-01,-1.539916030891394783e-01,-1.387354690369646537e-01,-1.234793349847898569e-01,-1.086999551217455173e-01,-9.344382106957070666e-02,-7.818768701739589599e-02,-6.293155296522109921e-02,-4.767541891304630242e-02,-3.289603905000196282e-02,-1.763990499782713828e-02,-2.383770945652341489e-03,-2.775557561562891351e-17,-2.775557561562891351e-17,-2.775557561562891351e-17,-2.775557561562891351e-17,-2.117460609020695161e-01,-2.117460609020695439e-01,-2.117460609020695439e-01,-2.117460609020695439e-01,-2.117460609020695439e-01,-2.775557561562891351e-17,-2.775557561562891351e-17,-1.487473070087047544e-02,-3.470770496869771127e-02,-5.454067923652497485e-02,-7.437365350435218292e-02,-9.358684732630984104e-02,-1.134198215941371046e-01,-1.332527958619643405e-01,-1.530857701297915763e-01,-1.729187443976188399e-01,-1.921319382195764702e-01,-1.983297426782724970e-01,-1.983297426782724970e-01,-1.983297426782724970e-01,-1.983297426782724970e-01,-1.983297426782724970e-01,-1.983297426782724970e-01,-1.983297426782724970e-01
-1.983297426782724970e-01,-1.983297426782724970e-01,-1.983297426782724970e-01,-1.983297426782724970e-01,-1.983297426782724970e-01,-1.983297426782724970e-01,-1.859341337608804712e-01,-1.706779997087056744e-01,-1.558986198456613348e-01,-1.406424857934865102e-01,-1.253863517413117135e-01,-1.101302176891368889e-01,-9.487408363696209213e-02,-8.009470377391776641e-02,-6.483856972174295574e-02,-4.958243566956813120e-02,-3.432630161739333441e-02,-1.954692175434899482e-02,-4.290787702174198026e-03,-2.775557561562891351e-17,-2.775557561562891351e-17,-5.551115123125782702e-17,-2.775557561562891351e-17,-2.117460609020695439e-01,-2.117460609020695439e-01,-2.117460609020695439e-01,-2.117460609020695439e-01,-2.117460609020695439e-01,-2.775557561562891351e-17,-2.775557561562891351e-17,-1.301538936326168683e-02,-3.222858318521931720e-02,-5.206155745304655302e-02,-7.189453172087378885e-02,-9.172750598870102468e-02,-1.115604802565282883e-01,-1.307736740784859464e-01,-1.506066483463131822e-01,-1.704396226141404180e-01,-1.902725968819676816e-01,-1.983297426782724970e-01,-1.983297426782724970e-01,-1.983297426782724970e-01,-1.983297426782724970e-01,-1.983297426782724970e-01,-1.983297426782724970e-01,-1.983297426782724970e-01
-1.983297426782724970e-01,-1.983297426782724970e-01,-1.983297426782724970e-01,-1.983297426782724970e-01,-1.983297426782724970e-01,-1.983297426782724970e-01,-1.878411505174023277e-01,-1.725850164652275032e-01,-1.573288824130527064e-01,-1.425495025500083668e-01,-1.272933684978335700e-01,-1.120372344456587593e-01,-9.678110039348393479e-02,-8.152496634130913800e-02,-6.674558647826478452e-02,-5.148945242609001549e-02,-3.623331837391519095e-02,-2.097718432174036640e-02,-5.721050269565569613e-03,-2.775557561562891351e-17,-2.775557561562891351e-17,-2.775557561562891351e-17,-2.775557561562891351e-17,-2.775557561562891351e-17,-2.775557561562891351e-17,-2.775557561562891351e-17,-2.775557561562891351e-17,-2.775557561562891351e-17,0.000000000000000000e+00,-2.775557561562891351e-17,-1.053626757978326500e-02,-3.036924184761050083e-02,-5.020221611543773665e-02,-6.941540993739539478e-02,-8.924838420522263061e-02,-1.090813584730498942e-01,-1.289143327408771300e-01,-1.481275265628347604e-01,-1.679605008306620240e-01,-1.877934750984892598e-01,-1.983297426782724970e-01,-1.983297426782724970e-01,-1.983297426782724970e-01,-1.983297426782724970e-01,-1.983297426782724970e-01,-1.983297426782724970e-01,-1.983297426782724970e-01
-1.983297426782724970e-01,-1.983297426782724970e-01,-1.983297426782724970e-01,-1.983297426782724970e-01,-1.983297426782724970e-01,-1.983297426782724970e-01,-1.897481672739241565e-01,-1.744920332217493597e-01,-1.592358991695745629e-01,-1.439797651173997384e-01,-1.287236310652249416e-01,-1.139442512021806020e-01,-9.868811715000579132e-02,-8.343198309783098066e-02,-6.817584904565618387e-02,-5.339646918261184427e-02,-3.814033513043704748e-02,-2.288420107826225069e-02,-7.628067026087426150e-03,-2.775557561562891351e-17,-2.775557561562891351e-17,-2.775557561562891351e-17,-2.775557561562891351e-17,-2.775557561562891351e-17,-2.775557561562891351e-17,-2.775557561562891351e-17,-2.775557561562891351e-17,-2.775557561562891351e-17,-2.775557561562891351e-17,-2.775557561562891351e-17,-8.057145796304870933e-03,-2.789012006413210676e-02,-4.772309433195934258e-02,-6.755606859978657841e-02,-1.007143224538102622e-01,-1.295341131867467355e-01,-1.511489562364490835e-01,-1.706720402813415305e-01,-1.852368807592771616e-01,-1.942624335022532511e-01,-1.983297426782724970e-01,-1.983297426782724970e-01,-1.983297426782724970e-01,-1.983297426782724970e-01,-1.983297426782724970e-01,-1.983297426782724970e-01,-1.983297426782724970e-01
-1.983297426782724970e-01,-1.983297426782724970e-01,-1.983297426782724970e-01,-1.983297426782724970e-01,-1.983297426782724970e-01,-1.983297426782724970e-01,-1.911784298413155558e-01,-1.763990499782712162e-01,-1.611429159260964195e-01,-1.458867818739215949e-01,-1.306306478217467981e-01,-1.153745137695720013e-01,-1.005951339065276479e-01,-8.533899985435283719e-02,-7.008286580217804040e-02,-5.482673175000321586e-02,-3.957059769782841907e-02,-2.479121783478407948e-02,-9.535083782609310443e-03,-2.775557561562891351e-17,-2.775557561562891351e-17,-2.775557561562891351e-17,-2.775557561562891351e-17,-2.775557561562891351e-17,-2.775557561562891351e-17,-1.239560891739205362e-02,-3.718682675217613309e-02,-6.197804458696018481e-02,-8.676926242174423654e-02,-1.053626757978322753e-01,-1.322843889152930941e-01,-1.605037673412934018e-01,-1.791940214120485431e-01,-1.983297426782724970e-01,-1.983297426782724970e-01,-1.983297426782724970e-01,-1.983297426782724970e-01,-1.983297426782724970e-01,-1.983297426782724970e-01,-1.983297426782724970e-01,-1.983297426782724970e-01,-1.983297426782724970e-01,-1.983297426782724970e-01,-1.983297426782724970e-01,-1.983297426782724970e-01,-1.983297426782724970e-01,-1.983297426782724970e-01
