-2.235839729265741427e-01,-2.235839729265741427e-01,-2.235839729265741427e-01,-2.235839729265741427e-01,-2.235839729265741427e-01,-2.235839729265741427e-01,-2.235839729265741427e-01,-2.235839729265741427e-01,-2.235839729265741427e-01,-2.235839729265741427e-01,-2.235839729265741427e-01,-2.235839729265741427e-01,-2.235839729265741427e-01,-2.179070361139853473e-01,-2.065531624888077566e-01,-1.951992888636301660e-01,-1.838454152384525753e-01,-1.724915416132749846e-01,-1.611376679880973939e-01,-1.497837943629198032e-01,-1.384299207377422125e-01,-1.270760471125645941e-01,-1.157221734873870311e-01,-1.043682998622094266e-01,-9.301442623703184975e-02,-8.209724005897647836e-02,-7.074336643379888767e-02,-5.938949280862126923e-02,-4.803561918344365078e-02,-3.668174555826606009e-02,-2.532787193308846940e-02,-7.947711537624316258e-02,-2.028686121537140730e-01,-2.235839729265741427e-01,-2.235839729265741427e-01,-2.235839729265741427e-01,-2.235839729265741427e-01,-2.235839729265741427e-01,-2.235839729265741427e-01,-2.235839729265741427e-01,-2.235839729265741427e-01,-2.235839729265741427e-01,-2.235839729265741427e-01,-2.235839729265741427e-01,-2.235839729265741427e-01,-2.235839729265741427e-01,-2.235839729265741427e-01
-2.235839729265741427e-01,-2.235839729265741427e-01,-2.235839729265741427e-01,-2.235839729265741427e-01,-2.235839729265741427e-01,-2.235839729265741427e-01,-2.235839729265741427e-01,-2.235839729265741427e-01,-2.235839729265741427e-01,-2.235839729265741427e-01,-2.235839729265741427e-01,-2.235839729265741427e-01,-2.209638482438408547e-01,-2.096099746186632640e-01,-1.982561009934856733e-01,-1.869022273683080826e-01,-1.755483537431304919e-01,-1.641944801179529012e-01,-1.528406064927753105e-01,-1.414867328675977198e-01,-1.301328592424201291e-01,-1.187789856172425385e-01,-1.078617994391871393e-01,-9.650792581400957637e-02,-8.515405218883195793e-02,-7.380017856365439499e-02,-6.244630493847677655e-02,-5.109243131329918586e-02,-3.973855768812159517e-02,-2.838468406294397672e-02,-1.703081043776641379e-02,-5.676936812588795345e-03,-2.096099746186633195e-02,-1.537139813870197491e-01,-2.235839729265741427e-01,-2.235839729265741427e-01,-2.235839729265741427e-01,-2.235839729265741427e-01,-2.235839729265741427e-01,-2.235839729265741427e-01,-2.235839729265741427e-01,-2.235839729265741427e-01,-2.235839729265741427e-01,-2.235839729265741427e-01,-2.235839729265741427e-01,-2.235839729265741427e-01,-2.235839729265741427e-01
-2.235839729265741427e-01,-2.235839729265741427e-01,-2.235839729265741427e-01,-2.235839729265741427e-01,-2.235839729265741427e-01,-2.235839729265741427e-01,-2.235839729265741427e-01,-2.235839729265741427e-01,-2.235839729265741427e-01,-2.235839729265741427e-01,-2.235839729265741427e-01,-2.235839729265741427e-01,-2.126667867485187713e-01,-2.013129131233411806e-01,-1.899590394981635899e-01,-1.786051658729859715e-01,-1.672512922478083808e-01,-1.558974186226308178e-01,-1.445435449974531994e-01,-1.336263588193978280e-01,-1.222724851942202512e-01,-1.109186115690426744e-01,-9.956473794386505594e-02,-8.821086431868746525e-02,-7.685699069350990231e-02,-6.550311706833228387e-02,-5.414924344315466542e-02,-4.279536981797710249e-02,-3.144149619279951180e-02,-2.008762256762194887e-02,-8.733748942444358176e-03,-2.775557561562891351e-17,0.000000000000000000e+00,-2.775557561562891351e-17,-1.048049873093316320e-01,-2.235839729265741427e-01,-2.235839729265741427e-01,-2.235839729265741427e-01,-2.235839729265741427e-01,-2.235839729265741427e-01,-2.235839729265741427e-01,-2.235839729265741427e-01,-2.235839729265741427e-01,-2.235839729265741427e-01,-2.235839729265741427e-01,-2.235839729265741427e-01,-2.235839729265741427e-01
-2.235839729265741427e-01,-2.235839729265741427e-01,-2.235839729265741427e-01,-2.235839729265741427e-01,-2.235839729265741427e-01,-2.235839729265741427e-01,-2.235839729265741427e-01,-2.235839729265741427e-01,-2.235839729265741427e-01,-2.235839729265741427e-01,-2.235839729265741427e-01,-2.157235988783742786e-01,-2.043697252531966879e-01,-1.930158516280190972e-01,-1.816619780028415065e-01,-1.707447918247861351e-01,-1.593909181996085445e-01,-1.480370445744309538e-01,-1.366831709492533353e-01,-1.253292973240757446e-01,-1.139754236988981678e-01,-1.026215500737205633e-01,-9.126767644854297257e-02,-7.991380282336538188e-02,-6.855992919818779119e-02,-5.720605557301020050e-02,-4.585218194783260981e-02,-3.449830832265499136e-02,-2.314443469747742843e-02,-1.222724851942205704e-02,-8.733748942444663488e-04,-2.775557561562891351e-17,-2.775557561562891351e-17,-2.775557561562891351e-17,-2.775557561562891351e-17,-5.589599323164354261e-02,-1.816619780028415065e-01,-2.235839729265741427e-01,-2.235839729265741427e-01,-2.235839729265741427e-01,-2.235839729265741427e-01,-2.235839729265741427e-01,-2.235839729265741427e-01,-2.235839729265741427e-01,-2.235839729265741427e-01,-2.235839729265741427e-01,-2.235839729265741427e-01
-2.235839729265741427e-01,-2.235839729265741427e-01,-2.235839729265741427e-01,-2.235839729265741427e-01,-2.235839729265741427e-01,-2.235839729265741427e-01,-2.235839729265741427e-01,-2.235839729265741427e-01,-2.235839729265741427e-01,-2.235839729265741427e-01,-2.187804110082297859e-01,-2.074265373830521952e-01,-1.965093512049967961e-01,-1.851554775798192054e-01,-1.738016039546416147e-01,-1.624477303294640240e-01,-1.510938567042864333e-01,-1.397399830791088426e-01,-1.283861094539312520e-01,-1.170322358287536751e-01,-1.056783622035760706e-01,-9.432448857839847989e-02,-8.297061495322091695e-02,-7.161674132804329851e-02,-6.026286770286568006e-02,-4.934568152481033643e-02,-3.799180789963271798e-02,-2.663793427445515505e-02,-1.528406064927753660e-02,-3.930187024099973669e-03,-2.775557561562891351e-17,-2.775557561562891351e-17,-2.775557561562891351e-17,-2.775557561562891351e-17,-2.775557561562891351e-17,-2.775557561562891351e-17,-2.775557561562891351e-17,-1.327529839251534172e-01,-2.235839729265741427e-01,-2.235839729265741427e-01,-2.235839729265741427e-01,-2.235839729265741427e-01,-2.235839729265741427e-01,-2.235839729265741427e-01,-2.235839729265741427e-01,-2.235839729265741427e-01,-2.235839729265741427e-01
-2.235839729265741427e-01,-2.235839729265741427e-01,-2.235839729265741427e-01,-2.235839729265741427e-01,-2.235839729265741427e-01,-2.235839729265741427e-01,-2.235839729265741427e-01,-2.235839729265741427e-01,-2.235839729265741427e-01,-2.222739105852074848e-01,-2.109200369600298941e-01,-1.995661633348523034e-01,-1.882122897096747127e-01,-1.768584160844971220e-01,-1.655045424593195313e-01,-1.541506688341419684e-01,-1.427967952089643500e-01,-1.314429215837867593e-01,-1.200890479586091686e-01,-1.087351743334315918e-01,-9.738130070825398721e-02,-8.602742708307639652e-02,-7.511024090502102513e-02,-6.375636727984340668e-02,-5.240249365466578824e-02,-4.104862002948822530e-02,-2.969474640431066237e-02,-1.834087277913307168e-02,-6.986999153955480990e-03,-2.775557561562891351e-17,-2.775557561562891351e-17,-2.775557561562891351e-17,-2.775557561562891351e-17,0.000000000000000000e+00,-5.551115123125782702e-17,-5.551115123125782702e-17,-2.775557561562891351e-17,-2.775557561562891351e-17,-8.384398984746532779e-02,-2.165969737726186894e-01,-2.235839729265741427e-01,-2.235839729265741427e-01,-2.235839729265741427e-01,-2.235839729265741427e-01,-2.235839729265741427e-01,-2.235839729265741427e-01,-2.235839729265741427e-01
-2.235839729265741427e-01,-2.235839729265741427e-01,-2.235839729265741427e-01,-2.235839729265741427e-01,-2.235839729265741427e-01,-2.235839729265741427e-01,-2.235839729265741427e-01,-2.235839729265741427e-01,-2.235839729265741427e-01,-2.139768490898854014e-01,-2.026229754647078107e-01,-1.912691018395302200e-01,-1.799152282143526294e-01,-1.685613545891750387e-01,-1.572074809639974480e-01,-1.458536073388198573e-01,-1.344997337136422666e-01,-1.231458600884646759e-01,-1.117919864632870852e-01,-1.008748002852316999e-01,-8.952092666005409538e-02,-7.816705303487653245e-02,-6.681317940969894176e-02,-5.545930578452132331e-02,-4.410543215934373262e-02,-3.275155853416614193e-02,-2.139768490898855124e-02,-1.004381128381096056e-02,-2.775557561562891351e-17,-2.775557561562891351e-17,-2.775557561562891351e-17,-2.775557561562891351e-17,-2.775557561562891351e-17,-2.775557561562891351e-17,-2.775557561562891351e-17,-2.775557561562891351e-17,-2.775557561562891351e-17,-2.775557561562891351e-17,0.000000000000000000e+00,-3.493499576977723842e-02,-1.676879796949306001e-01,-2.235839729265741427e-01,-2.235839729265741427e-01,-2.235839729265741427e-01,-2.235839729265741427e-01,-2.235839729265741427e-01,-2.235839729265741427e-01
-2.235839729265741427e-01,-2.235839729265741427e-01,-2.235839729265741427e-01,-2.235839729265741427e-01,-2.235839729265741427e-01,-2.235839729265741427e-01,-2.235839729265741427e-01,-2.235839729265741427e-01,-2.170336612197409087e-01,-2.056797875945633181e-01,-1.943259139693857274e-01,-1.829720403442081367e-01,-1.716181667190305460e-01,-1.602642930938529553e-01,-1.489104194686753646e-01,-1.375565458434977739e-01,-1.266393596654424025e-01,-1.152854860402648118e-01,-1.039316124150872211e-01,-9.257773878990963046e-02,-8.122386516473203977e-02,-6.986999153955444908e-02,-5.851611791437685839e-02,-4.716224428919921219e-02,-3.580837066402164925e-02,-2.445449703884405857e-02,-1.310062341366649563e-02,-1.746749788488877186e-03,-2.775557561562891351e-17,-2.775557561562891351e-17,0.000000000000000000e+00,0.000000000000000000e+00,-2.775557561562891351e-17,-2.775557561562891351e-17,-2.775557561562891351e-17,-2.775557561562891351e-17,-2.775557561562891351e-17,-2.775557561562891351e-17,-2.775557561562891351e-17,-2.775557561562891351e-17,-2.775557561562891351e-17,-1.117919864632870852e-01,-2.235839729265741427e-01,-2.235839729265741427e-01,-2.235839729265741427e-01,-2.235839729265741427e-01,-2.235839729265741427e-01
-2.235839729265741427e-01,-2.235839729265741427e-01,-2.235839729265741427e-01,-2.235839729265741427e-01,-2.235839729265741427e-01,-2.235839729265741427e-01,-2.235839729265741427e-01,-2.200904733495964161e-01,-2.087365997244188254e-01,-1.973827260992412347e-01,-1.860288524740636440e-01,-1.746749788488860533e-01,-1.637577926708306819e-01,-1.524039190456530912e-01,-1.410500454204755005e-01,-1.296961717952979098e-01,-1.183422981701203192e-01,-1.069884245449427146e-01,-9.563455091976513778e-02,-8.428067729458754709e-02,-7.292680366940998415e-02,-6.157293004423233795e-02,-5.021905641905474726e-02,-3.886518279387718433e-02,-2.751130916869959364e-02,-1.615743554352200295e-02,-5.240249365466603804e-03,-2.775557561562891351e-17,-2.775557561562891351e-17,-2.775557561562891351e-17,-2.775557561562891351e-17,-2.775557561562891351e-17,-2.775557561562891351e-17,-2.775557561562891351e-17,-2.775557561562891351e-17,-2.775557561562891351e-17,-2.775557561562891351e-17,-2.775557561562891351e-17,-2.775557561562891351e-17,-2.775557561562891351e-17,-2.775557561562891351e-17,-2.775557561562891351e-17,-6.969843575675643832e-02,-1.984432527565380411e-01,-2.235839729265741427e-01,-2.235839729265741427e-01,-2.235839729265741427e-01
-2.235839729265741427e-01,-2.235839729265741427e-01,-2.235839729265741427e-01,-2.235839729265741427e-01,-2.235839729265741427e-01,-2.235839729265741427e-01,-2.231472854794519234e-01,-2.117934118542743327e-01,-2.004395382290967420e-01,-1.895223520510413706e-01,-1.781684784258637799e-01,-1.668146048006861892e-01,-1.554607311755085985e-01,-1.441068575503309801e-01,-1.327529839251533894e-01,-1.213991102999757987e-01,-1.100452366747982219e-01,-9.869136304962064510e-02,-8.733748942444305441e-02,-7.598361579926546372e-02,-6.462974217408787303e-02,-5.327586854891022683e-02,-4.192199492373266390e-02,-3.100480874567729250e-02,-1.965093512049967406e-02,-8.297061495322111124e-03,-2.775557561562891351e-17,-5.551115123125782702e-17,-2.775557561562891351e-17,-2.775557561562891351e-17,-2.775557561562891351e-17,-2.775557561562891351e-17,-2.775557561562891351e-17,-2.775557561562891351e-17,-2.775557561562891351e-17,-2.775557561562891351e-17,-2.775557561562891351e-17,-2.775557561562891351e-17,-2.775557561562891351e-17,-2.775557561562891351e-17,-2.775557561562891351e-17,-5.988856417676130528e-03,-1.896471198930763102e-02,-4.391828039629133706e-02,-1.621670026848854584e-01,-2.235839729265741427e-01,-2.235839729265741427e-01
-2.235839729265741427e-01,-2.235839729265741427e-01,-2.235839729265741427e-01,-2.235839729265741427e-01,-2.235839729265741427e-01,-2.235839729265741427e-01,-2.152869114312520593e-01,-2.039330378060744686e-01,-1.925791641808968779e-01,-1.812252905557192872e-01,-1.698714169305416966e-01,-1.585175433053641059e-01,-1.471636696801865152e-01,-1.358097960550088967e-01,-1.244559224298313338e-01,-1.131020488046537431e-01,-1.017481751794761247e-01,-9.039430155429853397e-02,-7.904042792912094328e-02,-6.812324175106557189e-02,-5.676936812588798120e-02,-4.541549450071039051e-02,-3.406162087553279982e-02,-2.270774725035520913e-02,-1.135387362517761844e-02,-2.775557561562891351e-17,-2.775557561562891351e-17,-2.775557561562891351e-17,-2.775557561562891351e-17,-2.775557561562891351e-17,-5.551115123125782702e-17,-2.775557561562891351e-17,-2.775557561562891351e-17,-2.775557561562891351e-17,-2.775557561562891351e-17,-2.775557561562891351e-17,-2.775557561562891351e-17,-2.775557561562891351e-17,-2.775557561562891351e-17,-2.775557561562891351e-17,-2.495356840698376155e-03,-1.547121241232990441e-02,-2.844706798396143266e-02,-4.142292355559296091e-02,-5.439877912722454467e-02,-1.357162201734827267e-01,-2.235839729265741427e-01
-2.235839729265741427e-01,-2.235839729265741427e-01,-2.235839729265741427e-01,-2.235839729265741427e-01,-2.235839729265741427e-01,-2.183437235611075666e-01,-2.069898499359299759e-01,-1.956359763107523853e-01,-1.842821026855747668e-01,-1.729282290603972039e-01,-1.615743554352196132e-01,-1.502204818100420225e-01,-1.388666081848644041e-01,-1.275127345596868134e-01,-1.161588609345092227e-01,-1.048049873093316459e-01,-9.388780113127626059e-02,-8.253392750609866990e-02,-7.118005388092110697e-02,-5.982618025574348852e-02,-4.847230663056589783e-02,-3.711843300538830714e-02,-2.576455938021068870e-02,-1.441068575503312577e-02,-3.056812129855535076e-03,-2.775557561562891351e-17,-2.775557561562891351e-17,-2.775557561562891351e-17,-5.551115123125782702e-17,-2.775557561562891351e-17,-2.775557561562891351e-17,-2.775557561562891351e-17,-2.775557561562891351e-17,-2.775557561562891351e-17,-5.551115123125782702e-17,-2.775557561562891351e-17,-2.775557561562891351e-17,-2.775557561562891351e-17,-2.775557561562891351e-17,-2.775557561562891351e-17,-1.197771283535220554e-02,-2.495356840698373380e-02,-3.792942397861526205e-02,-5.040620818210714282e-02,-6.338206375373867107e-02,-7.635791932537019933e-02,-1.187010057159706977e-01
-2.235839729265741427e-01,-2.235839729265741427e-01,-2.235839729265741427e-01,-2.235839729265741427e-01,-2.214005356909630740e-01,-2.100466620657854833e-01,-1.986927884406078926e-01,-1.873389148154303019e-01,-1.759850411902527112e-01,-1.646311675650751205e-01,-1.532772939398975298e-01,-1.419234203147199391e-01,-1.305695466895423207e-01,-1.196523605114869493e-01,-1.082984868863093586e-01,-9.694461326113176791e-02,-8.559073963595417722e-02,-7.423686601077658653e-02,-6.288299238559899584e-02,-5.152911876042140515e-02,-4.017524513524381446e-02,-2.882137151006622378e-02,-1.746749788488860533e-02,-6.113624259711042397e-03,-2.775557561562891351e-17,0.000000000000000000e+00,-2.775557561562891351e-17,-2.775557561562891351e-17,-2.775557561562891351e-17,-2.775557561562891351e-17,-5.551115123125782702e-17,-2.775557561562891351e-17,0.000000000000000000e+00,-2.775557561562891351e-17,-2.775557561562891351e-17,-2.775557561562891351e-17,0.000000000000000000e+00,-2.775557561562891351e-17,-2.775557561562891351e-17,-8.484213258374478928e-03,-2.096099746186633195e-02,-3.393685303349786020e-02,-4.691270860512941621e-02,-5.988856417676094446e-02,-7.286441974839250046e-02,-8.584027532002402872e-02,-9.881613089165555697e-02
-2.235839729265741427e-01,-2.235839729265741427e-01,-2.235839729265741427e-01,-2.235839729265741427e-01,-2.131034741956409906e-01,-2.017496005704633721e-01,-1.903957269452857815e-01,-1.790418533201081908e-01,-1.676879796949306001e-01,-1.567707935168752287e-01,-1.454169198916976380e-01,-1.340630462665200473e-01,-1.227091726413424566e-01,-1.113552990161648798e-01,-1.000014253909872752e-01,-8.864755176580968454e-02,-7.729367814063212161e-02,-6.593980451545453092e-02,-5.458593089027688472e-02,-4.323205726509932179e-02,-3.187818363992173110e-02,-2.052431001474414041e-02,-9.170436389566521962e-03,-2.775557561562891351e-17,-2.775557561562891351e-17,-2.775557561562891351e-17,-2.775557561562891351e-17,-5.551115123125782702e-17,0.000000000000000000e+00,-2.775557561562891351e-17,-5.551115123125782702e-17,-2.775557561562891351e-17,-2.775557561562891351e-17,-5.551115123125782702e-17,-2.775557561562891351e-17,-2.775557561562891351e-17,-2.775557561562891351e-17,-2.775557561562891351e-17,-4.491642313257104835e-03,-1.746749788488860533e-02,-3.044335345652013358e-02,-4.341920902815168959e-02,-5.639506459978321784e-02,-6.937092017141474609e-02,-8.234677574304630210e-02,-9.532263131467783035e-02,-1.082984868863093586e-01
-2.235839729265741427e-01,-2.235839729265741427e-01,-2.235839729265741427e-01,-2.161602863254964979e-01,-2.048064127003189072e-01,-1.934525390751413165e-01,-1.825353528970859174e-01,-1.711814792719083267e-01,-1.598276056467307638e-01,-1.484737320215531731e-01,-1.371198583963755546e-01,-1.257659847711979639e-01,-1.144121111460203732e-01,-1.030582375208427826e-01,-9.170436389566521962e-02,-8.035049027048760117e-02,-6.899661664531001048e-02,-5.764274302013239204e-02,-4.628886939495480135e-02,-3.493499576977723842e-02,-2.401780959172183927e-02,-1.266393596654424858e-02,-1.310062341366685645e-03,-2.775557561562891351e-17,-2.775557561562891351e-17,-2.775557561562891351e-17,-5.551115123125782702e-17,-2.775557561562891351e-17,-2.775557561562891351e-17,-2.775557561562891351e-17,-2.775557561562891351e-17,-2.775557561562891351e-17,-2.775557561562891351e-17,-2.775557561562891351e-17,-2.775557561562891351e-17,-5.551115123125782702e-17,-2.775557561562891351e-17,-9.981427362793504621e-04,-1.397399830791090647e-02,-2.694985387954243472e-02,-3.992570945117396297e-02,-5.290156502280549122e-02,-6.587742059443704723e-02,-7.885327616606857548e-02,-9.182913173770010373e-02,-1.048049873093316320e-01,-1.177808428809631741e-01
-2.235839729265741427e-01,-2.235839729265741427e-01,-2.196537859024741968e-01,-2.082999122772966061e-01,-1.969460386521190154e-01,-1.855921650269414247e-01,-1.742382914017638340e-01,-1.628844177765862433e-01,-1.515305441514086526e-01,-1.401766705262310619e-01,-1.288227969010534713e-01,-1.174689232758758806e-01,-1.061150496506982899e-01,-9.476117602552069918e-02,-8.340730240034310849e-02,-7.205342877516554556e-02,-6.113624259711011866e-02,-4.978236897193252797e-02,-3.842849534675493728e-02,-2.707462172157737434e-02,-1.572074809639975590e-02,-4.366874471222192966e-03,-2.775557561562891351e-17,-2.775557561562891351e-17,-2.775557561562891351e-17,-2.775557561562891351e-17,-2.775557561562891351e-17,-2.775557561562891351e-17,-2.775557561562891351e-17,-2.775557561562891351e-17,-2.775557561562891351e-17,-2.775557561562891351e-17,-2.775557561562891351e-17,-2.775557561562891351e-17,-2.775557561562891351e-17,-2.775557561562891351e-17,-2.775557561562891351e-17,-1.048049873093317985e-02,-2.345635430256473586e-02,-3.643220987419623635e-02,-4.940806544582779236e-02,-6.238392101745932061e-02,-7.535977658909084886e-02,-8.783656079258270188e-02,-1.008124163642142579e-01,-1.137882719358457861e-01,-1.267641275074772866e-01
-2.235839729265741427e-01,-2.227105980323297041e-01,-2.113567244071521134e-01,-2.000028507819745227e-01,-1.886489771567969320e-01,-1.772951035316193413e-01,-1.659412299064417506e-01,-1.545873562812641600e-01,-1.432334826560865693e-01,-1.318796090309089786e-01,-1.205257354057313879e-01,-1.091718617805537972e-01,-9.781798815537620650e-02,-8.690080197732083511e-02,-7.554692835214324442e-02,-6.419305472696565373e-02,-5.283918110178800753e-02,-4.148530747661044460e-02,-3.013143385143285391e-02,-1.877756022625529098e-02,-7.423686601077700287e-03,-2.775557561562891351e-17,-5.551115123125782702e-17,-2.775557561562891351e-17,-2.775557561562891351e-17,-2.775557561562891351e-17,-5.551115123125782702e-17,-2.775557561562891351e-17,-2.775557561562891351e-17,-5.551115123125782702e-17,-2.775557561562891351e-17,-2.775557561562891351e-17,-2.775557561562891351e-17,-2.775557561562891351e-17,-2.775557561562891351e-17,-2.775557561562891351e-17,-6.986999153955480990e-03,-1.996285472558698149e-02,-3.293871029721848198e-02,-4.591456586885003799e-02,-5.839135007234194652e-02,-7.136720564397347477e-02,-8.434306121560500302e-02,-9.731891678723650352e-02,-1.102947723588680595e-01,-1.232706279304995878e-01,-1.362464835021311160e-01
-2.235839729265741427e-01,-2.144135365370076207e-01,-2.030596629118300300e-01,-1.917057892866524393e-01,-1.803519156614748487e-01,-1.689980420362972580e-01,-1.576441684111196673e-01,-1.462902947859420766e-01,-1.349364211607644859e-01,-1.235825475355868813e-01,-1.126653613575315099e-01,-1.013114877323539331e-01,-8.995761410717634243e-02,-7.860374048199875174e-02,-6.724986685682113330e-02,-5.589599323164354261e-02,-4.454211960646595192e-02,-3.318824598128836123e-02,-2.183437235611077054e-02,-1.048049873093315210e-02,0.000000000000000000e+00,-2.775557561562891351e-17,-2.775557561562891351e-17,-2.775557561562891351e-17,-2.775557561562891351e-17,0.000000000000000000e+00,-2.775557561562891351e-17,-2.775557561562891351e-17,-2.775557561562891351e-17,-2.775557561562891351e-17,-2.775557561562891351e-17,-2.775557561562891351e-17,-2.775557561562891351e-17,-2.775557561562891351e-17,-2.775557561562891351e-17,-3.493499576977726617e-03,-1.646935514860931038e-02,-2.894613935210110789e-02,-4.192199492373266390e-02,-5.489785049536419215e-02,-6.787370606699572040e-02,-8.084956163862727641e-02,-9.382541721025880466e-02,-1.068012727818903468e-01,-1.197771283535218750e-01,-1.327529839251533894e-01,-1.457288394967849454e-01
-2.174703486668631280e-01,-2.061164750416855374e-01,-1.947626014165079467e-01,-1.834087277913303560e-01,-1.720548541661527653e-01,-1.607009805409751746e-01,-1.497837943629198032e-01,-1.384299207377421848e-01,-1.270760471125646218e-01,-1.157221734873870173e-01,-1.043682998622094404e-01,-9.301442623703182200e-02,-8.166055261185425906e-02,-7.030667898667666837e-02,-5.895280536149904993e-02,-4.759893173632145924e-02,-3.624505811114386855e-02,-2.489118448596627786e-02,-1.353731086078868717e-02,-2.183437235611096483e-03,-2.775557561562891351e-17,-2.775557561562891351e-17,0.000000000000000000e+00,-5.551115123125782702e-17,-2.775557561562891351e-17,-2.775557561562891351e-17,-2.775557561562891351e-17,-2.775557561562891351e-17,-2.775557561562891351e-17,-2.775557561562891351e-17,0.000000000000000000e+00,-2.775557561562891351e-17,-2.775557561562891351e-17,0.000000000000000000e+00,-2.775557561562891351e-17,-1.247678420349188078e-02,-2.545263977512338127e-02,-3.842849534675490952e-02,-5.140435091838649329e-02,-6.438020649001804929e-02,-7.735606206164954979e-02,-9.033191763328107804e-02,-1.033077732049126202e-01,-1.162836287765441484e-01,-1.292594843481756905e-01,-1.422353399198072188e-01,-1.552111954914387471e-01
-2.091732871715410447e-01,-1.978194135463634540e-01,-1.864655399211858633e-01,-1.755483537431304919e-01,-1.641944801179529012e-01,-1.528406064927753105e-01,-1.414867328675977198e-01,-1.301328592424201291e-01,-1.187789856172425246e-01,-1.074251119920649478e-01,-9.607123836688735707e-02,-8.471736474170976638e-02,-7.336349111653214794e-02,-6.200961749135455725e-02,-5.065574386617696656e-02,-3.930187024099940363e-02,-2.794799661582178518e-02,-1.703081043776641379e-02,-5.676936812588823100e-03,-2.775557561562891351e-17,-2.775557561562891351e-17,-2.775557561562891351e-17,-2.775557561562891351e-17,-5.551115123125782702e-17,-2.775557561562891351e-17,-2.775557561562891351e-17,-2.775557561562891351e-17,-2.775557561562891351e-17,-2.775557561562891351e-17,-2.775557561562891351e-17,-2.775557561562891351e-17,-2.775557561562891351e-17,-2.775557561562891351e-17,-2.775557561562891351e-17,-8.983284626514154159e-03,-2.195914019814571017e-02,-3.493499576977721066e-02,-4.791085134140876667e-02,-6.088670691304029492e-02,-7.386256248467182317e-02,-8.683841805630335142e-02,-9.981427362793489355e-02,-1.127901291995664357e-01,-1.257659847711979639e-01,-1.382427689746898170e-01,-1.512186245463213452e-01,-1.641944801179529012e-01
-2.013129131233411806e-01,-1.899590394981635622e-01,-1.786051658729859715e-01,-1.672512922478083808e-01,-1.558974186226307901e-01,-1.445435449974531994e-01,-1.331896713722756365e-01,-1.218357977470980319e-01,-1.104819241219204273e-01,-9.912805049674285052e-02,-8.777417687156527371e-02,-7.642030324638768302e-02,-6.506642962121006457e-02,-5.414924344315463767e-02,-4.279536981797710249e-02,-3.144149619279948404e-02,-2.008762256762192111e-02,-8.733748942444358176e-03,0.000000000000000000e+00,-2.775557561562891351e-17,-2.775557561562891351e-17,-2.775557561562891351e-17,-2.775557561562891351e-17,-2.775557561562891351e-17,-2.775557561562891351e-17,-2.775557561562891351e-17,-2.775557561562891351e-17,-2.775557561562891351e-17,-2.775557561562891351e-17,0.000000000000000000e+00,-2.775557561562891351e-17,-2.775557561562891351e-17,-5.551115123125782702e-17,-5.489785049536455297e-03,-1.846564062116798355e-02,-3.144149619279948404e-02,-4.441735176443104005e-02,-5.739320733606259606e-02,-7.036906290769409655e-02,-8.334491847932565256e-02,-9.582170268281750558e-02,-1.087975582544490338e-01,-1.217734138260805621e-01,-1.347492693977120903e-01,-1.477251249693436463e-01,-1.607009805409751468e-01,-1.736768361126067028e-01
-1.930158516280190972e-01,-1.816619780028415065e-01,-1.703081043776639159e-01,-1.589542307524863252e-01,-1.476003571273087345e-01,-1.362464835021311438e-01,-1.248926098769535392e-01,-1.135387362517759485e-01,-1.021848626265983578e-01,-9.083098900142075327e-02,-7.991380282336538188e-02,-6.855992919818779119e-02,-5.720605557301020050e-02,-4.585218194783260981e-02,-3.449830832265501912e-02,-2.314443469747742843e-02,-1.179056107229983774e-02,-4.366874471222192966e-04,-2.775557561562891351e-17,-5.551115123125782702e-17,-2.775557561562891351e-17,-2.775557561562891351e-17,0.000000000000000000e+00,-2.775557561562891351e-17,-5.551115123125782702e-17,-2.775557561562891351e-17,0.000000000000000000e+00,-2.775557561562891351e-17,-2.775557561562891351e-17,-5.551115123125782702e-17,-2.775557561562891351e-17,-5.551115123125782702e-17,-1.996285472558700924e-03,-1.497214104419028469e-02,-2.794799661582178518e-02,-4.092385218745331343e-02,-5.389970775908486944e-02,-6.637649196257669471e-02,-7.935234753420825071e-02,-9.232820310583977896e-02,-1.053040586774713072e-01,-1.182799142491028355e-01,-1.312557698207343915e-01,-1.442316253923659197e-01,-1.572074809639974480e-01,-1.701833365356289762e-01,-1.831591921072605045e-01
-1.847187901326969861e-01,-1.733649165075193954e-01,-1.620110428823418047e-01,-1.506571692571642140e-01,-1.393032956319866233e-01,-1.279494220068090327e-01,-1.165955483816314420e-01,-1.056783622035760845e-01,-9.432448857839847989e-02,-8.297061495322091695e-02,-7.161674132804332626e-02,-6.026286770286570782e-02,-4.890899407768811713e-02,-3.755512045251049869e-02,-2.620124682733293575e-02,-1.484737320215531731e-02,-3.493499576977726617e-03,-2.775557561562891351e-17,-2.775557561562891351e-17,-2.775557561562891351e-17,-2.775557561562891351e-17,-2.775557561562891351e-17,-2.775557561562891351e-17,-2.775557561562891351e-17,-2.775557561562891351e-17,0.000000000000000000e+00,-2.775557561562891351e-17,-2.775557561562891351e-17,-2.775557561562891351e-17,-2.775557561562891351e-17,-5.551115123125782702e-17,-2.775557561562891351e-17,-1.147864146721255807e-02,-2.445449703884405857e-02,-3.693128124233591159e-02,-4.990713681396743984e-02,-6.288299238559899584e-02,-7.585884795723052409e-02,-8.883470352886208010e-02,-1.018105591004936084e-01,-1.147864146721251366e-01,-1.277622702437566371e-01,-1.407381258153881931e-01,-1.537139813870197491e-01,-1.666898369586512496e-01,-1.796656925302828056e-01,-1.926415481019143339e-01
-1.764217286373749305e-01,-1.650678550121973398e-01,-1.537139813870197491e-01,-1.427967952089643500e-01,-1.314429215837867593e-01,-1.200890479586091686e-01,-1.087351743334315779e-01,-9.738130070825398721e-02,-8.602742708307639652e-02,-7.467355345789880583e-02,-6.331967983272121514e-02,-5.196580620754362445e-02,-4.061193258236603376e-02,-2.925805895718844307e-02,-1.790418533201085238e-02,-6.550311706833233938e-03,-2.775557561562891351e-17,-2.775557561562891351e-17,-5.551115123125782702e-17,-2.775557561562891351e-17,-2.775557561562891351e-17,-2.775557561562891351e-17,-2.775557561562891351e-17,-2.775557561562891351e-17,-2.775557561562891351e-17,-2.775557561562891351e-17,-2.775557561562891351e-17,-2.775557561562891351e-17,-5.551115123125782702e-17,-2.775557561562891351e-17,-5.551115123125782702e-17,-7.486070522095128466e-03,-2.046192609372668447e-02,-3.343778166535818497e-02,-4.641363723698974098e-02,-5.938949280862129698e-02,-7.236534838025282523e-02,-8.534120395188432573e-02,-9.831705952351588174e-02,-1.112929150951474100e-01,-1.242687706667789382e-01,-1.372446262384104665e-01,-1.502204818100419947e-01,-1.631963373816735507e-01,-1.756731215851654038e-01,-1.886489771567969320e-01,-2.016248327284284603e-01
-1.685613545891750387e-01,-1.572074809639974480e-01,-1.458536073388198573e-01,-1.344997337136422666e-01,-1.231458600884646759e-01,-1.117919864632870852e-01,-1.004381128381095084e-01,-8.908423921293190384e-02,-7.773036558775431315e-02,-6.637649196257672246e-02,-5.502261833739910402e-02,-4.366874471222154108e-02,-3.231487108704392264e-02,-2.096099746186633195e-02,-1.004381128381096056e-02,-5.551115123125782702e-17,-2.775557561562891351e-17,-2.775557561562891351e-17,-2.775557561562891351e-17,-2.775557561562891351e-17,-2.775557561562891351e-17,0.000000000000000000e+00,-2.775557561562891351e-17,-2.775557561562891351e-17,-2.775557561562891351e-17,-2.775557561562891351e-17,-2.775557561562891351e-17,-2.775557561562891351e-17,-2.775557561562891351e-17,-2.775557561562891351e-17,-3.992570945117429604e-03,-1.696842651674895786e-02,-2.994428208838045835e-02,-4.292013766001198660e-02,-5.589599323164354261e-02,-6.887184880327507086e-02,-8.184770437490662687e-02,-9.482355994653815512e-02,-1.077994155181696972e-01,-1.207752710898012116e-01,-1.337511266614327399e-01,-1.462279108649245929e-01,-1.592037664365561489e-01,-1.721796220081876772e-01,-1.851554775798192054e-01,-1.981313331514507614e-01,-2.111071887230822897e-01
-1.602642930938529553e-01,-1.489104194686753646e-01,-1.375565458434977739e-01,-1.262026722183201832e-01,-1.148487985931425925e-01,-1.034949249679650018e-01,-9.214105134278741116e-02,-8.078717771760982047e-02,-6.943330409243222978e-02,-5.807943046725461134e-02,-4.716224428919926770e-02,-3.580837066402164925e-02,-2.445449703884405857e-02,-1.310062341366646788e-02,-1.746749788488877186e-03,-2.775557561562891351e-17,-2.775557561562891351e-17,-2.775557561562891351e-17,-2.775557561562891351e-17,-2.775557561562891351e-17,-2.775557561562891351e-17,-2.775557561562891351e-17,-2.775557561562891351e-17,-2.775557561562891351e-17,-2.775557561562891351e-17,-2.775557561562891351e-17,-2.775557561562891351e-17,-2.775557561562891351e-17,-2.775557561562891351e-17,-4.990713681396752310e-04,-1.347492693977123124e-02,-2.645078251140275949e-02,-3.942663808303428774e-02,-5.240249365466584375e-02,-6.537834922629737200e-02,-7.835420479792890025e-02,-9.133006036956045626e-02,-1.038068445730522954e-01,-1.167827001446838237e-01,-1.297585557163153380e-01,-1.427344112879468940e-01,-1.557102668595784223e-01,-1.686861224312099505e-01,-1.816619780028414788e-01,-1.946378335744730348e-01,-2.076136891461045630e-01,-2.205895447177360913e-01
-1.519672315985308719e-01,-1.406133579733532812e-01,-1.292594843481756905e-01,-1.179056107229980999e-01,-1.065517370978205092e-01,-9.519786347264289073e-02,-8.384398984746532779e-02,-7.292680366940995640e-02,-6.157293004423233795e-02,-5.021905641905477502e-02,-3.886518279387718433e-02,-2.751130916869956589e-02,-1.615743554352200295e-02,-4.803561918344384507e-03,-2.775557561562891351e-17,-2.775557561562891351e-17,0.000000000000000000e+00,0.000000000000000000e+00,-2.775557561562891351e-17,-2.775557561562891351e-17,-5.551115123125782702e-17,-2.775557561562891351e-17,-2.775557561562891351e-17,-2.775557561562891351e-17,-5.551115123125782702e-17,-2.775557561562891351e-17,-2.775557561562891351e-17,-2.775557561562891351e-17,-2.775557561562891351e-17,-9.981427362793504621e-03,-2.295728293442503287e-02,-3.593313850605656112e-02,-4.890899407768811713e-02,-6.188484964931964538e-02,-7.436163385281152616e-02,-8.733748942444305441e-02,-1.003133449960745688e-01,-1.132892005677060970e-01,-1.262650561393376392e-01,-1.392409117109691674e-01,-1.522167672826006957e-01,-1.651926228542322517e-01,-1.781684784258637799e-01,-1.911443339974953082e-01,-2.041201895691268364e-01,-2.170960451407583647e-01,-2.235839729265741427e-01
-1.436701701032087886e-01,-1.323162964780311979e-01,-1.209624228528535933e-01,-1.096085492276760165e-01,-9.869136304962064510e-02,-8.733748942444305441e-02,-7.598361579926546372e-02,-6.462974217408787303e-02,-5.327586854891025459e-02,-4.192199492373266390e-02,-3.056812129855507321e-02,-1.921424767337748252e-02,-7.860374048199891828e-03,-2.775557561562891351e-17,0.000000000000000000e+00,-2.775557561562891351e-17,-2.775557561562891351e-17,-2.775557561562891351e-17,-2.775557561562891351e-17,0.000000000000000000e+00,-2.775557561562891351e-17,-2.775557561562891351e-17,-2.775557561562891351e-17,-2.775557561562891351e-17,-2.775557561562891351e-17,-2.775557561562891351e-17,-2.775557561562891351e-17,-2.775557561562891351e-17,-6.487927785815778003e-03,-1.946378335744730625e-02,-3.243963892907886226e-02,-4.491642313257071528e-02,-5.789227870420224353e-02,-7.086813427583379954e-02,-8.384398984746530004e-02,-9.681984541909685604e-02,-1.097957009907283843e-01,-1.227715565623599125e-01,-1.357474121339914408e-01,-1.487232677056229968e-01,-1.616991232772545251e-01,-1.746749788488860533e-01,-1.876508344205175816e-01,-2.006266899921491098e-01,-2.136025455637806658e-01,-2.235839729265741427e-01,-2.235839729265741427e-01
-1.358097960550088967e-01,-1.244559224298313199e-01,-1.131020488046537292e-01,-1.017481751794761385e-01,-9.039430155429856173e-02,-7.904042792912094328e-02,-6.768655430394338035e-02,-5.633268067876576191e-02,-4.497880705358817122e-02,-3.362493342841058053e-02,-2.227105980323298984e-02,-1.091718617805539915e-02,-2.775557561562891351e-17,-2.775557561562891351e-17,-2.775557561562891351e-17,-2.775557561562891351e-17,-2.775557561562891351e-17,-2.775557561562891351e-17,-2.775557561562891351e-17,-2.775557561562891351e-17,0.000000000000000000e+00,-2.775557561562891351e-17,-2.775557561562891351e-17,-2.775557561562891351e-17,-2.775557561562891351e-17,-2.775557561562891351e-17,-2.775557561562891351e-17,-2.994428208838079142e-03,-1.547121241232993216e-02,-2.844706798396143266e-02,-4.142292355559298866e-02,-5.439877912722451692e-02,-6.737463469885607292e-02,-8.035049027048762893e-02,-9.332634584211915718e-02,-1.063022014137506716e-01,-1.192780569853822137e-01,-1.322539125570137419e-01,-1.452297681286452702e-01,-1.582056237002767984e-01,-1.711814792719083267e-01,-1.836582634754002075e-01,-1.966341190470317357e-01,-2.096099746186632640e-01,-2.225858301902947922e-01,-2.235839729265741427e-01,-2.235839729265741427e-01
-1.275127345596868134e-01,-1.161588609345092227e-01,-1.048049873093316459e-01,-9.345111368415404129e-02,-8.209724005897647836e-02,-7.074336643379888767e-02,-5.938949280862126923e-02,-4.803561918344367854e-02,-3.668174555826608785e-02,-2.532787193308849716e-02,-1.397399830791090647e-02,-3.056812129855535076e-03,-2.775557561562891351e-17,-2.775557561562891351e-17,-2.775557561562891351e-17,-2.775557561562891351e-17,-2.775557561562891351e-17,-2.775557561562891351e-17,-2.775557561562891351e-17,-2.775557561562891351e-17,-2.775557561562891351e-17,-2.775557561562891351e-17,-2.775557561562891351e-17,-2.775557561562891351e-17,-2.775557561562891351e-17,-2.775557561562891351e-17,-2.775557561562891351e-17,-1.197771283535223330e-02,-2.495356840698373380e-02,-3.792942397861526205e-02,-5.090527955024679030e-02,-6.388113512187834631e-02,-7.685699069350990231e-02,-8.983284626514140281e-02,-1.028087018367729449e-01,-1.157845574084044871e-01,-1.287604129800359876e-01,-1.417362685516675436e-01,-1.542130527551593966e-01,-1.671889083267909248e-01,-1.801647638984224531e-01,-1.931406194700540091e-01,-2.061164750416855374e-01,-2.190923306133170656e-01,-2.235839729265741427e-01,-2.235839729265741427e-01,-2.235839729265741427e-01
-1.192156730643647439e-01,-1.078617994391871532e-01,-9.650792581400957637e-02,-8.515405218883195793e-02,-7.380017856365439499e-02,-6.244630493847677655e-02,-5.109243131329915810e-02,-4.017524513524381446e-02,-2.882137151006622378e-02,-1.746749788488863309e-02,-6.113624259711042397e-03,-2.775557561562891351e-17,-2.775557561562891351e-17,-2.775557561562891351e-17,-2.775557561562891351e-17,-2.775557561562891351e-17,-2.775557561562891351e-17,-5.551115123125782702e-17,-2.775557561562891351e-17,-2.775557561562891351e-17,-2.775557561562891351e-17,-2.775557561562891351e-17,-2.775557561562891351e-17,-2.775557561562891351e-17,-2.775557561562891351e-17,-2.775557561562891351e-17,-8.484213258374478928e-03,-2.146006883000600718e-02,-3.443592440163753543e-02,-4.741177997326909144e-02,-6.038763554490064744e-02,-7.336349111653214794e-02,-8.633934668816370395e-02,-9.931520225979521832e-02,-1.117919864632870852e-01,-1.247678420349185996e-01,-1.377436976065501417e-01,-1.507195531781816977e-01,-1.636954087498131982e-01,-1.766712643214447542e-01,-1.896471198930762825e-01,-2.026229754647078107e-01,-2.155988310363393667e-01,-2.235839729265741427e-01,-2.235839729265741427e-01,-2.235839729265741427e-01,-2.235839729265741427e-01
-1.109186115690426466e-01,-9.956473794386506981e-02,-8.821086431868746525e-02,-7.685699069350990231e-02,-6.593980451545450316e-02,-5.458593089027688472e-02,-4.323205726509929403e-02,-3.187818363992173110e-02,-2.052431001474411265e-02,-9.170436389566521962e-03,-2.775557561562891351e-17,-2.775557561562891351e-17,-2.775557561562891351e-17,-2.775557561562891351e-17,-2.775557561562891351e-17,-2.775557561562891351e-17,-2.775557561562891351e-17,-2.775557561562891351e-17,-2.775557561562891351e-17,-2.775557561562891351e-17,-2.775557561562891351e-17,-2.775557561562891351e-17,-2.775557561562891351e-17,-2.775557561562891351e-17,-2.775557561562891351e-17,-4.990713681396780066e-03,-1.796656925302830832e-02,-3.094242482465980881e-02,-4.391828039629136482e-02,-5.689413596792292083e-02,-6.986999153955444908e-02,-8.234677574304632985e-02,-9.532263131467783035e-02,-1.082984868863093725e-01,-1.212743424579408869e-01,-1.342501980295724151e-01,-1.472260536012039434e-01,-1.602019091728354994e-01,-1.731777647444670276e-01,-1.861536203160985559e-01,-1.991294758877301119e-01,-2.121053314593616401e-01,-2.235839729265741427e-01,-2.235839729265741427e-01,-2.235839729265741427e-01,-2.235839729265741427e-01,-2.235839729265741427e-01
-1.026215500737205771e-01,-9.170436389566519186e-02,-8.035049027048760117e-02,-6.899661664531003824e-02,-5.764274302013241980e-02,-4.628886939495480135e-02,-3.493499576977723842e-02,-2.358112214459961997e-02,-1.222724851942205704e-02,-8.733748942444663488e-04,-2.775557561562891351e-17,-2.775557561562891351e-17,-2.775557561562891351e-17,0.000000000000000000e+00,-2.775557561562891351e-17,-2.775557561562891351e-17,-2.775557561562891351e-17,-2.775557561562891351e-17,-2.775557561562891351e-17,-5.551115123125782702e-17,-2.775557561562891351e-17,-2.775557561562891351e-17,-5.551115123125782702e-17,-2.775557561562891351e-17,-1.497214104419081204e-03,-1.447306967605058170e-02,-2.744892524768208220e-02,-4.042478081931361045e-02,-5.290156502280549122e-02,-6.587742059443704723e-02,-7.885327616606857548e-02,-9.182913173770010373e-02,-1.048049873093316459e-01,-1.177808428809631741e-01,-1.307566984525946885e-01,-1.437325540242262445e-01,-1.567084095958577727e-01,-1.696842651674893010e-01,-1.826601207391208570e-01,-1.956359763107523853e-01,-2.086118318823839135e-01,-2.215876874540154418e-01,-2.235839729265741427e-01,-2.235839729265741427e-01,-2.235839729265741427e-01,-2.235839729265741427e-01,-2.235839729265741427e-01
-9.476117602552069918e-02,-8.340730240034310849e-02,-7.205342877516554556e-02,-6.069955514998792712e-02,-4.934568152481030867e-02,-3.799180789963271798e-02,-2.663793427445515505e-02,-1.528406064927756436e-02,-3.930187024099973669e-03,-2.775557561562891351e-17,-2.775557561562891351e-17,-2.775557561562891351e-17,-2.775557561562891351e-17,-2.775557561562891351e-17,-2.775557561562891351e-17,-2.775557561562891351e-17,-2.775557561562891351e-17,-2.775557561562891351e-17,-2.775557561562891351e-17,-2.775557561562891351e-17,-2.775557561562891351e-17,-2.775557561562891351e-17,-2.775557561562891351e-17,-2.775557561562891351e-17,-1.097957009907288284e-02,-2.345635430256470810e-02,-3.643220987419623635e-02,-4.940806544582779236e-02,-6.238392101745932061e-02,-7.535977658909087662e-02,-8.833563216072237712e-02,-1.013114877323539192e-01,-1.142873433039854475e-01,-1.272631988756169896e-01,-1.402390544472485179e-01,-1.532149100188800461e-01,-1.661907655905116021e-01,-1.791666211621431304e-01,-1.916434053656349834e-01,-2.046192609372665117e-01,-2.175951165088980399e-01,-2.235839729265741427e-01,-2.235839729265741427e-01,-2.235839729265741427e-01,-2.235839729265741427e-01,-2.235839729265741427e-01,-2.235839729265741427e-01
-8.646411453019861582e-02,-7.511024090502102513e-02,-6.375636727984340668e-02,-5.240249365466581599e-02,-4.104862002948822530e-02,-2.969474640431066237e-02,-1.834087277913304392e-02,-6.986999153955453234e-03,-2.775557561562891351e-17,-2.775557561562891351e-17,-2.775557561562891351e-17,-2.775557561562891351e-17,-2.775557561562891351e-17,-2.775557561562891351e-17,0.000000000000000000e+00,-2.775557561562891351e-17,-2.775557561562891351e-17,-2.775557561562891351e-17,0.000000000000000000e+00,-2.775557561562891351e-17,-5.551115123125782702e-17,-2.775557561562891351e-17,-2.775557561562891351e-17,-6.986999153955453234e-03,-1.996285472558700924e-02,-3.293871029721850974e-02,-4.591456586885006574e-02,-5.889042144048159400e-02,-7.186627701211315000e-02,-8.484213258374465050e-02,-9.781798815537620650e-02,-1.107938437270077348e-01,-1.237696992986392491e-01,-1.367455548702707913e-01,-1.497214104419023473e-01,-1.621981946453942003e-01,-1.751740502170257285e-01,-1.881499057886572568e-01,-2.011257613602887850e-01,-2.141016169319203410e-01,-2.235839729265741427e-01,-2.235839729265741427e-01,-2.235839729265741427e-01,-2.235839729265741427e-01,-2.235839729265741427e-01,-2.235839729265741427e-01,-2.235839729265741427e-01
-1.099770042611853821e-01,-6.681317940969894176e-02,-5.545930578452132331e-02,-4.410543215934373262e-02,-3.318824598128838899e-02,-2.183437235611077054e-02,-1.048049873093317985e-02,0.000000000000000000e+00,-2.775557561562891351e-17,0.000000000000000000e+00,-2.775557561562891351e-17,-2.775557561562891351e-17,-5.551115123125782702e-17,-2.775557561562891351e-17,-2.775557561562891351e-17,-2.775557561562891351e-17,-2.775557561562891351e-17,-5.551115123125782702e-17,-2.775557561562891351e-17,-2.775557561562891351e-17,-2.775557561562891351e-17,0.000000000000000000e+00,-3.493499576977754373e-03,-1.646935514860931038e-02,-2.944521072024078312e-02,-4.242106629187233913e-02,-5.539692186350389513e-02,-6.837277743513542339e-02,-8.134863300676695164e-02,-9.432448857839847989e-02,-1.073003441500300220e-01,-1.197771283535218612e-01,-1.327529839251534172e-01,-1.457288394967849454e-01,-1.587046950684164737e-01,-1.716805506400480019e-01,-1.846564062116795302e-01,-1.976322617833110862e-01,-2.106081173549426144e-01,-2.235839729265741427e-01,-2.235839729265741427e-01,-2.235839729265741427e-01,-2.235839729265741427e-01,-2.235839729265741427e-01,-2.235839729265741427e-01,-2.235839729265741427e-01,-2.235839729265741427e-01
-2.235839729265741427e-01,-1.309789411712193874e-01,-4.759893173632145924e-02,-3.624505811114386855e-02,-2.489118448596627786e-02,-1.353731086078868717e-02,-2.183437235611096483e-03,-2.775557561562891351e-17,-2.775557561562891351e-17,-2.775557561562891351e-17,-2.775557561562891351e-17,-2.775557561562891351e-17,-2.775557561562891351e-17,-2.775557561562891351e-17,-5.551115123125782702e-17,-2.775557561562891351e-17,-2.775557561562891351e-17,-2.775557561562891351e-17,-2.775557561562891351e-17,-2.775557561562891351e-17,-2.775557561562891351e-17,-2.775557561562891351e-17,-1.297585557163152825e-02,-2.595171114326308426e-02,-3.892756671489464027e-02,-5.190342228652614076e-02,-6.487927785815772452e-02,-7.785513342978922502e-02,-9.033191763328107804e-02,-1.033077732049126063e-01,-1.162836287765441484e-01,-1.292594843481756905e-01,-1.422353399198072188e-01,-1.552111954914387471e-01,-1.681870510630703031e-01,-1.811629066347018036e-01,-1.941387622063333596e-01,-2.071146177779648878e-01,-2.200904733495964161e-01,-2.235839729265741427e-01,-2.235839729265741427e-01,-2.235839729265741427e-01,-2.235839729265741427e-01,-2.235839729265741427e-01,-2.235839729265741427e-01,-2.235839729265741427e-01,-2.235839729265741427e-01
-2.235839729265741427e-01,-2.235839729265741427e-01,-1.602370001284078027e-01,-4.017524513524381446e-02,-1.659412299064419449e-02,-5.240249365466631559e-03,-2.775557561562891351e-17,-2.775557561562891351e-17,-2.775557561562891351e-17,-2.775557561562891351e-17,-2.775557561562891351e-17,-2.775557561562891351e-17,-2.775557561562891351e-17,-2.775557561562891351e-17,-2.775557561562891351e-17,-2.775557561562891351e-17,-2.775557561562891351e-17,0.000000000000000000e+00,-2.775557561562891351e-17,-2.775557561562891351e-17,-2.775557561562891351e-17,-9.482355994653829390e-03,-2.245821156628535764e-02,-3.543406713791691365e-02,-4.840992270954846965e-02,-6.088670691304029492e-02,-7.386256248467182317e-02,-8.683841805630335142e-02,-9.981427362793490743e-02,-1.127901291995664357e-01,-1.257659847711979362e-01,-1.387418403428294922e-01,-1.517176959144610482e-01,-1.646935514860925487e-01,-1.776694070577241047e-01,-1.906452626293556329e-01,-2.036211182009871612e-01,-2.165969737726186894e-01,-2.235839729265741427e-01,-2.235839729265741427e-01,-2.235839729265741427e-01,-2.235839729265741427e-01,-2.235839729265741427e-01,-2.235839729265741427e-01,-2.235839729265741427e-01,-2.235839729265741427e-01,-2.235839729265741427e-01
-2.235839729265741427e-01,-2.235839729265741427e-01,-2.235839729265741427e-01,-1.980923432008148410e-01,-6.884650533536176842e-02,-2.775557561562891351e-17,-2.775557561562891351e-17,-2.775557561562891351e-17,-5.551115123125782702e-17,-2.775557561562891351e-17,-2.775557561562891351e-17,-2.775557561562891351e-17,-2.775557561562891351e-17,-2.775557561562891351e-17,-2.775557561562891351e-17,-2.775557561562891351e-17,0.000000000000000000e+00,-2.775557561562891351e-17,-2.775557561562891351e-17,-2.775557561562891351e-17,-5.988856417676130528e-03,-1.896471198930765878e-02,-3.144149619279948404e-02,-4.441735176443104005e-02,-5.739320733606259606e-02,-7.036906290769412431e-02,-8.334491847932565256e-02,-9.632077405095718081e-02,-1.092966296225887091e-01,-1.222724851942202373e-01,-1.352483407658517656e-01,-1.482241963374832938e-01,-1.612000519091148498e-01,-1.741759074807463781e-01,-1.871517630523779063e-01,-1.996285472558697593e-01,-2.126044028275013154e-01,-2.235839729265741427e-01,-2.235839729265741427e-01,-2.235839729265741427e-01,-2.235839729265741427e-01,-2.235839729265741427e-01,-2.235839729265741427e-01,-2.235839729265741427e-01,-2.235839729265741427e-01,-2.235839729265741427e-01,-2.235839729265741427e-01
-2.235839729265741427e-01,-2.235839729265741427e-01,-2.235839729265741427e-01,-2.235839729265741427e-01,-2.235839729265741427e-01,-1.117919864632870852e-01,-2.775557561562891351e-17,-2.775557561562891351e-17,-2.775557561562891351e-17,-2.775557561562891351e-17,-2.775557561562891351e-17,-2.775557561562891351e-17,-2.775557561562891351e-17,-2.775557561562891351e-17,-2.775557561562891351e-17,-2.775557561562891351e-17,-2.775557561562891351e-17,-2.775557561562891351e-17,-2.775557561562891351e-17,-1.996285472558700924e-03,-1.497214104419025693e-02,-2.794799661582175743e-02,-4.092385218745331343e-02,-5.389970775908484169e-02,-6.687556333071636994e-02,-7.985141890234792594e-02,-9.282727447397945419e-02,-1.058031300456109824e-01,-1.187789856172425246e-01,-1.317548411888740389e-01,-1.447306967605055950e-01,-1.577065523321371232e-01,-1.701833365356289762e-01,-1.831591921072605045e-01,-1.961350476788920605e-01,-2.091109032505235887e-01,-2.220867588221551170e-01,-2.235839729265741427e-01,-2.235839729265741427e-01,-2.235839729265741427e-01,-2.235839729265741427e-01,-2.235839729265741427e-01,-2.235839729265741427e-01,-2.235839729265741427e-01,-2.235839729265741427e-01,-2.235839729265741427e-01,-2.235839729265741427e-01
-2.235839729265741427e-01,-2.235839729265741427e-01,-2.235839729265741427e-01,-2.235839729265741427e-01,-2.235839729265741427e-01,-2.235839729265741427e-01,-1.676879796949306001e-01,-3.493499576977723842e-02,-2.775557561562891351e-17,-2.775557561562891351e-17,-2.775557561562891351e-17,-5.551115123125782702e-17,-2.775557561562891351e-17,-2.775557561562891351e-17,-2.775557561562891351e-17,-2.775557561562891351e-17,-2.775557561562891351e-17,-2.775557561562891351e-17,-2.775557561562891351e-17,-1.147864146721255807e-02,-2.445449703884405857e-02,-3.743035261047558682e-02,-5.040620818210714282e-02,-6.338206375373867107e-02,-7.635791932537019933e-02,-8.933377489700172758e-02,-1.023096304686332836e-01,-1.152854860402647980e-01,-1.277622702437566371e-01,-1.407381258153881931e-01,-1.537139813870197491e-01,-1.666898369586512496e-01,-1.796656925302828056e-01,-1.926415481019143339e-01,-2.056174036735458621e-01,-2.185932592451773904e-01,-2.235839729265741427e-01,-2.235839729265741427e-01,-2.235839729265741427e-01,-2.235839729265741427e-01,-2.235839729265741427e-01,-2.235839729265741427e-01,-2.235839729265741427e-01,-2.235839729265741427e-01,-2.235839729265741427e-01,-2.235839729265741427e-01,-2.235839729265741427e-01
-2.235839729265741427e-01,-2.235839729265741427e-01,-2.235839729265741427e-01,-2.235839729265741427e-01,-2.235839729265741427e-01,-2.235839729265741427e-01,-2.235839729265741427e-01,-2.165969737726186894e-01,-8.384398984746532779e-02,-2.775557561562891351e-17,0.000000000000000000e+00,-2.775557561562891351e-17,-2.775557561562891351e-17,-2.775557561562891351e-17,0.000000000000000000e+00,-2.775557561562891351e-17,-2.775557561562891351e-17,-2.775557561562891351e-17,-7.985141890234803697e-03,-2.096099746186635970e-02,-3.393685303349786020e-02,-4.691270860512941621e-02,-5.988856417676094446e-02,-7.286441974839250046e-02,-8.584027532002400096e-02,-9.831705952351588174e-02,-1.112929150951474100e-01,-1.242687706667789382e-01,-1.372446262384104665e-01,-1.502204818100419947e-01,-1.631963373816735507e-01,-1.761721929533050790e-01,-1.891480485249366073e-01,-2.021239040965681355e-01,-2.150997596681996638e-01,-2.235839729265741427e-01,-2.235839729265741427e-01,-2.235839729265741427e-01,-2.235839729265741427e-01,-2.235839729265741427e-01,-2.235839729265741427e-01,-2.235839729265741427e-01,-2.235839729265741427e-01,-2.235839729265741427e-01,-2.235839729265741427e-01,-2.235839729265741427e-01,-2.235839729265741427e-01
-2.235839729265741427e-01,-2.235839729265741427e-01,-2.235839729265741427e-01,-2.235839729265741427e-01,-2.235839729265741427e-01,-2.235839729265741427e-01,-2.235839729265741427e-01,-2.235839729265741427e-01,-2.235839729265741427e-01,-1.327529839251534172e-01,-2.775557561562891351e-17,-2.775557561562891351e-17,0.000000000000000000e+00,-5.551115123125782702e-17,-2.775557561562891351e-17,-2.775557561562891351e-17,-2.775557561562891351e-17,-4.491642313257104835e-03,-1.746749788488860533e-02,-3.044335345652013358e-02,-4.341920902815168959e-02,-5.639506459978321784e-02,-6.887184880327509862e-02,-8.184770437490662687e-02,-9.482355994653815512e-02,-1.077994155181696972e-01,-1.207752710898012116e-01,-1.337511266614327399e-01,-1.467269822330642959e-01,-1.597028378046958241e-01,-1.726786933763273524e-01,-1.856545489479588806e-01,-1.986304045195904089e-01,-2.116062600912219649e-01,-2.235839729265741427e-01,-2.235839729265741427e-01,-2.235839729265741427e-01,-2.235839729265741427e-01,-2.235839729265741427e-01,-5.067474064428585390e-01,-5.067474064428585390e-01,-5.067474064428585390e-01,-5.067474064428585390e-01,-5.067474064428585390e-01,-2.235839729265741427e-01,-2.235839729265741427e-01,-2.235839729265741427e-01
-2.235839729265741427e-01,-2.235839729265741427e-01,-2.235839729265741427e-01,-2.235839729265741427e-01,-2.235839729265741427e-01,-2.235839729265741427e-01,-2.235839729265741427e-01,-2.235839729265741427e-01,-2.235839729265741427e-01,-2.235839729265741427e-01,-1.816619780028415065e-01,-5.589599323164354261e-02,-2.775557561562891351e-17,-2.775557561562891351e-17,-2.775557561562891351e-17,-2.775557561562891351e-17,-9.981427362793782176e-04,-1.397399830791093422e-02,-2.694985387954243472e-02,-3.942663808303428774e-02,-5.240249365466584375e-02,-6.537834922629737200e-02,-7.835420479792890025e-02,-9.133006036956042850e-02,-1.043059159411919568e-01,-1.172817715128235128e-01,-1.302576270844550410e-01,-1.432334826560865693e-01,-1.562093382277180975e-01,-1.691851937993496258e-01,-1.821610493709811540e-01,-1.951369049426127100e-01,-2.076136891461045630e-01,-2.205895447177360913e-01,-2.235839729265741427e-01,-2.235839729265741427e-01,-2.235839729265741427e-01,-2.235839729265741427e-01,-2.235839729265741427e-01,-5.067474064428585390e-01,-5.067474064428585390e-01,-5.067474064428585390e-01,-5.067474064428585390e-01,-5.067474064428585390e-01,-2.235839729265741427e-01,-2.235839729265741427e-01,-2.235839729265741427e-01
-2.235839729265741427e-01,-2.235839729265741427e-01,-2.235839729265741427e-01,-2.235839729265741427e-01,-2.235839729265741427e-01,-2.235839729265741427e-01,-2.235839729265741427e-01,-2.235839729265741427e-01,-2.235839729265741427e-01,-2.235839729265741427e-01,-2.235839729265741427e-01,-2.235839729265741427e-01,-1.048049873093316320e-01,-2.775557561562891351e-17,-2.775557561562891351e-17,-2.775557561562891351e-17,-9.981427362793504621e-03,-2.295728293442503287e-02,-3.593313850605656112e-02,-4.890899407768808937e-02,-6.188484964931967314e-02,-7.486070522095117363e-02,-8.783656079258272964e-02,-1.008124163642142579e-01,-1.137882719358457861e-01,-1.267641275074772866e-01,-1.397399830791088426e-01,-1.527158386507403987e-01,-1.656916942223718991e-01,-1.781684784258637799e-01,-1.911443339974953082e-01,-2.041201895691268364e-01,-2.170960451407583647e-01,-2.235839729265741427e-01,-2.235839729265741427e-01,-2.235839729265741427e-01,-2.235839729265741427e-01,-2.235839729265741427e-01,-2.235839729265741427e-01,-5.067474064428585390e-01,-5.067474064428585390e-01,-5.067474064428585390e-01,-5.067474064428585390e-01,-5.067474064428585390e-01,-2.235839729265741427e-01,-2.235839729265741427e-01,-2.235839729265741427e-01
-2.235839729265741427e-01,-2.235839729265741427e-01,-2.235839729265741427e-01,-2.235839729265741427e-01,-2.235839729265741427e-01,-2.235839729265741427e-01,-2.235839729265741427e-01,-2.235839729265741427e-01,-2.235839729265741427e-01,-2.235839729265741427e-01,-2.235839729265741427e-01,-2.235839729265741427e-01,-2.235839729265741427e-01,-1.537139813870197491e-01,-2.096099746186633195e-02,-6.487927785815778003e-03,-1.946378335744730625e-02,-3.243963892907883451e-02,-4.541549450071039051e-02,-5.839135007234194652e-02,-7.136720564397344702e-02,-8.434306121560500302e-02,-9.731891678723653127e-02,-1.102947723588680456e-01,-1.232706279304995878e-01,-1.357474121339914408e-01,-1.487232677056229968e-01,-1.616991232772545251e-01,-1.746749788488860533e-01,-1.876508344205175816e-01,-2.006266899921491098e-01,-2.136025455637806658e-01,-2.235839729265741427e-01,-2.235839729265741427e-01,-2.235839729265741427e-01,-2.235839729265741427e-01,-2.235839729265741427e-01,-2.235839729265741427e-01,-2.235839729265741427e-01,-5.067474064428585390e-01,-5.067474064428585390e-01,-5.067474064428585390e-01,-5.067474064428585390e-01,-5.067474064428585390e-01,-2.235839729265741427e-01,-2.235839729265741427e-01,-2.235839729265741427e-01
-2.235839729265741427e-01,-2.235839729265741427e-01,-2.235839729265741427e-01,-2.235839729265741427e-01,-2.235839729265741427e-01,-2.235839729265741427e-01,-2.235839729265741427e-01,-2.235839729265741427e-01,-2.235839729265741427e-01,-2.235839729265741427e-01,-2.235839729265741427e-01,-2.235839729265741427e-01,-2.235839729265741427e-01,-2.235839729265741427e-01,-2.029037031092863763e-01,-8.084956163862727641e-02,-2.894613935210110789e-02,-4.192199492373266390e-02,-5.489785049536421990e-02,-6.787370606699574815e-02,-8.084956163862727641e-02,-9.382541721025880466e-02,-1.063022014137506716e-01,-1.192780569853821859e-01,-1.322539125570137419e-01,-1.452297681286452979e-01,-1.582056237002767984e-01,-1.711814792719083267e-01,-1.841573348435398549e-01,-1.971331904151714109e-01,-2.101090459868029392e-01,-2.230849015584344675e-01,-2.235839729265741427e-01,-2.235839729265741427e-01,-2.235839729265741427e-01,-2.235839729265741427e-01,-2.235839729265741427e-01,-2.235839729265741427e-01,-2.235839729265741427e-01,-5.067474064428585390e-01,-5.067474064428585390e-01,-5.067474064428585390e-01,-5.067474064428585390e-01,-5.067474064428585390e-01,-2.235839729265741427e-01,-2.235839729265741427e-01,-2.235839729265741427e-01
