0.000000000000000000e+00,0.000000000000000000e+00,0.000000000000000000e+00,0.000000000000000000e+00,0.000000000000000000e+00,0.000000000000000000e+00,0.000000000000000000e+00,0.000000000000000000e+00,0.000000000000000000e+00,0.000000000000000000e+00,0.000000000000000000e+00,0.000000000000000000e+00,0.000000000000000000e+00,0.000000000000000000e+00,0.000000000000000000e+00,-4.802165172723900886e-03,-2.187653023129776733e-02,-3.895089528987163985e-02,-5.602526034844550196e-02,-7.309962540701939182e-02,-9.017399046559324005e-02,-1.072483555241671299e-01,-1.243227205827409920e-01,-1.413970856413148680e-01,-1.535192178655171991e-01,-3.771118616200862528e-01,-3.870996982119668250e-01,-3.960203869876866012e-01,-4.038739279472454702e-01,-4.106603210906434320e-01,-2.038419070713530790e-01,-2.048923807028864008e-01,-1.963551981735995045e-01,-1.878180156443125526e-01,-1.691962862523054556e-01,-1.269905901231431489e-01,-8.819976700569565065e-02,-5.282381689996291235e-02,-2.086273980594494787e-02,0.000000000000000000e+00,0.000000000000000000e+00,0.000000000000000000e+00,0.000000000000000000e+00,0.000000000000000000e+00,0.000000000000000000e+00,0.000000000000000000e+00,0.000000000000000000e+00
0.000000000000000000e+00,0.000000000000000000e+00,0.000000000000000000e+00,0.000000000000000000e+00,0.000000000000000000e+00,0.000000000000000000e+00,0.000000000000000000e+00,0.000000000000000000e+00,0.000000000000000000e+00,0.000000000000000000e+00,0.000000000000000000e+00,0.000000000000000000e+00,0.000000000000000000e+00,0.000000000000000000e+00,0.000000000000000000e+00,-5.335739080804334511e-03,-2.241010413937820356e-02,-3.948446919795207261e-02,-5.655883425652594165e-02,-7.363319931509981764e-02,-9.070756437367369363e-02,-1.077819294322475419e-01,-1.248562944908214178e-01,-1.419306595493952938e-01,-1.590050246079691421e-01,-3.886170490130705923e-01,-4.056914140716444406e-01,-4.227657791302182888e-01,-4.398401441887921370e-01,-4.569145092473660408e-01,-2.614512149594123702e-01,-2.731898409371819048e-01,-2.731898409371819048e-01,-2.731898409371819048e-01,-2.561154758786080565e-01,-2.014775076911716756e-01,-1.468395395037352669e-01,-9.220157131629889979e-02,-3.756360312886251190e-02,0.000000000000000000e+00,0.000000000000000000e+00,0.000000000000000000e+00,0.000000000000000000e+00,0.000000000000000000e+00,0.000000000000000000e+00,0.000000000000000000e+00,0.000000000000000000e+00
0.000000000000000000e+00,0.000000000000000000e+00,0.000000000000000000e+00,0.000000000000000000e+00,0.000000000000000000e+00,0.000000000000000000e+00,0.000000000000000000e+00,0.000000000000000000e+00,0.000000000000000000e+00,0.000000000000000000e+00,0.000000000000000000e+00,0.000000000000000000e+00,0.000000000000000000e+00,0.000000000000000000e+00,0.000000000000000000e+00,-5.869312988884767268e-03,-2.294367804745863632e-02,-4.001804310603250536e-02,-5.709240816460637441e-02,-7.416677322318024346e-02,-9.124113828175411944e-02,-1.083155033403279816e-01,-1.253898683989018437e-01,-1.424642334574757196e-01,-1.595385985160496234e-01,-3.891506229211509904e-01,-4.062249879797248386e-01,-4.232993530382987424e-01,-4.403737180968725906e-01,-4.574480831554464944e-01,-2.619847888674928238e-01,-2.731898409371819048e-01,-2.731898409371819048e-01,-2.731898409371819048e-01,-2.544080393727506384e-01,-1.997700711853142852e-01,-1.451321029978778765e-01,-9.049413481044150942e-02,-3.585616662300512847e-02,0.000000000000000000e+00,0.000000000000000000e+00,0.000000000000000000e+00,0.000000000000000000e+00,0.000000000000000000e+00,0.000000000000000000e+00,0.000000000000000000e+00,0.000000000000000000e+00
0.000000000000000000e+00,0.000000000000000000e+00,0.000000000000000000e+00,0.000000000000000000e+00,0.000000000000000000e+00,0.000000000000000000e+00,0.000000000000000000e+00,0.000000000000000000e+00,0.000000000000000000e+00,0.000000000000000000e+00,0.000000000000000000e+00,0.000000000000000000e+00,0.000000000000000000e+00,0.000000000000000000e+00,0.000000000000000000e+00,-6.402886896965200893e-03,-2.347725195553906907e-02,-4.055161701411294506e-02,-5.762598207268680717e-02,-7.470034713126068315e-02,-9.177471218983454526e-02,-1.088490772484084212e-01,-1.259234423069822695e-01,-1.429978073655561732e-01,-1.600721724241300215e-01,-3.896841968292314995e-01,-4.067585618878052922e-01,-4.238329269463791960e-01,-4.409072920049530442e-01,-4.579816570635268924e-01,-2.625183627755732219e-01,-2.731898409371819603e-01,-2.731898409371819048e-01,-2.731898409371819048e-01,-2.527006028668932758e-01,-1.980626346794568948e-01,-1.434246664920205139e-01,-8.878669830458411905e-02,-3.414873011714773809e-02,0.000000000000000000e+00,0.000000000000000000e+00,0.000000000000000000e+00,0.000000000000000000e+00,0.000000000000000000e+00,0.000000000000000000e+00,0.000000000000000000e+00,0.000000000000000000e+00
0.000000000000000000e+00,0.000000000000000000e+00,0.000000000000000000e+00,0.000000000000000000e+00,0.000000000000000000e+00,0.000000000000000000e+00,0.000000000000000000e+00,0.000000000000000000e+00,0.000000000000000000e+00,0.000000000000000000e+00,0.000000000000000000e+00,0.000000000000000000e+00,0.000000000000000000e+00,0.000000000000000000e+00,0.000000000000000000e+00,-6.936460805045634517e-03,-2.401082586361950183e-02,-4.108519092219337088e-02,-5.815955598076724686e-02,-7.523392103934110897e-02,-9.230828609791498496e-02,-1.093826511564888471e-01,-1.264570162150626953e-01,-1.435313812736365713e-01,-1.606057463322104750e-01,-3.902177707373118976e-01,-4.072921357958857458e-01,-4.243665008544595940e-01,-4.414408659130334422e-01,-4.585152309716073460e-01,-2.630519366836536754e-01,-2.731898409371819048e-01,-2.731898409371819048e-01,-2.731898409371819048e-01,-2.509931663610358576e-01,-1.963551981735994767e-01,-1.417172299861631235e-01,-8.707926179872672867e-02,-3.244129361129035466e-02,0.000000000000000000e+00,0.000000000000000000e+00,0.000000000000000000e+00,0.000000000000000000e+00,0.000000000000000000e+00,0.000000000000000000e+00,0.000000000000000000e+00,0.000000000000000000e+00
0.000000000000000000e+00,0.000000000000000000e+00,0.000000000000000000e+00,0.000000000000000000e+00,0.000000000000000000e+00,0.000000000000000000e+00,0.000000000000000000e+00,0.000000000000000000e+00,0.000000000000000000e+00,0.000000000000000000e+00,0.000000000000000000e+00,0.000000000000000000e+00,0.000000000000000000e+00,0.000000000000000000e+00,0.000000000000000000e+00,-7.470034713126067275e-03,-2.454439977169993806e-02,-4.161876483027381057e-02,-5.869312988884767268e-02,-7.576749494742154867e-02,-9.284186000599542465e-02,-1.099162250645692729e-01,-1.269905901231431489e-01,-1.440649551817170249e-01,-1.611393202402908731e-01,-1.782136852988647768e-01,-1.952880503574386251e-01,-2.123624154160125010e-01,-2.294367804745863770e-01,-2.465111455331602530e-01,-2.635855105917341290e-01,-2.731898409371819048e-01,-2.731898409371819048e-01,-2.731898409371819048e-01,-2.492857298551784673e-01,-1.946477616677421141e-01,-1.400097934803057331e-01,-8.537182529286935218e-02,-3.073385710543296429e-02,0.000000000000000000e+00,0.000000000000000000e+00,0.000000000000000000e+00,0.000000000000000000e+00,0.000000000000000000e+00,0.000000000000000000e+00,0.000000000000000000e+00,0.000000000000000000e+00
0.000000000000000000e+00,0.000000000000000000e+00,0.000000000000000000e+00,0.000000000000000000e+00,0.000000000000000000e+00,0.000000000000000000e+00,0.000000000000000000e+00,0.000000000000000000e+00,0.000000000000000000e+00,0.000000000000000000e+00,0.000000000000000000e+00,0.000000000000000000e+00,0.000000000000000000e+00,0.000000000000000000e+00,0.000000000000000000e+00,-8.003608621206501766e-03,-2.507797367978037081e-02,-4.215233873835423639e-02,-5.922670379692810544e-02,-7.630106885550197449e-02,-9.337543391407585047e-02,-1.104497989726497126e-01,-1.275241640312235747e-01,-1.445985290897974507e-01,-1.616728941483713267e-01,-1.787472592069452026e-01,-1.958216242655190509e-01,-2.128959893240929546e-01,-2.299703543826667751e-01,-2.470447194412406788e-01,-2.641190844998145271e-01,-2.731898409371819048e-01,-2.731898409371819048e-01,-2.731898409371819048e-01,-2.475782933493210769e-01,-1.929403251618847237e-01,-1.383023569744483428e-01,-8.366438878701196180e-02,-2.902642059957557738e-02,0.000000000000000000e+00,0.000000000000000000e+00,0.000000000000000000e+00,0.000000000000000000e+00,0.000000000000000000e+00,0.000000000000000000e+00,0.000000000000000000e+00,0.000000000000000000e+00
0.000000000000000000e+00,0.000000000000000000e+00,0.000000000000000000e+00,0.000000000000000000e+00,0.000000000000000000e+00,0.000000000000000000e+00,0.000000000000000000e+00,0.000000000000000000e+00,0.000000000000000000e+00,0.000000000000000000e+00,0.000000000000000000e+00,0.000000000000000000e+00,0.000000000000000000e+00,0.000000000000000000e+00,0.000000000000000000e+00,-8.537182529286934524e-03,-2.561154758786080010e-02,-4.268591264643467609e-02,-5.976027770500854513e-02,-7.683464276358241418e-02,-9.390900782215627629e-02,-1.109833728807301523e-01,-1.280577379393040283e-01,-1.451321029978778765e-01,-1.622064680564517525e-01,-1.792808331150256285e-01,-1.963551981735995045e-01,-2.134295632321733527e-01,-2.305039282907472287e-01,-2.475782933493211047e-01,-2.646526584078949806e-01,-2.731898409371819048e-01,-2.731898409371819048e-01,-2.731898409371819048e-01,-2.458708568434637143e-01,-1.912328886560273333e-01,-1.365949204685909524e-01,-8.195695228115457143e-02,-2.731898409371819048e-02,0.000000000000000000e+00,0.000000000000000000e+00,0.000000000000000000e+00,0.000000000000000000e+00,0.000000000000000000e+00,0.000000000000000000e+00,0.000000000000000000e+00,0.000000000000000000e+00
0.000000000000000000e+00,0.000000000000000000e+00,0.000000000000000000e+00,0.000000000000000000e+00,0.000000000000000000e+00,0.000000000000000000e+00,0.000000000000000000e+00,0.000000000000000000e+00,0.000000000000000000e+00,0.000000000000000000e+00,0.000000000000000000e+00,0.000000000000000000e+00,0.000000000000000000e+00,0.000000000000000000e+00,0.000000000000000000e+00,-9.070756437367367281e-03,-2.614512149594123980e-02,-4.321948655451510884e-02,-6.029385161308897789e-02,-7.736821667166285388e-02,-9.444258173023671599e-02,-1.115169467888105781e-01,-1.285913118473844541e-01,-1.456656769059583301e-01,-1.627400419645322061e-01,-1.798144070231060543e-01,-1.968887720816799303e-01,-2.139631371402538063e-01,-2.310375021988276822e-01,-2.481118672574015582e-01,-2.651862323159754342e-01,-2.731898409371819048e-01,-2.731898409371819048e-01,-2.731898409371819048e-01,-2.441634203376063517e-01,-1.895254521501699707e-01,-1.348874839627335620e-01,-8.024951577529718105e-02,-2.561154758786080357e-02,0.000000000000000000e+00,0.000000000000000000e+00,0.000000000000000000e+00,0.000000000000000000e+00,0.000000000000000000e+00,0.000000000000000000e+00,0.000000000000000000e+00,0.000000000000000000e+00
0.000000000000000000e+00,0.000000000000000000e+00,0.000000000000000000e+00,0.000000000000000000e+00,0.000000000000000000e+00,0.000000000000000000e+00,0.000000000000000000e+00,0.000000000000000000e+00,0.000000000000000000e+00,0.000000000000000000e+00,0.000000000000000000e+00,0.000000000000000000e+00,0.000000000000000000e+00,0.000000000000000000e+00,0.000000000000000000e+00,-9.604330345447801773e-03,-2.667869540402167255e-02,-4.375306046259554160e-02,-6.082742552116940371e-02,-7.790179057974327970e-02,-9.497615563831715568e-02,-1.120505206968910178e-01,-1.291248857554648799e-01,-1.461992508140387559e-01,-1.632736158726126596e-01,-1.803479809311864801e-01,-1.974223459897603561e-01,-2.144967110483342321e-01,-2.315710761069081081e-01,-2.486454411654819563e-01,-2.657198062240558323e-01,-2.731898409371819048e-01,-2.731898409371819048e-01,-2.731898409371819048e-01,-2.424559838317489335e-01,-1.878180156443125526e-01,-1.331800474568761716e-01,-7.854207926943980456e-02,-2.390411108200341667e-02,0.000000000000000000e+00,0.000000000000000000e+00,0.000000000000000000e+00,0.000000000000000000e+00,0.000000000000000000e+00,0.000000000000000000e+00,0.000000000000000000e+00,0.000000000000000000e+00
0.000000000000000000e+00,0.000000000000000000e+00,0.000000000000000000e+00,0.000000000000000000e+00,0.000000000000000000e+00,0.000000000000000000e+00,0.000000000000000000e+00,0.000000000000000000e+00,0.000000000000000000e+00,0.000000000000000000e+00,0.000000000000000000e+00,0.000000000000000000e+00,0.000000000000000000e+00,0.000000000000000000e+00,0.000000000000000000e+00,-1.013790425352823453e-02,-2.721226931210210184e-02,-4.428663437067597436e-02,-6.136099942924984341e-02,-7.843536448782371939e-02,-9.550972954639758150e-02,-1.125840946049714436e-01,-1.296584596635453057e-01,-1.467328247221191817e-01,-1.638071897806930577e-01,-1.808815548392669059e-01,-1.979559198978407819e-01,-2.150302849564146856e-01,-2.321046500149885339e-01,-2.491790150735624099e-01,-2.662533801321362859e-01,-2.731898409371819048e-01,-2.731898409371819048e-01,-2.731898409371819048e-01,-2.407485473258915432e-01,-1.861105791384551900e-01,-1.314726109510188090e-01,-7.683464276358240030e-02,-2.219667457614602976e-02,0.000000000000000000e+00,0.000000000000000000e+00,0.000000000000000000e+00,0.000000000000000000e+00,0.000000000000000000e+00,0.000000000000000000e+00,0.000000000000000000e+00,0.000000000000000000e+00
0.000000000000000000e+00,0.000000000000000000e+00,0.000000000000000000e+00,0.000000000000000000e+00,0.000000000000000000e+00,0.000000000000000000e+00,0.000000000000000000e+00,0.000000000000000000e+00,0.000000000000000000e+00,0.000000000000000000e+00,0.000000000000000000e+00,0.000000000000000000e+00,0.000000000000000000e+00,0.000000000000000000e+00,0.000000000000000000e+00,-1.067147816160866902e-02,-2.774584322018253807e-02,-4.482020827875640712e-02,-6.189457333733026922e-02,-7.896893839590414521e-02,-9.604330345447800732e-02,-1.131176685130518833e-01,-1.301920335716257315e-01,-1.472663986301996353e-01,-1.643407636887735113e-01,-1.814151287473473317e-01,-1.984894938059212355e-01,-2.155638588644951115e-01,-2.326382239230689597e-01,-2.497125889816428634e-01,-2.667869540402167394e-01,-2.731898409371819048e-01,-2.731898409371819048e-01,-2.731898409371819048e-01,-2.390411108200341528e-01,-1.844031426325977996e-01,-1.297651744451613909e-01,-7.512720625772502381e-02,-2.048923807028864286e-02,0.000000000000000000e+00,0.000000000000000000e+00,0.000000000000000000e+00,0.000000000000000000e+00,0.000000000000000000e+00,0.000000000000000000e+00,0.000000000000000000e+00,0.000000000000000000e+00
0.000000000000000000e+00,0.000000000000000000e+00,0.000000000000000000e+00,0.000000000000000000e+00,0.000000000000000000e+00,0.000000000000000000e+00,0.000000000000000000e+00,0.000000000000000000e+00,0.000000000000000000e+00,0.000000000000000000e+00,0.000000000000000000e+00,0.000000000000000000e+00,0.000000000000000000e+00,0.000000000000000000e+00,0.000000000000000000e+00,-1.120505206968910178e-02,-2.827941712826297083e-02,-4.535378218683683293e-02,-6.242814724541070892e-02,-7.950251230398458491e-02,-9.657687736255846089e-02,-1.136512424211323091e-01,-1.307256074797061851e-01,-1.477999725382800611e-01,-1.648743375968539093e-01,-1.819487026554278131e-01,-1.990230677140016891e-01,-2.160974327725755373e-01,-2.331717978311493855e-01,-2.502461628897232893e-01,-2.673205279482971375e-01,-2.731898409371819048e-01,-2.731898409371819048e-01,-2.731898409371819048e-01,-2.373336743141767624e-01,-1.826957061267404092e-01,-1.280577379393040283e-01,-7.341976975186763343e-02,-1.878180156443125595e-02,0.000000000000000000e+00,0.000000000000000000e+00,0.000000000000000000e+00,0.000000000000000000e+00,0.000000000000000000e+00,0.000000000000000000e+00,0.000000000000000000e+00,0.000000000000000000e+00
0.000000000000000000e+00,0.000000000000000000e+00,0.000000000000000000e+00,0.000000000000000000e+00,0.000000000000000000e+00,0.000000000000000000e+00,0.000000000000000000e+00,0.000000000000000000e+00,0.000000000000000000e+00,0.000000000000000000e+00,0.000000000000000000e+00,0.000000000000000000e+00,0.000000000000000000e+00,0.000000000000000000e+00,0.000000000000000000e+00,-1.173862597776953454e-02,-2.881299103634340358e-02,-4.588735609491727263e-02,-6.296172115349113474e-02,-8.003608621206501073e-02,-9.711045127063888671e-02,-1.141848163292127349e-01,-1.312591813877866109e-01,-1.483335464463604869e-01,-1.654079115049343629e-01,-1.824822765635082111e-01,-1.995566416220820871e-01,-2.166310066806559909e-01,-2.337053717392298113e-01,-2.507797367978036873e-01,-2.678541018563775911e-01,-2.731898409371819048e-01,-2.731898409371819048e-01,-2.731898409371819048e-01,-2.356262378083193720e-01,-1.809882696208830188e-01,-1.263503014334466379e-01,-7.171233324601025694e-02,-1.707436505857386905e-02,0.000000000000000000e+00,0.000000000000000000e+00,0.000000000000000000e+00,0.000000000000000000e+00,0.000000000000000000e+00,0.000000000000000000e+00,0.000000000000000000e+00,0.000000000000000000e+00
0.000000000000000000e+00,0.000000000000000000e+00,0.000000000000000000e+00,0.000000000000000000e+00,0.000000000000000000e+00,0.000000000000000000e+00,0.000000000000000000e+00,-9.526263256850442049e-03,-9.526263256850442049e-03,-9.526263256850442049e-03,-9.526263256850442049e-03,0.000000000000000000e+00,0.000000000000000000e+00,0.000000000000000000e+00,0.000000000000000000e+00,-1.227219988584996729e-02,-2.934656494442383634e-02,-4.642093000299770539e-02,-6.349529506157157444e-02,-8.056966012014545042e-02,-9.764402517871931253e-02,-1.147183902372931885e-01,-1.317927552958670367e-01,-1.488671203544409405e-01,-1.659414854130147887e-01,-1.830158504715886647e-01,-2.000902155301625129e-01,-2.171645805887363889e-01,-2.342389456473102649e-01,-2.513133107058841409e-01,-2.683876757644579891e-01,-2.731898409371819048e-01,-2.731898409371819048e-01,-2.731898409371819048e-01,-2.339188013024620094e-01,-1.792808331150256285e-01,-1.246428649275892475e-01,-7.000489674015286656e-02,-1.536692855271648214e-02,0.000000000000000000e+00,0.000000000000000000e+00,0.000000000000000000e+00,0.000000000000000000e+00,0.000000000000000000e+00,0.000000000000000000e+00,0.000000000000000000e+00,0.000000000000000000e+00
0.000000000000000000e+00,0.000000000000000000e+00,0.000000000000000000e+00,0.000000000000000000e+00,0.000000000000000000e+00,0.000000000000000000e+00,0.000000000000000000e+00,-9.526263256850442049e-03,-9.526263256850442049e-03,-9.526263256850442049e-03,-9.526263256850442049e-03,0.000000000000000000e+00,0.000000000000000000e+00,0.000000000000000000e+00,0.000000000000000000e+00,-1.280577379393040179e-02,-2.988013885250426910e-02,-4.695450391107813815e-02,-6.402886896965201413e-02,-8.110323402822589012e-02,-9.817759908679973835e-02,-1.152519641453736143e-01,-1.323263292039474903e-01,-1.494006942625213386e-01,-1.664750593210952423e-01,-1.835494243796690905e-01,-2.006237894382429388e-01,-2.176981544968168425e-01,-2.347725195553907185e-01,-2.518468846139645945e-01,-2.689212496725384427e-01,-2.731898409371819048e-01,-2.731898409371819048e-01,-2.731898409371819048e-01,-2.322113647966046190e-01,-1.775733966091682658e-01,-1.229354284217318571e-01,-6.829746023429547619e-02,-1.365949204685909524e-02,0.000000000000000000e+00,0.000000000000000000e+00,0.000000000000000000e+00,0.000000000000000000e+00,0.000000000000000000e+00,0.000000000000000000e+00,0.000000000000000000e+00,0.000000000000000000e+00
0.000000000000000000e+00,0.000000000000000000e+00,0.000000000000000000e+00,0.000000000000000000e+00,0.000000000000000000e+00,0.000000000000000000e+00,0.000000000000000000e+00,-9.526263256850442049e-03,-9.526263256850442049e-03,-9.526263256850442049e-03,-9.526263256850442049e-03,0.000000000000000000e+00,0.000000000000000000e+00,0.000000000000000000e+00,0.000000000000000000e+00,-1.333934770201083454e-02,-3.041371276058470532e-02,-4.748807781915857090e-02,-6.456244287773243995e-02,-8.163680793630631594e-02,-9.871117299488019192e-02,-1.157855380534540402e-01,-1.328599031120279161e-01,-1.499342681706017921e-01,-1.670086332291756959e-01,-1.840829982877495163e-01,-2.011573633463233923e-01,-2.182317284048972683e-01,-2.353060934634711165e-01,-2.523804585220450480e-01,-2.694548235806188963e-01,-2.731898409371819048e-01,-2.731898409371819048e-01,-2.731898409371819048e-01,-2.305039282907472287e-01,-1.758659601033108477e-01,-1.212279919158744668e-01,-6.659002372843808581e-02,-1.195205554100170833e-02,0.000000000000000000e+00,0.000000000000000000e+00,0.000000000000000000e+00,0.000000000000000000e+00,0.000000000000000000e+00,0.000000000000000000e+00,0.000000000000000000e+00,0.000000000000000000e+00
0.000000000000000000e+00,0.000000000000000000e+00,0.000000000000000000e+00,0.000000000000000000e+00,0.000000000000000000e+00,0.000000000000000000e+00,0.000000000000000000e+00,-9.526263256850442049e-03,-9.526263256850442049e-03,-9.526263256850442049e-03,-9.526263256850442049e-03,0.000000000000000000e+00,0.000000000000000000e+00,0.000000000000000000e+00,0.000000000000000000e+00,-1.387292161009126903e-02,-3.094728666866513808e-02,-4.802165172723900366e-02,-6.509601678581286577e-02,-8.217038184438674175e-02,-9.924474690296061774e-02,-1.163191119615344798e-01,-1.333934770201083420e-01,-1.504678420786822179e-01,-1.675422071372561217e-01,-1.846165721958299699e-01,-2.016909372544038181e-01,-2.187653023129777219e-01,-2.358396673715515424e-01,-2.529140324301254461e-01,-2.699883974886992943e-01,-2.731898409371819048e-01,-2.731898409371819048e-01,-2.731898409371819048e-01,-2.287964917848898383e-01,-1.741585235974534573e-01,-1.195205554100170903e-01,-6.488258722258069544e-02,-1.024461903514432143e-02,0.000000000000000000e+00,0.000000000000000000e+00,0.000000000000000000e+00,0.000000000000000000e+00,0.000000000000000000e+00,0.000000000000000000e+00,0.000000000000000000e+00,0.000000000000000000e+00
0.000000000000000000e+00,0.000000000000000000e+00,0.000000000000000000e+00,0.000000000000000000e+00,0.000000000000000000e+00,0.000000000000000000e+00,0.000000000000000000e+00,0.000000000000000000e+00,0.000000000000000000e+00,0.000000000000000000e+00,0.000000000000000000e+00,0.000000000000000000e+00,0.000000000000000000e+00,0.000000000000000000e+00,0.000000000000000000e+00,-1.440649551817170179e-02,-3.148086057674556737e-02,-4.855522563531943642e-02,-6.562959069389330546e-02,-8.270395575246718145e-02,-9.977832081104104356e-02,-1.168526858696149057e-01,-1.339270509281887955e-01,-1.510014159867626715e-01,-1.680757810453365197e-01,-1.851501461039103957e-01,-2.022245111624842440e-01,-2.192988762210581477e-01,-2.363732412796319959e-01,-2.534476063382058442e-01,-2.705219713967797479e-01,-2.731898409371819048e-01,-2.731898409371819048e-01,-2.731898409371819048e-01,-2.270890552790324479e-01,-1.724510870915960670e-01,-1.178131189041596860e-01,-6.317515071672331894e-02,-8.537182529286934524e-03,0.000000000000000000e+00,0.000000000000000000e+00,0.000000000000000000e+00,0.000000000000000000e+00,0.000000000000000000e+00,0.000000000000000000e+00,0.000000000000000000e+00,0.000000000000000000e+00
0.000000000000000000e+00,0.000000000000000000e+00,0.000000000000000000e+00,0.000000000000000000e+00,0.000000000000000000e+00,0.000000000000000000e+00,0.000000000000000000e+00,0.000000000000000000e+00,0.000000000000000000e+00,0.000000000000000000e+00,0.000000000000000000e+00,0.000000000000000000e+00,0.000000000000000000e+00,0.000000000000000000e+00,0.000000000000000000e+00,-1.494006942625213455e-02,-3.201443448482600707e-02,-4.908879954339987611e-02,-6.616316460197374516e-02,-8.323752966054762115e-02,-1.003118947191214833e-01,-1.173862597776953454e-01,-1.344606248362692213e-01,-1.515349898948430973e-01,-1.686093549534169733e-01,-1.856837200119907938e-01,-2.027580850705646975e-01,-2.198324501291385735e-01,-2.369068151877124218e-01,-2.539811802462862977e-01,-2.710555453048601460e-01,-2.731898409371819048e-01,-2.731898409371819048e-01,-2.731898409371819048e-01,-2.253816187731750853e-01,-1.707436505857387044e-01,-1.161056823983023095e-01,-6.146771421086592857e-02,-6.829746023429547619e-03,0.000000000000000000e+00,0.000000000000000000e+00,0.000000000000000000e+00,0.000000000000000000e+00,0.000000000000000000e+00,0.000000000000000000e+00,0.000000000000000000e+00,0.000000000000000000e+00
0.000000000000000000e+00,0.000000000000000000e+00,0.000000000000000000e+00,0.000000000000000000e+00,0.000000000000000000e+00,0.000000000000000000e+00,0.000000000000000000e+00,0.000000000000000000e+00,0.000000000000000000e+00,0.000000000000000000e+00,0.000000000000000000e+00,0.000000000000000000e+00,0.000000000000000000e+00,0.000000000000000000e+00,0.000000000000000000e+00,-1.547364333433256904e-02,-3.254800839290643982e-02,-4.962237345148030887e-02,-6.669673851005417098e-02,-8.377110356862806084e-02,-1.008454686272019091e-01,-1.179198336857757851e-01,-1.349941987443496472e-01,-1.520685638029235509e-01,-1.691429288614973714e-01,-1.862172939200712474e-01,-2.032916589786451234e-01,-2.203660240372189993e-01,-2.374403890957928753e-01,-2.545147541543667513e-01,-2.715891192129406551e-01,-2.731898409371819048e-01,-2.731898409371819048e-01,-2.731898409371819048e-01,-2.236741822673176949e-01,-1.690362140798812862e-01,-1.143982458924449191e-01,-5.976027770500853820e-02,-5.122309517572160714e-03,0.000000000000000000e+00,0.000000000000000000e+00,0.000000000000000000e+00,0.000000000000000000e+00,0.000000000000000000e+00,0.000000000000000000e+00,0.000000000000000000e+00,0.000000000000000000e+00
0.000000000000000000e+00,0.000000000000000000e+00,0.000000000000000000e+00,0.000000000000000000e+00,0.000000000000000000e+00,0.000000000000000000e+00,0.000000000000000000e+00,0.000000000000000000e+00,0.000000000000000000e+00,0.000000000000000000e+00,0.000000000000000000e+00,0.000000000000000000e+00,0.000000000000000000e+00,0.000000000000000000e+00,0.000000000000000000e+00,-1.600721724241300353e-02,-3.308158230098687258e-02,-5.015594735956073469e-02,-6.723031241813461067e-02,-8.430467747670848666e-02,-1.013790425352823488e-01,-1.184534075938562109e-01,-1.355277726524300730e-01,-1.526021377110039490e-01,-1.696765027695778250e-01,-1.867508678281517009e-01,-2.038252328867255492e-01,-2.208995979452994529e-01,-2.379739630038732734e-01,-2.550483280624472049e-01,-2.721226931210210531e-01,-2.731898409371819048e-01,-2.731898409371819048e-01,-2.731898409371819048e-01,-2.219667457614603046e-01,-1.673287775740239236e-01,-1.126908093865875427e-01,-5.805284119915115476e-02,-3.414873011714773809e-03,0.000000000000000000e+00,0.000000000000000000e+00,0.000000000000000000e+00,0.000000000000000000e+00,0.000000000000000000e+00,0.000000000000000000e+00,0.000000000000000000e+00,0.000000000000000000e+00
0.000000000000000000e+00,0.000000000000000000e+00,0.000000000000000000e+00,0.000000000000000000e+00,0.000000000000000000e+00,0.000000000000000000e+00,0.000000000000000000e+00,0.000000000000000000e+00,0.000000000000000000e+00,0.000000000000000000e+00,0.000000000000000000e+00,0.000000000000000000e+00,0.000000000000000000e+00,0.000000000000000000e+00,0.000000000000000000e+00,-1.654079115049343629e-02,-3.361515620906730534e-02,-5.068952126764117438e-02,-6.776388632621505037e-02,-8.483825138478892636e-02,-1.019126164433627885e-01,-1.189869815019366367e-01,-1.360613465605105266e-01,-1.531357116190844025e-01,-1.702100766776582785e-01,-1.872844417362321268e-01,-2.043588067948060027e-01,-2.214331718533798787e-01,-2.385075369119537270e-01,-2.555819019705276030e-01,-2.726562670291014512e-01,-2.731898409371819048e-01,-2.731898409371819048e-01,-2.731898409371819048e-01,-2.202593092556028864e-01,-1.656213410681665332e-01,-1.109833728807301384e-01,-5.634540469329377133e-02,-1.707436505857386905e-03,0.000000000000000000e+00,0.000000000000000000e+00,0.000000000000000000e+00,0.000000000000000000e+00,0.000000000000000000e+00,0.000000000000000000e+00,0.000000000000000000e+00,0.000000000000000000e+00
0.000000000000000000e+00,0.000000000000000000e+00,0.000000000000000000e+00,0.000000000000000000e+00,0.000000000000000000e+00,0.000000000000000000e+00,0.000000000000000000e+00,0.000000000000000000e+00,0.000000000000000000e+00,0.000000000000000000e+00,0.000000000000000000e+00,0.000000000000000000e+00,0.000000000000000000e+00,0.000000000000000000e+00,0.000000000000000000e+00,-1.707436505857386905e-02,-3.414873011714773809e-02,-5.122309517572160714e-02,-6.829746023429547619e-02,-8.537182529286935218e-02,-1.024461903514432143e-01,-1.195205554100170764e-01,-1.365949204685909524e-01,-1.536692855271648284e-01,-1.707436505857387044e-01,-1.878180156443125526e-01,-2.048923807028864286e-01,-2.219667457614603046e-01,-2.390411108200341528e-01,-2.561154758786080565e-01,-2.731898409371819048e-01,-2.731898409371819048e-01,-2.731898409371819048e-01,-2.731898409371819048e-01,-2.185518727497455238e-01,-1.639139045623091429e-01,-1.092759363748727619e-01,-5.463796818743638095e-02,0.000000000000000000e+00,0.000000000000000000e+00,0.000000000000000000e+00,0.000000000000000000e+00,0.000000000000000000e+00,0.000000000000000000e+00,0.000000000000000000e+00,0.000000000000000000e+00,0.000000000000000000e+00
0.000000000000000000e+00,0.000000000000000000e+00,0.000000000000000000e+00,0.000000000000000000e+00,0.000000000000000000e+00,0.000000000000000000e+00,0.000000000000000000e+00,0.000000000000000000e+00,0.000000000000000000e+00,0.000000000000000000e+00,0.000000000000000000e+00,0.000000000000000000e+00,0.000000000000000000e+00,0.000000000000000000e+00,-5.335739080804334077e-04,-1.760793896665430180e-02,-3.468230402522817085e-02,-5.175666908380204684e-02,-6.883103414237591589e-02,-8.590539920094977799e-02,-1.029797642595236401e-01,-1.200541293180975022e-01,-1.371284943766714060e-01,-1.542028594352452819e-01,-1.712772244938191579e-01,-1.883515895523929784e-01,-2.054259546109668544e-01,-2.225003196695407581e-01,-2.395746847281145786e-01,-2.566490497866884546e-01,-2.731898409371819048e-01,-2.731898409371819603e-01,-2.731898409371819048e-01,-2.714824044313245421e-01,-2.168444362438881057e-01,-1.622064680564517802e-01,-1.075684998690153715e-01,-5.293053168157899058e-02,0.000000000000000000e+00,0.000000000000000000e+00,0.000000000000000000e+00,0.000000000000000000e+00,0.000000000000000000e+00,0.000000000000000000e+00,0.000000000000000000e+00,0.000000000000000000e+00,0.000000000000000000e+00
0.000000000000000000e+00,0.000000000000000000e+00,0.000000000000000000e+00,0.000000000000000000e+00,0.000000000000000000e+00,0.000000000000000000e+00,0.000000000000000000e+00,0.000000000000000000e+00,0.000000000000000000e+00,0.000000000000000000e+00,0.000000000000000000e+00,0.000000000000000000e+00,0.000000000000000000e+00,0.000000000000000000e+00,-1.067147816160866815e-03,-1.814151287473473803e-02,-3.521587793330861055e-02,-5.229024299188247266e-02,-6.936460805045634170e-02,-8.643897310903023157e-02,-1.035133381676040798e-01,-1.205877032261779419e-01,-1.376620682847518040e-01,-1.547364333433257078e-01,-1.718107984018995560e-01,-1.888851634604734320e-01,-2.059595285190472802e-01,-2.230338935776211562e-01,-2.401082586361950044e-01,-2.571826236947689637e-01,-2.731898409371819048e-01,-2.731898409371819048e-01,-2.731898409371819603e-01,-2.697749679254671240e-01,-2.151369997380307431e-01,-1.604990315505943343e-01,-1.058610633631579812e-01,-5.122309517572160714e-02,0.000000000000000000e+00,0.000000000000000000e+00,0.000000000000000000e+00,0.000000000000000000e+00,0.000000000000000000e+00,0.000000000000000000e+00,0.000000000000000000e+00,0.000000000000000000e+00,0.000000000000000000e+00
0.000000000000000000e+00,0.000000000000000000e+00,0.000000000000000000e+00,0.000000000000000000e+00,0.000000000000000000e+00,0.000000000000000000e+00,0.000000000000000000e+00,0.000000000000000000e+00,0.000000000000000000e+00,0.000000000000000000e+00,0.000000000000000000e+00,0.000000000000000000e+00,0.000000000000000000e+00,0.000000000000000000e+00,-1.600721724241300006e-03,-1.867508678281517079e-02,-3.574945184138903637e-02,-5.282381689996290541e-02,-6.989818195853678140e-02,-8.697254701711065739e-02,-1.040469120756845056e-01,-1.211212771342583816e-01,-1.381956421928322298e-01,-1.552700072514061336e-01,-1.723443723099799818e-01,-1.894187373685538578e-01,-2.064931024271277338e-01,-2.235674674857016098e-01,-2.406418325442754580e-01,-2.577161976028493617e-01,-2.731898409371819048e-01,-2.731898409371819048e-01,-2.731898409371819048e-01,-2.680675314196097614e-01,-2.134295632321733804e-01,-1.587915950447369717e-01,-1.041536268573006047e-01,-4.951565866986422371e-02,0.000000000000000000e+00,0.000000000000000000e+00,0.000000000000000000e+00,0.000000000000000000e+00,0.000000000000000000e+00,0.000000000000000000e+00,0.000000000000000000e+00,0.000000000000000000e+00,0.000000000000000000e+00
0.000000000000000000e+00,0.000000000000000000e+00,0.000000000000000000e+00,0.000000000000000000e+00,0.000000000000000000e+00,0.000000000000000000e+00,0.000000000000000000e+00,0.000000000000000000e+00,0.000000000000000000e+00,0.000000000000000000e+00,0.000000000000000000e+00,0.000000000000000000e+00,0.000000000000000000e+00,0.000000000000000000e+00,-2.134295632321733631e-03,-1.920866069089560008e-02,-3.628302574946947606e-02,-5.335739080804333817e-02,-7.043175586661720722e-02,-8.750612092519108320e-02,-1.045804859837649592e-01,-1.216548510423388074e-01,-1.387292161009127112e-01,-1.558035811594865594e-01,-1.728779462180604354e-01,-1.899523112766342836e-01,-2.070266763352081874e-01,-2.241010413937820356e-01,-2.411754064523558838e-01,-2.582497715109298153e-01,-2.731898409371819048e-01,-2.731898409371819048e-01,-2.731898409371818492e-01,-2.663600949137523433e-01,-2.117221267263159901e-01,-1.570841585388796091e-01,-1.024461903514432143e-01,-4.780822216400683333e-02,0.000000000000000000e+00,0.000000000000000000e+00,0.000000000000000000e+00,0.000000000000000000e+00,0.000000000000000000e+00,0.000000000000000000e+00,0.000000000000000000e+00,0.000000000000000000e+00,0.000000000000000000e+00
0.000000000000000000e+00,0.000000000000000000e+00,0.000000000000000000e+00,0.000000000000000000e+00,0.000000000000000000e+00,0.000000000000000000e+00,0.000000000000000000e+00,0.000000000000000000e+00,0.000000000000000000e+00,0.000000000000000000e+00,0.000000000000000000e+00,0.000000000000000000e+00,0.000000000000000000e+00,0.000000000000000000e+00,-2.667869540402167255e-03,-1.974223459897603283e-02,-3.681659965754990188e-02,-5.389096471612377093e-02,-7.096532977469763304e-02,-8.803969483327152290e-02,-1.051140598918453711e-01,-1.221884249504192332e-01,-1.392627900089931092e-01,-1.563371550675670130e-01,-1.734115201261408612e-01,-1.904858851847147372e-01,-2.075602502432885854e-01,-2.246346153018624614e-01,-2.417089803604363374e-01,-2.587833454190102134e-01,-2.731898409371819048e-01,-2.731898409371819048e-01,-2.731898409371819048e-01,-2.646526584078949806e-01,-2.100146902204585719e-01,-1.553767220330221910e-01,-1.007387538455858239e-01,-4.610078565814944296e-02,0.000000000000000000e+00,0.000000000000000000e+00,0.000000000000000000e+00,0.000000000000000000e+00,0.000000000000000000e+00,0.000000000000000000e+00,0.000000000000000000e+00,0.000000000000000000e+00,0.000000000000000000e+00
0.000000000000000000e+00,0.000000000000000000e+00,0.000000000000000000e+00,0.000000000000000000e+00,0.000000000000000000e+00,0.000000000000000000e+00,0.000000000000000000e+00,0.000000000000000000e+00,0.000000000000000000e+00,0.000000000000000000e+00,0.000000000000000000e+00,0.000000000000000000e+00,0.000000000000000000e+00,0.000000000000000000e+00,-3.201443448482600013e-03,-2.027580850705646906e-02,-3.735017356563034158e-02,-5.442453862420421062e-02,-7.149890368277808661e-02,-8.857326874135194872e-02,-1.056476337999258108e-01,-1.227219988584996868e-01,-1.397963639170735628e-01,-1.568707289756474110e-01,-1.739450940342212870e-01,-1.910194590927951630e-01,-2.080938241513690112e-01,-2.251681892099428872e-01,-2.422425542685167632e-01,-2.593169193270906669e-01,-2.731898409371819048e-01,-2.731898409371819048e-01,-2.731898409371819048e-01,-2.629452219020375625e-01,-2.083072537146011816e-01,-1.536692855271648284e-01,-9.903131733972843354e-02,-4.439334915229205952e-02,0.000000000000000000e+00,0.000000000000000000e+00,0.000000000000000000e+00,0.000000000000000000e+00,0.000000000000000000e+00,0.000000000000000000e+00,0.000000000000000000e+00,0.000000000000000000e+00,0.000000000000000000e+00
0.000000000000000000e+00,0.000000000000000000e+00,0.000000000000000000e+00,0.000000000000000000e+00,0.000000000000000000e+00,0.000000000000000000e+00,0.000000000000000000e+00,0.000000000000000000e+00,0.000000000000000000e+00,0.000000000000000000e+00,0.000000000000000000e+00,0.000000000000000000e+00,0.000000000000000000e+00,0.000000000000000000e+00,-3.735017356563033637e-03,-2.080938241513690182e-02,-3.788374747371077433e-02,-5.495811253228464338e-02,-7.203247759085851243e-02,-8.910684264943238841e-02,-1.061812077080062505e-01,-1.232555727665801126e-01,-1.403299378251539886e-01,-1.574043028837278646e-01,-1.744786679423017406e-01,-1.915530330008755888e-01,-2.086273980594494648e-01,-2.257017631180233408e-01,-2.427761281765971890e-01,-2.598504932351710650e-01,-2.731898409371819603e-01,-2.731898409371819048e-01,-2.731898409371819048e-01,-2.612377853961801999e-01,-2.065998172087438189e-01,-1.519618490213074657e-01,-9.732388083387105704e-02,-4.268591264643467609e-02,0.000000000000000000e+00,0.000000000000000000e+00,-1.497209157136910884e-01,-1.497209157136910884e-01,-1.497209157136910884e-01,-1.497209157136910884e-01,-1.497209157136910884e-01,0.000000000000000000e+00,0.000000000000000000e+00
0.000000000000000000e+00,0.000000000000000000e+00,0.000000000000000000e+00,0.000000000000000000e+00,0.000000000000000000e+00,0.000000000000000000e+00,0.000000000000000000e+00,0.000000000000000000e+00,0.000000000000000000e+00,0.000000000000000000e+00,0.000000000000000000e+00,0.000000000000000000e+00,0.000000000000000000e+00,0.000000000000000000e+00,-4.268591264643467262e-03,-2.134295632321733457e-02,-3.841732138179120015e-02,-5.549168644036507614e-02,-7.256605149893895212e-02,-8.964041655751281423e-02,-1.067147816160866625e-01,-1.237891466746605523e-01,-1.408635117332344144e-01,-1.579378767918082904e-01,-1.750122418503821664e-01,-1.920866069089560146e-01,-2.091609719675298629e-01,-2.262353370261037944e-01,-2.433097020846776426e-01,-2.603840671432515186e-01,-2.731898409371819048e-01,-2.731898409371819048e-01,-2.731898409371819048e-01,-2.595303488903227818e-01,-2.048923807028864286e-01,-1.502544125154500476e-01,-9.561644432801366666e-02,-4.097847614057728571e-02,0.000000000000000000e+00,0.000000000000000000e+00,-1.497209157136910884e-01,-1.497209157136910884e-01,-1.497209157136910884e-01,-1.497209157136910884e-01,-1.497209157136910884e-01,0.000000000000000000e+00,0.000000000000000000e+00
0.000000000000000000e+00,0.000000000000000000e+00,0.000000000000000000e+00,0.000000000000000000e+00,0.000000000000000000e+00,0.000000000000000000e+00,0.000000000000000000e+00,0.000000000000000000e+00,0.000000000000000000e+00,0.000000000000000000e+00,0.000000000000000000e+00,0.000000000000000000e+00,0.000000000000000000e+00,0.000000000000000000e+00,-4.802165172723900886e-03,-2.187653023129777080e-02,-3.895089528987163985e-02,-5.602526034844550196e-02,-7.309962540701936407e-02,-9.017399046559324005e-02,-1.072483555241671160e-01,-1.243227205827409781e-01,-1.413970856413148680e-01,-1.584714506998887440e-01,-1.755458157584626200e-01,-1.926201808170364682e-01,-2.096945458756103442e-01,-2.267689109341841924e-01,-2.438432759927580684e-01,-2.609176410513319722e-01,-2.731898409371819048e-01,-2.731898409371819048e-01,-2.731898409371819048e-01,-2.578229123844654191e-01,-2.031849441970290659e-01,-1.485469760095926572e-01,-9.390900782215626241e-02,-3.927103963471989534e-02,0.000000000000000000e+00,0.000000000000000000e+00,-1.497209157136910884e-01,-1.497209157136910884e-01,-1.497209157136910884e-01,-1.497209157136910884e-01,-1.497209157136910884e-01,0.000000000000000000e+00,0.000000000000000000e+00
0.000000000000000000e+00,0.000000000000000000e+00,0.000000000000000000e+00,0.000000000000000000e+00,0.000000000000000000e+00,0.000000000000000000e+00,0.000000000000000000e+00,0.000000000000000000e+00,0.000000000000000000e+00,0.000000000000000000e+00,0.000000000000000000e+00,0.000000000000000000e+00,0.000000000000000000e+00,0.000000000000000000e+00,-5.335739080804334511e-03,-2.241010413937820356e-02,-3.948446919795207261e-02,-5.655883425652594165e-02,-7.363319931509981764e-02,-9.070756437367369363e-02,-1.077819294322475419e-01,-1.248562944908214178e-01,-1.419306595493952938e-01,-1.590050246079691698e-01,-1.760793896665430458e-01,-1.931537547251168940e-01,-2.102281197836907700e-01,-2.273024848422646182e-01,-2.443768499008384942e-01,-2.614512149594123702e-01,-2.731898409371819048e-01,-2.731898409371819048e-01,-2.731898409371819048e-01,-2.561154758786080565e-01,-2.014775076911716478e-01,-1.468395395037352946e-01,-9.220157131629888592e-02,-3.756360312886251190e-02,0.000000000000000000e+00,0.000000000000000000e+00,-1.497209157136910884e-01,-1.497209157136910884e-01,-1.497209157136910884e-01,-1.497209157136910884e-01,-1.497209157136910884e-01,0.000000000000000000e+00,0.000000000000000000e+00
0.000000000000000000e+00,0.000000000000000000e+00,0.000000000000000000e+00,0.000000000000000000e+00,0.000000000000000000e+00,0.000000000000000000e+00,0.000000000000000000e+00,0.000000000000000000e+00,0.000000000000000000e+00,0.000000000000000000e+00,0.000000000000000000e+00,0.000000000000000000e+00,0.000000000000000000e+00,0.000000000000000000e+00,-5.869312988884767268e-03,-2.294367804745863632e-02,-4.001804310603250536e-02,-5.709240816460637441e-02,-7.416677322318024346e-02,-9.124113828175411944e-02,-1.083155033403279954e-01,-1.253898683989018437e-01,-1.424642334574757196e-01,-1.595385985160495956e-01,-1.766129635746234439e-01,-1.936873286331973198e-01,-2.107616936917711958e-01,-2.278360587503450718e-01,-2.449104238089189201e-01,-2.619847888674928238e-01,-2.731898409371819048e-01,-2.731898409371819048e-01,-2.731898409371819048e-01,-2.544080393727506384e-01,-1.997700711853142297e-01,-1.451321029978778765e-01,-9.049413481044149554e-02,-3.585616662300512847e-02,0.000000000000000000e+00,0.000000000000000000e+00,-1.497209157136910884e-01,-1.497209157136910884e-01,-1.497209157136910884e-01,-1.497209157136910884e-01,-1.497209157136910884e-01,0.000000000000000000e+00,0.000000000000000000e+00
0.000000000000000000e+00,0.000000000000000000e+00,0.000000000000000000e+00,0.000000000000000000e+00,0.000000000000000000e+00,0.000000000000000000e+00,0.000000000000000000e+00,0.000000000000000000e+00,0.000000000000000000e+00,0.000000000000000000e+00,0.000000000000000000e+00,0.000000000000000000e+00,0.000000000000000000e+00,0.000000000000000000e+00,-6.402886896965200025e-03,-2.347725195553906907e-02,-4.055161701411293812e-02,-5.762598207268680717e-02,-7.470034713126068315e-02,-9.177471218983454526e-02,-1.088490772484084212e-01,-1.259234423069822695e-01,-1.429978073655561732e-01,-1.600721724241300215e-01,-1.771465374827038974e-01,-1.942209025412777457e-01,-2.112952675998516217e-01,-2.283696326584254976e-01,-2.454439977169993736e-01,-2.625183627755732774e-01,-2.731898409371819048e-01,-2.731898409371819603e-01,-2.731898409371819048e-01,-2.527006028668932758e-01,-1.980626346794568948e-01,-1.434246664920205139e-01,-8.878669830458410517e-02,-3.414873011714773809e-02,0.000000000000000000e+00,0.000000000000000000e+00,0.000000000000000000e+00,0.000000000000000000e+00,0.000000000000000000e+00,0.000000000000000000e+00,0.000000000000000000e+00,0.000000000000000000e+00,0.000000000000000000e+00
0.000000000000000000e+00,0.000000000000000000e+00,0.000000000000000000e+00,0.000000000000000000e+00,0.000000000000000000e+00,0.000000000000000000e+00,0.000000000000000000e+00,0.000000000000000000e+00,0.000000000000000000e+00,0.000000000000000000e+00,0.000000000000000000e+00,0.000000000000000000e+00,0.000000000000000000e+00,0.000000000000000000e+00,-6.936460805045634517e-03,-2.401082586361950183e-02,-4.108519092219337088e-02,-5.815955598076723992e-02,-7.523392103934112285e-02,-9.230828609791498496e-02,-1.093826511564888332e-01,-1.264570162150627231e-01,-1.435313812736365713e-01,-1.606057463322104750e-01,-1.776801113907843233e-01,-1.947544764493581715e-01,-2.118288415079320475e-01,-2.289032065665059235e-01,-2.459775716250798272e-01,-2.630519366836536754e-01,-2.731898409371819048e-01,-2.731898409371819048e-01,-2.731898409371819048e-01,-2.509931663610358576e-01,-1.963551981735994767e-01,-1.417172299861630957e-01,-8.707926179872671479e-02,-3.244129361129034772e-02,0.000000000000000000e+00,0.000000000000000000e+00,0.000000000000000000e+00,0.000000000000000000e+00,0.000000000000000000e+00,0.000000000000000000e+00,0.000000000000000000e+00,0.000000000000000000e+00,0.000000000000000000e+00
0.000000000000000000e+00,0.000000000000000000e+00,0.000000000000000000e+00,0.000000000000000000e+00,0.000000000000000000e+00,0.000000000000000000e+00,0.000000000000000000e+00,0.000000000000000000e+00,0.000000000000000000e+00,0.000000000000000000e+00,0.000000000000000000e+00,0.000000000000000000e+00,0.000000000000000000e+00,0.000000000000000000e+00,-7.470034713126067275e-03,-2.454439977169993806e-02,-4.161876483027380363e-02,-5.869312988884767268e-02,-7.576749494742154867e-02,-9.284186000599541078e-02,-1.099162250645692729e-01,-1.269905901231431489e-01,-1.440649551817170249e-01,-1.611393202402909008e-01,-1.782136852988647768e-01,-1.952880503574385973e-01,-2.123624154160125288e-01,-2.294367804745863493e-01,-2.465111455331602530e-01,-2.635855105917341290e-01,-2.731898409371819048e-01,-2.731898409371819048e-01,-2.731898409371819048e-01,-2.492857298551784673e-01,-1.946477616677421141e-01,-1.400097934803057054e-01,-8.537182529286935218e-02,-3.073385710543296429e-02,0.000000000000000000e+00,0.000000000000000000e+00,0.000000000000000000e+00,0.000000000000000000e+00,0.000000000000000000e+00,0.000000000000000000e+00,0.000000000000000000e+00,0.000000000000000000e+00,0.000000000000000000e+00
0.000000000000000000e+00,0.000000000000000000e+00,0.000000000000000000e+00,0.000000000000000000e+00,0.000000000000000000e+00,0.000000000000000000e+00,0.000000000000000000e+00,0.000000000000000000e+00,0.000000000000000000e+00,0.000000000000000000e+00,0.000000000000000000e+00,0.000000000000000000e+00,0.000000000000000000e+00,0.000000000000000000e+00,-8.003608621206501766e-03,-2.507797367978036734e-02,-4.215233873835423639e-02,-5.922670379692811238e-02,-7.630106885550197449e-02,-9.337543391407585047e-02,-1.104497989726497265e-01,-1.275241640312235747e-01,-1.445985290897974784e-01,-1.616728941483713267e-01,-1.787472592069451749e-01,-1.958216242655190509e-01,-2.128959893240929546e-01,-2.299703543826667751e-01,-2.470447194412406788e-01,-2.641190844998145826e-01,-2.731898409371819048e-01,-2.731898409371819048e-01,-2.731898409371819048e-01,-2.475782933493210769e-01,-1.929403251618847237e-01,-1.383023569744483428e-01,-8.366438878701197568e-02,-2.902642059957557738e-02,0.000000000000000000e+00,0.000000000000000000e+00,0.000000000000000000e+00,0.000000000000000000e+00,0.000000000000000000e+00,0.000000000000000000e+00,0.000000000000000000e+00,0.000000000000000000e+00,0.000000000000000000e+00
0.000000000000000000e+00,0.000000000000000000e+00,0.000000000000000000e+00,0.000000000000000000e+00,0.000000000000000000e+00,0.000000000000000000e+00,0.000000000000000000e+00,0.000000000000000000e+00,0.000000000000000000e+00,0.000000000000000000e+00,0.000000000000000000e+00,0.000000000000000000e+00,0.000000000000000000e+00,0.000000000000000000e+00,-8.537182529286934524e-03,-2.561154758786080357e-02,-4.268591264643467609e-02,-5.976027770500854513e-02,-7.683464276358241418e-02,-9.390900782215627629e-02,-1.109833728807301523e-01,-1.280577379393040283e-01,-1.451321029978778765e-01,-1.622064680564517802e-01,-1.792808331150256285e-01,-1.963551981735994767e-01,-2.134295632321733527e-01,-2.305039282907472287e-01,-2.475782933493211047e-01,-2.646526584078949806e-01,-2.731898409371819048e-01,-2.731898409371819048e-01,-2.731898409371819048e-01,-2.458708568434637143e-01,-1.912328886560273333e-01,-1.365949204685909524e-01,-8.195695228115455755e-02,-2.731898409371819048e-02,0.000000000000000000e+00,0.000000000000000000e+00,0.000000000000000000e+00,0.000000000000000000e+00,0.000000000000000000e+00,0.000000000000000000e+00,0.000000000000000000e+00,0.000000000000000000e+00,0.000000000000000000e+00
0.000000000000000000e+00,0.000000000000000000e+00,0.000000000000000000e+00,0.000000000000000000e+00,0.000000000000000000e+00,0.000000000000000000e+00,0.000000000000000000e+00,0.000000000000000000e+00,0.000000000000000000e+00,0.000000000000000000e+00,0.000000000000000000e+00,0.000000000000000000e+00,0.000000000000000000e+00,0.000000000000000000e+00,-9.070756437367367281e-03,-2.614512149594123980e-02,-4.321948655451510884e-02,-6.029385161308897789e-02,-7.736821667166285388e-02,-9.444258173023672986e-02,-1.115169467888105781e-01,-1.285913118473844541e-01,-1.456656769059583301e-01,-1.627400419645322061e-01,-1.798144070231060543e-01,-1.968887720816799025e-01,-2.139631371402537785e-01,-2.310375021988276545e-01,-2.481118672574015305e-01,-2.651862323159753787e-01,-2.731898409371819048e-01,-2.731898409371819048e-01,-2.731898409371819048e-01,-2.441634203376063517e-01,-1.895254521501699430e-01,-1.348874839627335620e-01,-8.024951577529718105e-02,-2.561154758786080357e-02,0.000000000000000000e+00,0.000000000000000000e+00,0.000000000000000000e+00,0.000000000000000000e+00,0.000000000000000000e+00,0.000000000000000000e+00,0.000000000000000000e+00,0.000000000000000000e+00,0.000000000000000000e+00
0.000000000000000000e+00,0.000000000000000000e+00,0.000000000000000000e+00,0.000000000000000000e+00,0.000000000000000000e+00,0.000000000000000000e+00,0.000000000000000000e+00,0.000000000000000000e+00,0.000000000000000000e+00,0.000000000000000000e+00,0.000000000000000000e+00,0.000000000000000000e+00,0.000000000000000000e+00,0.000000000000000000e+00,-9.604330345447801773e-03,-2.667869540402166909e-02,-4.375306046259554160e-02,-6.082742552116941065e-02,-7.790179057974327970e-02,-9.497615563831715568e-02,-1.120505206968910039e-01,-1.291248857554648799e-01,-1.461992508140387559e-01,-1.632736158726126319e-01,-1.803479809311864801e-01,-1.974223459897603561e-01,-2.144967110483342321e-01,-2.315710761069080803e-01,-2.486454411654819840e-01,-2.657198062240558323e-01,-2.731898409371819048e-01,-2.731898409371819048e-01,-2.731898409371819048e-01,-2.424559838317489335e-01,-1.878180156443125526e-01,-1.331800474568761994e-01,-7.854207926943980456e-02,-2.390411108200341667e-02,0.000000000000000000e+00,0.000000000000000000e+00,0.000000000000000000e+00,0.000000000000000000e+00,0.000000000000000000e+00,0.000000000000000000e+00,0.000000000000000000e+00,0.000000000000000000e+00,0.000000000000000000e+00
0.000000000000000000e+00,0.000000000000000000e+00,0.000000000000000000e+00,0.000000000000000000e+00,0.000000000000000000e+00,0.000000000000000000e+00,0.000000000000000000e+00,0.000000000000000000e+00,0.000000000000000000e+00,0.000000000000000000e+00,0.000000000000000000e+00,0.000000000000000000e+00,0.000000000000000000e+00,0.000000000000000000e+00,-1.013790425352823453e-02,-2.721226931210210531e-02,-4.428663437067597436e-02,-6.136099942924984341e-02,-7.843536448782370551e-02,-9.550972954639758150e-02,-1.125840946049714297e-01,-1.296584596635453057e-01,-1.467328247221191817e-01,-1.638071897806930577e-01,-1.808815548392669337e-01,-1.979559198978407819e-01,-2.150302849564146579e-01,-2.321046500149885061e-01,-2.491790150735623821e-01,-2.662533801321362859e-01,-2.731898409371819048e-01,-2.731898409371819048e-01,-2.731898409371819048e-01,-2.407485473258915432e-01,-1.861105791384551622e-01,-1.314726109510188090e-01,-7.683464276358240030e-02,-2.219667457614602976e-02,0.000000000000000000e+00,0.000000000000000000e+00,0.000000000000000000e+00,0.000000000000000000e+00,0.000000000000000000e+00,0.000000000000000000e+00,0.000000000000000000e+00,0.000000000000000000e+00,0.000000000000000000e+00
0.000000000000000000e+00,0.000000000000000000e+00,0.000000000000000000e+00,0.000000000000000000e+00,0.000000000000000000e+00,0.000000000000000000e+00,0.000000000000000000e+00,0.000000000000000000e+00,0.000000000000000000e+00,0.000000000000000000e+00,0.000000000000000000e+00,0.000000000000000000e+00,0.000000000000000000e+00,0.000000000000000000e+00,-1.067147816160866902e-02,-2.774584322018253807e-02,-4.482020827875640712e-02,-6.189457333733027616e-02,-7.896893839590415909e-02,-9.604330345447800732e-02,-1.131176685130518833e-01,-1.301920335716257593e-01,-1.472663986301996353e-01,-1.643407636887734835e-01,-1.814151287473473595e-01,-1.984894938059212077e-01,-2.155638588644951115e-01,-2.326382239230689875e-01,-2.497125889816428357e-01,-2.667869540402166839e-01,-2.731898409371819048e-01,-2.731898409371819048e-01,-2.731898409371819048e-01,-2.390411108200341528e-01,-1.844031426325977718e-01,-1.297651744451614186e-01,-7.512720625772502381e-02,-2.048923807028864286e-02,0.000000000000000000e+00,0.000000000000000000e+00,0.000000000000000000e+00,0.000000000000000000e+00,0.000000000000000000e+00,0.000000000000000000e+00,0.000000000000000000e+00,0.000000000000000000e+00,0.000000000000000000e+00
0.000000000000000000e+00,0.000000000000000000e+00,0.000000000000000000e+00,0.000000000000000000e+00,0.000000000000000000e+00,0.000000000000000000e+00,0.000000000000000000e+00,0.000000000000000000e+00,0.000000000000000000e+00,0.000000000000000000e+00,0.000000000000000000e+00,0.000000000000000000e+00,0.000000000000000000e+00,0.000000000000000000e+00,-1.120505206968910178e-02,-2.827941712826297083e-02,-4.535378218683683987e-02,-6.242814724541070892e-02,-7.950251230398458491e-02,-9.657687736255846089e-02,-1.136512424211323091e-01,-1.307256074797061851e-01,-1.477999725382800611e-01,-1.648743375968539371e-01,-1.819487026554277853e-01,-1.990230677140016613e-01,-2.160974327725755373e-01,-2.331717978311493855e-01,-2.502461628897232893e-01,-2.673205279482971375e-01,-2.731898409371819048e-01,-2.731898409371819048e-01,-2.731898409371819048e-01,-2.373336743141767624e-01,-1.826957061267404092e-01,-1.280577379393040283e-01,-7.341976975186763343e-02,-1.878180156443125595e-02,0.000000000000000000e+00,0.000000000000000000e+00,0.000000000000000000e+00,0.000000000000000000e+00,0.000000000000000000e+00,0.000000000000000000e+00,0.000000000000000000e+00,0.000000000000000000e+00,0.000000000000000000e+00
0.000000000000000000e+00,0.000000000000000000e+00,0.000000000000000000e+00,0.000000000000000000e+00,0.000000000000000000e+00,0.000000000000000000e+00,0.000000000000000000e+00,0.000000000000000000e+00,0.000000000000000000e+00,0.000000000000000000e+00,0.000000000000000000e+00,0.000000000000000000e+00,0.000000000000000000e+00,0.000000000000000000e+00,-1.173862597776953454e-02,-2.881299103634340358e-02,-4.588735609491727263e-02,-6.296172115349113474e-02,-8.003608621206501073e-02,-9.711045127063888671e-02,-1.141848163292127488e-01,-1.312591813877866109e-01,-1.483335464463604869e-01,-1.654079115049343629e-01,-1.824822765635082389e-01,-1.995566416220820871e-01,-2.166310066806559631e-01,-2.337053717392298113e-01,-2.507797367978036873e-01,-2.678541018563775911e-01,-2.731898409371819048e-01,-2.731898409371819048e-01,-2.731898409371819048e-01,-2.356262378083193720e-01,-1.809882696208830188e-01,-1.263503014334466379e-01,-7.171233324601025694e-02,-1.707436505857386905e-02,0.000000000000000000e+00,0.000000000000000000e+00,0.000000000000000000e+00,0.000000000000000000e+00,0.000000000000000000e+00,0.000000000000000000e+00,0.000000000000000000e+00,0.000000000000000000e+00,0.000000000000000000e+00
0.000000000000000000e+00,0.000000000000000000e+00,0.000000000000000000e+00,0.000000000000000000e+00,0.000000000000000000e+00,0.000000000000000000e+00,0.000000000000000000e+00,0.000000000000000000e+00,0.000000000000000000e+00,0.000000000000000000e+00,0.000000000000000000e+00,0.000000000000000000e+00,0.000000000000000000e+00,0.000000000000000000e+00,-8.820643667954665076e-03,-2.200992370831787726e-02,-3.626635156484196015e-02,-5.158992723752690857e-02,-6.798065072637271555e-02,-8.543852203137941581e-02,-1.039635411525469399e-01,-1.235557080898753574e-01,-1.442150228433646542e-01,-1.659414854130147887e-01,-1.830158504715886647e-01,-2.000902155301625407e-01,-2.171645805887364167e-01,-2.342389456473102372e-01,-2.513133107058841409e-01,-2.683876757644579891e-01,-2.731898409371819048e-01,-2.731898409371819048e-01,-2.731898409371819048e-01,-2.339188013024619817e-01,-1.792808331150256285e-01,-1.246428649275892475e-01,-7.000489674015286656e-02,-1.536692855271648214e-02,0.000000000000000000e+00,0.000000000000000000e+00,0.000000000000000000e+00,0.000000000000000000e+00,0.000000000000000000e+00,0.000000000000000000e+00,0.000000000000000000e+00,0.000000000000000000e+00,0.000000000000000000e+00
