4.875071813064538184e-02,4.875071813064538184e-02,4.875071813064538184e-02,4.875071813064538184e-02,4.875071813064538184e-02,4.875071813064538184e-02,4.875071813064538184e-02,4.875071813064538184e-02,4.875071813064538184e-02,4.875071813064538184e-02,4.875071813064538184e-02,4.875071813064538184e-02,4.875071813064538184e-02,4.251247457838270433e-02,3.604318496862881499e-02,2.934284930138371730e-02,2.264251363413861615e-02,1.617322402438473028e-02,9.472888357139629123e-03,2.772552689894534905e-03,-3.696736919859361370e-03,-1.039707258710444865e-02,-1.709740825434954981e-02,-2.356669786410342526e-02,-3.026703353134851948e-02,-3.696736919859364146e-02,-4.343665880834751691e-02,-5.013699447559263889e-02,-5.683733014283771923e-02,-3.179049347293121108e-02,1.535012244457229641e-02,4.875071813064538184e-02,4.875071813064538184e-02,4.875071813064538184e-02,4.875071813064538184e-02,4.875071813064538184e-02,4.875071813064538184e-02,4.875071813064538184e-02,4.875071813064538184e-02,4.875071813064538184e-02,4.875071813064538184e-02,4.875071813064538184e-02,4.875071813064538184e-02,4.875071813064538184e-02,4.875071813064538184e-02,4.875071813064538184e-02,4.875071813064538184e-02
4.875071813064538184e-02,4.875071813064538184e-02,4.875071813064538184e-02,4.875071813064538184e-02,4.875071813064538184e-02,4.875071813064538184e-02,4.875071813064538184e-02,4.875071813064538184e-02,4.875071813064538184e-02,4.875071813064538184e-02,4.875071813064538184e-02,4.875071813064538184e-02,4.597816544075086082e-02,3.927782977350575966e-02,3.280854016375187032e-02,2.610820449650677263e-02,1.940786882926167495e-02,1.293857921950779255e-02,6.238243552262691394e-03,-4.620921149824097629e-04,-6.931381724736299099e-03,-1.363171739198139332e-02,-2.033205305922650141e-02,-2.680134266898037687e-02,-3.350167833622547109e-02,-4.020201400347057918e-02,-4.667130361322446852e-02,-5.337163928046956274e-02,-6.007197494771467083e-02,-6.677231061495976505e-02,-7.324160022471364051e-02,-4.776877238630772293e-02,1.067143978037529001e-02,4.875071813064538184e-02,4.875071813064538184e-02,4.875071813064538184e-02,4.875071813064538184e-02,4.875071813064538184e-02,4.875071813064538184e-02,4.875071813064538184e-02,4.875071813064538184e-02,4.875071813064538184e-02,4.875071813064538184e-02,4.875071813064538184e-02,4.875071813064538184e-02,4.875071813064538184e-02,4.875071813064538184e-02
4.875071813064538184e-02,4.875071813064538184e-02,4.875071813064538184e-02,4.875071813064538184e-02,4.875071813064538184e-02,4.875071813064538184e-02,4.875071813064538184e-02,4.875071813064538184e-02,4.875071813064538184e-02,4.875071813064538184e-02,4.875071813064538184e-02,4.875071813064538184e-02,4.274352063587391615e-02,3.604318496862881499e-02,2.934284930138371730e-02,2.287355969162983144e-02,1.617322402438473028e-02,9.472888357139636062e-03,3.003598747385739787e-03,-3.696736919859361370e-03,-1.039707258710444865e-02,-1.686636219685833105e-02,-2.356669786410342526e-02,-3.026703353134851948e-02,-3.673632314110243657e-02,-4.343665880834753079e-02,-5.013699447559263889e-02,-5.660628408534652822e-02,-6.330661975259159469e-02,-7.000695541983668890e-02,-7.647624502959060599e-02,-8.317658069683567246e-02,-8.987691636408076667e-02,-6.007197494771465696e-02,1.314074451981277203e-03,4.875071813064538184e-02,4.875071813064538184e-02,4.875071813064538184e-02,4.875071813064538184e-02,4.875071813064538184e-02,4.875071813064538184e-02,4.875071813064538184e-02,4.875071813064538184e-02,4.875071813064538184e-02,4.875071813064538184e-02,4.875071813064538184e-02,4.875071813064538184e-02
4.875071813064538184e-02,4.875071813064538184e-02,4.875071813064538184e-02,4.875071813064538184e-02,4.875071813064538184e-02,4.875071813064538184e-02,4.875071813064538184e-02,4.875071813064538184e-02,4.875071813064538184e-02,4.875071813064538184e-02,4.875071813064538184e-02,4.597816544075086082e-02,3.950887583099697148e-02,3.280854016375187032e-02,2.610820449650677263e-02,1.963891488675288677e-02,1.293857921950779255e-02,6.238243552262684455e-03,-4.620921149824097629e-04,-6.931381724736292160e-03,-1.363171739198139332e-02,-2.033205305922648753e-02,-2.680134266898037687e-02,-3.350167833622547109e-02,-4.020201400347059306e-02,-4.667130361322446852e-02,-5.337163928046956274e-02,-6.007197494771467083e-02,-6.654126455746854629e-02,-7.324160022471365439e-02,-7.994193589195874861e-02,-8.641122550171262406e-02,-9.311156116895771828e-02,-9.981189683620281250e-02,-1.062811864459567157e-01,-7.254846205224001199e-02,-3.884461841570964469e-03,4.875071813064538184e-02,4.875071813064538184e-02,4.875071813064538184e-02,4.875071813064538184e-02,4.875071813064538184e-02,4.875071813064538184e-02,4.875071813064538184e-02,4.875071813064538184e-02,4.875071813064538184e-02,4.875071813064538184e-02
4.875071813064538184e-02,4.875071813064538184e-02,4.875071813064538184e-02,4.875071813064538184e-02,4.875071813064538184e-02,4.875071813064538184e-02,4.875071813064538184e-02,4.875071813064538184e-02,4.875071813064538184e-02,4.875071813064538184e-02,4.875071813064538184e-02,4.274352063587391615e-02,3.604318496862881499e-02,2.957389535887492565e-02,2.287355969162982797e-02,1.617322402438473722e-02,9.703934414630847882e-03,3.003598747385739787e-03,-3.696736919859347492e-03,-1.016602652961323683e-02,-1.686636219685833105e-02,-2.356669786410342526e-02,-3.003598747385732848e-02,-3.673632314110242270e-02,-4.343665880834753079e-02,-4.990594841810140625e-02,-5.660628408534651435e-02,-6.330661975259160856e-02,-6.977590936234549790e-02,-7.647624502959060599e-02,-8.317658069683570021e-02,-8.964587030658957567e-02,-9.634620597383466989e-02,-1.030465416410797641e-01,-1.097468773083248583e-01,-1.162161669180787615e-01,-1.229165025853238558e-01,-8.502494915676539478e-02,-9.010796242157191605e-03,4.875071813064538184e-02,4.875071813064538184e-02,4.875071813064538184e-02,4.875071813064538184e-02,4.875071813064538184e-02,4.875071813064538184e-02,4.875071813064538184e-02,4.875071813064538184e-02
4.875071813064538184e-02,4.875071813064538184e-02,4.875071813064538184e-02,4.875071813064538184e-02,4.875071813064538184e-02,4.875071813064538184e-02,4.875071813064538184e-02,4.875071813064538184e-02,4.875071813064538184e-02,4.875071813064538184e-02,4.597816544075086082e-02,3.950887583099697148e-02,3.280854016375187032e-02,2.610820449650677263e-02,1.963891488675289024e-02,1.293857921950779255e-02,6.238243552262684455e-03,-2.310460574912048815e-04,-6.931381724736299099e-03,-1.363171739198139332e-02,-2.010100700173528265e-02,-2.680134266898037687e-02,-3.350167833622548497e-02,-3.997096794597937430e-02,-4.667130361322446852e-02,-5.337163928046956274e-02,-5.984092889022345207e-02,-6.654126455746856017e-02,-7.324160022471365439e-02,-7.971088983446752985e-02,-8.641122550171262406e-02,-9.311156116895771828e-02,-9.958085077871159374e-02,-1.062811864459567157e-01,-1.129815221132018099e-01,-1.194508117229556854e-01,-1.261511473902008074e-01,-1.328514830574459293e-01,-1.393207726671998048e-01,-9.712718978275028392e-02,-5.063759426682350184e-03,4.875071813064538184e-02,4.875071813064538184e-02,4.875071813064538184e-02,4.875071813064538184e-02,4.875071813064538184e-02,4.875071813064538184e-02
4.875071813064538184e-02,4.875071813064538184e-02,4.875071813064538184e-02,4.875071813064538184e-02,4.875071813064538184e-02,4.875071813064538184e-02,4.875071813064538184e-02,4.875071813064538184e-02,4.875071813064538184e-02,4.875071813064538184e-02,4.274352063587391615e-02,3.627423102612002681e-02,2.957389535887492565e-02,2.287355969162983144e-02,1.640427008187594210e-02,9.703934414630847882e-03,3.003598747385739787e-03,-3.465690862368142611e-03,-1.016602652961323683e-02,-1.686636219685833105e-02,-2.333565180661222038e-02,-3.003598747385731460e-02,-3.673632314110242270e-02,-4.343665880834751691e-02,-4.990594841810140625e-02,-5.660628408534651435e-02,-6.330661975259160856e-02,-6.977590936234549790e-02,-7.647624502959057824e-02,-8.317658069683570021e-02,-8.964587030658957567e-02,-9.634620597383466989e-02,-1.030465416410797364e-01,-1.095158312508336396e-01,-1.162161669180787338e-01,-1.229165025853238558e-01,-1.293857921950777590e-01,-1.360861278623228532e-01,-1.427864635295679474e-01,-1.309646069212676844e-01,-1.164472129755699525e-01,-6.896845152600902806e-02,1.772556472315389708e-03,4.875071813064538184e-02,4.875071813064538184e-02,4.875071813064538184e-02,4.875071813064538184e-02
4.875071813064538184e-02,4.875071813064538184e-02,4.875071813064538184e-02,4.875071813064538184e-02,4.875071813064538184e-02,4.875071813064538184e-02,4.875071813064538184e-02,4.875071813064538184e-02,4.875071813064538184e-02,4.620921149824206570e-02,3.950887583099697148e-02,3.280854016375187032e-02,2.633925055399798099e-02,1.963891488675288677e-02,1.293857921950779255e-02,6.469289609753903214e-03,-2.310460574912048815e-04,-6.931381724736299099e-03,-1.340067133449018844e-02,-2.010100700173528265e-02,-2.680134266898037687e-02,-3.327063227873426621e-02,-3.997096794597937430e-02,-4.667130361322446852e-02,-5.314059322297835786e-02,-5.984092889022343820e-02,-6.654126455746854629e-02,-7.301055416722244951e-02,-7.971088983446752985e-02,-8.641122550171262406e-02,-9.288051511146649952e-02,-9.958085077871159374e-02,-1.062811864459566880e-01,-1.127504760557105912e-01,-1.194508117229556854e-01,-1.261511473902008074e-01,-1.326204369999546828e-01,-1.393207726671998048e-01,-1.379730039985010703e-01,-1.234556100528033384e-01,-1.094388158983365666e-01,-9.492142195263886251e-02,-8.040402800694118612e-02,-4.120080685616696325e-02,1.416240130528154118e-02,4.875071813064538184e-02,4.875071813064538184e-02
4.875071813064538184e-02,4.875071813064538184e-02,4.875071813064538184e-02,4.875071813064538184e-02,4.875071813064538184e-02,4.875071813064538184e-02,4.875071813064538184e-02,4.875071813064538184e-02,4.875071813064538184e-02,4.297456669336512103e-02,3.627423102612002681e-02,2.957389535887492565e-02,2.287355969162983144e-02,1.640427008187594904e-02,9.703934414630847882e-03,3.003598747385739787e-03,-3.465690862368142611e-03,-1.016602652961323683e-02,-1.686636219685833105e-02,-2.333565180661222038e-02,-3.003598747385731460e-02,-3.673632314110242270e-02,-4.320561275085632591e-02,-4.990594841810140625e-02,-5.660628408534651435e-02,-6.307557369510040368e-02,-6.977590936234549790e-02,-7.647624502959057824e-02,-8.294553463934448145e-02,-8.964587030658957567e-02,-9.634620597383466989e-02,-1.028154955835885453e-01,-1.095158312508336673e-01,-1.162161669180787615e-01,-1.226854565278326370e-01,-1.293857921950777590e-01,-1.360861278623228532e-01,-1.425554174720767564e-01,-1.309646069212676844e-01,-1.164472129755699525e-01,-1.024304188211031807e-01,-8.791302487540550437e-02,-7.339563092970780023e-02,-5.937883677524104231e-02,-4.486144282954333817e-02,-1.304206859942570046e-02,2.638016496001205358e-02
4.875071813064538184e-02,4.875071813064538184e-02,4.875071813064538184e-02,4.875071813064538184e-02,4.875071813064538184e-02,4.875071813064538184e-02,4.875071813064538184e-02,4.875071813064538184e-02,4.620921149824206570e-02,3.950887583099697148e-02,3.303958622124308214e-02,2.633925055399798099e-02,1.963891488675288677e-02,1.316962527699900437e-02,6.469289609753896275e-03,-2.310460574911979426e-04,-6.700335667245094218e-03,-1.340067133449018844e-02,-2.010100700173528265e-02,-2.657029661148915811e-02,-3.327063227873426621e-02,-3.997096794597937430e-02,-4.644025755573326364e-02,-5.314059322297837173e-02,-5.984092889022346595e-02,-6.631021849997734141e-02,-7.301055416722243563e-02,-7.971088983446752985e-02,-8.641122550171262406e-02,-9.288051511146649952e-02,-9.958085077871162150e-02,-1.062811864459566880e-01,-1.127504760557106189e-01,-1.194508117229556854e-01,-1.261511473902008074e-01,-1.326204369999547106e-01,-1.393207726671998048e-01,-1.379730039985010426e-01,-1.239562098440342985e-01,-1.094388158983365666e-01,-9.492142195263889026e-02,-8.090462779817211847e-02,-6.638723385247441433e-02,-5.186983990677671019e-02,-3.785304575230993840e-02,-2.333565180661223426e-02,-8.818257860914516244e-03
4.875071813064538184e-02,4.875071813064538184e-02,4.875071813064538184e-02,4.875071813064538184e-02,4.875071813064538184e-02,4.875071813064538184e-02,4.875071813064538184e-02,4.875071813064538184e-02,4.297456669336512797e-02,3.627423102612002681e-02,2.957389535887492565e-02,2.310460574912104326e-02,1.640427008187594904e-02,9.703934414630847882e-03,3.234644804876958546e-03,-3.465690862368142611e-03,-1.016602652961323683e-02,-1.663531613936712616e-02,-2.333565180661222038e-02,-3.003598747385732848e-02,-3.650527708361121781e-02,-4.320561275085632591e-02,-4.990594841810140625e-02,-5.637523802785529559e-02,-6.307557369510038980e-02,-6.977590936234549790e-02,-7.624519897209938724e-02,-8.294553463934448145e-02,-8.964587030658957567e-02,-9.611515991634345113e-02,-1.028154955835885453e-01,-1.095158312508336673e-01,-1.159851208605875428e-01,-1.226854565278326370e-01,-1.293857921950777590e-01,-1.358550818048316344e-01,-1.425554174720767564e-01,-1.309646069212676844e-01,-1.169478127668009404e-01,-1.024304188211032085e-01,-8.791302487540550437e-02,-7.389623072093876033e-02,-5.937883677524104231e-02,-4.486144282954331042e-02,-3.084464867507656638e-02,-1.632725472937884836e-02,-1.809860783681144225e-03
4.875071813064538184e-02,4.875071813064538184e-02,4.875071813064538184e-02,4.875071813064538184e-02,4.875071813064538184e-02,4.875071813064538184e-02,4.875071813064538184e-02,4.620921149824206570e-02,3.973992188848818330e-02,3.303958622124308214e-02,2.633925055399797752e-02,1.986996094424409512e-02,1.316962527699899743e-02,6.469289609753896275e-03,6.938893903907228378e-18,-6.700335667245087279e-03,-1.340067133449018150e-02,-1.986996094424407777e-02,-2.657029661148915811e-02,-3.327063227873426621e-02,-3.997096794597937430e-02,-4.644025755573326364e-02,-5.314059322297834398e-02,-5.984092889022345207e-02,-6.631021849997734141e-02,-7.301055416722243563e-02,-7.971088983446755760e-02,-8.618017944422143306e-02,-9.288051511146652728e-02,-9.958085077871159374e-02,-1.060501403884654970e-01,-1.127504760557106189e-01,-1.194508117229557131e-01,-1.259201013327095886e-01,-1.326204369999547106e-01,-1.393207726671998048e-01,-1.384736037897320304e-01,-1.239562098440343263e-01,-1.094388158983365666e-01,-9.542202174386982261e-02,-8.090462779817211847e-02,-6.638723385247441433e-02,-5.237043969800767029e-02,-3.785304575230993840e-02,-2.333565180661223426e-02,-9.318857652145476345e-03,5.198536293552234733e-03
4.875071813064538184e-02,4.875071813064538184e-02,4.875071813064538184e-02,4.875071813064538184e-02,4.875071813064538184e-02,4.875071813064538184e-02,4.875071813064538184e-02,4.297456669336512103e-02,3.627423102612002681e-02,2.980494141636613747e-02,2.310460574912103979e-02,1.640427008187594904e-02,9.934980472122059703e-03,3.234644804876958546e-03,-3.465690862368149550e-03,-9.934980472122031947e-03,-1.663531613936712616e-02,-2.333565180661222038e-02,-2.980494141636610972e-02,-3.650527708361120394e-02,-4.320561275085629815e-02,-4.967490236061021525e-02,-5.637523802785529559e-02,-6.307557369510040368e-02,-6.954486330485427914e-02,-7.624519897209938724e-02,-8.294553463934448145e-02,-8.941482424909835691e-02,-9.611515991634345113e-02,-1.028154955835885453e-01,-1.092847851933424486e-01,-1.159851208605875705e-01,-1.226854565278326648e-01,-1.291547461375865680e-01,-1.358550818048316344e-01,-1.425554174720767564e-01,-1.309646069212676844e-01,-1.169478127668009126e-01,-1.024304188211032085e-01,-8.791302487540550437e-02,-7.389623072093874645e-02,-5.937883677524104231e-02,-4.486144282954331042e-02,-3.084464867507656638e-02,-1.632725472937886224e-02,-1.809860783681144225e-03,1.220693337078561369e-02
4.875071813064538184e-02,4.875071813064538184e-02,4.875071813064538184e-02,4.875071813064538184e-02,4.875071813064538184e-02,4.875071813064538184e-02,4.644025755573327752e-02,3.973992188848818330e-02,3.303958622124308214e-02,2.633925055399798099e-02,1.986996094424409512e-02,1.316962527699899743e-02,6.469289609753896275e-03,0.000000000000000000e+00,-6.700335667245087279e-03,-1.340067133449018150e-02,-1.986996094424406389e-02,-2.657029661148915811e-02,-3.327063227873428009e-02,-3.973992188848815554e-02,-4.644025755573324976e-02,-5.314059322297835786e-02,-5.960988283273224719e-02,-6.631021849997734141e-02,-7.301055416722243563e-02,-7.947984377697633884e-02,-8.618017944422140530e-02,-9.288051511146652728e-02,-9.934980472122037498e-02,-1.060501403884654692e-01,-1.127504760557106189e-01,-1.192197656654644944e-01,-1.259201013327096164e-01,-1.326204369999547106e-01,-1.390897266097085583e-01,-1.384736037897320304e-01,-1.239562098440343263e-01,-1.099394156895675545e-01,-9.542202174386982261e-02,-8.090462779817211847e-02,-6.688783364370537443e-02,-5.237043969800767029e-02,-3.785304575230993840e-02,-2.383625159784318048e-02,-9.318857652145476345e-03,5.198536293552234733e-03,1.921533044801899612e-02
4.875071813064538184e-02,4.875071813064538184e-02,4.875071813064538184e-02,4.875071813064538184e-02,4.875071813064538184e-02,4.875071813064538184e-02,4.297456669336512103e-02,3.650527708361123863e-02,2.980494141636613747e-02,2.310460574912103979e-02,1.663531613936715392e-02,9.934980472122059703e-03,3.234644804876951607e-03,-3.234644804876937729e-03,-9.934980472122031947e-03,-1.663531613936712616e-02,-2.310460574912101550e-02,-2.980494141636610972e-02,-3.650527708361121781e-02,-4.297456669336509327e-02,-4.967490236061020137e-02,-5.637523802785530946e-02,-6.284452763760918492e-02,-6.954486330485427914e-02,-7.624519897209938724e-02,-8.294553463934448145e-02,-8.941482424909835691e-02,-9.611515991634345113e-02,-1.028154955835885176e-01,-1.092847851933424208e-01,-1.159851208605875428e-01,-1.226854565278326648e-01,-1.291547461375865402e-01,-1.358550818048316622e-01,-1.425554174720767286e-01,-1.314652067124986445e-01,-1.169478127668009126e-01,-1.024304188211032085e-01,-8.841362466663646447e-02,-7.389623072093877421e-02,-5.937883677524102843e-02,-4.536204262077429827e-02,-3.084464867507655250e-02,-1.632725472937884836e-02,-2.310460574912104326e-03,1.220693337078562063e-02,2.672432731648333171e-02
4.875071813064538184e-02,4.875071813064538184e-02,4.875071813064538184e-02,4.875071813064538184e-02,4.875071813064538184e-02,4.644025755573327752e-02,3.973992188848818330e-02,3.303958622124308214e-02,2.657029661148919281e-02,1.986996094424409859e-02,1.316962527699900437e-02,6.700335667245108096e-03,6.938893903907228378e-18,-6.700335667245094218e-03,-1.316962527699896968e-02,-1.986996094424406389e-02,-2.657029661148915811e-02,-3.303958622124306133e-02,-3.973992188848816942e-02,-4.644025755573326364e-02,-5.290954716548715298e-02,-5.960988283273223332e-02,-6.631021849997734141e-02,-7.277950810973123075e-02,-7.947984377697633884e-02,-8.618017944422143306e-02,-9.264946905397530852e-02,-9.934980472122040274e-02,-1.060501403884654692e-01,-1.125194299982194002e-01,-1.192197656654645221e-01,-1.259201013327096164e-01,-1.323893909424634641e-01,-1.390897266097085583e-01,-1.384736037897320027e-01,-1.244568096352652586e-01,-1.099394156895675545e-01,-9.542202174386982261e-02,-8.140522758940307857e-02,-6.688783364370537443e-02,-5.237043969800767029e-02,-3.835364554354091238e-02,-2.383625159784316661e-02,-9.318857652145483284e-03,4.697936502321281571e-03,1.921533044801899612e-02,3.373272439371671066e-02
4.875071813064538184e-02,4.875071813064538184e-02,4.875071813064538184e-02,4.875071813064538184e-02,4.875071813064538184e-02,4.320561275085633285e-02,3.650527708361123863e-02,2.980494141636613747e-02,2.333565180661224814e-02,1.663531613936715392e-02,9.934980472122052764e-03,3.465690862368163427e-03,-3.234644804876937729e-03,-9.934980472122025008e-03,-1.663531613936712616e-02,-2.310460574912101550e-02,-2.980494141636610972e-02,-3.650527708361121781e-02,-4.297456669336509327e-02,-4.967490236061018749e-02,-5.637523802785530946e-02,-6.284452763760918492e-02,-6.954486330485427914e-02,-7.624519897209938724e-02,-8.271448858185326269e-02,-8.941482424909835691e-02,-9.611515991634345113e-02,-1.025844495260973543e-01,-1.092847851933424486e-01,-1.159851208605875428e-01,-1.224544104703414182e-01,-1.291547461375865680e-01,-1.358550818048316622e-01,-1.423243714145855099e-01,-1.314652067124986445e-01,-1.169478127668009126e-01,-1.029310186123341686e-01,-8.841362466663646447e-02,-7.389623072093876033e-02,-5.987943656647200241e-02,-4.536204262077429827e-02,-3.084464867507656638e-02,-1.682785452060980846e-02,-2.310460574912097387e-03,1.220693337078561369e-02,2.622372752525237855e-02,4.074112147095008962e-02
4.875071813064538184e-02,4.875071813064538184e-02,4.875071813064538184e-02,4.875071813064538184e-02,4.644025755573327752e-02,3.973992188848818330e-02,3.327063227873429396e-02,2.657029661148919281e-02,1.986996094424409859e-02,1.340067133449020925e-02,6.700335667245108096e-03,6.938893903907228378e-18,-6.469289609753882397e-03,-1.316962527699897662e-02,-1.986996094424406389e-02,-2.633925055399795323e-02,-3.303958622124306133e-02,-3.973992188848816942e-02,-4.620921149824203100e-02,-5.290954716548715298e-02,-5.960988283273224719e-02,-6.607917244248613653e-02,-7.277950810973121687e-02,-7.947984377697633884e-02,-8.594913338673021430e-02,-9.264946905397530852e-02,-9.934980472122040274e-02,-1.058190943309742782e-01,-1.125194299982193724e-01,-1.192197656654644666e-01,-1.259201013327096164e-01,-1.323893909424634918e-01,-1.390897266097085583e-01,-1.384736037897320304e-01,-1.244568096352652864e-01,-1.099394156895675545e-01,-9.542202174386982261e-02,-8.140522758940307857e-02,-6.688783364370537443e-02,-5.237043969800765641e-02,-3.835364554354089850e-02,-2.383625159784318048e-02,-9.318857652145476345e-03,4.697936502321288510e-03,1.921533044801899959e-02,3.373272439371671066e-02,4.774951854818346858e-02
4.875071813064538184e-02,4.875071813064538184e-02,4.875071813064538184e-02,4.875071813064538184e-02,4.320561275085633285e-02,3.650527708361123169e-02,2.980494141636613747e-02,2.333565180661224814e-02,1.663531613936715392e-02,9.934980472122059703e-03,3.465690862368156488e-03,-3.234644804876930790e-03,-9.934980472122031947e-03,-1.640427008187592128e-02,-2.310460574912101550e-02,-2.980494141636610972e-02,-3.627423102612001293e-02,-4.297456669336510715e-02,-4.967490236061020137e-02,-5.614419197036409070e-02,-6.284452763760917104e-02,-6.954486330485427914e-02,-7.601415291460816848e-02,-8.271448858185326269e-02,-8.941482424909835691e-02,-9.588411385885226013e-02,-1.025844495260973266e-01,-1.092847851933424208e-01,-1.157540748030963240e-01,-1.224544104703414460e-01,-1.291547461375865402e-01,-1.356240357473404157e-01,-1.423243714145855099e-01,-1.314652067124986445e-01,-1.174484125580318727e-01,-1.029310186123341408e-01,-8.841362466663646447e-02,-7.439683051216972043e-02,-5.987943656647198853e-02,-4.536204262077428440e-02,-3.134524846630751260e-02,-1.682785452060980846e-02,-2.310460574912097387e-03,1.170633357955466053e-02,2.622372752525237508e-02,4.074112147095008962e-02,4.875071813064538184e-02
4.875071813064538184e-02,4.875071813064538184e-02,4.875071813064538184e-02,4.644025755573327752e-02,3.997096794597938818e-02,3.327063227873429396e-02,2.657029661148919281e-02,2.010100700173531041e-02,1.340067133449021619e-02,6.700335667245108096e-03,2.310460574912187592e-04,-6.469289609753875459e-03,-1.316962527699896968e-02,-1.963891488675285901e-02,-2.633925055399795323e-02,-3.303958622124304745e-02,-3.950887583099695066e-02,-4.620921149824204488e-02,-5.290954716548713910e-02,-5.960988283273224719e-02,-6.607917244248612265e-02,-7.277950810973123075e-02,-7.947984377697633884e-02,-8.594913338673021430e-02,-9.264946905397530852e-02,-9.934980472122037498e-02,-1.058190943309742782e-01,-1.125194299982194002e-01,-1.192197656654644944e-01,-1.256890552752183976e-01,-1.323893909424634918e-01,-1.390897266097085860e-01,-1.389742035809629905e-01,-1.244568096352652586e-01,-1.099394156895675267e-01,-9.592262153510078271e-02,-8.140522758940307857e-02,-6.688783364370537443e-02,-5.287103948923861652e-02,-3.835364554354089850e-02,-2.383625159784319436e-02,-9.819457443376429506e-03,4.697936502321274632e-03,1.921533044801899959e-02,3.323212460248575750e-02,4.774951854818346858e-02,4.875071813064538184e-02
4.875071813064538184e-02,4.875071813064538184e-02,4.875071813064538184e-02,4.320561275085633285e-02,3.650527708361123863e-02,3.003598747385734929e-02,2.333565180661224814e-02,1.663531613936716086e-02,1.016602652961326458e-02,3.465690862368170366e-03,-3.234644804876937729e-03,-9.703934414630813188e-03,-1.640427008187592128e-02,-2.310460574912101550e-02,-2.957389535887490484e-02,-3.627423102611999906e-02,-4.297456669336510715e-02,-4.944385630311899649e-02,-5.614419197036409070e-02,-6.284452763760917104e-02,-6.931381724736307426e-02,-7.601415291460816848e-02,-8.271448858185326269e-02,-8.918377819160713815e-02,-9.588411385885223237e-02,-1.025844495260973266e-01,-1.090537391358512298e-01,-1.157540748030963240e-01,-1.224544104703414182e-01,-1.289237000800953215e-01,-1.356240357473404434e-01,-1.423243714145855376e-01,-1.319658065037296046e-01,-1.174484125580318727e-01,-1.029310186123341686e-01,-8.891422445786739681e-02,-7.439683051216970655e-02,-5.987943656647198853e-02,-4.586264241200523062e-02,-3.134524846630751260e-02,-1.682785452060980846e-02,-2.310460574912097387e-03,1.170633357955466747e-02,2.622372752525237855e-02,4.074112147095008962e-02,4.875071813064538184e-02,4.875071813064538184e-02
4.875071813064538184e-02,4.875071813064538184e-02,4.667130361322448934e-02,3.997096794597938818e-02,3.327063227873429396e-02,2.680134266898040463e-02,2.010100700173530347e-02,1.340067133449020925e-02,6.931381724736319916e-03,2.310460574912187592e-04,-6.469289609753875459e-03,-1.316962527699896968e-02,-1.963891488675285901e-02,-2.633925055399795323e-02,-3.303958622124304745e-02,-3.950887583099695066e-02,-4.620921149824204488e-02,-5.290954716548715298e-02,-5.937883677524105619e-02,-6.607917244248612265e-02,-7.277950810973123075e-02,-7.924879771948512008e-02,-8.594913338673021430e-02,-9.264946905397528076e-02,-9.911875866372918398e-02,-1.058190943309742782e-01,-1.125194299982194002e-01,-1.189887196079732756e-01,-1.256890552752183698e-01,-1.323893909424634918e-01,-1.388586805522173673e-01,-1.389742035809629905e-01,-1.244568096352652586e-01,-1.104400154807984868e-01,-9.592262153510078271e-02,-8.140522758940307857e-02,-6.738843343493633453e-02,-5.287103948923861652e-02,-3.835364554354089850e-02,-2.433685138907414058e-02,-9.819457443376429506e-03,4.697936502321281571e-03,1.871473065678804296e-02,3.323212460248575750e-02,4.774951854818346858e-02,4.875071813064538184e-02,4.875071813064538184e-02
4.875071813064538184e-02,4.875071813064538184e-02,4.320561275085633285e-02,3.673632314110245045e-02,3.003598747385734929e-02,2.333565180661225161e-02,1.686636219685836574e-02,1.016602652961327152e-02,3.465690862368170366e-03,-3.003598747385718970e-03,-9.703934414630813188e-03,-1.640427008187592128e-02,-2.287355969162979674e-02,-2.957389535887490484e-02,-3.627423102612001293e-02,-4.274352063587390227e-02,-4.944385630311898261e-02,-5.614419197036410458e-02,-6.261348158011798004e-02,-6.931381724736307426e-02,-7.601415291460816848e-02,-8.248344252436204393e-02,-8.918377819160713815e-02,-9.588411385885223237e-02,-1.023534034686061356e-01,-1.090537391358512298e-01,-1.157540748030963240e-01,-1.224544104703414182e-01,-1.289237000800953492e-01,-1.356240357473404434e-01,-1.423243714145855376e-01,-1.319658065037295769e-01,-1.174484125580318727e-01,-1.029310186123341408e-01,-8.891422445786742457e-02,-7.439683051216972043e-02,-5.987943656647200241e-02,-4.586264241200524450e-02,-3.134524846630751260e-02,-1.682785452060980846e-02,-2.811060366143050548e-03,1.170633357955466053e-02,2.622372752525237508e-02,4.024052167971913646e-02,4.875071813064538184e-02,4.875071813064538184e-02,4.875071813064538184e-02
4.875071813064538184e-02,4.667130361322448934e-02,3.997096794597938818e-02,3.327063227873429396e-02,2.680134266898040463e-02,2.010100700173530694e-02,1.340067133449020925e-02,6.931381724736319916e-03,2.310460574912187592e-04,-6.469289609753875459e-03,-1.293857921950775786e-02,-1.963891488675285901e-02,-2.633925055399795323e-02,-3.280854016375184257e-02,-3.950887583099696454e-02,-4.620921149824204488e-02,-5.267850110799594809e-02,-5.937883677524104231e-02,-6.607917244248612265e-02,-7.254846205224001199e-02,-7.924879771948512008e-02,-8.594913338673021430e-02,-9.241842299648408976e-02,-9.911875866372918398e-02,-1.058190943309742782e-01,-1.122883839407281814e-01,-1.189887196079732756e-01,-1.256890552752183698e-01,-1.321583448849723008e-01,-1.388586805522173950e-01,-1.389742035809629628e-01,-1.249574094264962187e-01,-1.104400154807984868e-01,-9.592262153510078271e-02,-8.190582738063403867e-02,-6.738843343493632065e-02,-5.287103948923861652e-02,-3.885424533477184472e-02,-2.433685138907414058e-02,-9.819457443376429506e-03,4.197336711090328409e-03,1.871473065678804296e-02,3.323212460248575750e-02,4.724891875695251542e-02,4.875071813064538184e-02,4.875071813064538184e-02,4.875071813064538184e-02
4.875071813064538184e-02,4.343665880834754467e-02,3.673632314110245045e-02,3.003598747385734929e-02,2.356669786410345996e-02,1.686636219685836574e-02,1.016602652961326458e-02,3.696736919859375248e-03,-3.003598747385725909e-03,-9.703934414630820127e-03,-1.617322402438470252e-02,-2.287355969162979674e-02,-2.957389535887490484e-02,-3.604318496862879417e-02,-4.274352063587390227e-02,-4.944385630311899649e-02,-5.614419197036409070e-02,-6.261348158011796616e-02,-6.931381724736307426e-02,-7.601415291460818235e-02,-8.248344252436204393e-02,-8.918377819160713815e-02,-9.588411385885223237e-02,-1.023534034686061356e-01,-1.090537391358512298e-01,-1.157540748030963518e-01,-1.222233644128502272e-01,-1.289237000800953492e-01,-1.356240357473404157e-01,-1.420933253570943189e-01,-1.319658065037296046e-01,-1.174484125580318727e-01,-1.034316184035651009e-01,-8.891422445786739681e-02,-7.439683051216972043e-02,-6.038003635770296251e-02,-4.586264241200524450e-02,-3.134524846630751260e-02,-1.732845431184076856e-02,-2.811060366143057487e-03,1.170633357955466747e-02,2.572312773402142191e-02,4.024052167971913646e-02,4.875071813064538184e-02,4.875071813064538184e-02,4.875071813064538184e-02,4.875071813064538184e-02
4.667130361322448934e-02,3.997096794597938818e-02,3.350167833622550578e-02,2.680134266898040463e-02,2.010100700173530694e-02,1.363171739198142107e-02,6.931381724736312977e-03,2.310460574912187592e-04,-6.238243552262663638e-03,-1.293857921950776479e-02,-1.963891488675285901e-02,-2.610820449650674835e-02,-3.280854016375184257e-02,-3.950887583099695066e-02,-4.597816544075084000e-02,-5.267850110799593422e-02,-5.937883677524104231e-02,-6.584812638499491777e-02,-7.254846205224001199e-02,-7.924879771948512008e-02,-8.571808732923899554e-02,-9.241842299648408976e-02,-9.911875866372918398e-02,-1.055880482734830872e-01,-1.122883839407281814e-01,-1.189887196079733034e-01,-1.254580092177271788e-01,-1.321583448849722731e-01,-1.388586805522173673e-01,-1.394748033721938951e-01,-1.249574094264962187e-01,-1.104400154807984868e-01,-9.642322132633174281e-02,-8.190582738063403867e-02,-6.738843343493632065e-02,-5.337163928046956274e-02,-3.885424533477185860e-02,-2.433685138907414058e-02,-9.819457443376429506e-03,4.197336711090328409e-03,1.871473065678804296e-02,3.323212460248575750e-02,4.724891875695251542e-02,4.875071813064538184e-02,4.875071813064538184e-02,4.875071813064538184e-02,4.875071813064538184e-02
4.343665880834754467e-02,3.673632314110245045e-02,3.026703353134855765e-02,2.356669786410345996e-02,1.686636219685835880e-02,1.016602652961326458e-02,3.696736919859368309e-03,-3.003598747385725909e-03,-9.703934414630820127e-03,-1.617322402438470252e-02,-2.287355969162979674e-02,-2.957389535887490484e-02,-3.604318496862879417e-02,-4.274352063587388839e-02,-4.944385630311899649e-02,-5.591314591287288582e-02,-6.261348158011798004e-02,-6.931381724736307426e-02,-7.578310685711696360e-02,-8.248344252436204393e-02,-8.918377819160713815e-02,-9.565306780136104137e-02,-1.023534034686061356e-01,-1.090537391358512298e-01,-1.155230287456051053e-01,-1.222233644128502272e-01,-1.289237000800953215e-01,-1.353929896898492247e-01,-1.420933253570943189e-01,-1.319658065037296046e-01,-1.179490123492628328e-01,-1.034316184035651009e-01,-8.891422445786739681e-02,-7.489743030340066665e-02,-6.038003635770294864e-02,-4.586264241200524450e-02,-3.184584825753847270e-02,-1.732845431184076856e-02,-2.811060366143050548e-03,1.120573378832370737e-02,2.572312773402142191e-02,4.024052167971913646e-02,4.875071813064538184e-02,4.875071813064538184e-02,4.875071813064538184e-02,4.875071813064538184e-02,4.875071813064538184e-02
4.020201400347060000e-02,3.350167833622550578e-02,2.680134266898040463e-02,2.033205305922651876e-02,1.363171739198142107e-02,6.931381724736319916e-03,4.620921149824236407e-04,-6.238243552262663638e-03,-1.293857921950776479e-02,-1.940786882926165413e-02,-2.610820449650673447e-02,-3.280854016375185644e-02,-3.927782977350574578e-02,-4.597816544075084000e-02,-5.267850110799593422e-02,-5.914779071774982355e-02,-6.584812638499491777e-02,-7.254846205224002587e-02,-7.901775166199390132e-02,-8.571808732923899554e-02,-9.241842299648408976e-02,-9.911875866372918398e-02,-1.055880482734830872e-01,-1.122883839407281814e-01,-1.189887196079732756e-01,-1.254580092177271788e-01,-1.321583448849722731e-01,-1.388586805522173673e-01,-1.394748033721939506e-01,-1.249574094264961910e-01,-1.104400154807984868e-01,-9.642322132633174281e-02,-8.190582738063403867e-02,-6.738843343493632065e-02,-5.337163928046957662e-02,-3.885424533477185860e-02,-2.433685138907414058e-02,-1.032005723460738961e-02,4.197336711090328409e-03,1.871473065678804296e-02,3.273152481125479740e-02,4.724891875695251542e-02,4.875071813064538184e-02,4.875071813064538184e-02,4.875071813064538184e-02,4.875071813064538184e-02,4.875071813064538184e-02
3.673632314110245045e-02,3.026703353134856112e-02,2.356669786410345996e-02,1.686636219685835880e-02,1.039707258710447640e-02,3.696736919859368309e-03,-3.003598747385725909e-03,-9.472888357139608306e-03,-1.617322402438470252e-02,-2.287355969162979674e-02,-2.934284930138369996e-02,-3.604318496862879417e-02,-4.274352063587388839e-02,-4.921281024562779161e-02,-5.591314591287288582e-02,-6.261348158011796616e-02,-6.908277118987186938e-02,-7.578310685711696360e-02,-8.248344252436204393e-02,-8.895273213411594715e-02,-9.565306780136101361e-02,-1.023534034686061356e-01,-1.088226930783600110e-01,-1.155230287456051330e-01,-1.222233644128502272e-01,-1.286926540226041304e-01,-1.353929896898492247e-01,-1.420933253570943189e-01,-1.324664062949605647e-01,-1.179490123492628328e-01,-1.034316184035651009e-01,-8.941482424909835691e-02,-7.489743030340066665e-02,-6.038003635770296251e-02,-4.636324220323620460e-02,-3.184584825753847270e-02,-1.732845431184076856e-02,-3.311660157374010649e-03,1.120573378832370737e-02,2.572312773402142538e-02,3.973992188848818330e-02,4.875071813064538184e-02,4.875071813064538184e-02,4.875071813064538184e-02,4.875071813064538184e-02,4.875071813064538184e-02,4.875071813064538184e-02
3.350167833622549884e-02,2.703238872647161645e-02,2.033205305922651529e-02,1.363171739198142107e-02,7.162427782227524797e-03,4.620921149824236407e-04,-6.238243552262663638e-03,-1.270753316201654604e-02,-1.940786882926165413e-02,-2.610820449650673447e-02,-3.280854016375184257e-02,-3.927782977350573190e-02,-4.597816544075084000e-02,-5.267850110799593422e-02,-5.914779071774982355e-02,-6.584812638499491777e-02,-7.254846205224001199e-02,-7.901775166199390132e-02,-8.571808732923899554e-02,-9.241842299648408976e-02,-9.888771260623796522e-02,-1.055880482734830872e-01,-1.122883839407281814e-01,-1.187576735504820846e-01,-1.254580092177271788e-01,-1.321583448849722731e-01,-1.386276344947261763e-01,-1.394748033721939229e-01,-1.249574094264961910e-01,-1.109406152720294747e-01,-9.642322132633171505e-02,-8.190582738063403867e-02,-6.788903322616726688e-02,-5.337163928046959049e-02,-3.885424533477185860e-02,-2.483745118030508681e-02,-1.032005723460738961e-02,4.197336711090328409e-03,1.821413086555708633e-02,3.273152481125479740e-02,4.724891875695251542e-02,4.875071813064538184e-02,4.875071813064538184e-02,4.875071813064538184e-02,4.875071813064538184e-02,4.875071813064538184e-02,4.875071813064538184e-02
3.026703353134855765e-02,2.356669786410345996e-02,1.709740825434957756e-02,1.039707258710446947e-02,3.696736919859375248e-03,-2.772552689894521027e-03,-9.472888357139608306e-03,-1.617322402438470252e-02,-2.264251363413859186e-02,-2.934284930138368608e-02,-3.604318496862879417e-02,-4.251247457838268351e-02,-4.921281024562779161e-02,-5.591314591287288582e-02,-6.238243552262676128e-02,-6.908277118987186938e-02,-7.578310685711694972e-02,-8.225239646687085293e-02,-8.895273213411594715e-02,-9.565306780136104137e-02,-1.021223574111149168e-01,-1.088226930783600110e-01,-1.155230287456051330e-01,-1.219923183553590362e-01,-1.286926540226041304e-01,-1.353929896898492247e-01,-1.418622792996031279e-01,-1.324664062949605647e-01,-1.179490123492628328e-01,-1.039322181947960611e-01,-8.941482424909835691e-02,-7.489743030340068053e-02,-6.038003635770294864e-02,-4.636324220323620460e-02,-3.184584825753847270e-02,-1.732845431184076856e-02,-3.311660157374003710e-03,1.120573378832370737e-02,2.572312773402142191e-02,3.973992188848818330e-02,4.875071813064538184e-02,4.875071813064538184e-02,4.875071813064538184e-02,4.875071813064538184e-02,4.875071813064538184e-02,4.875071813064538184e-02,4.875071813064538184e-02
2.703238872647161298e-02,2.033205305922651529e-02,1.363171739198142107e-02,7.162427782227531736e-03,4.620921149824305796e-04,-6.238243552262670577e-03,-1.270753316201655297e-02,-1.940786882926164025e-02,-2.610820449650673447e-02,-3.257749410626063769e-02,-3.927782977350574578e-02,-4.597816544075084000e-02,-5.244745505050472933e-02,-5.914779071774982355e-02,-6.584812638499491777e-02,-7.231741599474880711e-02,-7.901775166199390132e-02,-8.571808732923899554e-02,-9.218737693899287100e-02,-9.888771260623796522e-02,-1.055880482734830872e-01,-1.120573378832369904e-01,-1.187576735504820846e-01,-1.254580092177271788e-01,-1.319272988274810821e-01,-1.386276344947261485e-01,-1.394748033721939506e-01,-1.254580092177271511e-01,-1.109406152720294469e-01,-9.642322132633174281e-02,-8.240642717186499877e-02,-6.788903322616729463e-02,-5.337163928046957662e-02,-3.935484512600281870e-02,-2.483745118030508681e-02,-1.032005723460738267e-02,3.696736919859375248e-03,1.821413086555708979e-02,3.273152481125479740e-02,4.674831896572156226e-02,4.875071813064538184e-02,4.875071813064538184e-02,4.875071813064538184e-02,4.875071813064538184e-02,4.875071813064538184e-02,4.875071813064538184e-02,4.875071813064538184e-02
2.379774392159467178e-02,1.709740825434957756e-02,1.039707258710446947e-02,3.927782977350587068e-03,-2.772552689894514089e-03,-9.472888357139608306e-03,-1.594217796689348376e-02,-2.264251363413859186e-02,-2.934284930138369996e-02,-3.581213891113758929e-02,-4.251247457838266963e-02,-4.921281024562779161e-02,-5.568209985538166706e-02,-6.238243552262676128e-02,-6.908277118987185550e-02,-7.555206079962575871e-02,-8.225239646687085293e-02,-8.895273213411594715e-02,-9.565306780136104137e-02,-1.021223574111149168e-01,-1.088226930783599833e-01,-1.155230287456051330e-01,-1.219923183553590085e-01,-1.286926540226041304e-01,-1.353929896898492247e-01,-1.418622792996031001e-01,-1.324664062949605647e-01,-1.179490123492628328e-01,-1.039322181947960888e-01,-8.941482424909835691e-02,-7.489743030340066665e-02,-6.088063614893389486e-02,-4.636324220323619072e-02,-3.184584825753847270e-02,-1.782905410307172867e-02,-3.311660157374010649e-03,1.120573378832370737e-02,2.522252794279046528e-02,3.973992188848818330e-02,4.875071813064538184e-02,4.875071813064538184e-02,4.875071813064538184e-02,4.875071813064538184e-02,4.875071813064538184e-02,4.875071813064538184e-02,4.875071813064538184e-02,4.875071813064538184e-02
2.033205305922651876e-02,1.386276344947263289e-02,7.162427782227531736e-03,4.620921149824305796e-04,-6.007197494771451818e-03,-1.270753316201655297e-02,-1.940786882926165413e-02,-2.587715843901554347e-02,-3.257749410626063769e-02,-3.927782977350574578e-02,-4.574711938325963512e-02,-5.244745505050472933e-02,-5.914779071774982355e-02,-6.561708032750371289e-02,-7.231741599474879323e-02,-7.901775166199390132e-02,-8.548704127174777678e-02,-9.218737693899287100e-02,-9.888771260623796522e-02,-1.053570022159918684e-01,-1.120573378832369904e-01,-1.187576735504820846e-01,-1.252269631602359601e-01,-1.319272988274810821e-01,-1.386276344947261763e-01,-1.399754031634249107e-01,-1.254580092177271788e-01,-1.109406152720294747e-01,-9.692382111756267515e-02,-8.240642717186499877e-02,-6.788903322616729463e-02,-5.387223907170053672e-02,-3.935484512600280482e-02,-2.483745118030508681e-02,-1.082065702583834277e-02,3.696736919859375248e-03,1.821413086555708633e-02,3.273152481125479740e-02,4.674831896572156226e-02,4.875071813064538184e-02,4.875071813064538184e-02,4.875071813064538184e-02,4.875071813064538184e-02,4.875071813064538184e-02,4.875071813064538184e-02,4.875071813064538184e-02,4.875071813064538184e-02
1.709740825434957756e-02,1.062811864459568822e-02,3.927782977350580129e-03,-2.772552689894521027e-03,-9.241842299648396486e-03,-1.594217796689349764e-02,-2.264251363413859186e-02,-2.934284930138368608e-02,-3.581213891113758929e-02,-4.251247457838268351e-02,-4.921281024562777773e-02,-5.568209985538168094e-02,-6.238243552262677516e-02,-6.908277118987185550e-02,-7.555206079962575871e-02,-8.225239646687085293e-02,-8.895273213411594715e-02,-9.542202174386982261e-02,-1.021223574111148891e-01,-1.088226930783599833e-01,-1.152919826881139420e-01,-1.219923183553590362e-01,-1.286926540226041304e-01,-1.351619436323580059e-01,-1.418622792996030724e-01,-1.324664062949605647e-01,-1.184496121404937929e-01,-1.039322181947960611e-01,-8.941482424909838467e-02,-7.539803009463161287e-02,-6.088063614893390874e-02,-4.636324220323620460e-02,-3.234644804876941893e-02,-1.782905410307172867e-02,-3.311660157374017588e-03,1.070513399709274727e-02,2.522252794279046875e-02,3.973992188848818330e-02,4.875071813064538184e-02,4.875071813064538184e-02,4.875071813064538184e-02,4.875071813064538184e-02,4.875071813064538184e-02,4.875071813064538184e-02,4.875071813064538184e-02,4.875071813064538184e-02,4.875071813064538184e-02
1.386276344947263289e-02,7.162427782227531736e-03,6.931381724736423999e-04,-6.007197494771451818e-03,-1.270753316201655297e-02,-1.917682277177044925e-02,-2.587715843901552959e-02,-3.257749410626063769e-02,-3.904678371601452702e-02,-4.574711938325963512e-02,-5.244745505050474321e-02,-5.891674466025861867e-02,-6.561708032750371289e-02,-7.231741599474880711e-02,-7.878670560450271032e-02,-8.548704127174780454e-02,-9.218737693899287100e-02,-9.865666654874674646e-02,-1.053570022159918407e-01,-1.120573378832369904e-01,-1.185266274929908381e-01,-1.252269631602359878e-01,-1.319272988274810821e-01,-1.386276344947261763e-01,-1.399754031634248830e-01,-1.254580092177271511e-01,-1.109406152720294469e-01,-9.692382111756270291e-02,-8.240642717186499877e-02,-6.788903322616729463e-02,-5.387223907170052284e-02,-3.935484512600280482e-02,-2.483745118030508681e-02,-1.082065702583833583e-02,3.696736919859368309e-03,1.821413086555708633e-02,3.223092502002384424e-02,4.674831896572156226e-02,4.875071813064538184e-02,4.875071813064538184e-02,4.875071813064538184e-02,4.875071813064538184e-02,4.875071813064538184e-02,4.875071813064538184e-02,4.875071813064538184e-02,4.875071813064538184e-02,4.875071813064538184e-02
1.062811864459568129e-02,3.927782977350587068e-03,-2.772552689894521027e-03,-9.241842299648396486e-03,-1.594217796689349764e-02,-2.264251363413859186e-02,-2.911180324389248120e-02,-3.581213891113757541e-02,-4.251247457838268351e-02,-4.898176418813657285e-02,-5.568209985538166706e-02,-6.238243552262678904e-02,-6.885172513238065062e-02,-7.555206079962574484e-02,-8.225239646687085293e-02,-8.872168607662472839e-02,-9.542202174386985036e-02,-1.021223574111149168e-01,-1.085916470208688200e-01,-1.152919826881139143e-01,-1.219923183553590085e-01,-1.284616079651129394e-01,-1.351619436323580059e-01,-1.418622792996031001e-01,-1.329670060861915248e-01,-1.184496121404937929e-01,-1.039322181947960611e-01,-8.991542404032931701e-02,-7.539803009463161287e-02,-6.088063614893389486e-02,-4.686384199446715082e-02,-3.234644804876941893e-02,-1.782905410307171479e-02,-3.812259948604963811e-03,1.070513399709274727e-02,2.522252794279046528e-02,3.923932209725722320e-02,4.875071813064538184e-02,4.875071813064538184e-02,4.875071813064538184e-02,4.875071813064538184e-02,4.875071813064538184e-02,4.875071813064538184e-02,4.875071813064538184e-02,4.875071813064538184e-02,4.875071813064538184e-02,4.875071813064538184e-02
7.393473839718743557e-03,6.931381724736423999e-04,-6.007197494771451818e-03,-1.247648710452534115e-02,-1.917682277177043537e-02,-2.587715843901552959e-02,-3.234644804876943280e-02,-3.904678371601452702e-02,-4.574711938325962124e-02,-5.221640899301351058e-02,-5.891674466025861867e-02,-6.561708032750371289e-02,-7.231741599474880711e-02,-7.878670560450271032e-02,-8.548704127174780454e-02,-9.218737693899289876e-02,-9.865666654874674646e-02,-1.053570022159918684e-01,-1.120573378832369904e-01,-1.185266274929908381e-01,-1.252269631602359601e-01,-1.319272988274810821e-01,-1.383965884372349298e-01,-1.399754031634248830e-01,-1.254580092177271511e-01,-1.114412150632604070e-01,-9.692382111756267515e-02,-8.240642717186499877e-02,-6.838963301739824086e-02,-5.387223907170055059e-02,-3.935484512600281870e-02,-2.533805097153604691e-02,-1.082065702583834277e-02,3.696736919859375248e-03,1.771353107432612969e-02,3.223092502002384424e-02,4.674831896572156226e-02,4.875071813064538184e-02,4.875071813064538184e-02,4.875071813064538184e-02,4.875071813064538184e-02,4.875071813064538184e-02,4.875071813064538184e-02,4.875071813064538184e-02,4.875071813064538184e-02,4.875071813064538184e-02,4.875071813064538184e-02
3.334283417170029462e-02,8.678667534513594128e-03,-9.241842299648396486e-03,-1.594217796689348376e-02,-2.241146757664738698e-02,-2.911180324389248120e-02,-3.581213891113757541e-02,-4.228142852089147863e-02,-4.898176418813657285e-02,-5.568209985538166706e-02,-6.215138946513555640e-02,-6.885172513238065062e-02,-7.555206079962575871e-02,-8.202135040937963417e-02,-8.872168607662472839e-02,-9.542202174386982261e-02,-1.018913113536236981e-01,-1.085916470208688200e-01,-1.152919826881139143e-01,-1.217612722978677897e-01,-1.284616079651129394e-01,-1.351619436323580059e-01,-1.416312332421118814e-01,-1.329670060861914971e-01,-1.184496121404937929e-01,-1.044328179860270212e-01,-8.991542404032931701e-02,-7.539803009463162675e-02,-6.138123594016485496e-02,-4.686384199446713694e-02,-3.234644804876943280e-02,-1.832965389430267489e-02,-3.812259948604970750e-03,1.070513399709274727e-02,2.522252794279046528e-02,3.923932209725722320e-02,4.875071813064538184e-02,4.875071813064538184e-02,4.875071813064538184e-02,4.875071813064538184e-02,4.875071813064538184e-02,4.875071813064538184e-02,4.875071813064538184e-02,4.875071813064538184e-02,4.875071813064538184e-02,4.875071813064538184e-02,4.875071813064538184e-02
4.875071813064538184e-02,4.875071813064538184e-02,2.770386633105544408e-02,-4.317673199366975356e-03,-2.587715843901552959e-02,-3.234644804876943280e-02,-3.904678371601452702e-02,-4.574711938325963512e-02,-5.221640899301352445e-02,-5.891674466025861867e-02,-6.561708032750369901e-02,-7.208636993725758835e-02,-7.878670560450271032e-02,-8.548704127174780454e-02,-9.195633088150168000e-02,-9.865666654874674646e-02,-1.053570022159918684e-01,-1.118262918257457439e-01,-1.185266274929908659e-01,-1.252269631602359601e-01,-1.316962527699898355e-01,-1.383965884372349575e-01,-1.399754031634248830e-01,-1.259586090089581112e-01,-1.114412150632604070e-01,-9.692382111756267515e-02,-8.290702696309595887e-02,-6.838963301739822698e-02,-5.387223907170053672e-02,-3.985544491723376492e-02,-2.533805097153604691e-02,-1.082065702583834277e-02,3.196137128628415147e-03,1.771353107432612969e-02,3.223092502002384424e-02,4.624771917449060216e-02,4.875071813064538184e-02,4.875071813064538184e-02,4.875071813064538184e-02,4.875071813064538184e-02,4.875071813064538184e-02,4.875071813064538184e-02,4.875071813064538184e-02,4.875071813064538184e-02,4.875071813064538184e-02,4.875071813064538184e-02,4.875071813064538184e-02
4.875071813064538184e-02,4.875071813064538184e-02,4.875071813064538184e-02,4.875071813064538184e-02,2.198547640814799142e-02,-1.713350920083255013e-02,-4.228142852089147863e-02,-4.898176418813655897e-02,-5.545105379789046218e-02,-6.215138946513555640e-02,-6.885172513238063674e-02,-7.532101474213453995e-02,-8.202135040937963417e-02,-8.872168607662472839e-02,-9.519097568637860385e-02,-1.018913113536237258e-01,-1.085916470208688200e-01,-1.150609366306227233e-01,-1.217612722978678175e-01,-1.284616079651129117e-01,-1.351619436323580337e-01,-1.416312332421118814e-01,-1.329670060861914693e-01,-1.184496121404937929e-01,-1.044328179860270212e-01,-8.991542404032931701e-02,-7.539803009463161287e-02,-6.138123594016485496e-02,-4.686384199446715082e-02,-3.234644804876941893e-02,-1.832965389430267489e-02,-3.812259948604963811e-03,1.070513399709275421e-02,2.472192815155951212e-02,3.923932209725722320e-02,4.875071813064538184e-02,4.875071813064538184e-02,4.875071813064538184e-02,4.875071813064538184e-02,4.875071813064538184e-02,4.875071813064538184e-02,4.875071813064538184e-02,4.875071813064538184e-02,4.875071813064538184e-02,4.875071813064538184e-02,4.875071813064538184e-02,4.875071813064538184e-02
4.875071813064538184e-02,4.875071813064538184e-02,4.875071813064538184e-02,4.875071813064538184e-02,4.875071813064538184e-02,4.875071813064538184e-02,1.929234580051606904e-02,-3.012984993471312656e-02,-5.891674466025861867e-02,-6.538603427001249413e-02,-7.208636993725760223e-02,-7.878670560450271032e-02,-8.525599521425658578e-02,-9.195633088150168000e-02,-9.865666654874674646e-02,-1.051259561585006497e-01,-1.118262918257457439e-01,-1.185266274929908936e-01,-1.249959171027447413e-01,-1.316962527699898355e-01,-1.383965884372349575e-01,-1.404760029546558153e-01,-1.259586090089581112e-01,-1.114412150632604070e-01,-9.742442090879363525e-02,-8.290702696309595887e-02,-6.838963301739825473e-02,-5.437283886293148294e-02,-3.985544491723375105e-02,-2.533805097153604691e-02,-1.132125681706929593e-02,3.196137128628422086e-03,1.771353107432612969e-02,3.173032522879289108e-02,4.624771917449060216e-02,4.875071813064538184e-02,4.875071813064538184e-02,4.875071813064538184e-02,4.875071813064538184e-02,4.875071813064538184e-02,4.875071813064538184e-02,4.875071813064538184e-02,4.875071813064538184e-02,4.875071813064538184e-02,4.875071813064538184e-02,4.875071813064538184e-02,4.875071813064538184e-02
4.875071813064538184e-02,4.875071813064538184e-02,4.875071813064538184e-02,4.875071813064538184e-02,4.875071813064538184e-02,4.875071813064538184e-02,4.875071813064538184e-02,4.875071813064538184e-02,1.409380950696383777e-02,-3.945111431662413903e-02,-7.532101474213453995e-02,-8.202135040937963417e-02,-8.872168607662472839e-02,-9.519097568637860385e-02,-1.018913113536236981e-01,-1.085916470208688200e-01,-1.150609366306227233e-01,-1.217612722978677897e-01,-1.284616079651129117e-01,-1.349308975748667871e-01,-1.416312332421118814e-01,-1.329670060861914971e-01,-1.189502119317247253e-01,-1.044328179860270212e-01,-8.991542404032931701e-02,-7.589862988586257297e-02,-6.138123594016486884e-02,-4.686384199446716470e-02,-3.284704784000037903e-02,-1.832965389430267489e-02,-3.812259948604963811e-03,1.020453420586180104e-02,2.472192815155951212e-02,3.923932209725722320e-02,4.875071813064538184e-02,4.875071813064538184e-02,4.875071813064538184e-02,4.875071813064538184e-02,4.875071813064538184e-02,4.875071813064538184e-02,4.875071813064538184e-02,4.875071813064538184e-02,4.875071813064538184e-02,4.875071813064538184e-02,4.875071813064538184e-02,4.875071813064538184e-02,4.875071813064538184e-02
4.875071813064538184e-02,4.875071813064538184e-02,4.875071813064538184e-02,4.875071813064538184e-02,4.875071813064538184e-02,4.875071813064538184e-02,4.875071813064538184e-02,4.875071813064538184e-02,4.875071813064538184e-02,4.875071813064538184e-02,8.967475106377610639e-03,-5.175431687803108693e-02,-9.195633088150168000e-02,-9.842562049125555546e-02,-1.051259561585006497e-01,-1.118262918257457439e-01,-1.182955814354996471e-01,-1.249959171027447413e-01,-1.316962527699898633e-01,-1.381655423797437388e-01,-1.404760029546558431e-01,-1.259586090089581389e-01,-1.119418148544913671e-01,-9.742442090879363525e-02,-8.290702696309595887e-02,-6.889023280862918708e-02,-5.437283886293148294e-02,-3.985544491723376492e-02,-2.533805097153603303e-02,-1.132125681706928899e-02,3.196137128628415147e-03,1.771353107432613316e-02,3.173032522879289108e-02,4.624771917449060216e-02,4.875071813064538184e-02,4.875071813064538184e-02,4.875071813064538184e-02,4.875071813064538184e-02,4.875071813064538184e-02,4.875071813064538184e-02,4.875071813064538184e-02,4.875071813064538184e-02,4.875071813064538184e-02,4.875071813064538184e-02,4.875071813064538184e-02,4.875071813064538184e-02,4.875071813064538184e-02
4.875071813064538184e-02,4.875071813064538184e-02,4.875071813064538184e-02,4.875071813064538184e-02,4.875071813064538184e-02,4.875071813064538184e-02,4.875071813064538184e-02,4.875071813064538184e-02,4.875071813064538184e-02,4.875071813064538184e-02,4.875071813064538184e-02,4.875071813064538184e-02,3.768938812825389784e-03,-6.423080398255642809e-02,-1.083606009633776013e-01,-1.150609366306227233e-01,-1.217612722978677897e-01,-1.282305619076216929e-01,-1.349308975748667871e-01,-1.416312332421119091e-01,-1.334676058774224849e-01,-1.189502119317247530e-01,-1.044328179860270212e-01,-9.041602383156027711e-02,-7.589862988586257297e-02,-6.138123594016486884e-02,-4.736444178569811092e-02,-3.284704784000039290e-02,-1.832965389430267489e-02,-4.312859739835916972e-03,1.020453420586180104e-02,2.472192815155951212e-02,3.873872230602627004e-02,4.875071813064538184e-02,4.875071813064538184e-02,4.875071813064538184e-02,4.875071813064538184e-02,4.875071813064538184e-02,4.875071813064538184e-02,4.875071813064538184e-02,4.875071813064538184e-02,4.875071813064538184e-02,4.875071813064538184e-02,4.875071813064538184e-02,4.875071813064538184e-02,4.875071813064538184e-02,4.875071813064538184e-02
4.875071813064538184e-02,4.875071813064538184e-02,4.875071813064538184e-02,4.875071813064538184e-02,4.875071813064538184e-02,4.875071813064538184e-02,4.875071813064538184e-02,4.875071813064538184e-02,4.875071813064538184e-02,4.875071813064538184e-02,4.875071813064538184e-02,4.875071813064538184e-02,4.875071813064538184e-02,4.875071813064538184e-02,3.588434080410374261e-03,-7.653400654396338987e-02,-1.249959171027447413e-01,-1.316962527699898633e-01,-1.381655423797437665e-01,-1.404760029546558708e-01,-1.259586090089581112e-01,-1.119418148544913671e-01,-9.742442090879363525e-02,-8.290702696309595887e-02,-6.889023280862918708e-02,-5.437283886293148294e-02,-3.985544491723376492e-02,-2.583865076276700701e-02,-1.132125681706928899e-02,3.196137128628408208e-03,1.721293128309518000e-02,3.173032522879289108e-02,4.624771917449060216e-02,4.875071813064538184e-02,4.875071813064538184e-02,4.875071813064538184e-02,4.875071813064538184e-02,4.875071813064538184e-02,4.875071813064538184e-02,4.875071813064538184e-02,4.875071813064538184e-02,4.875071813064538184e-02,4.875071813064538184e-02,4.875071813064538184e-02,4.875071813064538184e-02,4.875071813064538184e-02,4.875071813064538184e-02
4.875071813064538184e-02,4.875071813064538184e-02,4.875071813064538184e-02,4.875071813064538184e-02,4.875071813064538184e-02,4.875071813064538184e-02,4.875071813064538184e-02,4.875071813064538184e-02,4.875071813064538184e-02,4.875071813064538184e-02,4.875071813064538184e-02,4.875071813064538184e-02,4.875071813064538184e-02,4.875071813064538184e-02,4.875071813064538184e-02,4.875071813064538184e-02,-1.025266880117232937e-03,-8.327044315769149829e-02,-1.414001871846206904e-01,-1.334676058774224849e-01,-1.189502119317247530e-01,-1.049334177772579813e-01,-9.041602383156024936e-02,-7.589862988586257297e-02,-6.188183573139582894e-02,-4.736444178569811092e-02,-3.284704784000037903e-02,-1.883025368553362111e-02,-4.312859739835923911e-03,1.020453420586180104e-02,2.422132836032855896e-02,3.873872230602627004e-02,4.875071813064538184e-02,4.875071813064538184e-02,4.875071813064538184e-02,4.875071813064538184e-02,4.875071813064538184e-02,4.875071813064538184e-02,4.875071813064538184e-02,4.875071813064538184e-02,4.875071813064538184e-02,4.875071813064538184e-02,4.875071813064538184e-02,4.875071813064538184e-02,4.875071813064538184e-02,4.875071813064538184e-02,4.875071813064538184e-02
