0.000000000000000000e+00,0.000000000000000000e+00,0.000000000000000000e+00,0.000000000000000000e+00,0.000000000000000000e+00,0.000000000000000000e+00,0.000000000000000000e+00,0.000000000000000000e+00,0.000000000000000000e+00,0.000000000000000000e+00,0.000000000000000000e+00,0.000000000000000000e+00,0.000000000000000000e+00,0.000000000000000000e+00,0.000000000000000000e+00,0.000000000000000000e+00,0.000000000000000000e+00,0.000000000000000000e+00,0.000000000000000000e+00,-2.115526132337890164e-03,-5.553256097386961680e-03,-8.726545295893796059e-03,-1.216427526094286844e-02,-1.533756445944970369e-02,-1.877529442449877434e-02,-2.194858362300560958e-02,-2.538631358805468197e-02,-2.855960278656151721e-02,-3.173289198506835246e-02,-3.517062195011742137e-02,-3.834391114862426009e-02,-4.178164111367332206e-02,-4.495493031218016078e-02,-4.839266027722923663e-02,-5.156594947573607535e-02,-5.500367944078514426e-02,-5.817696863929198298e-02,-5.923473170546092459e-02,-5.923473170546092459e-02,-1.851085365795653720e-02,0.000000000000000000e+00,0.000000000000000000e+00,0.000000000000000000e+00,0.000000000000000000e+00,0.000000000000000000e+00,0.000000000000000000e+00,0.000000000000000000e+00
0.000000000000000000e+00,0.000000000000000000e+00,0.000000000000000000e+00,0.000000000000000000e+00,0.000000000000000000e+00,0.000000000000000000e+00,0.000000000000000000e+00,0.000000000000000000e+00,0.000000000000000000e+00,0.000000000000000000e+00,0.000000000000000000e+00,0.000000000000000000e+00,0.000000000000000000e+00,0.000000000000000000e+00,0.000000000000000000e+00,0.000000000000000000e+00,0.000000000000000000e+00,-3.437729965049071516e-03,-6.611019163555906762e-03,-1.004874912860497828e-02,-1.322203832711181352e-02,-1.665976829216088417e-02,-1.983305749066772289e-02,-2.327078745571679180e-02,-2.644407665422362705e-02,-2.988180661927269943e-02,-3.305509581777953121e-02,-3.622838501628636299e-02,-3.966611498133543884e-02,-4.283940417984227061e-02,-4.627713414489134647e-02,-4.945042334339817824e-02,-5.288815330844724716e-02,-5.606144250695409281e-02,-5.923473170546091765e-02,-5.923473170546092459e-02,-5.923473170546092459e-02,-5.923473170546092459e-02,-5.923473170546093153e-02,-4.072387804750438045e-02,0.000000000000000000e+00,0.000000000000000000e+00,0.000000000000000000e+00,0.000000000000000000e+00,0.000000000000000000e+00,0.000000000000000000e+00,0.000000000000000000e+00
0.000000000000000000e+00,0.000000000000000000e+00,0.000000000000000000e+00,0.000000000000000000e+00,0.000000000000000000e+00,0.000000000000000000e+00,0.000000000000000000e+00,0.000000000000000000e+00,0.000000000000000000e+00,0.000000000000000000e+00,0.000000000000000000e+00,0.000000000000000000e+00,0.000000000000000000e+00,0.000000000000000000e+00,-1.322203832711181352e-03,-4.495493031218016598e-03,-7.933222996267088115e-03,-1.110651219477392336e-02,-1.454424215982299401e-02,-1.771753135832982926e-02,-2.115526132337890164e-02,-2.432855052188573688e-02,-2.776628048693480927e-02,-3.093956968544164451e-02,-3.437729965049071690e-02,-3.755058884899754867e-02,-4.072387804750438045e-02,-4.416160801255345630e-02,-4.733489721106028808e-02,-5.077262717610936393e-02,-5.394591637461619571e-02,-5.738364633966527850e-02,-5.923473170546091765e-02,-5.923473170546092459e-02,-5.923473170546092459e-02,-5.923473170546092459e-02,-5.923473170546092459e-02,-5.923473170546092459e-02,-5.923473170546092459e-02,-5.923473170546092459e-02,-9.255426828978268600e-03,0.000000000000000000e+00,0.000000000000000000e+00,0.000000000000000000e+00,0.000000000000000000e+00,0.000000000000000000e+00,0.000000000000000000e+00
0.000000000000000000e+00,0.000000000000000000e+00,0.000000000000000000e+00,0.000000000000000000e+00,0.000000000000000000e+00,0.000000000000000000e+00,0.000000000000000000e+00,0.000000000000000000e+00,0.000000000000000000e+00,0.000000000000000000e+00,0.000000000000000000e+00,0.000000000000000000e+00,-2.379966898880126434e-03,-5.817696863929197951e-03,-8.990986062436033197e-03,-1.242871602748510385e-02,-1.560200522599193909e-02,-1.903973519104101148e-02,-2.221302438954784672e-02,-2.565075435459691564e-02,-2.882404355310375435e-02,-3.226177351815282673e-02,-3.543506271665965851e-02,-3.887279268170872742e-02,-4.204608188021555920e-02,-4.521937107872239098e-02,-4.865710104377147377e-02,-5.183039024227830555e-02,-5.526812020732738140e-02,-5.844140940583421318e-02,-5.923473170546093153e-02,-5.923473170546091765e-02,-5.923473170546093153e-02,-5.923473170546092459e-02,-5.923473170546092459e-02,-5.923473170546092459e-02,-5.923473170546092459e-02,-5.923473170546091765e-02,-5.923473170546092459e-02,-5.923473170546092459e-02,-3.304790992738436406e-02,0.000000000000000000e+00,0.000000000000000000e+00,0.000000000000000000e+00,0.000000000000000000e+00,0.000000000000000000e+00,0.000000000000000000e+00
0.000000000000000000e+00,0.000000000000000000e+00,0.000000000000000000e+00,0.000000000000000000e+00,0.000000000000000000e+00,0.000000000000000000e+00,0.000000000000000000e+00,0.000000000000000000e+00,0.000000000000000000e+00,-5.288815330844725410e-04,-3.702170731591307787e-03,-6.875459930098143033e-03,-1.031318989514721368e-02,-1.348647909365405240e-02,-1.692420905870312131e-02,-2.009749825720995656e-02,-2.353522822225902894e-02,-2.670851742076586072e-02,-3.014624738581493657e-02,-3.331953658432176835e-02,-3.675726654937083726e-02,-3.993055574787766904e-02,-4.336828571292674489e-02,-4.654157491143357667e-02,-4.971486410994041538e-02,-5.315259407498948430e-02,-5.632588327349632995e-02,-5.923473170546093153e-02,-5.923473170546092459e-02,-5.923473170546092459e-02,-5.923473170546092459e-02,-5.923473170546092459e-02,-5.923473170546092459e-02,-5.923473170546092459e-02,-5.923473170546092459e-02,-5.923473170546093153e-02,-5.923473170546092459e-02,-5.923473170546092459e-02,-5.834943000877605007e-02,-5.738364633966527156e-02,-5.281629440449556179e-02,-1.730362407156807013e-03,0.000000000000000000e+00,0.000000000000000000e+00,0.000000000000000000e+00,0.000000000000000000e+00,0.000000000000000000e+00
0.000000000000000000e+00,0.000000000000000000e+00,0.000000000000000000e+00,0.000000000000000000e+00,0.000000000000000000e+00,0.000000000000000000e+00,0.000000000000000000e+00,-1.586644599253417623e-03,-5.024374564302490007e-03,-8.197663762809323518e-03,-1.137095296131615876e-02,-1.480868292636523115e-02,-1.798197212487206639e-02,-2.141970208992113878e-02,-2.459299128842797402e-02,-2.803072125347704641e-02,-3.120401045198387818e-02,-3.464174041703295404e-02,-3.781502961553978581e-02,-4.125275958058885473e-02,-4.442604877909568650e-02,-4.786377874414476236e-02,-5.103706794265159413e-02,-5.421035714115843285e-02,-5.764808710620750176e-02,-5.923473170546092459e-02,-5.923473170546092459e-02,-5.923473170546092459e-02,-5.923473170546092459e-02,-5.923473170546092459e-02,-5.923473170546091765e-02,-5.923473170546092459e-02,-5.923473170546092459e-02,-5.923473170546092459e-02,-5.923473170546092459e-02,-5.899328578818323343e-02,-5.794702014664655787e-02,-5.698123647753578630e-02,-5.601545280842500779e-02,-5.496918716688833917e-02,-5.400340349777756760e-02,-2.151383725409785827e-02,0.000000000000000000e+00,0.000000000000000000e+00,0.000000000000000000e+00,0.000000000000000000e+00,0.000000000000000000e+00
0.000000000000000000e+00,0.000000000000000000e+00,0.000000000000000000e+00,0.000000000000000000e+00,0.000000000000000000e+00,-2.908848431964598975e-03,-6.082137630471434221e-03,-9.519867595520505738e-03,-1.269315679402734098e-02,-1.586644599253417623e-02,-1.930417595758324514e-02,-2.247746515609008039e-02,-2.591519512113915624e-02,-2.908848431964598455e-02,-3.252621428469505693e-02,-3.569950348320189565e-02,-3.913723344825096456e-02,-4.231052264675779634e-02,-4.574825261180687219e-02,-4.892154181031370397e-02,-5.235927177536277982e-02,-5.553256097386961854e-02,-5.897029093891868745e-02,-5.923473170546093153e-02,-5.923473170546092459e-02,-5.923473170546092459e-02,-5.923473170546092459e-02,-5.923473170546092459e-02,-5.923473170546092459e-02,-5.923473170546091765e-02,-5.923473170546092459e-02,-5.923473170546092459e-02,-5.923473170546092459e-02,-5.859087592605374123e-02,-5.762509225694296966e-02,-5.657882661540630104e-02,-5.561304294629551559e-02,-5.464725927718473708e-02,-5.360099363564806846e-02,-5.263520996653728301e-02,-5.158894432500060745e-02,-4.113131803291049382e-02,0.000000000000000000e+00,0.000000000000000000e+00,0.000000000000000000e+00,0.000000000000000000e+00,0.000000000000000000e+00
0.000000000000000000e+00,0.000000000000000000e+00,-7.933222996267088115e-04,-3.966611498133544057e-03,-7.404341463182615574e-03,-1.057763066168945082e-02,-1.401536062673852320e-02,-1.718864982524535845e-02,-2.036193902375219023e-02,-2.379966898880126261e-02,-2.697295818730809785e-02,-3.041068815235717371e-02,-3.358397735086400548e-02,-3.702170731591307440e-02,-4.019499651441990618e-02,-4.363272647946897509e-02,-4.680601567797581380e-02,-5.024374564302488966e-02,-5.341703484153172143e-02,-5.685476480658079729e-02,-5.923473170546092459e-02,-5.923473170546092459e-02,-5.923473170546092459e-02,-5.923473170546092459e-02,-5.923473170546092459e-02,-5.923473170546093153e-02,-5.923473170546092459e-02,-5.923473170546092459e-02,-5.923473170546092459e-02,-5.923473170546092459e-02,-5.923473170546092459e-02,-5.826894803635015302e-02,-5.722268239481348440e-02,-5.625689872570270589e-02,-5.521063308416603033e-02,-5.424484941505525182e-02,-5.327906574594448025e-02,-5.223280010440779775e-02,-5.126701643529701924e-02,-5.022075079376034368e-02,-4.925496712464957211e-02,-4.820870148311289655e-02,-1.328707063518809635e-02,0.000000000000000000e+00,0.000000000000000000e+00,0.000000000000000000e+00,0.000000000000000000e+00
-1.851085365795653893e-03,-5.288815330844725410e-03,-8.462104529351560656e-03,-1.189983449440063304e-02,-1.507312369290746829e-02,-1.851085365795654067e-02,-2.168414285646337245e-02,-2.512187282151244483e-02,-2.829516202001928007e-02,-3.146845121852611532e-02,-3.490618118357518423e-02,-3.807947038208202295e-02,-4.151720034713108493e-02,-4.469048954563792364e-02,-4.812821951068699949e-02,-5.130150870919384515e-02,-5.473923867424290712e-02,-5.791252787274973890e-02,-5.923473170546092459e-02,-5.923473170546092459e-02,-5.923473170546091765e-02,-5.923473170546092459e-02,-5.923473170546092459e-02,-5.923473170546092459e-02,-5.923473170546092459e-02,-5.923473170546092459e-02,-5.923473170546092459e-02,-5.923473170546092459e-02,-5.891280381575733638e-02,-5.786653817422066082e-02,-5.690075450510988231e-02,-5.585448886357321369e-02,-5.488870519446243518e-02,-5.384243955292576655e-02,-5.287665588381498805e-02,-5.191087221470420954e-02,-5.086460657316752704e-02,-4.989882290405675547e-02,-4.885255726252008684e-02,-4.788677359340930140e-02,-4.684050795187262584e-02,-4.587472428276186120e-02,-2.941867598330402678e-02,0.000000000000000000e+00,0.000000000000000000e+00,0.000000000000000000e+00,0.000000000000000000e+00
-9.784308362062741141e-03,-1.295759756056957812e-02,-1.639532752561865050e-02,-1.956861672412548228e-02,-2.300634668917455466e-02,-2.617963588768138991e-02,-2.961736585273046229e-02,-3.279065505123729407e-02,-3.596394424974413279e-02,-3.940167421479319476e-02,-4.257496341330004042e-02,-4.601269337834910933e-02,-4.918598257685594111e-02,-5.262371254190501696e-02,-5.579700174041184874e-02,-5.923473170546092459e-02,-5.923473170546092459e-02,-5.923473170546092459e-02,-5.923473170546092459e-02,-5.923473170546092459e-02,-5.923473170546092459e-02,-5.923473170546092459e-02,-5.923473170546092459e-02,-5.923473170546092459e-02,-5.923473170546092459e-02,-5.923473170546092459e-02,-5.851039395362784418e-02,-5.754461028451706567e-02,-5.649834464298039705e-02,-5.553256097386961854e-02,-5.448629533233294991e-02,-5.352051166322217141e-02,-5.247424602168548891e-02,-5.150846235257471040e-02,-5.054267868346393883e-02,-4.949641304192726327e-02,-4.853062937281648476e-02,-4.748436373127981613e-02,-4.651858006216903763e-02,-4.547231442063236900e-02,-4.450653075152159049e-02,-4.346026510998492187e-02,-4.249448144087414336e-02,-5.181026974917183475e-03,0.000000000000000000e+00,0.000000000000000000e+00,0.000000000000000000e+00
-1.745309059178759559e-02,-2.089082055683666450e-02,-2.406410975534349975e-02,-2.750183972039257213e-02,-3.067512891889940738e-02,-3.411285888394847976e-02,-3.728614808245531154e-02,-4.045943728096214331e-02,-4.389716724601121917e-02,-4.707045644451805094e-02,-5.050818640956712680e-02,-5.368147560807395857e-02,-5.711920557312303443e-02,-5.923473170546093153e-02,-5.923473170546092459e-02,-5.923473170546092459e-02,-5.923473170546092459e-02,-5.923473170546092459e-02,-5.923473170546092459e-02,-5.923473170546091765e-02,-5.923473170546091765e-02,-5.923473170546092459e-02,-5.923473170546092459e-02,-5.915424973303502754e-02,-5.818846606392424903e-02,-5.714220042238757347e-02,-5.617641675327680884e-02,-5.513015111174013327e-02,-5.416436744262935477e-02,-5.311810180109267920e-02,-5.215231813198189376e-02,-5.110605249044521819e-02,-5.014026882133444663e-02,-4.917448515222366812e-02,-4.812821951068699255e-02,-4.716243584157622792e-02,-4.611617020003954542e-02,-4.515038653092877385e-02,-4.410412088939210523e-02,-4.313833722028131978e-02,-4.209207157874465810e-02,-4.112628790963387959e-02,-4.008002226809720403e-02,-2.077943925571153899e-02,0.000000000000000000e+00,0.000000000000000000e+00,0.000000000000000000e+00
-2.538631358805468197e-02,-2.855960278656151721e-02,-3.199733275161058960e-02,-3.517062195011742137e-02,-3.860835191516649029e-02,-4.178164111367332900e-02,-4.495493031218016078e-02,-4.839266027722923663e-02,-5.156594947573607535e-02,-5.500367944078514426e-02,-5.817696863929198298e-02,-5.923473170546092459e-02,-5.923473170546092459e-02,-5.923473170546093153e-02,-5.923473170546092459e-02,-5.923473170546091765e-02,-5.923473170546092459e-02,-5.923473170546092459e-02,-5.923473170546092459e-02,-5.923473170546092459e-02,-5.923473170546092459e-02,-5.883232184333143239e-02,-5.778605620179476376e-02,-5.682027253268398526e-02,-5.577400689114730969e-02,-5.480822322203653812e-02,-5.376195758049986256e-02,-5.279617391138908405e-02,-5.174990826985240849e-02,-5.078412460074162998e-02,-4.973785895920496136e-02,-4.877207529009417591e-02,-4.772580964855750729e-02,-4.676002597944672878e-02,-4.579424231033595721e-02,-4.474797666879928165e-02,-4.378219299968851008e-02,-4.273592735815183452e-02,-4.177014368904106989e-02,-4.072387804750439433e-02,-3.975809437839360888e-02,-3.871182873685693332e-02,-3.774604506774616175e-02,-3.325917510500234903e-02,0.000000000000000000e+00,0.000000000000000000e+00,0.000000000000000000e+00
-3.305509581777953121e-02,-3.649282578282860012e-02,-3.966611498133543190e-02,-4.310384494638450081e-02,-4.627713414489133953e-02,-4.945042334339817824e-02,-5.288815330844724716e-02,-5.606144250695409281e-02,-5.923473170546092459e-02,-5.923473170546092459e-02,-5.923473170546092459e-02,-5.923473170546092459e-02,-5.923473170546092459e-02,-5.923473170546092459e-02,-5.923473170546092459e-02,-5.923473170546092459e-02,-5.923473170546092459e-02,-5.923473170546092459e-02,-5.923473170546092459e-02,-5.842991198120194019e-02,-5.746412831209116168e-02,-5.641786267055449305e-02,-5.545207900144372148e-02,-5.440581335990704592e-02,-5.344002969079626741e-02,-5.239376404925959185e-02,-5.142798038014882028e-02,-5.038171473861213778e-02,-4.941593106950136621e-02,-4.836966542796468371e-02,-4.740388175885391908e-02,-4.635761611731724352e-02,-4.539183244820647195e-02,-4.442604877909570038e-02,-4.337978313755901788e-02,-4.241399946844824631e-02,-4.136773382691157075e-02,-4.040195015780079224e-02,-3.935568451626412362e-02,-3.838990084715333817e-02,-3.734363520561666955e-02,-3.637785153650589104e-02,-3.533158589496922242e-02,-3.436580222585844391e-02,-1.249482621912066313e-02,0.000000000000000000e+00,0.000000000000000000e+00
-4.098831881404661759e-02,-4.416160801255344937e-02,-4.759933797760252522e-02,-5.077262717610936393e-02,-5.394591637461619571e-02,-5.738364633966527156e-02,-5.923473170546091765e-02,-5.923473170546092459e-02,-5.923473170546092459e-02,-5.923473170546092459e-02,-5.923473170546092459e-02,-5.923473170546093153e-02,-5.923473170546092459e-02,-5.923473170546092459e-02,-5.923473170546092459e-02,-5.923473170546092459e-02,-5.907376776060913048e-02,-5.802750211907245492e-02,-5.706171844996169029e-02,-5.609593478085089790e-02,-5.504966913931423622e-02,-5.408388547020345771e-02,-5.303761982866676827e-02,-5.207183615955599670e-02,-5.102557051801932808e-02,-5.005978684890854957e-02,-4.901352120737187401e-02,-4.804773753826109550e-02,-4.700147189672441994e-02,-4.603568822761364837e-02,-4.498942258607697975e-02,-4.402363891696620124e-02,-4.305785524785542967e-02,-4.201158960631874717e-02,-4.104580593720798948e-02,-3.999954029567130698e-02,-3.903375662656052847e-02,-3.798749098502385291e-02,-3.702170731591308134e-02,-3.597544167437639884e-02,-3.500965800526562727e-02,-3.396339236372895171e-02,-3.299760869461817320e-02,-3.195134305308150457e-02,-2.323916953797804802e-02,0.000000000000000000e+00,0.000000000000000000e+00
-4.865710104377146683e-02,-5.209483100882054268e-02,-5.526812020732738140e-02,-5.844140940583422011e-02,-5.923473170546092459e-02,-5.923473170546092459e-02,-5.923473170546091765e-02,-5.923473170546092459e-02,-5.923473170546092459e-02,-5.923473170546092459e-02,-5.923473170546092459e-02,-5.923473170546092459e-02,-5.923473170546092459e-02,-5.923473170546093153e-02,-5.867135789847964522e-02,-5.770557422936886671e-02,-5.665930858783219115e-02,-5.569352491872141264e-02,-5.472774124961064107e-02,-5.368147560807396551e-02,-5.271569193896318006e-02,-5.166942629742650450e-02,-5.070364262831572599e-02,-4.965737698677906431e-02,-4.869159331766827886e-02,-4.764532767613161024e-02,-4.667954400702083867e-02,-4.563327836548416311e-02,-4.466749469637338460e-02,-4.362122905483671598e-02,-4.265544538572593747e-02,-4.168966171661516590e-02,-4.064339607507848340e-02,-3.967761240596771183e-02,-3.863134676443103627e-02,-3.766556309532025776e-02,-3.661929745378358914e-02,-3.565351378467281757e-02,-3.460724814313613507e-02,-3.364146447402535656e-02,-3.259519883248868793e-02,-3.162941516337790943e-02,-3.058314952184123733e-02,-2.961736585273046229e-02,-2.865158218361968379e-02,-6.038662993580658916e-03,0.000000000000000000e+00
-5.659032404003856015e-02,-5.923473170546092459e-02,-5.923473170546092459e-02,-5.923473170546092459e-02,-5.923473170546092459e-02,-5.923473170546092459e-02,-5.923473170546092459e-02,-5.923473170546092459e-02,-5.923473170546092459e-02,-5.923473170546092459e-02,-5.923473170546092459e-02,-5.923473170546092459e-02,-5.834943000877605007e-02,-5.730316436723937451e-02,-5.633738069812860294e-02,-5.529111505659192738e-02,-5.432533138748114887e-02,-5.335954771837037036e-02,-5.231328207683369480e-02,-5.134749840772291629e-02,-5.030123276618624073e-02,-4.933544909707546916e-02,-4.828918345553880054e-02,-4.732339978642802203e-02,-4.627713414489134647e-02,-4.531135047578056796e-02,-4.426508483424389240e-02,-4.329930116513312083e-02,-4.225303552359645221e-02,-4.128725185448567370e-02,-4.032146818537490213e-02,-3.927520254383821963e-02,-3.830941887472744806e-02,-3.726315323319077250e-02,-3.629736956407999399e-02,-3.525110392254332536e-02,-3.428532025343254686e-02,-3.323905461189587129e-02,-3.227327094278509279e-02,-3.122700530124842069e-02,-3.026122163213764565e-02,-2.921495599060097009e-02,-2.824917232149020199e-02,-2.728338865237942001e-02,-2.623712301084274445e-02,-1.579458708858248045e-02,0.000000000000000000e+00
-5.923473170546092459e-02,-5.923473170546092459e-02,-5.923473170546091765e-02,-5.923473170546092459e-02,-5.923473170546092459e-02,-5.923473170546092459e-02,-5.923473170546092459e-02,-5.923473170546092459e-02,-5.923473170546092459e-02,-5.899328578818323343e-02,-5.794702014664655787e-02,-5.698123647753578630e-02,-5.593497083599910380e-02,-5.496918716688833917e-02,-5.392292152535165667e-02,-5.295713785624087816e-02,-5.199135418713009965e-02,-5.094508854559342409e-02,-4.997930487648264558e-02,-4.893303923494597696e-02,-4.796725556583520539e-02,-4.692098992429852983e-02,-4.595520625518775826e-02,-4.490894061365108270e-02,-4.394315694454030419e-02,-4.289689130300362863e-02,-4.193110763389285706e-02,-4.088484199235618843e-02,-3.991905832324540299e-02,-3.895327465413462448e-02,-3.790700901259794892e-02,-3.694122534348717735e-02,-3.589495970195050178e-02,-3.492917603283973021e-02,-3.388291039130305465e-02,-3.291712672219227614e-02,-3.187086108065560058e-02,-3.090507741154482901e-02,-2.985881177000815692e-02,-2.889302810089738188e-02,-2.784676245936070632e-02,-2.688097879024992781e-02,-2.583471314871325225e-02,-2.486892947960248068e-02,-2.390314581049170217e-02,-2.285688016895503008e-02,-2.052290296860398693e-03
-5.923473170546092459e-02,-5.923473170546092459e-02,-5.923473170546092459e-02,-5.923473170546092459e-02,-5.923473170546092459e-02,-5.923473170546092459e-02,-5.923473170546092459e-02,-5.859087592605374123e-02,-5.762509225694296966e-02,-5.657882661540629410e-02,-5.561304294629551559e-02,-5.456677730475884697e-02,-5.360099363564806846e-02,-5.255472799411138596e-02,-5.158894432500061439e-02,-5.062316065588982894e-02,-4.957689501435316032e-02,-4.861111134524238875e-02,-4.756484570370571319e-02,-4.659906203459493468e-02,-4.555279639305826606e-02,-4.458701272394749449e-02,-4.354074708241081892e-02,-4.257496341330004042e-02,-4.152869777176336485e-02,-4.056291410265259328e-02,-3.951664846111591078e-02,-3.855086479200513228e-02,-3.758508112289436764e-02,-3.653881548135769208e-02,-3.557303181224691357e-02,-3.452676617071023801e-02,-3.356098250159945950e-02,-3.251471686006278394e-02,-3.154893319095201237e-02,-3.050266754941534028e-02,-2.953688388030456871e-02,-2.849061823876789662e-02,-2.752483456965711464e-02,-2.647856892812043561e-02,-2.551278525900966057e-02,-2.446651961747298848e-02,-2.350073594836221344e-02,-2.253495227925143493e-02,-2.148868663771476284e-02,-2.052290296860399127e-02,-9.129673747062805322e-03
-5.923473170546092459e-02,-5.923473170546092459e-02,-5.923473170546092459e-02,-5.923473170546092459e-02,-5.923473170546092459e-02,-5.826894803635014608e-02,-5.722268239481347746e-02,-5.625689872570270589e-02,-5.521063308416603033e-02,-5.424484941505525182e-02,-5.319858377351858320e-02,-5.223280010440779775e-02,-5.118653446287111525e-02,-5.022075079376034368e-02,-4.925496712464956517e-02,-4.820870148311289655e-02,-4.724291781400212498e-02,-4.619665217246544942e-02,-4.523086850335467091e-02,-4.418460286181800228e-02,-4.321881919270722378e-02,-3.317253667434592046e-01,-3.307595830743484400e-01,-3.297133174328117367e-01,-3.287475337637009720e-01,-3.814845492987564701e-02,-3.718267126076487544e-02,-3.613640561922819988e-02,-3.517062195011742137e-02,-3.420483828100664980e-02,-3.315857263946997424e-02,-3.219278897035919573e-02,-3.114652332882252711e-02,-3.018073965971174860e-02,-2.913447401817507304e-02,-2.816869034906429800e-02,-2.712242470752762591e-02,-2.615664103841684393e-02,-2.511037539688017184e-02,-2.414459172776940027e-02,-2.309832608623272471e-02,-2.213254241712194620e-02,-2.116675874801117463e-02,-2.012049310647449907e-02,-1.915470943736372056e-02,-1.810844379582704847e-02,-1.499982761087673838e-02
-5.923473170546093153e-02,-5.923473170546092459e-02,-5.891280381575733638e-02,-5.786653817422066082e-02,-5.690075450510988231e-02,-5.585448886357321369e-02,-5.488870519446243518e-02,-5.384243955292576655e-02,-5.287665588381498111e-02,-5.183039024227829861e-02,-5.086460657316752704e-02,-4.981834093163085841e-02,-4.885255726252008684e-02,-4.788677359340930834e-02,-4.684050795187263277e-02,-4.587472428276185427e-02,-4.482845864122517870e-02,-4.386267497211440713e-02,-4.281640933057773157e-02,-4.185062566146696000e-02,-4.080436001993028444e-02,-3.293913895431081484e-01,-3.283451239015715006e-01,-3.273793402324607360e-01,-3.263330745909240327e-01,-3.581447772952461167e-02,-3.476821208798793611e-02,-3.380242841887715760e-02,-3.283664474976637909e-02,-3.179037910822970353e-02,-3.082459543911893196e-02,-2.977832979758225987e-02,-2.881254612847148483e-02,-2.776628048693480233e-02,-2.680049681782403076e-02,-2.575423117628735520e-02,-2.478844750717658016e-02,-2.374218186563990807e-02,-2.277639819652913303e-02,-2.173013255499245747e-02,-2.076434888588168243e-02,-1.979856521677090739e-02,-1.875229957523423530e-02,-1.778651590612345679e-02,-1.674025026458678123e-02,-1.577446659547600619e-02,-1.472820095393933236e-02
-5.851039395362784418e-02,-5.754461028451707261e-02,-5.649834464298039705e-02,-5.553256097386961854e-02,-5.448629533233294298e-02,-5.352051166322216447e-02,-5.247424602168549584e-02,-5.150846235257471040e-02,-5.046219671103803484e-02,-4.949641304192726327e-02,-4.845014740039058770e-02,-4.748436373127981613e-02,-4.643809808974314751e-02,-4.547231442063236206e-02,-4.450653075152159743e-02,-4.346026510998492187e-02,-4.249448144087414336e-02,-4.144821579933746780e-02,-4.048243213022669623e-02,-3.943616648869001373e-02,-3.847038281957924216e-02,-3.269769303703312091e-01,-3.260111467012204445e-01,-3.249648810596837967e-01,-3.239990973905729765e-01,-3.340001855674766540e-02,-3.243423488763689383e-02,-3.146845121852611532e-02,-3.042218557698943976e-02,-2.945640190787866819e-02,-2.841013626634199610e-02,-2.744435259723121412e-02,-2.639808695569453856e-02,-2.543230328658376352e-02,-2.438603764504708796e-02,-2.342025397593631292e-02,-2.237398833439964083e-02,-2.140820466528886579e-02,-2.036193902375219369e-02,-1.939615535464141866e-02,-1.843037168553064015e-02,-1.738410604399396805e-02,-1.641832237488318955e-02,-1.537205673334651398e-02,-1.440627306423574241e-02,-1.336000742269906685e-02,-1.239422375358829181e-02
-5.617641675327680190e-02,-5.513015111174013327e-02,-5.416436744262935477e-02,-5.311810180109267920e-02,-5.215231813198190070e-02,-5.110605249044521819e-02,-5.014026882133444663e-02,-4.909400317979777106e-02,-4.812821951068699255e-02,-4.708195386915032393e-02,-4.611617020003955236e-02,-4.506990455850287680e-02,-4.410412088939209829e-02,-4.313833722028132672e-02,-4.209207157874465810e-02,-4.112628790963387959e-02,-4.008002226809720403e-02,-3.911423859898642552e-02,-3.806797295744974996e-02,-3.710218928833897839e-02,-3.605592364680230283e-02,-3.246429531699801529e-01,-3.235966875284435051e-01,-3.226309038593327405e-01,-3.215846382177960372e-01,-3.106604135639662312e-02,-3.010025768728585155e-02,-7.248589969514837583e-02,-7.152011602603759732e-02,-7.047385038450092176e-02,-6.950806671539014325e-02,-6.846180107385346769e-02,-2.406410975534349628e-02,-2.301784411380682419e-02,-2.205206044469605262e-02,-2.100579480315938052e-02,-2.004001113404860202e-02,-1.899374549251192645e-02,-1.802796182340115141e-02,-1.706217815429037291e-02,-1.601591251275370081e-02,-1.505012884364292404e-02,-1.400386320210625021e-02,-1.303807953299547517e-02,-1.199181389145879961e-02,-1.102603022234802631e-02,-9.979764580811350747e-03
-5.376195758049986256e-02,-5.279617391138908405e-02,-5.174990826985240849e-02,-5.078412460074162998e-02,-4.973785895920496136e-02,-4.877207529009417591e-02,-4.772580964855751423e-02,-4.676002597944672878e-02,-4.571376033791005322e-02,-4.474797666879928165e-02,-4.370171102726261303e-02,-4.273592735815184146e-02,-4.177014368904106295e-02,-4.072387804750438739e-02,-3.975809437839361582e-02,-3.871182873685693332e-02,-3.774604506774616175e-02,-3.669977942620948619e-02,-3.573399575709870768e-02,-3.468773011556203212e-02,-3.372194644645125361e-02,-3.267568080491458499e-02,-3.170989713580380648e-02,-3.066363149426713439e-02,-2.969784782515635588e-02,-2.873206415604558431e-02,-2.768579851450890875e-02,-7.015192249479731967e-02,-6.910565685326064411e-02,-6.813987318414987948e-02,-6.709360754261320392e-02,-6.612782387350242541e-02,-2.164965058256656041e-02,-2.068386691345578537e-02,-1.963760127191911328e-02,-1.867181760280833477e-02,-1.762555196127165921e-02,-1.665976829216088417e-02,-1.569398462305010566e-02,-1.464771898151343531e-02,-1.368193531240265680e-02,-1.263566967086598297e-02,-1.166988600175520793e-02,-1.062362036021853584e-02,-9.657836691107759067e-03,-8.611571049571085240e-03,-7.645787380460309333e-03
-5.142798038014880641e-02,-5.038171473861213778e-02,-4.941593106950135927e-02,-4.836966542796469065e-02,-4.740388175885391908e-02,-4.635761611731724352e-02,-4.539183244820647195e-02,-4.434556680666979639e-02,-4.337978313755901788e-02,-4.233351749602234926e-02,-4.136773382691157769e-02,-4.040195015780079224e-02,-3.935568451626411668e-02,-3.838990084715334511e-02,-3.734363520561666955e-02,-3.637785153650589798e-02,-3.533158589496922242e-02,-3.436580222585844391e-02,-3.331953658432176835e-02,-3.235375291521098984e-02,-3.130748727367432122e-02,-3.034170360456354271e-02,-2.929543796302687061e-02,-2.832965429391609558e-02,-2.736387062480531707e-02,-2.631760498326864151e-02,-2.535182131415786300e-02,-6.773746332202038034e-02,-6.677167965290961571e-02,-6.572541401137294015e-02,-6.475963034226216164e-02,-6.371336470072549996e-02,-1.931567338221552160e-02,-1.826940774067884604e-02,-1.730362407156807100e-02,-1.625735843003139544e-02,-1.529157476092061867e-02,-1.424530911938394484e-02,-1.327952545027316633e-02,-1.231374178116239129e-02,-1.126747613962571920e-02,-1.030169247051494416e-02,-9.255426828978268600e-03,-8.289643159867493560e-03,-7.243377518330819734e-03,-6.277593849220043827e-03,-5.231328207683370000e-03
-4.901352120737187401e-02,-4.804773753826110244e-02,-4.700147189672443382e-02,-4.603568822761364837e-02,-4.498942258607697975e-02,-4.402363891696620124e-02,-4.297737327542953262e-02,-4.201158960631875411e-02,-4.096532396478208549e-02,-3.999954029567130698e-02,-3.903375662656052847e-02,-3.798749098502385985e-02,-3.702170731591307440e-02,-3.597544167437640578e-02,-3.500965800526562727e-02,-3.396339236372895171e-02,-3.299760869461818014e-02,-3.195134305308150457e-02,-3.098555938397072607e-02,-2.993929374243405397e-02,-2.897351007332327893e-02,-2.792724443178660684e-02,-2.696146076267582833e-02,-2.599567709356504636e-02,-2.494941145202837426e-02,-2.398362778291759922e-02,-2.293736214138092366e-02,-6.540348612166935194e-02,-6.435722048013267638e-02,-6.339143681102189787e-02,-6.234517116948522231e-02,-6.137938750037444380e-02,-1.690121420943857880e-02,-1.593543054032780376e-02,-1.488916489879112820e-02,-1.392338122968035316e-02,-1.287711558814367760e-02,-1.191133191903290256e-02,-1.094554824992212752e-02,-9.899282608385453694e-03,-8.933498939274676920e-03,-7.887233297738003093e-03,-6.921449628627228054e-03,-5.875183987090554227e-03,-4.909400317979778321e-03,-3.863134676443103627e-03,-2.897351007332328154e-03
-4.667954400702083867e-02,-4.563327836548415617e-02,-4.466749469637339154e-02,-4.362122905483671598e-02,-4.265544538572593747e-02,-4.160917974418926885e-02,-4.064339607507849728e-02,-3.959713043354181478e-02,-3.863134676443103627e-02,-3.766556309532026470e-02,-3.661929745378358914e-02,-3.565351378467281063e-02,-3.460724814313613507e-02,-3.364146447402535656e-02,-3.259519883248868793e-02,-3.162941516337790943e-02,-3.058314952184123733e-02,-2.961736585273046229e-02,-2.857110021119379020e-02,-2.760531654208301169e-02,-2.655905090054633613e-02,-2.559326723143555762e-02,-2.454700158989888900e-02,-2.358121792078811396e-02,-2.261543425167733545e-02,-2.156916861014066336e-02,-2.060338494102988832e-02,-6.298902694889241261e-02,-6.202324327978163410e-02,-6.097697763824495854e-02,-6.001119396913418003e-02,-5.896492832759750446e-02,-1.456723700908753652e-02,-1.352097136755086096e-02,-1.255518769844008592e-02,-1.150892205690341383e-02,-1.054313838779263879e-02,-9.577354718681862014e-03,-8.531089077145188188e-03,-7.565305408034410546e-03,-6.519039766497737587e-03,-5.553256097386962548e-03,-4.506990455850286986e-03,-3.541206786739511947e-03,-2.494941145202838120e-03,-1.529157476092061997e-03,-4.828918345553879533e-04
-4.426508483424389240e-02,-4.329930116513312083e-02,-4.225303552359645221e-02,-4.128725185448567370e-02,-4.024098621294899814e-02,-3.927520254383821963e-02,-3.822893690230155100e-02,-3.726315323319076556e-02,-3.629736956408000093e-02,-3.525110392254332536e-02,-3.428532025343254686e-02,-3.323905461189587129e-02,-3.227327094278509279e-02,-3.122700530124842069e-02,-3.026122163213764565e-02,-2.921495599060097356e-02,-2.824917232149020199e-02,-2.720290667995352296e-02,-2.623712301084274445e-02,-2.519085736930606889e-02,-2.422507370019529385e-02,-2.317880805865862176e-02,-2.221302438954784672e-02,-2.124724072043707168e-02,-2.020097507890039612e-02,-1.923519140978962455e-02,-1.818892576825294899e-02,-1.722314209914217048e-02,-1.617687645760549492e-02,-1.521109278849471988e-02,-1.416482714695804605e-02,-1.319904347784726928e-02,-1.215277783631059545e-02,-1.118699416719982041e-02,-1.014072852566315006e-02,-9.174944856552371547e-03,-8.209161187441596508e-03,-7.162895545904920946e-03,-6.197111876794145907e-03,-5.150846235257472081e-03,-4.185062566146696174e-03,-3.138796924610021914e-03,-2.173013255499246007e-03,-1.126747613962571963e-03,-1.609639448517960025e-04,0.000000000000000000e+00,0.000000000000000000e+00
-4.193110763389285706e-02,-4.088484199235618843e-02,-3.991905832324540992e-02,-3.887279268170873436e-02,-3.790700901259795585e-02,-3.686074337106128029e-02,-3.589495970195050872e-02,-3.484869406041383316e-02,-3.388291039130305465e-02,-3.291712672219227614e-02,-3.187086108065560058e-02,-3.090507741154482901e-02,-2.985881177000815692e-02,-2.889302810089738188e-02,-2.784676245936070632e-02,-2.688097879024992781e-02,-2.583471314871325225e-02,-2.486892947960248068e-02,-2.382266383806580512e-02,-2.285688016895503008e-02,-2.181061452741835799e-02,-2.084483085830757948e-02,-1.987904718919680791e-02,-1.883278154766013235e-02,-1.786699787854935384e-02,-1.682073223701268175e-02,-1.585494856790190324e-02,-1.480868292636523115e-02,-1.384289925725445437e-02,-1.279663361571777881e-02,-1.183084994660700551e-02,-1.078458430507032995e-02,-9.818800635959554907e-03,-8.772534994422882815e-03,-7.806751325312106041e-03,-6.840967656201329267e-03,-5.794702014664655440e-03,-4.828918345553880401e-03,-3.782652704017206140e-03,-2.816869034906430234e-03,-1.770603393369755973e-03,-8.048197242589800668e-04,0.000000000000000000e+00,0.000000000000000000e+00,0.000000000000000000e+00,0.000000000000000000e+00,0.000000000000000000e+00
-3.457706740347642194e-02,-3.855086479200513921e-02,-3.750459915046846365e-02,-3.653881548135769208e-02,-3.549254983982101652e-02,-3.452676617071023801e-02,-3.348050052917356245e-02,-3.251471686006279088e-02,-3.154893319095201237e-02,-3.050266754941534028e-02,-2.953688388030456177e-02,-2.849061823876788968e-02,-2.752483456965711464e-02,-2.647856892812043908e-02,-2.551278525900966404e-02,-2.446651961747298848e-02,-2.350073594836221344e-02,-2.245447030682554135e-02,-2.148868663771476631e-02,-2.044242099617809075e-02,-1.947663732706731918e-02,-1.851085365795654067e-02,-1.746458801641986164e-02,-1.649880434730908660e-02,-1.545253870577241451e-02,-1.448675503666163773e-02,-1.344048939512496391e-02,-1.247470572601418713e-02,-1.142844008447751504e-02,-1.046265641536674000e-02,-9.416390773830066174e-03,-8.450607104719289400e-03,-7.404341463182616441e-03,-6.438557794071839667e-03,-5.472774124961063760e-03,-4.426508483424389066e-03,-3.460724814313614027e-03,-2.414459172776940200e-03,-1.448675503666164077e-03,-4.024098621294899792e-04,0.000000000000000000e+00,0.000000000000000000e+00,0.000000000000000000e+00,0.000000000000000000e+00,0.000000000000000000e+00,0.000000000000000000e+00,0.000000000000000000e+00
-1.742937715348353428e-02,-3.613640561922819988e-02,-3.517062195011742137e-02,-3.412435630858075275e-02,-3.315857263946997424e-02,-3.211230699793329868e-02,-3.114652332882252017e-02,-3.018073965971174860e-02,-2.913447401817507304e-02,-2.816869034906430147e-02,-2.712242470752762244e-02,-2.615664103841684740e-02,-2.511037539688016837e-02,-2.414459172776939333e-02,-2.309832608623272471e-02,-2.213254241712194967e-02,-2.108627677558527758e-02,-2.012049310647449907e-02,-1.907422746493782351e-02,-1.810844379582705194e-02,-1.714266012671627343e-02,-1.609639448517959787e-02,-1.513061081606882283e-02,-1.408434517453214900e-02,-1.311856150542137223e-02,-1.207229586388469840e-02,-1.110651219477392336e-02,-1.006024655323724780e-02,-9.094462884126472760e-03,-8.048197242589798933e-03,-7.082413573479023026e-03,-6.036147931942349200e-03,-5.070364262831575028e-03,-4.104580593720798254e-03,-3.058314952184124427e-03,-2.092531283073348087e-03,-1.046265641536674043e-03,-8.048197242589800126e-05,0.000000000000000000e+00,0.000000000000000000e+00,0.000000000000000000e+00,0.000000000000000000e+00,0.000000000000000000e+00,0.000000000000000000e+00,0.000000000000000000e+00,0.000000000000000000e+00,0.000000000000000000e+00
-3.259519883248868793e-03,-3.380242841887715760e-02,-3.275616277734048204e-02,-3.179037910822970353e-02,-3.074411346669303144e-02,-2.977832979758225640e-02,-2.881254612847148483e-02,-2.776628048693480927e-02,-2.680049681782403076e-02,-2.575423117628735520e-02,-2.478844750717658016e-02,-2.374218186563990807e-02,-2.277639819652913303e-02,-2.173013255499245747e-02,-2.076434888588168590e-02,-1.971808324434501034e-02,-1.875229957523423530e-02,-1.770603393369755973e-02,-1.674025026458678123e-02,-1.577446659547600619e-02,-1.472820095393933236e-02,-1.376241728482855559e-02,-1.271615164329188002e-02,-1.175036797418110672e-02,-1.070410233264443463e-02,-9.738318663533657854e-03,-8.692053021996984027e-03,-7.726269352886207253e-03,-6.680003711349534294e-03,-5.714220042238758387e-03,-4.667954400702084561e-03,-3.702170731591307787e-03,-2.655905090054633960e-03,-1.690121420943858054e-03,-7.243377518330820384e-04,0.000000000000000000e+00,0.000000000000000000e+00,0.000000000000000000e+00,0.000000000000000000e+00,0.000000000000000000e+00,0.000000000000000000e+00,0.000000000000000000e+00,0.000000000000000000e+00,0.000000000000000000e+00,0.000000000000000000e+00,0.000000000000000000e+00,0.000000000000000000e+00
0.000000000000000000e+00,-1.961748077881263555e-02,-3.042218557698943976e-02,-2.937591993545276767e-02,-2.841013626634199263e-02,-2.744435259723121759e-02,-2.639808695569453856e-02,-2.543230328658376352e-02,-2.438603764504709143e-02,-2.342025397593631639e-02,-2.237398833439964430e-02,-2.140820466528886579e-02,-2.036193902375219023e-02,-1.939615535464141866e-02,-1.834988971310474309e-02,-1.738410604399396805e-02,-1.633784040245729596e-02,-1.537205673334651745e-02,-1.440627306423574068e-02,-1.336000742269906685e-02,-1.239422375358829181e-02,-1.134795811205161625e-02,-1.038217444294084295e-02,-9.335908801404169122e-03,-8.370125132293390613e-03,-7.323859490756717654e-03,-6.358075821645941747e-03,-5.311810180109267920e-03,-4.346026510998492881e-03,-3.299760869461818187e-03,-2.333977200351041847e-03,-1.287711558814368020e-03,-3.219278897035920050e-04,0.000000000000000000e+00,0.000000000000000000e+00,0.000000000000000000e+00,0.000000000000000000e+00,0.000000000000000000e+00,0.000000000000000000e+00,0.000000000000000000e+00,0.000000000000000000e+00,0.000000000000000000e+00,0.000000000000000000e+00,0.000000000000000000e+00,0.000000000000000000e+00,0.000000000000000000e+00,0.000000000000000000e+00
0.000000000000000000e+00,-6.355560760007632898e-03,-2.800772640421250390e-02,-2.704194273510172539e-02,-2.607615906599094688e-02,-2.502989342445427479e-02,-2.406410975534349628e-02,-2.301784411380682419e-02,-2.205206044469605262e-02,-2.100579480315937705e-02,-2.004001113404860548e-02,-1.899374549251192992e-02,-1.802796182340115141e-02,-1.698169618186447585e-02,-1.601591251275370081e-02,-1.496964687121702525e-02,-1.400386320210625021e-02,-1.295759756056957639e-02,-1.199181389145879961e-02,-1.102603022234802457e-02,-9.979764580811352481e-03,-9.013980911700575707e-03,-7.967715270163901881e-03,-7.001931601053125974e-03,-5.955665959516451280e-03,-4.989882290405676241e-03,-3.943616648869001547e-03,-2.977832979758226074e-03,-1.931567338221552030e-03,-9.657836691107760151e-04,0.000000000000000000e+00,0.000000000000000000e+00,0.000000000000000000e+00,0.000000000000000000e+00,0.000000000000000000e+00,0.000000000000000000e+00,0.000000000000000000e+00,0.000000000000000000e+00,0.000000000000000000e+00,0.000000000000000000e+00,0.000000000000000000e+00,0.000000000000000000e+00,0.000000000000000000e+00,0.000000000000000000e+00,0.000000000000000000e+00,0.000000000000000000e+00,0.000000000000000000e+00
0.000000000000000000e+00,0.000000000000000000e+00,-1.925531190289609187e-02,-2.470796553475067964e-02,-2.366169989321401101e-02,-2.269591622410323598e-02,-2.164965058256656041e-02,-2.068386691345578537e-02,-1.963760127191911328e-02,-1.867181760280833477e-02,-1.762555196127166268e-02,-1.665976829216088417e-02,-1.561350265062421035e-02,-1.464771898151343531e-02,-1.360145333997675801e-02,-1.263566967086598471e-02,-1.158940402932931088e-02,-1.062362036021853584e-02,-9.657836691107760801e-03,-8.611571049571085240e-03,-7.645787380460309333e-03,-6.599521738923635507e-03,-5.633738069812860468e-03,-4.587472428276186641e-03,-3.621688759165409867e-03,-2.575423117628736040e-03,-1.609639448517960134e-03,-5.633738069812860901e-04,0.000000000000000000e+00,0.000000000000000000e+00,0.000000000000000000e+00,0.000000000000000000e+00,0.000000000000000000e+00,0.000000000000000000e+00,0.000000000000000000e+00,0.000000000000000000e+00,0.000000000000000000e+00,0.000000000000000000e+00,0.000000000000000000e+00,0.000000000000000000e+00,0.000000000000000000e+00,0.000000000000000000e+00,0.000000000000000000e+00,0.000000000000000000e+00,0.000000000000000000e+00,0.000000000000000000e+00,0.000000000000000000e+00
0.000000000000000000e+00,0.000000000000000000e+00,-8.722233761656695422e-03,-2.229350636197374377e-02,-2.132772269286296873e-02,-2.028145705132630011e-02,-1.931567338221552160e-02,-1.826940774067884604e-02,-1.730362407156806753e-02,-1.625735843003139544e-02,-1.529157476092061867e-02,-1.424530911938394484e-02,-1.327952545027316633e-02,-1.223325980873649424e-02,-1.126747613962571747e-02,-1.022121049808904711e-02,-9.255426828978270334e-03,-8.289643159867493560e-03,-7.243377518330819734e-03,-6.277593849220043827e-03,-5.231328207683370000e-03,-4.265544538572594094e-03,-3.219278897035920267e-03,-2.253495227925143927e-03,-1.207229586388470100e-03,-2.414459172776940038e-04,0.000000000000000000e+00,0.000000000000000000e+00,0.000000000000000000e+00,0.000000000000000000e+00,0.000000000000000000e+00,0.000000000000000000e+00,0.000000000000000000e+00,0.000000000000000000e+00,0.000000000000000000e+00,0.000000000000000000e+00,0.000000000000000000e+00,0.000000000000000000e+00,0.000000000000000000e+00,0.000000000000000000e+00,0.000000000000000000e+00,0.000000000000000000e+00,0.000000000000000000e+00,0.000000000000000000e+00,0.000000000000000000e+00,0.000000000000000000e+00,0.000000000000000000e+00
0.000000000000000000e+00,0.000000000000000000e+00,0.000000000000000000e+00,-2.877276657680149508e-01,-2.885526059853804060e-01,-2.875868223162696413e-01,-1.690121420943857880e-02,-1.593543054032780376e-02,-1.488916489879112647e-02,-1.392338122968035143e-02,-1.287711558814367760e-02,-1.191133191903290256e-02,-1.086506627749622873e-02,-9.899282608385453694e-03,-8.853016966848779867e-03,-7.887233297738003093e-03,-6.921449628627228054e-03,-5.875183987090554227e-03,-4.909400317979777453e-03,-3.863134676443104060e-03,-2.897351007332328154e-03,-1.851085365795654110e-03,-8.853016966848779867e-04,0.000000000000000000e+00,0.000000000000000000e+00,0.000000000000000000e+00,0.000000000000000000e+00,0.000000000000000000e+00,0.000000000000000000e+00,0.000000000000000000e+00,0.000000000000000000e+00,0.000000000000000000e+00,0.000000000000000000e+00,0.000000000000000000e+00,0.000000000000000000e+00,0.000000000000000000e+00,0.000000000000000000e+00,0.000000000000000000e+00,0.000000000000000000e+00,0.000000000000000000e+00,0.000000000000000000e+00,0.000000000000000000e+00,0.000000000000000000e+00,0.000000000000000000e+00,0.000000000000000000e+00,0.000000000000000000e+00,0.000000000000000000e+00
0.000000000000000000e+00,0.000000000000000000e+00,0.000000000000000000e+00,-2.789601608968686475e-01,-2.862186287850293498e-01,-2.851723631434927020e-01,-1.456723700908753479e-02,-1.352097136755086096e-02,-1.255518769844008592e-02,-1.150892205690341383e-02,-1.054313838779263705e-02,-9.496872746255963227e-03,-8.531089077145188188e-03,-7.484823435608513494e-03,-6.519039766497737587e-03,-5.553256097386961680e-03,-4.506990455850287854e-03,-3.541206786739511947e-03,-2.494941145202838120e-03,-1.529157476092061997e-03,-4.828918345553880075e-04,0.000000000000000000e+00,0.000000000000000000e+00,0.000000000000000000e+00,0.000000000000000000e+00,0.000000000000000000e+00,0.000000000000000000e+00,0.000000000000000000e+00,0.000000000000000000e+00,0.000000000000000000e+00,0.000000000000000000e+00,0.000000000000000000e+00,0.000000000000000000e+00,0.000000000000000000e+00,0.000000000000000000e+00,0.000000000000000000e+00,0.000000000000000000e+00,0.000000000000000000e+00,0.000000000000000000e+00,0.000000000000000000e+00,0.000000000000000000e+00,0.000000000000000000e+00,0.000000000000000000e+00,0.000000000000000000e+00,0.000000000000000000e+00,0.000000000000000000e+00,0.000000000000000000e+00
0.000000000000000000e+00,0.000000000000000000e+00,0.000000000000000000e+00,-2.715407290638561788e-01,-2.838041696122524105e-01,-2.828383859431416458e-01,-1.215277783631059545e-02,-1.118699416719982215e-02,-1.014072852566314832e-02,-9.174944856552371547e-03,-8.128679215015697720e-03,-7.162895545904921814e-03,-6.116629904368247987e-03,-5.150846235257472081e-03,-4.185062566146696174e-03,-3.138796924610022347e-03,-2.173013255499246441e-03,-1.126747613962571963e-03,-1.609639448517960025e-04,0.000000000000000000e+00,0.000000000000000000e+00,0.000000000000000000e+00,0.000000000000000000e+00,0.000000000000000000e+00,0.000000000000000000e+00,0.000000000000000000e+00,0.000000000000000000e+00,0.000000000000000000e+00,0.000000000000000000e+00,0.000000000000000000e+00,0.000000000000000000e+00,0.000000000000000000e+00,0.000000000000000000e+00,0.000000000000000000e+00,0.000000000000000000e+00,0.000000000000000000e+00,0.000000000000000000e+00,0.000000000000000000e+00,0.000000000000000000e+00,0.000000000000000000e+00,0.000000000000000000e+00,0.000000000000000000e+00,0.000000000000000000e+00,0.000000000000000000e+00,0.000000000000000000e+00,0.000000000000000000e+00,0.000000000000000000e+00
0.000000000000000000e+00,0.000000000000000000e+00,0.000000000000000000e+00,0.000000000000000000e+00,-7.763995277460846930e-03,-1.078458430507033168e-02,-9.818800635959556641e-03,-8.772534994422881080e-03,-7.806751325312105173e-03,-6.760485683775432214e-03,-5.794702014664655440e-03,-4.748436373127982481e-03,-3.782652704017206140e-03,-2.816869034906429800e-03,-1.770603393369755973e-03,-8.048197242589799584e-04,0.000000000000000000e+00,0.000000000000000000e+00,0.000000000000000000e+00,0.000000000000000000e+00,0.000000000000000000e+00,0.000000000000000000e+00,0.000000000000000000e+00,0.000000000000000000e+00,0.000000000000000000e+00,0.000000000000000000e+00,0.000000000000000000e+00,0.000000000000000000e+00,0.000000000000000000e+00,0.000000000000000000e+00,0.000000000000000000e+00,0.000000000000000000e+00,0.000000000000000000e+00,0.000000000000000000e+00,0.000000000000000000e+00,0.000000000000000000e+00,0.000000000000000000e+00,0.000000000000000000e+00,0.000000000000000000e+00,0.000000000000000000e+00,0.000000000000000000e+00,0.000000000000000000e+00,0.000000000000000000e+00,0.000000000000000000e+00,0.000000000000000000e+00,0.000000000000000000e+00,0.000000000000000000e+00
0.000000000000000000e+00,0.000000000000000000e+00,0.000000000000000000e+00,0.000000000000000000e+00,-2.648359905139705678e-03,-8.450607104719291135e-03,-7.404341463182615574e-03,-6.438557794071839667e-03,-5.392292152535165840e-03,-4.426508483424389934e-03,-3.380242841887716107e-03,-2.414459172776940200e-03,-1.368193531240265940e-03,-4.024098621294900334e-04,0.000000000000000000e+00,0.000000000000000000e+00,0.000000000000000000e+00,0.000000000000000000e+00,0.000000000000000000e+00,0.000000000000000000e+00,0.000000000000000000e+00,0.000000000000000000e+00,0.000000000000000000e+00,0.000000000000000000e+00,0.000000000000000000e+00,0.000000000000000000e+00,0.000000000000000000e+00,0.000000000000000000e+00,0.000000000000000000e+00,0.000000000000000000e+00,0.000000000000000000e+00,0.000000000000000000e+00,0.000000000000000000e+00,0.000000000000000000e+00,0.000000000000000000e+00,0.000000000000000000e+00,0.000000000000000000e+00,0.000000000000000000e+00,0.000000000000000000e+00,0.000000000000000000e+00,0.000000000000000000e+00,0.000000000000000000e+00,0.000000000000000000e+00,0.000000000000000000e+00,0.000000000000000000e+00,0.000000000000000000e+00,0.000000000000000000e+00
0.000000000000000000e+00,0.000000000000000000e+00,0.000000000000000000e+00,0.000000000000000000e+00,0.000000000000000000e+00,-4.904370194703159755e-03,-5.070364262831574161e-03,-4.024098621294899467e-03,-3.058314952184123994e-03,-2.012049310647450167e-03,-1.046265641536674043e-03,0.000000000000000000e+00,0.000000000000000000e+00,0.000000000000000000e+00,-1.475912939323797690e-01,-1.475912939323797690e-01,-1.475912939323797690e-01,-1.475912939323797690e-01,0.000000000000000000e+00,0.000000000000000000e+00,0.000000000000000000e+00,0.000000000000000000e+00,0.000000000000000000e+00,0.000000000000000000e+00,0.000000000000000000e+00,0.000000000000000000e+00,0.000000000000000000e+00,0.000000000000000000e+00,0.000000000000000000e+00,0.000000000000000000e+00,0.000000000000000000e+00,0.000000000000000000e+00,0.000000000000000000e+00,0.000000000000000000e+00,0.000000000000000000e+00,0.000000000000000000e+00,0.000000000000000000e+00,0.000000000000000000e+00,0.000000000000000000e+00,0.000000000000000000e+00,0.000000000000000000e+00,0.000000000000000000e+00,0.000000000000000000e+00,0.000000000000000000e+00,0.000000000000000000e+00,0.000000000000000000e+00,0.000000000000000000e+00
0.000000000000000000e+00,0.000000000000000000e+00,0.000000000000000000e+00,0.000000000000000000e+00,0.000000000000000000e+00,-1.504006859708968951e-03,-2.655905090054633960e-03,-1.690121420943858054e-03,-6.438557794071840101e-04,0.000000000000000000e+00,0.000000000000000000e+00,0.000000000000000000e+00,0.000000000000000000e+00,0.000000000000000000e+00,-1.475912939323797690e-01,-1.475912939323797690e-01,-1.475912939323797690e-01,-1.475912939323797690e-01,0.000000000000000000e+00,0.000000000000000000e+00,0.000000000000000000e+00,0.000000000000000000e+00,0.000000000000000000e+00,0.000000000000000000e+00,0.000000000000000000e+00,0.000000000000000000e+00,0.000000000000000000e+00,0.000000000000000000e+00,0.000000000000000000e+00,0.000000000000000000e+00,0.000000000000000000e+00,0.000000000000000000e+00,0.000000000000000000e+00,0.000000000000000000e+00,0.000000000000000000e+00,0.000000000000000000e+00,0.000000000000000000e+00,0.000000000000000000e+00,0.000000000000000000e+00,0.000000000000000000e+00,0.000000000000000000e+00,0.000000000000000000e+00,0.000000000000000000e+00,0.000000000000000000e+00,0.000000000000000000e+00,0.000000000000000000e+00,0.000000000000000000e+00
0.000000000000000000e+00,0.000000000000000000e+00,0.000000000000000000e+00,0.000000000000000000e+00,0.000000000000000000e+00,-4.024098621294900063e-05,-3.018073965971175250e-04,0.000000000000000000e+00,0.000000000000000000e+00,0.000000000000000000e+00,0.000000000000000000e+00,0.000000000000000000e+00,0.000000000000000000e+00,0.000000000000000000e+00,-1.475912939323797690e-01,-1.475912939323797690e-01,-1.475912939323797690e-01,-1.475912939323797690e-01,0.000000000000000000e+00,0.000000000000000000e+00,0.000000000000000000e+00,0.000000000000000000e+00,0.000000000000000000e+00,0.000000000000000000e+00,0.000000000000000000e+00,0.000000000000000000e+00,0.000000000000000000e+00,0.000000000000000000e+00,0.000000000000000000e+00,0.000000000000000000e+00,0.000000000000000000e+00,0.000000000000000000e+00,0.000000000000000000e+00,0.000000000000000000e+00,0.000000000000000000e+00,0.000000000000000000e+00,0.000000000000000000e+00,0.000000000000000000e+00,0.000000000000000000e+00,0.000000000000000000e+00,0.000000000000000000e+00,0.000000000000000000e+00,0.000000000000000000e+00,0.000000000000000000e+00,0.000000000000000000e+00,0.000000000000000000e+00,0.000000000000000000e+00
0.000000000000000000e+00,0.000000000000000000e+00,0.000000000000000000e+00,0.000000000000000000e+00,0.000000000000000000e+00,0.000000000000000000e+00,0.000000000000000000e+00,0.000000000000000000e+00,0.000000000000000000e+00,0.000000000000000000e+00,0.000000000000000000e+00,0.000000000000000000e+00,0.000000000000000000e+00,0.000000000000000000e+00,-1.475912939323797690e-01,-1.475912939323797690e-01,-1.475912939323797690e-01,-1.475912939323797690e-01,0.000000000000000000e+00,0.000000000000000000e+00,0.000000000000000000e+00,0.000000000000000000e+00,0.000000000000000000e+00,0.000000000000000000e+00,0.000000000000000000e+00,0.000000000000000000e+00,0.000000000000000000e+00,0.000000000000000000e+00,0.000000000000000000e+00,0.000000000000000000e+00,0.000000000000000000e+00,0.000000000000000000e+00,0.000000000000000000e+00,0.000000000000000000e+00,0.000000000000000000e+00,0.000000000000000000e+00,0.000000000000000000e+00,0.000000000000000000e+00,0.000000000000000000e+00,0.000000000000000000e+00,0.000000000000000000e+00,0.000000000000000000e+00,0.000000000000000000e+00,0.000000000000000000e+00,0.000000000000000000e+00,0.000000000000000000e+00,0.000000000000000000e+00
0.000000000000000000e+00,0.000000000000000000e+00,0.000000000000000000e+00,0.000000000000000000e+00,0.000000000000000000e+00,0.000000000000000000e+00,0.000000000000000000e+00,0.000000000000000000e+00,0.000000000000000000e+00,0.000000000000000000e+00,0.000000000000000000e+00,0.000000000000000000e+00,0.000000000000000000e+00,0.000000000000000000e+00,0.000000000000000000e+00,0.000000000000000000e+00,0.000000000000000000e+00,0.000000000000000000e+00,0.000000000000000000e+00,0.000000000000000000e+00,0.000000000000000000e+00,0.000000000000000000e+00,0.000000000000000000e+00,0.000000000000000000e+00,0.000000000000000000e+00,0.000000000000000000e+00,0.000000000000000000e+00,0.000000000000000000e+00,0.000000000000000000e+00,0.000000000000000000e+00,0.000000000000000000e+00,0.000000000000000000e+00,0.000000000000000000e+00,0.000000000000000000e+00,0.000000000000000000e+00,0.000000000000000000e+00,0.000000000000000000e+00,0.000000000000000000e+00,0.000000000000000000e+00,0.000000000000000000e+00,0.000000000000000000e+00,0.000000000000000000e+00,0.000000000000000000e+00,0.000000000000000000e+00,0.000000000000000000e+00,0.000000000000000000e+00,0.000000000000000000e+00
0.000000000000000000e+00,0.000000000000000000e+00,0.000000000000000000e+00,0.000000000000000000e+00,0.000000000000000000e+00,0.000000000000000000e+00,0.000000000000000000e+00,0.000000000000000000e+00,0.000000000000000000e+00,0.000000000000000000e+00,0.000000000000000000e+00,0.000000000000000000e+00,0.000000000000000000e+00,0.000000000000000000e+00,0.000000000000000000e+00,0.000000000000000000e+00,0.000000000000000000e+00,0.000000000000000000e+00,0.000000000000000000e+00,0.000000000000000000e+00,0.000000000000000000e+00,0.000000000000000000e+00,0.000000000000000000e+00,0.000000000000000000e+00,0.000000000000000000e+00,0.000000000000000000e+00,0.000000000000000000e+00,0.000000000000000000e+00,0.000000000000000000e+00,0.000000000000000000e+00,0.000000000000000000e+00,0.000000000000000000e+00,0.000000000000000000e+00,0.000000000000000000e+00,0.000000000000000000e+00,0.000000000000000000e+00,0.000000000000000000e+00,0.000000000000000000e+00,0.000000000000000000e+00,0.000000000000000000e+00,0.000000000000000000e+00,0.000000000000000000e+00,0.000000000000000000e+00,0.000000000000000000e+00,0.000000000000000000e+00,0.000000000000000000e+00,0.000000000000000000e+00
0.000000000000000000e+00,0.000000000000000000e+00,0.000000000000000000e+00,0.000000000000000000e+00,0.000000000000000000e+00,0.000000000000000000e+00,0.000000000000000000e+00,0.000000000000000000e+00,0.000000000000000000e+00,0.000000000000000000e+00,0.000000000000000000e+00,0.000000000000000000e+00,0.000000000000000000e+00,0.000000000000000000e+00,0.000000000000000000e+00,0.000000000000000000e+00,0.000000000000000000e+00,0.000000000000000000e+00,0.000000000000000000e+00,0.000000000000000000e+00,0.000000000000000000e+00,0.000000000000000000e+00,0.000000000000000000e+00,0.000000000000000000e+00,0.000000000000000000e+00,0.000000000000000000e+00,0.000000000000000000e+00,0.000000000000000000e+00,0.000000000000000000e+00,0.000000000000000000e+00,0.000000000000000000e+00,0.000000000000000000e+00,0.000000000000000000e+00,0.000000000000000000e+00,0.000000000000000000e+00,0.000000000000000000e+00,0.000000000000000000e+00,0.000000000000000000e+00,0.000000000000000000e+00,0.000000000000000000e+00,0.000000000000000000e+00,0.000000000000000000e+00,0.000000000000000000e+00,0.000000000000000000e+00,0.000000000000000000e+00,0.000000000000000000e+00,0.000000000000000000e+00
