-1.515297459824338673e-02,-1.515297459824338673e-02,-1.515297459824338673e-02,-1.515297459824338673e-02,-1.515297459824338673e-02,-1.515297459824338673e-02,-1.515297459824338673e-02,-1.515297459824338673e-02,-1.515297459824338673e-02,-1.515297459824338673e-02,-1.515297459824338673e-02,-1.515297459824338673e-02,-1.515297459824338673e-02,-1.515297459824338673e-02,-1.515297459824338673e-02,-1.515297459824338673e-02,-1.515297459824338673e-02,-1.515297459824338673e-02,-1.515297459824338673e-02,-1.515297459824338673e-02,-1.515297459824338673e-02,-1.515297459824338673e-02,-1.515297459824338673e-02,-1.515297459824338673e-02,-1.515297459824338673e-02,-1.515297459824338673e-02,-1.515297459824338673e-02,-1.515297459824338673e-02,-1.515297459824338673e-02,-1.515297459824338673e-02,-1.515297459824338673e-02,-1.515297459824338673e-02,-1.515297459824338673e-02,-1.515297459824338673e-02,-1.515297459824338673e-02,-1.515297459824338673e-02,-1.515297459824338673e-02,-1.515297459824338673e-02,-1.515297459824338673e-02,-1.515297459824338673e-02,-1.515297459824338673e-02,-1.515297459824338673e-02,-1.492278618203743239e-02,-1.515297459824338673e-02,-1.515297459824338673e-02,-1.515297459824338673e-02,-1.515297459824338673e-02
-1.515297459824338673e-02,-1.515297459824338673e-02,-1.515297459824338673e-02,-1.515297459824338673e-02,-1.515297459824338673e-02,-1.515297459824338673e-02,-1.515297459824338673e-02,-1.515297459824338673e-02,-1.515297459824338673e-02,-1.515297459824338673e-02,-1.515297459824338673e-02,-1.515297459824338673e-02,-1.515297459824338673e-02,-1.515297459824338673e-02,-1.515297459824338673e-02,-1.515297459824338673e-02,-1.515297459824338673e-02,-1.515297459824338673e-02,-1.515297459824338673e-02,-1.515297459824338673e-02,-1.515297459824338673e-02,-1.515297459824338673e-02,-1.515297459824338673e-02,-1.515297459824338673e-02,-1.515297459824338673e-02,-1.515297459824338673e-02,-1.515297459824338673e-02,-1.515297459824338673e-02,-1.515297459824338673e-02,-1.515297459824338673e-02,-1.515297459824338673e-02,-1.515297459824338673e-02,-1.515297459824338673e-02,-1.515297459824338673e-02,-1.515297459824338673e-02,-1.515297459824338673e-02,-1.515297459824338673e-02,-1.488990212257943965e-02,-1.452160065664991236e-02,-1.420591368585317517e-02,-1.389022671505643798e-02,-1.352192524912691068e-02,-1.320623827833017350e-02,-1.501157314257401537e-02,-1.515297459824338673e-02,-1.515297459824338673e-02,-1.515297459824338673e-02
-1.515297459824338673e-02,-1.515297459824338673e-02,-1.515297459824338673e-02,-1.515297459824338673e-02,-1.515297459824338673e-02,-1.515297459824338673e-02,-1.515297459824338673e-02,-1.515297459824338673e-02,-1.515297459824338673e-02,-1.515297459824338673e-02,-1.515297459824338673e-02,-1.515297459824338673e-02,-1.515297459824338673e-02,-1.515297459824338673e-02,-1.515297459824338673e-02,-1.515297459824338673e-02,-1.515297459824338673e-02,-1.515297459824338673e-02,-1.515297459824338673e-02,-1.515297459824338673e-02,-1.515297459824338673e-02,-1.515297459824338673e-02,-1.515297459824338673e-02,-1.515297459824338673e-02,-1.515297459824338673e-02,-1.515297459824338673e-02,-1.515297459824338673e-02,-1.515297459824338673e-02,-1.515297459824338673e-02,-1.515297459824338673e-02,-1.515297459824338673e-02,-1.515297459824338673e-02,-1.488990212257943965e-02,-1.452160065664991236e-02,-1.420591368585317517e-02,-1.389022671505643798e-02,-1.352192524912691068e-02,-1.320623827833017350e-02,-1.289055130753343631e-02,-1.257486433673669912e-02,-1.220656287080717356e-02,-1.189087590001043637e-02,-1.157518892921369918e-02,-1.405793541829220526e-02,-1.515297459824338673e-02,-1.515297459824338673e-02,-1.515297459824338673e-02
-1.515297459824338673e-02,-1.515297459824338673e-02,-1.515297459824338673e-02,-1.515297459824338673e-02,-1.515297459824338673e-02,-1.515297459824338673e-02,-1.515297459824338673e-02,-1.515297459824338673e-02,-1.515297459824338673e-02,-1.515297459824338673e-02,-1.515297459824338673e-02,-1.515297459824338673e-02,-1.515297459824338673e-02,-1.515297459824338673e-02,-1.515297459824338673e-02,-1.515297459824338673e-02,-1.515297459824338673e-02,-1.515297459824338673e-02,-1.515297459824338673e-02,-1.515297459824338673e-02,-1.515297459824338673e-02,-1.515297459824338673e-02,-1.515297459824338673e-02,-1.515297459824338673e-02,-1.515297459824338673e-02,-1.515297459824338673e-02,-1.515297459824338673e-02,-1.488990212257943965e-02,-1.452160065664991236e-02,-1.420591368585317517e-02,-1.389022671505643798e-02,-1.352192524912691068e-02,-1.320623827833017350e-02,-1.289055130753343631e-02,-1.257486433673669912e-02,-1.220656287080717356e-02,-1.189087590001043637e-02,-1.157518892921369918e-02,-1.125950195841696200e-02,-1.089120049248743470e-02,-1.057551352169069751e-02,-1.025982655089396033e-02,-9.891525084964433029e-03,-1.253869187133290625e-02,-1.515297459824338673e-02,-1.515297459824338673e-02,-1.515297459824338673e-02
-1.515297459824338673e-02,-1.515297459824338673e-02,-1.515297459824338673e-02,-1.515297459824338673e-02,-1.515297459824338673e-02,-1.515297459824338673e-02,-1.515297459824338673e-02,-1.515297459824338673e-02,-1.515297459824338673e-02,-1.515297459824338673e-02,-1.515297459824338673e-02,-1.515297459824338673e-02,-1.515297459824338673e-02,-1.515297459824338673e-02,-1.515297459824338673e-02,-1.515297459824338673e-02,-1.515297459824338673e-02,-1.515297459824338673e-02,-1.515297459824338673e-02,-1.515297459824338673e-02,-1.515297459824338673e-02,-1.515297459824338673e-02,-1.483728762744664954e-02,-1.452160065664991236e-02,-1.420591368585317517e-02,-1.389022671505643798e-02,-1.352192524912691068e-02,-1.320623827833017350e-02,-1.289055130753343631e-02,-1.257486433673669912e-02,-1.220656287080717356e-02,-1.189087590001043637e-02,-1.157518892921369918e-02,-1.120688746328417189e-02,-1.089120049248743470e-02,-1.057551352169069751e-02,-1.025982655089396033e-02,-9.891525084964433029e-03,-9.575838114167695841e-03,-9.260151143370958654e-03,-8.944464172574221467e-03,-8.576162706644694170e-03,-8.260475735847956982e-03,-1.042260264521102826e-02,-1.515297459824338673e-02,-1.515297459824338673e-02,-1.515297459824338673e-02
-1.515297459824338673e-02,-1.515297459824338673e-02,-1.515297459824338673e-02,-1.515297459824338673e-02,-1.515297459824338673e-02,-1.515297459824338673e-02,-1.515297459824338673e-02,-1.515297459824338673e-02,-1.515297459824338673e-02,-1.515297459824338673e-02,-1.515297459824338673e-02,-1.515297459824338673e-02,-1.515297459824338673e-02,-1.515297459824338673e-02,-1.515297459824338673e-02,-1.515297459824338673e-02,-1.515297459824338673e-02,-1.483728762744664954e-02,-1.452160065664991236e-02,-1.420591368585317517e-02,-1.389022671505643798e-02,-1.352192524912691068e-02,-1.320623827833017350e-02,-1.289055130753343631e-02,-1.257486433673669912e-02,-1.220656287080717356e-02,-1.189087590001043637e-02,-1.157518892921369918e-02,-1.120688746328417189e-02,-1.089120049248743470e-02,-1.057551352169069751e-02,-1.025982655089396033e-02,-9.891525084964433029e-03,-9.575838114167695841e-03,-9.260151143370958654e-03,-8.944464172574221467e-03,-8.576162706644695904e-03,-8.260475735847958717e-03,-7.944788765051221530e-03,-7.576487299121693365e-03,-7.260800328324955311e-03,-6.945113357528219858e-03,-6.629426386731482670e-03,-7.372606130482134076e-03,-1.515297459824338673e-02,-1.515297459824338673e-02,-1.515297459824338673e-02
-1.515297459824338673e-02,-1.515297459824338673e-02,-1.515297459824338673e-02,-1.515297459824338673e-02,-1.515297459824338673e-02,-1.515297459824338673e-02,-1.515297459824338673e-02,-1.515297459824338673e-02,-1.515297459824338673e-02,-1.515297459824338673e-02,-1.515297459824338673e-02,-1.515297459824338673e-02,-1.483728762744664954e-02,-1.452160065664991236e-02,-1.420591368585317517e-02,-1.389022671505643798e-02,-1.352192524912691068e-02,-1.320623827833017350e-02,-1.289055130753343631e-02,-1.257486433673669912e-02,-1.220656287080717356e-02,-1.189087590001043637e-02,-1.157518892921369918e-02,-1.120688746328417189e-02,-1.089120049248743470e-02,-1.057551352169069751e-02,-1.025982655089396033e-02,-9.891525084964433029e-03,-9.575838114167695841e-03,-9.260151143370958654e-03,-8.944464172574221467e-03,-8.576162706644695904e-03,-8.260475735847958717e-03,-7.944788765051219795e-03,-7.576487299121693365e-03,-7.260800328324957045e-03,-6.945113357528218123e-03,-6.629426386731482670e-03,-6.261124920801955374e-03,-5.945437950005218186e-03,-5.629750979208480999e-03,-5.314064008411743811e-03,-4.945762542482218249e-03,-4.630075571685481062e-03,-1.447556297340872079e-02,-1.515297459824338673e-02,-1.515297459824338673e-02
-1.515297459824338673e-02,-1.515297459824338673e-02,-1.515297459824338673e-02,-1.515297459824338673e-02,-1.515297459824338673e-02,-1.515297459824338673e-02,-1.515297459824338673e-02,-1.483728762744664954e-02,-1.452160065664991236e-02,-1.420591368585317517e-02,-1.389022671505643798e-02,-1.352192524912691068e-02,-1.320623827833017350e-02,-1.289055130753343631e-02,-1.257486433673669912e-02,-1.220656287080717356e-02,-1.189087590001043637e-02,-1.157518892921369918e-02,-1.120688746328417189e-02,-1.089120049248743470e-02,-1.057551352169069751e-02,-1.025982655089396033e-02,-9.891525084964433029e-03,-9.575838114167695841e-03,-9.260151143370958654e-03,-8.944464172574221467e-03,-8.576162706644695904e-03,-8.260475735847958717e-03,-7.944788765051219795e-03,-7.576487299121693365e-03,-7.260800328324957045e-03,-6.945113357528219858e-03,-6.629426386731480936e-03,-6.261124920801957108e-03,-5.945437950005218186e-03,-5.629750979208480999e-03,-5.314064008411743811e-03,-4.945762542482218249e-03,-4.630075571685481062e-03,-4.314388600888742140e-03,-3.946087134959216577e-03,-3.630400164162479390e-03,-3.314713193365743937e-03,-2.999026222569005015e-03,-1.163109183029228770e-02,-1.515297459824338673e-02,-1.515297459824338673e-02
-1.515297459824338673e-02,-1.515297459824338673e-02,-1.483728762744664954e-02,-1.452160065664991236e-02,-1.420591368585317517e-02,-1.389022671505643798e-02,-1.352192524912691068e-02,-1.320623827833017350e-02,-1.289055130753343631e-02,-1.257486433673669912e-02,-1.220656287080717356e-02,-1.189087590001043637e-02,-1.044719814135542102e-01,-1.041036799476246916e-01,-1.037879929768279474e-01,-1.057551352169069751e-02,-1.025982655089396033e-02,-9.891525084964433029e-03,-9.575838114167695841e-03,-9.260151143370958654e-03,-8.944464172574221467e-03,-8.576162706644695904e-03,-8.260475735847958717e-03,-7.944788765051221530e-03,-7.576487299121694233e-03,-7.260800328324957045e-03,-6.945113357528219858e-03,-6.629426386731482670e-03,-6.261124920801955374e-03,-5.945437950005218186e-03,-5.629750979208480999e-03,-5.314064008411745546e-03,-4.945762542482218249e-03,-4.630075571685481062e-03,-4.314388600888743874e-03,-3.946087134959216577e-03,-3.630400164162479390e-03,-3.314713193365742203e-03,-2.999026222569005015e-03,-2.630724756639475984e-03,-2.315037785842740531e-03,-1.999350815046003343e-03,-1.683663844249266156e-03,-1.315362378319738859e-03,-8.518615602593206451e-03,-1.515297459824338673e-02,-1.515297459824338673e-02
-1.389022671505643798e-02,-1.352192524912691068e-02,-1.320623827833017350e-02,-1.289055130753343631e-02,-1.252224984160391075e-02,-1.220656287080717356e-02,-1.189087590001043637e-02,-1.157518892921369918e-02,-1.120688746328417189e-02,-1.089120049248743470e-02,-1.057551352169069751e-02,-1.025982655089396033e-02,-1.027883175693049544e-01,-1.024726305985082103e-01,-1.021569436277114801e-01,-8.944464172574221467e-03,-8.576162706644694170e-03,-8.260475735847958717e-03,-7.944788765051221530e-03,-7.576487299121694233e-03,-7.260800328324955311e-03,-6.945113357528219858e-03,-6.629426386731482670e-03,-6.261124920801955374e-03,-5.945437950005219921e-03,-5.629750979208480999e-03,-5.314064008411743811e-03,-4.945762542482216514e-03,-4.630075571685481062e-03,-4.314388600888743874e-03,-3.946087134959216577e-03,-3.630400164162479390e-03,-3.314713193365742203e-03,-2.999026222569005015e-03,-2.630724756639477718e-03,-2.315037785842740531e-03,-1.999350815046003343e-03,-1.683663844249266156e-03,-1.315362378319740594e-03,-9.996754075230034065e-04,-6.839884367262662190e-04,-3.156869707967389221e-04,-1.734723475976807094e-18,-1.734723475976807094e-18,-5.208835018146165327e-03,-1.515297459824338673e-02,-1.515297459824338673e-02
-1.220656287080717356e-02,-1.189087590001043637e-02,-1.157518892921369918e-02,-1.120688746328417189e-02,-1.089120049248743470e-02,-1.057551352169069751e-02,-1.025982655089396033e-02,-9.891525084964433029e-03,-9.575838114167695841e-03,-9.260151143370958654e-03,-8.891849677441433092e-03,-8.576162706644695904e-03,-1.011572682201884732e-01,-1.008415812493917429e-01,-1.004732797834622104e-01,-7.260800328324957045e-03,-6.945113357528219858e-03,-6.629426386731482670e-03,-6.261124920801955374e-03,-5.945437950005218186e-03,-5.629750979208480999e-03,-5.314064008411743811e-03,-4.945762542482216514e-03,-4.630075571685481062e-03,-4.314388600888743874e-03,-3.946087134959216577e-03,-3.630400164162479390e-03,-3.314713193365742203e-03,-2.999026222569005015e-03,-2.630724756639477718e-03,-2.315037785842740531e-03,-1.999350815046003343e-03,-1.683663844249266156e-03,-1.315362378319738859e-03,-9.996754075230016717e-04,-6.839884367262644843e-04,-3.156869707967389221e-04,-1.734723475976807094e-18,-1.734723475976807094e-18,-1.734723475976807094e-18,-1.734723475976807094e-18,-1.734723475976807094e-18,-1.734723475976807094e-18,-1.734723475976807094e-18,-1.894121824780424859e-03,-1.515297459824338673e-02,-1.515297459824338673e-02
-1.057551352169069751e-02,-1.025982655089396033e-02,-9.891525084964433029e-03,-9.575838114167695841e-03,-9.260151143370958654e-03,-8.891849677441433092e-03,-8.576162706644694170e-03,-8.260475735847956982e-03,-7.944788765051221530e-03,-7.576487299121694233e-03,-7.260800328324955311e-03,-6.945113357528219858e-03,-6.629426386731482670e-03,-6.261124920801955374e-03,-5.945437950005218186e-03,-5.629750979208482733e-03,-5.261449513278953702e-03,-4.945762542482216514e-03,-4.630075571685481062e-03,-4.314388600888743874e-03,-3.946087134959216577e-03,-3.630400164162479390e-03,-3.314713193365742203e-03,-2.999026222569005015e-03,-2.630724756639479453e-03,-2.315037785842742266e-03,-1.999350815046003343e-03,-1.631049349116476047e-03,-1.315362378319738859e-03,-9.996754075230016717e-04,-6.839884367262644843e-04,-3.156869707967389221e-04,-1.734723475976807094e-18,-1.734723475976807094e-18,-1.734723475976807094e-18,-1.734723475976807094e-18,-1.734723475976807094e-18,-1.734723475976807094e-18,-1.734723475976807094e-18,-1.734723475976807094e-18,-1.734723475976807094e-18,-1.734723475976807094e-18,-1.734723475976807094e-18,-1.076205582261624549e-04,-2.367652280975563600e-04,-1.422878305447623434e-02,-1.515297459824338673e-02
-8.891849677441433092e-03,-8.576162706644695904e-03,-8.260475735847958717e-03,-7.944788765051219795e-03,-7.576487299121694233e-03,-7.260800328324957045e-03,-6.945113357528219858e-03,-6.629426386731482670e-03,-6.261124920801955374e-03,-5.945437950005219921e-03,-5.629750979208480999e-03,-5.261449513278955437e-03,-4.945762542482216514e-03,-4.630075571685481062e-03,-4.314388600888743874e-03,-3.946087134959218312e-03,-3.630400164162479390e-03,-3.314713193365743937e-03,-2.999026222569005015e-03,-2.630724756639477718e-03,-2.315037785842740531e-03,-1.999350815046003343e-03,-1.631049349116476047e-03,-1.315362378319738859e-03,-9.996754075230016717e-04,-6.839884367262644843e-04,-3.156869707967389221e-04,-1.734723475976807094e-18,-1.734723475976807094e-18,-1.734723475976807094e-18,-1.734723475976807094e-18,-1.734723475976807094e-18,-1.734723475976807094e-18,-1.734723475976807094e-18,-1.734723475976807094e-18,-1.734723475976807094e-18,-1.734723475976807094e-18,-1.734723475976807094e-18,-1.076205582261624549e-04,-2.367652280975546253e-04,-3.659098979689467956e-04,-5.165786794855721509e-04,-6.457233493569660560e-04,-7.748680192283582263e-04,-9.255368007449818468e-04,-1.118782965609829011e-02,-1.515297459824338673e-02
-7.260800328324955311e-03,-6.945113357528219858e-03,-6.629426386731482670e-03,-6.261124920801955374e-03,-5.945437950005219921e-03,-5.629750979208480999e-03,-5.261449513278953702e-03,-4.945762542482218249e-03,-4.630075571685481062e-03,-4.314388600888743874e-03,-3.946087134959216577e-03,-3.630400164162479390e-03,-3.314713193365742203e-03,-2.999026222569005015e-03,-2.630724756639477718e-03,-2.315037785842740531e-03,-1.999350815046003343e-03,-1.631049349116477781e-03,-1.315362378319738859e-03,-9.996754075230016717e-04,-6.839884367262644843e-04,-3.156869707967389221e-04,-1.734723475976807094e-18,-1.734723475976807094e-18,-1.734723475976807094e-18,-1.734723475976807094e-18,-1.734723475976807094e-18,-1.734723475976807094e-18,-1.734723475976807094e-18,-1.734723475976807094e-18,-1.734723475976807094e-18,-1.734723475976807094e-18,-1.734723475976807094e-18,-1.076205582261624549e-04,-2.367652280975528906e-04,-3.659098979689485304e-04,-5.165786794855704162e-04,-6.457233493569660560e-04,-7.748680192283582263e-04,-9.255368007449818468e-04,-1.054681470616372282e-03,-1.183826140487766188e-03,-1.312970810359158358e-03,-1.463639591875783713e-03,-1.592784261747177618e-03,-8.857171942013002813e-03,-1.515297459824338673e-02
-5.629750979208480999e-03,-5.261449513278955437e-03,-4.945762542482218249e-03,-4.630075571685481062e-03,-4.314388600888743874e-03,-3.946087134959216577e-03,-3.630400164162479390e-03,-3.314713193365742203e-03,-2.999026222569005015e-03,-2.630724756639479453e-03,-2.315037785842740531e-03,-1.999350815046003343e-03,-1.631049349116477781e-03,-1.315362378319740594e-03,-9.996754075230034065e-04,-6.839884367262644843e-04,-3.156869707967389221e-04,-1.734723475976807094e-18,-1.734723475976807094e-18,-1.734723475976807094e-18,-1.734723475976807094e-18,-1.734723475976807094e-18,-1.734723475976807094e-18,-1.734723475976807094e-18,-1.734723475976807094e-18,-1.734723475976807094e-18,-1.734723475976807094e-18,-1.734723475976807094e-18,-1.076205582261624549e-04,-2.367652280975546253e-04,-3.659098979689467956e-04,-5.165786794855704162e-04,-6.457233493569660560e-04,-7.748680192283582263e-04,-5.962194110816768089e-02,-5.975108577803908000e-02,-5.988023044791047217e-02,-1.312970810359158358e-03,-1.463639591875781978e-03,-1.592784261747175883e-03,-1.721928931618566319e-03,-1.851073601489960224e-03,-2.001742383006583845e-03,-2.130887052877979485e-03,-2.260031722749369920e-03,-6.790857224070722883e-03,-1.515297459824338673e-02
-3.946087134959216577e-03,-3.630400164162479390e-03,-3.314713193365742203e-03,-2.946411727436216640e-03,-2.630724756639479453e-03,-2.315037785842742266e-03,-1.999350815046003343e-03,-1.631049349116476047e-03,-1.315362378319738859e-03,-9.996754075230016717e-04,-6.839884367262662190e-04,-3.156869707967389221e-04,-1.734723475976807094e-18,-1.734723475976807094e-18,-1.734723475976807094e-18,-1.734723475976807094e-18,0.000000000000000000e+00,-1.734723475976807094e-18,-1.734723475976807094e-18,-1.734723475976807094e-18,-1.734723475976807094e-18,-1.734723475976807094e-18,-1.734723475976807094e-18,-1.076205582261607202e-04,-2.367652280975563600e-04,-3.659098979689450609e-04,-5.165786794855721509e-04,-6.457233493569643212e-04,-7.748680192283582263e-04,-9.255368007449801121e-04,-1.054681470616374017e-03,-1.183826140487766188e-03,-1.312970810359158358e-03,-1.463639591875781978e-03,-6.028918856916987840e-02,-6.041833323904127750e-02,-6.054747790891266968e-02,-2.001742383006583845e-03,-2.130887052877977750e-03,-2.260031722749369920e-03,-2.410700504265995275e-03,-2.539845174137387446e-03,-2.668989844008781351e-03,-2.798134513880173521e-03,-2.948803295396798876e-03,-4.587326294390089640e-03,-1.515297459824338673e-02
-2.315037785842742266e-03,-1.999350815046003343e-03,-1.631049349116477781e-03,-1.315362378319738859e-03,-9.996754075230016717e-04,-6.839884367262644843e-04,-3.156869707967389221e-04,-1.734723475976807094e-18,-1.734723475976807094e-18,-1.734723475976807094e-18,-1.734723475976807094e-18,-1.734723475976807094e-18,-1.734723475976807094e-18,-1.734723475976807094e-18,-1.734723475976807094e-18,-1.734723475976807094e-18,-1.734723475976807094e-18,-1.734723475976807094e-18,-1.076205582261624549e-04,-2.367652280975528906e-04,-3.874340096141782458e-04,-5.165786794855738856e-04,-6.457233493569660560e-04,-7.748680192283564916e-04,-9.255368007449818468e-04,-1.054681470616374017e-03,-1.183826140487764453e-03,-1.312970810359156623e-03,-1.463639591875781978e-03,-1.592784261747175883e-03,-1.721928931618566319e-03,-1.851073601489960224e-03,-2.001742383006587314e-03,-2.130887052877977750e-03,-6.095643603017207590e-02,-6.110710481168869779e-02,-6.123624948156008996e-02,-2.668989844008781351e-03,-2.798134513880173521e-03,-2.948803295396797142e-03,-3.077947965268191047e-03,-3.207092635139581482e-03,-3.336237305010973653e-03,-3.486906086527599008e-03,-3.616050756398991178e-03,-3.745195426270383349e-03,-1.444940519883986321e-02
-6.839884367262644843e-04,-3.156869707967389221e-04,-1.734723475976807094e-18,-1.734723475976807094e-18,-1.734723475976807094e-18,-1.734723475976807094e-18,-1.734723475976807094e-18,-1.734723475976807094e-18,-1.734723475976807094e-18,-1.734723475976807094e-18,-1.734723475976807094e-18,-1.734723475976807094e-18,-1.734723475976807094e-18,-1.076205582261624549e-04,-2.367652280975546253e-04,-3.874340096141817152e-04,-5.165786794855721509e-04,-6.457233493569643212e-04,-7.748680192283582263e-04,-9.255368007449818468e-04,-1.054681470616372282e-03,-1.183826140487766188e-03,-1.312970810359158358e-03,-1.463639591875781978e-03,-1.592784261747175883e-03,-1.721928931618568054e-03,-1.872597713135191674e-03,-2.001742383006585579e-03,-2.130887052877977750e-03,-2.260031722749371655e-03,-2.410700504265995275e-03,-2.539845174137385711e-03,-2.668989844008779616e-03,-2.798134513880173521e-03,-2.948803295396797142e-03,-3.077947965268189312e-03,-3.207092635139581482e-03,-3.336237305010973653e-03,-3.486906086527597273e-03,-3.616050756398989444e-03,-3.745195426270383349e-03,-3.895864207787008704e-03,-4.025008877658400874e-03,-4.154153547529794779e-03,-4.283298217401186950e-03,-4.433966998917810570e-03,-1.217457564933439700e-02
-1.734723475976807094e-18,-1.734723475976807094e-18,-1.734723475976807094e-18,-1.734723475976807094e-18,-1.734723475976807094e-18,-1.734723475976807094e-18,-1.734723475976807094e-18,-1.734723475976807094e-18,-1.076205582261624549e-04,-2.367652280975546253e-04,-3.874340096141799805e-04,-5.165786794855704162e-04,-6.457233493569643212e-04,-7.748680192283582263e-04,-9.255368007449835815e-04,-1.054681470616372282e-03,-1.183826140487767922e-03,-1.312970810359158358e-03,-1.463639591875781978e-03,-1.592784261747174149e-03,-1.721928931618568054e-03,-1.872597713135193409e-03,-2.001742383006585579e-03,-2.130887052877976015e-03,-2.260031722749371655e-03,-2.410700504265995275e-03,-2.539845174137387446e-03,-2.668989844008781351e-03,-2.798134513880173521e-03,-2.948803295396798876e-03,-3.077947965268189312e-03,-3.207092635139581482e-03,-3.357761416656205103e-03,-3.486906086527597273e-03,-3.616050756398989444e-03,-3.745195426270385083e-03,-3.895864207787008704e-03,-4.025008877658400874e-03,-4.154153547529793045e-03,-4.283298217401186950e-03,-4.433966998917810570e-03,-4.563111668789202741e-03,-4.692256338660594911e-03,-4.842925120177218531e-03,-4.972069790048610702e-03,-5.101214459920004607e-03,-1.050174859740651660e-02
-1.734723475976807094e-18,-1.734723475976807094e-18,-1.734723475976807094e-18,-1.076205582261624549e-04,-2.367652280975546253e-04,-3.874340096141782458e-04,-5.165786794855721509e-04,-6.457233493569643212e-04,-7.748680192283582263e-04,-9.255368007449818468e-04,-1.054681470616374017e-03,-1.183826140487764453e-03,-1.312970810359158358e-03,-1.463639591875781978e-03,-1.592784261747175883e-03,-1.721928931618568054e-03,-1.872597713135191674e-03,-2.001742383006585579e-03,-2.130887052877977750e-03,-2.260031722749371655e-03,-2.410700504265995275e-03,-2.539845174137385711e-03,-2.668989844008781351e-03,-2.798134513880173521e-03,-2.948803295396797142e-03,-3.077947965268189312e-03,-3.207092635139583217e-03,-3.357761416656205103e-03,-3.486906086527597273e-03,-3.616050756398991178e-03,-3.745195426270383349e-03,-3.895864207787008704e-03,-4.025008877658400874e-03,-4.154153547529794779e-03,-4.283298217401186950e-03,-4.433966998917810570e-03,-4.563111668789202741e-03,-4.692256338660593176e-03,-4.842925120177218531e-03,-4.972069790048612437e-03,-5.101214459920004607e-03,-5.230359129791396777e-03,-5.381027911308022132e-03,-5.510172581179414303e-03,-5.639317251050806473e-03,-5.768461920922200378e-03,-9.093264541621641842e-03
-3.874340096141782458e-04,-5.165786794855721509e-04,-6.457233493569643212e-04,-7.748680192283582263e-04,-9.255368007449801121e-04,-1.054681470616374017e-03,-1.183826140487766188e-03,-1.334494922004389808e-03,-1.463639591875781978e-03,-1.592784261747175883e-03,-1.721928931618569789e-03,-1.995682892950052245e-01,-1.996974339648766028e-01,-1.998265786347480089e-01,-1.999557233046193871e-01,-2.001063920861360090e-01,-2.539845174137387446e-03,-2.668989844008781351e-03,-2.798134513880173521e-03,-2.948803295396795407e-03,-3.077947965268189312e-03,-3.207092635139581482e-03,-3.357761416656205103e-03,-3.486906086527599008e-03,-3.616050756398991178e-03,-3.745195426270385083e-03,-3.895864207787008704e-03,-4.025008877658400874e-03,-4.154153547529794779e-03,-4.283298217401186950e-03,-4.433966998917810570e-03,-4.563111668789202741e-03,-4.692256338660594911e-03,-4.842925120177218531e-03,-4.972069790048610702e-03,-5.101214459920002872e-03,-5.230359129791396777e-03,-5.381027911308022132e-03,-5.510172581179414303e-03,-5.639317251050806473e-03,-5.768461920922200378e-03,-5.919130702438823999e-03,-6.048275372310216169e-03,-6.177420042181606605e-03,-6.328088823698233695e-03,-6.457233493569625865e-03,-7.924908856378889283e-03
-1.054681470616374017e-03,-1.183826140487764453e-03,-1.334494922004389808e-03,-1.463639591875781978e-03,-1.592784261747175883e-03,-1.721928931618568054e-03,-1.872597713135191674e-03,-2.001742383006585579e-03,-2.130887052877977750e-03,-2.260031722749369920e-03,-2.410700504265997010e-03,-2.002355367560074151e-01,-2.003646814258788211e-01,-2.005153502073954430e-01,-2.006444948772668213e-01,-2.007736395471382274e-01,-3.207092635139581482e-03,-3.357761416656206838e-03,-3.486906086527597273e-03,-3.616050756398991178e-03,-3.745195426270385083e-03,-3.895864207787008704e-03,-4.025008877658400874e-03,-4.154153547529794779e-03,-4.283298217401185215e-03,-4.433966998917810570e-03,-4.563111668789202741e-03,-4.692256338660594911e-03,-4.842925120177218531e-03,-4.972069790048610702e-03,-5.101214459920006342e-03,-5.230359129791396777e-03,-5.381027911308020398e-03,-5.510172581179416038e-03,-5.639317251050806473e-03,-5.768461920922200378e-03,-5.919130702438823999e-03,-6.048275372310217904e-03,-6.177420042181610074e-03,-6.328088823698233695e-03,-6.457233493569625865e-03,-6.586378163441018035e-03,-6.715522833312410206e-03,-6.866191614829033826e-03,-6.995336284700427731e-03,-7.124480954571819902e-03,-7.253625624443213807e-03
-1.721928931618568054e-03,-1.872597713135191674e-03,-2.001742383006583845e-03,-2.130887052877976015e-03,-2.260031722749369920e-03,-2.410700504265995275e-03,-2.539845174137387446e-03,-2.668989844008779616e-03,-2.819658625525406706e-03,-2.948803295396797142e-03,-3.077947965268187577e-03,-2.009027842170096056e-01,-2.010534529985262275e-01,-2.011825976683976336e-01,-2.013117423382690119e-01,-2.014408870081404179e-01,-3.895864207787008704e-03,-4.025008877658400874e-03,-4.154153547529793045e-03,-4.304822329046416665e-03,-4.433966998917810570e-03,-4.563111668789201006e-03,-4.692256338660594911e-03,-4.842925120177218531e-03,-4.972069790048610702e-03,-5.101214459920002872e-03,-5.230359129791396777e-03,-5.381027911308023867e-03,-5.510172581179414303e-03,-5.639317251050806473e-03,-5.789986032567431828e-03,-5.919130702438823999e-03,-6.048275372310217904e-03,-6.177420042181610074e-03,-6.328088823698233695e-03,-6.457233493569625865e-03,-6.586378163441019770e-03,-6.715522833312410206e-03,-6.866191614829033826e-03,-6.995336284700427731e-03,-7.124480954571819902e-03,-7.253625624443213807e-03,-7.404294405959837427e-03,-7.533439075831230465e-03,-7.662583745702622635e-03,-7.813252527219247123e-03,-7.942397197090639294e-03
-2.410700504265995275e-03,-2.539845174137387446e-03,-2.668989844008781351e-03,-2.819658625525404971e-03,-2.948803295396798876e-03,-3.077947965268189312e-03,-3.207092635139583217e-03,-3.357761416656205103e-03,-3.486906086527599008e-03,-3.616050756398991178e-03,-3.745195426270383349e-03,-2.015915557896570398e-01,-2.017207004595284181e-01,-2.018498451293998242e-01,-2.020005139109164460e-01,-2.021296585807878521e-01,-4.563111668789202741e-03,-4.692256338660596646e-03,-4.842925120177218531e-03,-4.972069790048612437e-03,-5.101214459920004607e-03,-5.230359129791396777e-03,-5.381027911308023867e-03,-5.510172581179414303e-03,-5.639317251050808208e-03,-5.789986032567431828e-03,-5.919130702438825734e-03,-6.048275372310217904e-03,-6.177420042181610074e-03,-6.328088823698233695e-03,-6.457233493569627600e-03,-6.586378163441019770e-03,-6.715522833312410206e-03,-6.866191614829033826e-03,-6.995336284700427731e-03,-7.124480954571819902e-03,-7.275149736088445257e-03,-7.404294405959837427e-03,-7.533439075831230465e-03,-7.662583745702621768e-03,-7.813252527219247123e-03,-7.942397197090639294e-03,-8.071541866962031464e-03,-8.200686536833423634e-03,-8.351355318350048990e-03,-8.480499988221441160e-03,-8.609644658092833330e-03
-3.077947965268189312e-03,-3.207092635139581482e-03,-3.357761416656206838e-03,-3.486906086527599008e-03,-3.616050756398991178e-03,-3.745195426270385083e-03,-3.895864207787008704e-03,-4.025008877658402609e-03,-4.154153547529793045e-03,-4.304822329046416665e-03,-4.433966998917810570e-03,-2.022588032506592304e-01,-2.023879479205306364e-01,-2.025386167020472583e-01,-2.026677613719186366e-01,-2.027969060417900427e-01,-5.230359129791396777e-03,-5.381027911308020398e-03,-5.510172581179414303e-03,-5.639317251050806473e-03,-5.789986032567431828e-03,-5.919130702438823999e-03,-6.048275372310216169e-03,-6.177420042181608340e-03,-6.328088823698233695e-03,-6.457233493569625865e-03,-6.586378163441018035e-03,-6.715522833312410206e-03,-6.866191614829033826e-03,-6.995336284700427731e-03,-7.124480954571819902e-03,-7.275149736088445257e-03,-7.404294405959837427e-03,-7.533439075831229598e-03,-7.662583745702622635e-03,-7.813252527219247123e-03,-7.942397197090639294e-03,-8.071541866962031464e-03,-8.200686536833423634e-03,-8.351355318350048990e-03,-8.480499988221441160e-03,-8.609644658092833330e-03,-8.760313439609458686e-03,-8.889458109480850856e-03,-9.018602779352243026e-03,-9.147747449223636931e-03,-9.298416230740260552e-03
-3.766719537915616534e-03,-3.895864207787008704e-03,-4.025008877658400874e-03,-4.154153547529794779e-03,-4.304822329046418400e-03,-4.433966998917810570e-03,-4.563111668789202741e-03,-4.692256338660594911e-03,-4.842925120177218531e-03,-4.972069790048610702e-03,-5.101214459920002872e-03,-5.251883241436629962e-03,-5.381027911308020398e-03,-5.510172581179416038e-03,-5.639317251050806473e-03,-5.789986032567431828e-03,-5.919130702438823999e-03,-6.048275372310216169e-03,-6.177420042181610074e-03,-6.328088823698233695e-03,-6.457233493569625865e-03,-6.586378163441018035e-03,-6.715522833312410206e-03,-6.866191614829033826e-03,-6.995336284700427731e-03,-7.124480954571819902e-03,-7.275149736088445257e-03,-7.404294405959837427e-03,-7.533439075831229598e-03,-7.662583745702622635e-03,-7.813252527219247123e-03,-7.942397197090639294e-03,-8.071541866962031464e-03,-8.200686536833423634e-03,-8.351355318350048990e-03,-8.480499988221441160e-03,-8.609644658092835065e-03,-8.760313439609458686e-03,-8.889458109480850856e-03,-9.018602779352243026e-03,-9.147747449223636931e-03,-9.298416230740260552e-03,-9.427560900611652722e-03,-9.556705570483046627e-03,-9.685850240354437063e-03,-9.836519021871062418e-03,-9.965663691742454589e-03
-6.108811936312430815e-03,-4.563111668789202741e-03,-4.692256338660594911e-03,-4.842925120177218531e-03,-4.972069790048610702e-03,-5.101214459920004607e-03,-5.251883241436629962e-03,-5.381027911308022132e-03,-5.510172581179414303e-03,-5.639317251050806473e-03,-5.789986032567431828e-03,-5.919130702438823999e-03,-6.048275372310217904e-03,-6.177420042181608340e-03,-6.328088823698233695e-03,-6.457233493569625865e-03,-6.586378163441018035e-03,-6.737046944957643391e-03,-6.866191614829033826e-03,-6.995336284700427731e-03,-7.124480954571819902e-03,-7.275149736088445257e-03,-7.404294405959837427e-03,-7.533439075831229598e-03,-7.662583745702622635e-03,-7.813252527219247123e-03,-7.942397197090639294e-03,-8.071541866962031464e-03,-8.200686536833423634e-03,-8.351355318350048990e-03,-8.480499988221441160e-03,-8.609644658092833330e-03,-8.760313439609458686e-03,-8.889458109480850856e-03,-9.018602779352243026e-03,-9.147747449223636931e-03,-9.298416230740260552e-03,-9.427560900611652722e-03,-9.556705570483046627e-03,-9.685850240354438798e-03,-9.836519021871062418e-03,-9.965663691742454589e-03,-1.009480836161384676e-02,-1.024547714313047211e-02,-1.037462181300186428e-02,-1.050376648287325645e-02,-1.063291115274464863e-02
-8.556507007468665965e-03,-5.251883241436629962e-03,-5.381027911308020398e-03,-5.510172581179414303e-03,-5.639317251050806473e-03,-5.789986032567431828e-03,-5.919130702438823999e-03,-6.048275372310216169e-03,-6.177420042181608340e-03,-6.328088823698233695e-03,-6.457233493569625865e-03,-6.586378163441018035e-03,-6.737046944957643391e-03,-6.866191614829033826e-03,-6.995336284700427731e-03,-7.124480954571819902e-03,-7.275149736088443522e-03,-7.404294405959837427e-03,-7.533439075831230465e-03,-7.662583745702622635e-03,-7.813252527219247123e-03,-7.942397197090639294e-03,-8.071541866962033199e-03,-8.222210648478656819e-03,-8.351355318350048990e-03,-8.480499988221441160e-03,-8.609644658092833330e-03,-8.760313439609458686e-03,-8.889458109480850856e-03,-9.018602779352243026e-03,-9.147747449223635197e-03,-9.298416230740260552e-03,-9.427560900611652722e-03,-9.556705570483044893e-03,-9.685850240354438798e-03,-9.836519021871062418e-03,-9.965663691742454589e-03,-1.009480836161384676e-02,-1.024547714313047211e-02,-1.037462181300186428e-02,-1.050376648287325645e-02,-1.063291115274464863e-02,-1.078357993426127398e-02,-1.091272460413266615e-02,-1.104186927400405832e-02,-1.117101394387545049e-02,-1.132168272539207585e-02
-1.076407370808278238e-02,-5.919130702438825734e-03,-6.048275372310217904e-03,-6.177420042181608340e-03,-6.328088823698233695e-03,-6.457233493569625865e-03,-6.586378163441018035e-03,-6.737046944957643391e-03,-6.866191614829033826e-03,-6.995336284700427731e-03,-7.124480954571819902e-03,-7.275149736088443522e-03,-7.404294405959837427e-03,-7.533439075831230465e-03,-7.662583745702623503e-03,-7.813252527219247123e-03,-7.942397197090639294e-03,-8.071541866962031464e-03,-8.222210648478656819e-03,-8.351355318350048990e-03,-8.480499988221441160e-03,-8.609644658092833330e-03,-8.760313439609458686e-03,-8.889458109480850856e-03,-9.018602779352244761e-03,-9.147747449223636931e-03,-9.298416230740260552e-03,-9.427560900611652722e-03,-9.556705570483044893e-03,-9.707374351999670248e-03,-9.836519021871062418e-03,-9.965663691742454589e-03,-1.009480836161384676e-02,-1.024547714313047211e-02,-1.037462181300186428e-02,-1.050376648287325645e-02,-1.063291115274465036e-02,-1.078357993426127398e-02,-1.091272460413266615e-02,-1.104186927400405832e-02,-1.117101394387545049e-02,-1.132168272539207585e-02,-1.145082739526346802e-02,-1.157997206513486019e-02,-1.173064084665148554e-02,-1.185978551652287771e-02,-1.198893018639426988e-02
-1.270729741255389143e-02,-6.586378163441018035e-03,-6.737046944957641656e-03,-6.866191614829033826e-03,-6.995336284700427731e-03,-7.124480954571819902e-03,-7.275149736088443522e-03,-7.404294405959837427e-03,-7.533439075831230465e-03,-7.662583745702622635e-03,-7.813252527219247123e-03,-7.942397197090639294e-03,-8.071541866962031464e-03,-8.222210648478656819e-03,-8.351355318350048990e-03,-8.480499988221441160e-03,-8.609644658092833330e-03,-8.760313439609458686e-03,-8.889458109480850856e-03,-9.018602779352243026e-03,-9.147747449223636931e-03,-9.298416230740260552e-03,-9.427560900611652722e-03,-9.556705570483046627e-03,-9.707374351999670248e-03,-9.836519021871062418e-03,-9.965663691742454589e-03,-1.009480836161384676e-02,-1.024547714313047211e-02,-1.037462181300186428e-02,-1.050376648287325645e-02,-1.063291115274464863e-02,-1.078357993426127398e-02,-1.091272460413266615e-02,-1.104186927400405832e-02,-1.119253805552068368e-02,-1.132168272539207585e-02,-1.145082739526346802e-02,-1.157997206513486019e-02,-1.173064084665148554e-02,-1.185978551652287771e-02,-1.198893018639426988e-02,-1.211807485626566205e-02,-1.226874363778228741e-02,-1.239788830765367958e-02,-1.252703297752507175e-02,-1.267770175904169710e-02
-1.465119374551391435e-02,-7.275149736088443522e-03,-7.404294405959837427e-03,-7.533439075831229598e-03,-7.662583745702622635e-03,-7.813252527219247123e-03,-7.942397197090639294e-03,-8.071541866962031464e-03,-8.222210648478656819e-03,-8.351355318350048990e-03,-8.480499988221441160e-03,-8.609644658092833330e-03,-8.760313439609458686e-03,-8.889458109480850856e-03,-9.018602779352244761e-03,-9.147747449223635197e-03,-1.704215730962078679e-01,-1.705507177660792462e-01,-1.706798624359506522e-01,-9.707374351999670248e-03,-9.836519021871062418e-03,-9.965663691742454589e-03,-1.009480836161384849e-02,-1.024547714313047211e-02,-1.037462181300186428e-02,-1.050376648287325645e-02,-1.063291115274464863e-02,-1.078357993426127398e-02,-1.091272460413266615e-02,-1.104186927400405832e-02,-1.119253805552068368e-02,-1.132168272539207585e-02,-1.145082739526346802e-02,-1.157997206513486019e-02,-1.173064084665148554e-02,-1.185978551652287771e-02,-1.198893018639426988e-02,-1.211807485626566379e-02,-1.226874363778228741e-02,-1.239788830765367958e-02,-1.252703297752507175e-02,-1.267770175904169710e-02,-1.280684642891308928e-02,-1.293599109878448145e-02,-1.306513576865587362e-02,-1.321580455017249897e-02,-1.334494922004389114e-02
-1.515297459824338673e-02,-9.069049916020756677e-03,-8.071541866962031464e-03,-8.222210648478656819e-03,-8.351355318350048990e-03,-8.480499988221441160e-03,-8.609644658092833330e-03,-8.760313439609458686e-03,-8.889458109480850856e-03,-9.018602779352243026e-03,-9.147747449223635197e-03,-9.298416230740260552e-03,-9.427560900611652722e-03,-9.556705570483046627e-03,-9.707374351999670248e-03,-9.836519021871062418e-03,-1.710888205572100584e-01,-1.712179652270814367e-01,-1.713686340085980864e-01,-1.037462181300186428e-02,-1.050376648287325645e-02,-1.063291115274465036e-02,-1.078357993426127398e-02,-1.091272460413266615e-02,-1.104186927400405832e-02,-1.119253805552068368e-02,-1.132168272539207585e-02,-1.145082739526346802e-02,-1.157997206513486192e-02,-1.173064084665148554e-02,-1.185978551652287771e-02,-1.198893018639426988e-02,-1.211807485626566379e-02,-1.226874363778228741e-02,-1.239788830765367958e-02,-1.252703297752507175e-02,-1.267770175904169710e-02,-1.280684642891308928e-02,-1.293599109878448145e-02,-1.306513576865587362e-02,-1.321580455017249897e-02,-1.334494922004389114e-02,-1.347409388991528505e-02,-1.360323855978667722e-02,-1.375390734130330084e-02,-1.388305201117469301e-02,-1.401219668104608691e-02
-1.515297459824338673e-02,-1.085891432501958666e-02,-8.760313439609458686e-03,-8.889458109480850856e-03,-9.018602779352243026e-03,-9.169271560868868381e-03,-9.298416230740260552e-03,-9.427560900611652722e-03,-9.556705570483044893e-03,-9.707374351999670248e-03,-9.836519021871062418e-03,-9.965663691742454589e-03,-1.009480836161384676e-02,-1.024547714313047211e-02,-1.037462181300186428e-02,-1.050376648287325645e-02,-1.717775921298574926e-01,-1.719067367997288709e-01,-1.720358814696002769e-01,-1.104186927400405832e-02,-1.119253805552068368e-02,-1.132168272539207585e-02,-1.145082739526346802e-02,-1.157997206513486019e-02,-1.173064084665148554e-02,-1.185978551652287771e-02,-1.198893018639426988e-02,-1.211807485626566379e-02,-1.226874363778228741e-02,-1.239788830765367958e-02,-1.252703297752507175e-02,-1.267770175904169710e-02,-1.280684642891308928e-02,-1.293599109878448145e-02,-1.306513576865587362e-02,-1.321580455017249897e-02,-1.334494922004389114e-02,-1.347409388991528505e-02,-1.360323855978667722e-02,-1.375390734130330084e-02,-1.388305201117469301e-02,-1.401219668104608691e-02,-1.416286546256271053e-02,-1.429201013243410270e-02,-1.442115480230549661e-02,-1.455029947217688878e-02,-1.470096825369351240e-02
-1.515297459824338673e-02,-1.240865036347629617e-02,-9.427560900611652722e-03,-9.556705570483046627e-03,-9.707374351999670248e-03,-9.836519021871062418e-03,-9.965663691742454589e-03,-1.009480836161384676e-02,-1.024547714313047211e-02,-1.037462181300186428e-02,-1.050376648287325645e-02,-1.065443526438988181e-02,-1.078357993426127398e-02,-1.091272460413266615e-02,-1.104186927400405832e-02,-1.119253805552068368e-02,-1.132168272539207585e-02,-1.145082739526346802e-02,-1.157997206513486019e-02,-1.173064084665148554e-02,-1.185978551652287771e-02,-1.198893018639426988e-02,-1.213959896791089524e-02,-1.226874363778228741e-02,-1.239788830765367958e-02,-1.252703297752507348e-02,-1.267770175904169710e-02,-1.280684642891308928e-02,-1.293599109878448145e-02,-1.306513576865587535e-02,-1.321580455017249897e-02,-1.334494922004389114e-02,-1.347409388991528505e-02,-1.362476267143190867e-02,-1.375390734130330084e-02,-1.388305201117469474e-02,-1.401219668104608691e-02,-1.416286546256271053e-02,-1.429201013243410270e-02,-1.442115480230549661e-02,-1.455029947217688878e-02,-1.470096825369351240e-02,-1.483011292356490630e-02,-1.495925759343629848e-02,-1.508840226330769065e-02,-1.515297459824338673e-02,-1.515297459824338673e-02
-1.515297459824338673e-02,-1.369404340579000005e-02,-1.009480836161384676e-02,-1.024547714313047211e-02,-1.037462181300186428e-02,-1.050376648287325645e-02,-1.065443526438988181e-02,-1.078357993426127398e-02,-1.091272460413266615e-02,-1.104186927400405832e-02,-1.119253805552068368e-02,-1.132168272539207585e-02,-1.145082739526346802e-02,-1.157997206513486192e-02,-1.173064084665148554e-02,-1.185978551652287771e-02,-1.198893018639427162e-02,-1.213959896791089524e-02,-1.226874363778228741e-02,-1.239788830765367958e-02,-1.252703297752507348e-02,-1.267770175904169710e-02,-1.280684642891308928e-02,-1.293599109878448145e-02,-1.306513576865587362e-02,-1.321580455017249897e-02,-1.334494922004389114e-02,-1.347409388991528505e-02,-1.362476267143190867e-02,-1.375390734130330084e-02,-1.388305201117469301e-02,-1.401219668104608691e-02,-1.416286546256271053e-02,-1.429201013243410270e-02,-1.442115480230549661e-02,-1.455029947217688878e-02,-1.470096825369351240e-02,-1.483011292356490630e-02,-1.495925759343629848e-02,-1.510992637495292210e-02,-1.515297459824338673e-02,-1.515297459824338673e-02,-1.515297459824338673e-02,-1.515297459824338673e-02,-1.515297459824338673e-02,-1.515297459824338673e-02,-1.515297459824338673e-02
-1.515297459824338673e-02,-1.487181588987754322e-02,-1.078357993426127398e-02,-1.091272460413266615e-02,-1.104186927400405832e-02,-1.119253805552068368e-02,-1.132168272539207585e-02,-1.145082739526346802e-02,-1.157997206513486192e-02,-1.173064084665148554e-02,-1.185978551652287771e-02,-1.198893018639426988e-02,-1.213959896791089524e-02,-1.226874363778228741e-02,-1.239788830765367958e-02,-1.252703297752507348e-02,-1.267770175904169710e-02,-1.280684642891308928e-02,-1.293599109878448145e-02,-1.306513576865587362e-02,-1.321580455017249897e-02,-1.334494922004389114e-02,-1.347409388991528331e-02,-1.362476267143190867e-02,-1.375390734130330084e-02,-1.388305201117469474e-02,-1.401219668104608691e-02,-1.416286546256271053e-02,-1.429201013243410270e-02,-1.442115480230549661e-02,-1.455029947217688878e-02,-1.470096825369351240e-02,-1.483011292356490630e-02,-1.495925759343629848e-02,-1.510992637495292210e-02,-1.515297459824338673e-02,-1.515297459824338673e-02,-1.515297459824338673e-02,-1.515297459824338673e-02,-1.515297459824338673e-02,-1.515297459824338673e-02,-1.515297459824338673e-02,-1.515297459824338673e-02,-1.515297459824338673e-02,-1.515297459824338673e-02,-1.515297459824338673e-02,-1.515297459824338673e-02
-1.515297459824338673e-02,-1.515297459824338673e-02,-1.202928789572908080e-02,-1.157997206513486019e-02,-1.173064084665148554e-02,-1.185978551652287771e-02,-1.198893018639426988e-02,-1.213959896791089524e-02,-1.226874363778228741e-02,-1.239788830765367958e-02,-1.252703297752507175e-02,-1.267770175904169710e-02,-1.280684642891308928e-02,-1.293599109878448145e-02,-1.306513576865587362e-02,-1.321580455017249897e-02,-1.334494922004389114e-02,-1.347409388991528505e-02,-1.362476267143190867e-02,-1.375390734130330084e-02,-1.388305201117469301e-02,-1.401219668104608691e-02,-1.416286546256271053e-02,-1.429201013243410270e-02,-1.442115480230549661e-02,-1.455029947217688878e-02,-1.470096825369351240e-02,-1.483011292356490630e-02,-1.495925759343629848e-02,-1.510992637495292210e-02,-1.515297459824338673e-02,-1.515297459824338673e-02,-1.515297459824338673e-02,-1.515297459824338673e-02,-1.515297459824338673e-02,-1.515297459824338673e-02,-1.515297459824338673e-02,-1.515297459824338673e-02,-1.515297459824338673e-02,-1.515297459824338673e-02,-1.515297459824338673e-02,-1.515297459824338673e-02,-1.515297459824338673e-02,-1.515297459824338673e-02,-1.515297459824338673e-02,-1.515297459824338673e-02,-1.515297459824338673e-02
-1.515297459824338673e-02,-1.515297459824338673e-02,-1.317544684083768979e-02,-1.226874363778228741e-02,-1.239788830765367958e-02,-1.252703297752507175e-02,-1.267770175904169710e-02,-1.280684642891308928e-02,-1.293599109878448145e-02,-1.306513576865587362e-02,-1.321580455017249897e-02,-1.334494922004389114e-02,-1.347409388991528331e-02,-1.362476267143190867e-02,-1.375390734130330084e-02,-1.388305201117469301e-02,-1.401219668104608691e-02,-1.416286546256271053e-02,-1.429201013243410270e-02,-1.442115480230549661e-02,-1.455029947217688878e-02,-1.470096825369351240e-02,-1.483011292356490630e-02,-1.495925759343629848e-02,-1.510992637495292210e-02,-1.515297459824338673e-02,-1.515297459824338673e-02,-1.515297459824338673e-02,-1.515297459824338673e-02,-1.515297459824338673e-02,-1.515297459824338673e-02,-1.515297459824338673e-02,-1.515297459824338673e-02,-1.515297459824338673e-02,-1.515297459824338673e-02,-1.515297459824338673e-02,-1.515297459824338673e-02,-1.515297459824338673e-02,-1.515297459824338673e-02,-1.515297459824338673e-02,-1.515297459824338673e-02,-1.515297459824338673e-02,-1.515297459824338673e-02,-1.515297459824338673e-02,-1.515297459824338673e-02,-1.515297459824338673e-02,-1.515297459824338673e-02
-1.515297459824338673e-02,-1.515297459824338673e-02,-1.405322701886980996e-02,-1.293599109878448145e-02,-1.308665988030110680e-02,-1.321580455017249897e-02,-1.334494922004389114e-02,-1.347409388991528331e-02,-1.362476267143190867e-02,-1.375390734130330084e-02,-1.388305201117469301e-02,-1.401219668104608691e-02,-1.416286546256271053e-02,-1.429201013243410270e-02,-1.442115480230549661e-02,-1.455029947217688878e-02,-1.470096825369351240e-02,-1.483011292356490630e-02,-1.495925759343629848e-02,-1.510992637495292210e-02,-1.515297459824338673e-02,-1.515297459824338673e-02,-1.515297459824338673e-02,-1.515297459824338673e-02,-1.515297459824338673e-02,-1.515297459824338673e-02,-1.515297459824338673e-02,-1.515297459824338673e-02,-1.515297459824338673e-02,-1.515297459824338673e-02,-1.515297459824338673e-02,-1.515297459824338673e-02,-1.515297459824338673e-02,-1.515297459824338673e-02,-1.515297459824338673e-02,-1.515297459824338673e-02,-1.515297459824338673e-02,-1.515297459824338673e-02,-1.515297459824338673e-02,-1.515297459824338673e-02,-1.515297459824338673e-02,-1.515297459824338673e-02,-1.515297459824338673e-02,-1.515297459824338673e-02,-1.515297459824338673e-02,-1.515297459824338673e-02,-1.515297459824338673e-02
-1.515297459824338673e-02,-1.515297459824338673e-02,-1.468078939902610867e-02,-1.362476267143190867e-02,-1.375390734130330084e-02,-1.388305201117469474e-02,-1.401219668104608691e-02,-1.416286546256271053e-02,-1.429201013243410270e-02,-1.442115480230549661e-02,-1.457182358382212023e-02,-1.470096825369351240e-02,-1.483011292356490630e-02,-1.495925759343629848e-02,-1.510992637495292210e-02,-1.515297459824338673e-02,-1.515297459824338673e-02,-1.515297459824338673e-02,-1.515297459824338673e-02,-1.515297459824338673e-02,-1.515297459824338673e-02,-1.515297459824338673e-02,-1.515297459824338673e-02,-1.515297459824338673e-02,-1.515297459824338673e-02,-1.515297459824338673e-02,-1.515297459824338673e-02,-1.515297459824338673e-02,-1.515297459824338673e-02,-1.515297459824338673e-02,-1.515297459824338673e-02,-1.515297459824338673e-02,-1.515297459824338673e-02,-1.515297459824338673e-02,-1.515297459824338673e-02,-1.515297459824338673e-02,-1.515297459824338673e-02,-1.515297459824338673e-02,-1.515297459824338673e-02,-1.515297459824338673e-02,-1.920209696463684168e-01,-1.920209696463684168e-01,-1.920209696463684168e-01,-1.515297459824338673e-02,-1.515297459824338673e-02,-1.515297459824338673e-02,-1.515297459824338673e-02
-1.515297459824338673e-02,-1.515297459824338673e-02,-1.509109277726334436e-02,-1.429201013243410270e-02,-1.442115480230549661e-02,-1.457182358382212023e-02,-1.470096825369351240e-02,-1.483011292356490630e-02,-1.495925759343629848e-02,-1.510992637495292210e-02,-1.515297459824338673e-02,-1.515297459824338673e-02,-1.515297459824338673e-02,-1.515297459824338673e-02,-1.515297459824338673e-02,-1.515297459824338673e-02,-1.515297459824338673e-02,-1.515297459824338673e-02,-1.515297459824338673e-02,-1.515297459824338673e-02,-1.515297459824338673e-02,-1.515297459824338673e-02,-1.515297459824338673e-02,-1.515297459824338673e-02,-1.515297459824338673e-02,-1.515297459824338673e-02,-1.515297459824338673e-02,-1.515297459824338673e-02,-1.515297459824338673e-02,-1.515297459824338673e-02,-1.515297459824338673e-02,-1.515297459824338673e-02,-1.515297459824338673e-02,-1.515297459824338673e-02,-1.515297459824338673e-02,-1.515297459824338673e-02,-1.515297459824338673e-02,-1.515297459824338673e-02,-1.515297459824338673e-02,-1.515297459824338673e-02,-1.920209696463684168e-01,-1.920209696463684168e-01,-1.920209696463684168e-01,-1.515297459824338673e-02,-1.515297459824338673e-02,-1.515297459824338673e-02,-1.515297459824338673e-02
-1.515297459824338673e-02,-1.515297459824338673e-02,-1.515297459824338673e-02,-1.498952587543740493e-02,-1.510992637495292210e-02,-1.515297459824338673e-02,-1.515297459824338673e-02,-1.515297459824338673e-02,-1.515297459824338673e-02,-1.515297459824338673e-02,-1.515297459824338673e-02,-1.515297459824338673e-02,-1.515297459824338673e-02,-1.515297459824338673e-02,-1.515297459824338673e-02,-1.515297459824338673e-02,-1.515297459824338673e-02,-1.515297459824338673e-02,-1.515297459824338673e-02,-1.515297459824338673e-02,-1.515297459824338673e-02,-1.515297459824338673e-02,-1.515297459824338673e-02,-1.515297459824338673e-02,-1.515297459824338673e-02,-1.515297459824338673e-02,-1.515297459824338673e-02,-1.515297459824338673e-02,-1.515297459824338673e-02,-1.515297459824338673e-02,-1.515297459824338673e-02,-1.515297459824338673e-02,-1.515297459824338673e-02,-1.515297459824338673e-02,-1.515297459824338673e-02,-1.515297459824338673e-02,-1.515297459824338673e-02,-1.515297459824338673e-02,-1.515297459824338673e-02,-1.515297459824338673e-02,-1.920209696463684168e-01,-1.920209696463684168e-01,-1.920209696463684168e-01,-1.515297459824338673e-02,-1.515297459824338673e-02,-1.515297459824338673e-02,-1.515297459824338673e-02
-1.515297459824338673e-02,-1.515297459824338673e-02,-1.515297459824338673e-02,-1.515297459824338673e-02,-1.515297459824338673e-02,-1.515297459824338673e-02,-1.515297459824338673e-02,-1.515297459824338673e-02,-1.515297459824338673e-02,-1.515297459824338673e-02,-1.515297459824338673e-02,-1.515297459824338673e-02,-1.515297459824338673e-02,-1.515297459824338673e-02,-1.515297459824338673e-02,-1.515297459824338673e-02,-1.515297459824338673e-02,-1.515297459824338673e-02,-1.515297459824338673e-02,-1.515297459824338673e-02,-1.515297459824338673e-02,-1.515297459824338673e-02,-1.515297459824338673e-02,-1.515297459824338673e-02,-1.515297459824338673e-02,-1.515297459824338673e-02,-1.515297459824338673e-02,-1.515297459824338673e-02,-1.515297459824338673e-02,-1.515297459824338673e-02,-1.515297459824338673e-02,-1.515297459824338673e-02,-1.515297459824338673e-02,-1.515297459824338673e-02,-1.515297459824338673e-02,-1.515297459824338673e-02,-1.515297459824338673e-02,-1.515297459824338673e-02,-1.515297459824338673e-02,-1.515297459824338673e-02,-1.515297459824338673e-02,-1.515297459824338673e-02,-1.515297459824338673e-02,-1.515297459824338673e-02,-1.515297459824338673e-02,-1.515297459824338673e-02,-1.515297459824338673e-02
-1.515297459824338673e-02,-1.515297459824338673e-02,-1.515297459824338673e-02,-1.515297459824338673e-02,-1.515297459824338673e-02,-1.515297459824338673e-02,-1.515297459824338673e-02,-1.515297459824338673e-02,-1.515297459824338673e-02,-1.515297459824338673e-02,-1.515297459824338673e-02,-1.515297459824338673e-02,-1.515297459824338673e-02,-1.515297459824338673e-02,-1.515297459824338673e-02,-1.515297459824338673e-02,-1.515297459824338673e-02,-1.515297459824338673e-02,-1.515297459824338673e-02,-1.515297459824338673e-02,-1.515297459824338673e-02,-1.515297459824338673e-02,-1.515297459824338673e-02,-1.515297459824338673e-02,-1.515297459824338673e-02,-1.515297459824338673e-02,-1.515297459824338673e-02,-1.515297459824338673e-02,-1.515297459824338673e-02,-1.515297459824338673e-02,-1.515297459824338673e-02,-1.515297459824338673e-02,-1.515297459824338673e-02,-1.515297459824338673e-02,-1.515297459824338673e-02,-1.515297459824338673e-02,-1.515297459824338673e-02,-1.515297459824338673e-02,-1.515297459824338673e-02,-1.515297459824338673e-02,-1.515297459824338673e-02,-1.515297459824338673e-02,-1.515297459824338673e-02,-1.515297459824338673e-02,-1.515297459824338673e-02,-1.515297459824338673e-02,-1.515297459824338673e-02
-1.515297459824338673e-02,-1.515297459824338673e-02,-1.515297459824338673e-02,-1.515297459824338673e-02,-1.515297459824338673e-02,-1.515297459824338673e-02,-1.515297459824338673e-02,-1.515297459824338673e-02,-1.515297459824338673e-02,-1.515297459824338673e-02,-1.515297459824338673e-02,-1.515297459824338673e-02,-1.515297459824338673e-02,-1.515297459824338673e-02,-1.515297459824338673e-02,-1.515297459824338673e-02,-1.515297459824338673e-02,-1.515297459824338673e-02,-1.515297459824338673e-02,-1.515297459824338673e-02,-1.515297459824338673e-02,-1.515297459824338673e-02,-1.515297459824338673e-02,-1.515297459824338673e-02,-1.515297459824338673e-02,-1.515297459824338673e-02,-1.515297459824338673e-02,-1.515297459824338673e-02,-1.515297459824338673e-02,-1.515297459824338673e-02,-1.515297459824338673e-02,-1.515297459824338673e-02,-1.515297459824338673e-02,-1.515297459824338673e-02,-1.515297459824338673e-02,-1.515297459824338673e-02,-1.515297459824338673e-02,-1.515297459824338673e-02,-1.515297459824338673e-02,-1.515297459824338673e-02,-1.515297459824338673e-02,-1.515297459824338673e-02,-1.515297459824338673e-02,-1.515297459824338673e-02,-1.515297459824338673e-02,-1.515297459824338673e-02,-1.515297459824338673e-02
-1.515297459824338673e-02,-1.515297459824338673e-02,-1.515297459824338673e-02,-1.515297459824338673e-02,-1.515297459824338673e-02,-1.515297459824338673e-02,-1.515297459824338673e-02,-1.515297459824338673e-02,-1.515297459824338673e-02,-1.515297459824338673e-02,-1.515297459824338673e-02,-1.515297459824338673e-02,-1.515297459824338673e-02,-1.515297459824338673e-02,-1.515297459824338673e-02,-1.515297459824338673e-02,-1.515297459824338673e-02,-1.515297459824338673e-02,-1.515297459824338673e-02,-1.515297459824338673e-02,-1.515297459824338673e-02,-1.515297459824338673e-02,-1.515297459824338673e-02,-1.515297459824338673e-02,-1.515297459824338673e-02,-1.515297459824338673e-02,-1.515297459824338673e-02,-1.515297459824338673e-02,-1.515297459824338673e-02,-1.515297459824338673e-02,-1.515297459824338673e-02,-1.515297459824338673e-02,-1.515297459824338673e-02,-1.515297459824338673e-02,-1.515297459824338673e-02,-1.515297459824338673e-02,-1.515297459824338673e-02,-1.515297459824338673e-02,-1.515297459824338673e-02,-1.515297459824338673e-02,-1.515297459824338673e-02,-1.515297459824338673e-02,-1.515297459824338673e-02,-1.515297459824338673e-02,-1.515297459824338673e-02,-1.515297459824338673e-02,-1.515297459824338673e-02
-1.515297459824338673e-02,-1.515297459824338673e-02,-1.515297459824338673e-02,-1.515297459824338673e-02,-1.515297459824338673e-02,-1.515297459824338673e-02,-1.515297459824338673e-02,-1.515297459824338673e-02,-1.515297459824338673e-02,-1.515297459824338673e-02,-1.515297459824338673e-02,-1.515297459824338673e-02,-1.515297459824338673e-02,-1.515297459824338673e-02,-1.515297459824338673e-02,-1.515297459824338673e-02,-1.515297459824338673e-02,-1.515297459824338673e-02,-1.515297459824338673e-02,-1.515297459824338673e-02,-1.515297459824338673e-02,-1.515297459824338673e-02,-1.515297459824338673e-02,-1.515297459824338673e-02,-1.515297459824338673e-02,-1.515297459824338673e-02,-1.515297459824338673e-02,-1.515297459824338673e-02,-1.515297459824338673e-02,-1.515297459824338673e-02,-1.515297459824338673e-02,-1.515297459824338673e-02,-1.515297459824338673e-02,-1.515297459824338673e-02,-1.515297459824338673e-02,-1.515297459824338673e-02,-1.515297459824338673e-02,-1.515297459824338673e-02,-1.515297459824338673e-02,-1.515297459824338673e-02,-1.515297459824338673e-02,-1.515297459824338673e-02,-1.515297459824338673e-02,-1.515297459824338673e-02,-1.515297459824338673e-02,-1.515297459824338673e-02,-1.515297459824338673e-02
