8.203981936002713304e-02,8.203981936002713304e-02,8.203981936002713304e-02,8.203981936002713304e-02,8.203981936002713304e-02,8.203981936002713304e-02,8.203981936002713304e-02,4.706359543224127723e-02,-1.260172773868753482e-02,-7.432447584654491846e-02,-1.360472239544023298e-01,-1.813105725668310853e-01,-1.813105725668310853e-01,-1.813105725668310853e-01,-1.813105725668310853e-01,-1.813105725668310853e-01,-1.813105725668310853e-01,-1.813105725668310853e-01,-1.813105725668310853e-01,-1.813105725668311408e-01,-1.813105725668310853e-01,-1.813105725668310853e-01,-1.813105725668310297e-01,-1.784816132785542742e-01,-1.707662697650721428e-01,-1.633081043687060196e-01,-1.555927608552238328e-01,-1.478774173417416460e-01,-9.870817607561255258e-02,-1.191056154893810337e-02,6.910054534262473347e-02,8.203981936002713304e-02,8.203981936002713304e-02,8.203981936002713304e-02,8.203981936002713304e-02,8.203981936002713304e-02,8.203981936002713304e-02,8.203981936002713304e-02,8.203981936002713304e-02,8.203981936002713304e-02,8.203981936002713304e-02,8.203981936002713304e-02,8.203981936002713304e-02,8.203981936002713304e-02,8.203981936002713304e-02,8.203981936002713304e-02,8.203981936002713304e-02
8.203981936002713304e-02,8.203981936002713304e-02,8.203981936002713304e-02,8.203981936002713304e-02,8.203981936002713304e-02,8.203981936002713304e-02,8.203981936002713304e-02,2.237449618909831406e-02,-3.729082698183050493e-02,-9.901357508968788856e-02,-1.607363231975452722e-01,-1.813105725668310853e-01,-1.813105725668310853e-01,-1.813105725668310853e-01,-1.813105725668310853e-01,-1.813105725668310853e-01,-1.813105725668310297e-01,-1.813105725668310853e-01,-1.813105725668310853e-01,-1.813105725668310853e-01,-1.813105725668310853e-01,-1.813105725668310853e-01,-1.813105725668310853e-01,-1.753954758731613994e-01,-1.676801323596792681e-01,-1.602219669633131449e-01,-1.525066234498309581e-01,-1.447912799363487990e-01,-1.373331145399826758e-01,-1.296177710265005167e-01,-1.155292322982356679e-01,-3.462260401675124055e-02,4.074665793057775237e-02,8.203981936002713304e-02,8.203981936002713304e-02,8.203981936002713304e-02,8.203981936002713304e-02,8.203981936002713304e-02,8.203981936002713304e-02,8.203981936002713304e-02,8.203981936002713304e-02,8.203981936002713304e-02,8.203981936002713304e-02,8.203981936002713304e-02,8.203981936002713304e-02,8.203981936002713304e-02,8.203981936002713304e-02
8.203981936002713304e-02,8.203981936002713304e-02,8.203981936002713304e-02,8.203981936002713304e-02,8.203981936002713304e-02,8.203981936002713304e-02,5.940814505381275534e-02,-2.314603054044628294e-03,-6.197992622497344728e-02,-1.237026743328308309e-01,-1.813105725668310853e-01,-1.813105725668310853e-01,-1.813105725668310853e-01,-1.813105725668310853e-01,-1.813105725668310853e-01,-1.813105725668310853e-01,-1.813105725668311408e-01,-1.813105725668310853e-01,-1.813105725668310853e-01,-1.813105725668310297e-01,-1.813105725668310853e-01,-1.813105725668310853e-01,-1.800246819812507115e-01,-1.723093384677685802e-01,-1.645939949542863934e-01,-1.571358295579202702e-01,-1.494204860444380834e-01,-1.417051425309558965e-01,-1.342469771345898011e-01,-1.265316336211076420e-01,-1.188162901076254829e-01,-1.113581247112593597e-01,-1.036427811977772007e-01,-5.699710020584955461e-02,1.277050087804498801e-02,7.695251473082481697e-02,8.203981936002713304e-02,8.203981936002713304e-02,8.203981936002713304e-02,8.203981936002713304e-02,8.203981936002713304e-02,8.203981936002713304e-02,8.203981936002713304e-02,8.203981936002713304e-02,8.203981936002713304e-02,8.203981936002713304e-02,8.203981936002713304e-02
8.203981936002713304e-02,8.203981936002713304e-02,8.203981936002713304e-02,8.203981936002713304e-02,8.203981936002713304e-02,8.203981936002713304e-02,3.471904581066979911e-02,-2.700370229718759840e-02,-8.666902546811638963e-02,-1.483917735759738010e-01,-1.813105725668310297e-01,-1.813105725668310853e-01,-1.813105725668310853e-01,-1.813105725668310853e-01,-1.813105725668310853e-01,-1.813105725668310853e-01,-1.813105725668310853e-01,-1.813105725668310853e-01,-1.813105725668310853e-01,-1.813105725668310853e-01,-1.813105725668310853e-01,-1.813105725668310297e-01,-1.766813664587418287e-01,-1.692232010623756500e-01,-1.615078575488935186e-01,-1.537925140354113318e-01,-1.463343486390452086e-01,-1.386190051255630495e-01,-1.311608397291969541e-01,-1.234454962157147673e-01,-1.157301527022325804e-01,-1.082719873058664850e-01,-1.005566437923843259e-01,-9.284130027890216685e-02,-8.538313488253607142e-02,-7.267692853377011319e-02,-3.455830948747212750e-03,5.493967526892099690e-02,8.203981936002713304e-02,8.203981936002713304e-02,8.203981936002713304e-02,8.203981936002713304e-02,8.203981936002713304e-02,8.203981936002713304e-02,8.203981936002713304e-02,8.203981936002713304e-02,8.203981936002713304e-02
8.203981936002713304e-02,8.203981936002713304e-02,8.203981936002713304e-02,8.203981936002713304e-02,8.203981936002713304e-02,6.969526973845566187e-02,1.002994656752682900e-02,-5.169280154033056851e-02,-1.134155496481879244e-01,-1.730808728191167711e-01,-1.813105725668310853e-01,-1.813105725668310853e-01,-1.813105725668310853e-01,-1.813105725668310297e-01,-1.813105725668310853e-01,-1.813105725668310853e-01,-1.813105725668310853e-01,-1.813105725668310853e-01,-1.813105725668310853e-01,-1.813105725668310853e-01,-1.813105725668310853e-01,-1.813105725668310853e-01,-1.735952290533488984e-01,-1.661370636569828307e-01,-1.584217201435006439e-01,-1.507063766300184571e-01,-1.432482112336523894e-01,-1.355328677201702026e-01,-1.280747023238041071e-01,-1.203593588103218925e-01,-1.126440152968397335e-01,-1.051858499004736103e-01,-9.747050638699145120e-02,-8.975516287350929212e-02,-8.229699747714319669e-02,-7.458165396366100985e-02,-6.686631045017882302e-02,-5.940814505381272759e-02,-1.825964631524112924e-02,3.478334033994881502e-02,8.203981936002713304e-02,8.203981936002713304e-02,8.203981936002713304e-02,8.203981936002713304e-02,8.203981936002713304e-02,8.203981936002713304e-02,8.203981936002713304e-02
8.203981936002713304e-02,8.203981936002713304e-02,8.203981936002713304e-02,8.203981936002713304e-02,8.203981936002713304e-02,4.500617049531269870e-02,-1.465915267561611335e-02,-7.638190078347351086e-02,-1.381046488913308945e-01,-1.813105725668310853e-01,-1.813105725668310853e-01,-1.813105725668310297e-01,-1.813105725668310853e-01,-1.813105725668310853e-01,-1.813105725668310853e-01,-1.813105725668310853e-01,-1.813105725668310853e-01,-1.813105725668310853e-01,-1.813105725668310853e-01,-1.813105725668310853e-01,-1.813105725668310853e-01,-1.782244351614382105e-01,-1.705090916479560237e-01,-1.630509262515899283e-01,-1.553355827381077414e-01,-1.476202392246255546e-01,-1.401620738282594592e-01,-1.324467303147773001e-01,-1.247313868012951410e-01,-1.172732214049290456e-01,-1.095578778914468587e-01,-1.020997124950807355e-01,-9.438436898159857646e-02,-8.666902546811638963e-02,-7.921086007175032195e-02,-7.149551655826813512e-02,-6.378017304478594829e-02,-5.632200764841985285e-02,-4.860666413493766602e-02,-4.089132062145552082e-02,-2.621609431351962227e-02,2.142615188223279815e-02,6.328189044287360621e-02,8.203981936002713304e-02,8.203981936002713304e-02,8.203981936002713304e-02,8.203981936002713304e-02
8.203981936002713304e-02,8.203981936002713304e-02,8.203981936002713304e-02,8.203981936002713304e-02,8.203981936002713304e-02,2.031707125216973553e-02,-3.934825191875906958e-02,-1.010710000266164532e-01,-1.627937481344738646e-01,-1.813105725668310853e-01,-1.813105725668310853e-01,-1.813105725668310853e-01,-1.813105725668311408e-01,-1.813105725668310853e-01,-1.813105725668310853e-01,-1.813105725668310853e-01,-1.813105725668311408e-01,-1.813105725668311408e-01,-1.813105725668310853e-01,-1.813105725668310853e-01,-1.813105725668310853e-01,-1.751382977560453358e-01,-1.674229542425632045e-01,-1.599647888461970535e-01,-1.522494453327148944e-01,-1.445341018192327076e-01,-1.370759364228666122e-01,-1.293605929093844531e-01,-1.216452493959022663e-01,-1.141870839995361431e-01,-1.064717404860539840e-01,-9.875639697257182492e-02,-9.129823157620572949e-02,-8.358288806272354265e-02,-7.612472266635744722e-02,-6.840937915287526039e-02,-6.069403563939307356e-02,-5.323587024302700588e-02,-4.552052672954481904e-02,-3.780518321606264609e-02,-3.034701781969655066e-02,-2.263167430621436382e-02,-1.491633079273217699e-02,1.771314281636950094e-02,5.392703643277645814e-02,8.203981936002713304e-02,8.203981936002713304e-02
8.203981936002713304e-02,8.203981936002713304e-02,8.203981936002713304e-02,8.203981936002713304e-02,5.735072011688417681e-02,-4.372027990973220701e-03,-6.403735116190201193e-02,-1.257600992697594511e-01,-1.813105725668310853e-01,-1.813105725668310853e-01,-1.813105725668310853e-01,-1.813105725668310853e-01,-1.813105725668310853e-01,-1.813105725668310853e-01,-1.813105725668310853e-01,-1.813105725668310853e-01,-1.813105725668310853e-01,-1.813105725668310853e-01,-1.813105725668310853e-01,-1.813105725668310853e-01,-1.797675038641346479e-01,-1.720521603506525166e-01,-1.643368168371703020e-01,-1.568786514408041788e-01,-1.491633079273220197e-01,-1.414479644138398329e-01,-1.339897990174737652e-01,-1.262744555039915784e-01,-1.185591119905093915e-01,-1.111009465941432683e-01,-1.033856030806611093e-01,-9.567025956717895019e-02,-8.821209417081282700e-02,-8.049675065733066792e-02,-7.303858526096457249e-02,-6.532324174748238566e-02,-5.760789823400022658e-02,-5.014973283763413114e-02,-4.243438932415194431e-02,-3.471904581066977136e-02,-2.726088041430366204e-02,-1.954553690082147521e-02,-1.183019338733931614e-02,-4.372027990973220701e-03,3.343315522508952253e-03,1.771314281636951482e-02,4.829322830470249989e-02
8.203981936002713304e-02,8.203981936002713304e-02,8.203981936002713304e-02,8.203981936002713304e-02,3.266162087374122058e-02,-2.906112723411617693e-02,-8.872645040504500979e-02,-1.504491985129023934e-01,-1.813105725668310853e-01,-1.813105725668310853e-01,-1.813105725668310853e-01,-1.813105725668310853e-01,-1.813105725668310853e-01,-1.813105725668310853e-01,-1.813105725668311408e-01,-1.813105725668310853e-01,-1.813105725668310853e-01,-1.813105725668310853e-01,-1.813105725668310853e-01,-1.813105725668310853e-01,-1.766813664587417732e-01,-1.689660229452595863e-01,-1.612506794317774272e-01,-1.537925140354113318e-01,-1.460771705219291450e-01,-1.383618270084469859e-01,-1.309036616120808905e-01,-1.231883180985987036e-01,-1.154729745851165168e-01,-1.080148091887504214e-01,-1.002994656752682623e-01,-9.258412216178607546e-02,-8.512595676542000778e-02,-7.741061325193782094e-02,-6.969526973845563411e-02,-6.223710434208951092e-02,-5.452176082860735185e-02,-4.706359543224125641e-02,-3.934825191875908346e-02,-3.163290840527688275e-02,-2.417474300891080119e-02,-1.645939949542862824e-02,-8.744055981946455280e-03,-1.285890585580345968e-03,6.429452927901826986e-03,1.414479644138399994e-02,2.160296183775009538e-02
8.203981936002713304e-02,8.203981936002713304e-02,8.203981936002713304e-02,6.969526973845566187e-02,7.972521630598250475e-03,-5.375022647725913316e-02,-1.134155496481879521e-01,-1.751382977560453358e-01,-1.813105725668310853e-01,-1.813105725668310853e-01,-1.813105725668310853e-01,-1.813105725668310853e-01,-1.813105725668310853e-01,-1.813105725668310853e-01,-1.813105725668310853e-01,-1.813105725668310853e-01,-1.813105725668310853e-01,-1.813105725668310297e-01,-1.813105725668310853e-01,-1.810533944497150216e-01,-1.733380509362328348e-01,-1.658798855398667393e-01,-1.581645420263845525e-01,-1.507063766300184571e-01,-1.429910331165362702e-01,-1.352756896030541112e-01,-1.278175242066880157e-01,-1.201021806932058289e-01,-1.123868371797236421e-01,-1.049286717833575466e-01,-9.721332826987538756e-02,-8.949798475639320072e-02,-8.203981936002710529e-02,-7.432447584654494621e-02,-6.660913233306275938e-02,-5.915096693669663619e-02,-5.143562342321447711e-02,-4.372027990973231804e-02,-3.626211451336622260e-02,-2.854677099988403577e-02,-2.108860560351792646e-02,-1.337326209003575350e-02,-5.657918576553580547e-03,1.800246819812514887e-03,9.515590333294701719e-03,1.723093384677687467e-02,2.468909924314297011e-02
8.203981936002713304e-02,8.203981936002713304e-02,8.203981936002713304e-02,4.294874555838411323e-02,-1.671657761254469188e-02,-7.843932572040210327e-02,-1.381046488913308945e-01,-1.813105725668310297e-01,-1.813105725668310297e-01,-1.813105725668310853e-01,-1.813105725668311408e-01,-1.813105725668310853e-01,-1.813105725668310853e-01,-1.813105725668310853e-01,-1.813105725668310853e-01,-1.813105725668310297e-01,-1.813105725668310853e-01,-1.813105725668310853e-01,-1.813105725668310853e-01,-1.779672570443221469e-01,-1.702519135308399600e-01,-1.627937481344738924e-01,-1.550784046209917055e-01,-1.476202392246255823e-01,-1.399048957111433955e-01,-1.321895521976612642e-01,-1.247313868012951410e-01,-1.170160432878129542e-01,-1.093006997743307951e-01,-1.018425343779646719e-01,-9.412719086448251282e-02,-8.641184735100032599e-02,-7.895368195463425831e-02,-7.123833844115207148e-02,-1.891332215706598152e-01,-1.816750561742937475e-01,-1.739597126608115607e-01,-4.063414250433944330e-02,-3.317597710797333399e-02,-2.546063359449116104e-02,-1.774529008100897420e-02,-1.028712468464287877e-02,-2.571781171160705814e-03,4.886384225205389620e-03,1.260172773868756257e-02,2.031707125216973553e-02,2.777523664853583790e-02
8.203981936002713304e-02,8.203981936002713304e-02,7.998239442309855451e-02,1.825964631524115700e-02,-4.140567685568764811e-02,-1.031284249635450456e-01,-1.627937481344738369e-01,-1.813105725668310853e-01,-1.813105725668310853e-01,-1.813105725668310853e-01,-1.813105725668311408e-01,-1.813105725668310853e-01,-1.813105725668310853e-01,-1.813105725668310853e-01,-1.813105725668310853e-01,-1.813105725668310853e-01,-1.813105725668310853e-01,-1.813105725668310853e-01,-1.813105725668310853e-01,-1.748811196389292721e-01,-1.671657761254471131e-01,-1.597076107290809899e-01,-1.519922672155988030e-01,-1.442769237021166440e-01,-1.368187583057505485e-01,-1.291034147922683895e-01,-1.216452493959022663e-01,-1.139299058824200794e-01,-1.062145623689379204e-01,-9.875639697257182492e-02,-9.104105345908963809e-02,-8.332570994560747901e-02,-7.586754454924138358e-02,-6.815220103575919675e-02,-1.860470841652669960e-01,-1.785889187689009283e-01,-1.708735752554187415e-01,-3.754800509894655469e-02,-3.008983970258047314e-02,-2.237449618909830018e-02,-1.465915267561611335e-02,-7.200987279250017914e-03,5.143562342321550407e-04,7.972521630598264353e-03,1.568786514408043731e-02,2.340320865756261026e-02,3.086137405392870570e-02
8.203981936002713304e-02,8.203981936002713304e-02,5.529329517995559828e-02,-6.429452927901799231e-03,-6.609477609883063209e-02,-1.278175242066879880e-01,-1.813105725668310853e-01,-1.813105725668310853e-01,-1.813105725668310853e-01,-1.813105725668310853e-01,-1.813105725668310853e-01,-1.813105725668310853e-01,-1.813105725668310853e-01,-1.813105725668310853e-01,-1.813105725668310853e-01,-1.813105725668310853e-01,-1.813105725668310853e-01,-1.813105725668310853e-01,-1.795103257470185287e-01,-1.717949822335363974e-01,-1.640796387200542661e-01,-1.566214733236881151e-01,-1.489061298102059561e-01,-1.411907862967237692e-01,-1.337326209003576738e-01,-1.260172773868755147e-01,-1.183019338733933279e-01,-1.108437684770272047e-01,-1.031284249635450456e-01,-9.567025956717895019e-02,-8.795491605369676336e-02,-8.023957254021460428e-02,-7.278140714384850884e-02,-6.506606363036629426e-02,-1.829609467598741213e-01,-1.755027813635080536e-01,-1.677874378500258667e-01,-3.446186769355369384e-02,-2.700370229718759840e-02,-1.928835878370542545e-02,-1.157301527022325249e-02,-4.114849873857143181e-03,3.600493639625029774e-03,1.131583715310721661e-02,1.877400254947331204e-02,2.648934606295547806e-02,3.394751145932158043e-02
8.203981936002713304e-02,8.203981936002713304e-02,3.060419593681264205e-02,-3.111855217104475546e-02,-9.078387534197354669e-02,-1.525066234498309581e-01,-1.813105725668310853e-01,-1.813105725668311408e-01,-1.813105725668310853e-01,-1.813105725668310853e-01,-1.813105725668310853e-01,-1.813105725668310853e-01,-1.813105725668310853e-01,-1.813105725668310853e-01,-1.813105725668310853e-01,-1.813105725668310853e-01,-1.813105725668310853e-01,-1.813105725668310853e-01,-1.764241883416257095e-01,-1.687088448281435227e-01,-1.609935013146613636e-01,-1.535353359182952682e-01,-1.458199924048130813e-01,-1.381046488913309223e-01,-1.306464834949648268e-01,-1.229311399814826400e-01,-1.152157964680004254e-01,-1.077576310716343300e-01,-1.000422875581521709e-01,-9.258412216178607546e-02,-8.486877864830391638e-02,-7.715343513482172955e-02,-6.969526973845563411e-02,-6.197992622497344728e-02,-5.426458271149128820e-02,-4.680641731512519277e-02,-3.909107380164300594e-02,-3.137573028816080523e-02,-2.391756489179473755e-02,-1.620222137831253684e-02,-8.486877864830377760e-03,-1.028712468464282326e-03,6.686631045017904507e-03,1.440197455850006358e-02,2.186013995486617290e-02,2.957548346834835279e-02,3.729082698183051880e-02
8.203981936002713304e-02,6.763784480152706946e-02,5.915096693669685823e-03,-5.580765141418772557e-02,-1.154729745851165168e-01,-1.771957226929739004e-01,-1.813105725668310853e-01,-1.813105725668310853e-01,-1.813105725668310853e-01,-1.813105725668310853e-01,-1.813105725668310853e-01,-1.813105725668310853e-01,-1.813105725668310853e-01,-1.813105725668310853e-01,-1.813105725668311408e-01,-1.813105725668310853e-01,-1.813105725668310853e-01,-1.807962163325989580e-01,-1.733380509362328348e-01,-1.656227074227506757e-01,-1.579073639092684889e-01,-1.504491985129023934e-01,-1.427338549994202066e-01,-1.350185114859380198e-01,-2.853877174551007201e-01,-2.776723739416184777e-01,-2.699570304281363464e-01,-2.624988650317702232e-01,-9.695615015275929616e-02,-8.924080663927713708e-02,-8.178264124291104165e-02,-7.406729772942888257e-02,-6.660913233306275938e-02,-5.889378881958057255e-02,-5.117844530609841347e-02,-4.372027990973231804e-02,-3.600493639625013120e-02,-2.828959288276795825e-02,-2.083142748640184894e-02,-1.311608397291967598e-02,-5.400740459437503027e-03,2.057424936928592407e-03,9.772768450410765362e-03,1.748811196389293832e-02,2.494627736025904763e-02,3.266162087374122058e-02,4.037696438722339354e-02
8.203981936002713304e-02,4.294874555838412017e-02,-1.877400254947328428e-02,-8.049675065733066792e-02,-1.401620738282594592e-01,-1.813105725668310853e-01,-1.813105725668310853e-01,-1.813105725668310297e-01,-1.813105725668310853e-01,-1.813105725668310853e-01,-1.813105725668310853e-01,-1.813105725668310853e-01,-1.813105725668310853e-01,-1.813105725668310853e-01,-1.813105725668310297e-01,-1.813105725668310853e-01,-1.813105725668310853e-01,-1.777100789272060832e-01,-1.702519135308400156e-01,-1.625365700173578010e-01,-1.548212265038755864e-01,-1.473630611075095465e-01,-1.396477175940273041e-01,-1.319323740805451450e-01,-2.823015800497078454e-01,-2.745862365362256585e-01,-2.668708930227434717e-01,-2.594127276263774040e-01,-9.387001274736642142e-02,-8.615466923388426235e-02,-7.869650383751816691e-02,-7.098116032403600784e-02,-6.326581681055382100e-02,-5.580765141418772557e-02,-4.809230790070553874e-02,-4.063414250433944330e-02,-3.291879899085725647e-02,-2.520345547737509739e-02,-1.774529008100897420e-02,-1.002994656752681513e-02,-2.314603054044656050e-03,5.143562342321453262e-03,1.285890585580364009e-02,2.057424936928581305e-02,2.803241476565191542e-02,3.574775827913408144e-02,4.346310179261626133e-02
7.792496948616997599e-02,1.825964631524115700e-02,-4.346310179261622664e-02,-1.051858499004736103e-01,-1.648511730714024293e-01,-1.813105725668310853e-01,-1.813105725668311408e-01,-1.813105725668310853e-01,-1.813105725668310853e-01,-1.813105725668310297e-01,-1.813105725668310853e-01,-1.813105725668311408e-01,-1.813105725668310853e-01,-1.813105725668310853e-01,-1.813105725668310853e-01,-4.775811767116120432e-01,-4.775811767116120432e-01,-4.708945456665942775e-01,-4.634363802702281543e-01,-1.594504326119649262e-01,-1.517350890984827672e-01,-1.442769237021166440e-01,-1.365615801886345126e-01,-1.288462366751523258e-01,-2.792154426443149706e-01,-2.715000991308327838e-01,-2.637847556173505970e-01,-2.563265902209844738e-01,-9.078387534197357445e-02,-8.306853182849138761e-02,-7.561036643212529218e-02,-6.789502291864313310e-02,-6.017967940516094627e-02,-5.272151400879485084e-02,-4.500617049531266400e-02,-3.729082698183050493e-02,-2.983266158546440949e-02,-2.211731807198222266e-02,-1.465915267561611335e-02,-6.943809162133940394e-03,7.715343513482325610e-04,8.229699747714341873e-03,1.594504326119650095e-02,2.366038677467868778e-02,3.111855217104478322e-02,3.883389568452695617e-02,4.654923919800912913e-02
5.323587024302701282e-02,-8.486877864830377760e-03,-6.815220103575919675e-02,-1.298749491436165526e-01,-1.813105725668310853e-01,-1.813105725668310853e-01,-1.813105725668310853e-01,-1.813105725668310853e-01,-1.813105725668310853e-01,-1.813105725668310853e-01,-1.813105725668310853e-01,-1.813105725668310853e-01,-1.813105725668310853e-01,-1.813105725668310853e-01,-1.813105725668310297e-01,-4.775811767116120432e-01,-4.755237517746835341e-01,-4.678084082612012917e-01,-4.600930647477191604e-01,-1.563642952065720515e-01,-1.486489516930898924e-01,-1.411907862967237692e-01,-1.334754427832416102e-01,-1.257600992697594511e-01,-2.761293052389220959e-01,-2.684139617254399091e-01,-2.606986182119577222e-01,-2.532404528155915990e-01,-8.769773793658069971e-02,-7.998239442309851288e-02,-7.252422902673244520e-02,-6.480888551325023061e-02,-5.709354199976807154e-02,-4.963537660340197610e-02,-4.192003308991981703e-02,-3.420468957643763019e-02,-2.674652418007153476e-02,-1.903118066658934793e-02,-1.157301527022325249e-02,-3.857671756741079538e-03,3.857671756741093416e-03,1.131583715310720273e-02,1.903118066658937568e-02,2.674652418007155558e-02,3.420468957643765795e-02,4.192003308991983090e-02,4.963537660340200386e-02
2.854677099988405659e-02,-3.317597710797333399e-02,-9.284130027890213910e-02,-1.545640483867595227e-01,-1.813105725668310853e-01,-1.813105725668310853e-01,-1.813105725668310853e-01,-1.813105725668310853e-01,-1.813105725668310853e-01,-1.813105725668310853e-01,-1.813105725668311408e-01,-1.813105725668310853e-01,-1.813105725668310853e-01,-1.813105725668310853e-01,-1.813105725668310853e-01,-4.775811767116120432e-01,-4.724376143692906593e-01,-4.647222708558085280e-01,-4.570069273423262857e-01,-1.532781578011792045e-01,-1.455628142876969899e-01,-1.378474707742148586e-01,-1.303893053778487354e-01,-1.226739618643665486e-01,-1.152157964680004254e-01,-1.075004529545182663e-01,-9.978510944103610725e-02,-9.232694404466998406e-02,-8.461160053118782498e-02,-7.689625701770566590e-02,-6.943809162133957047e-02,-6.172274810785738364e-02,-5.400740459437519680e-02,-4.654923919800912913e-02,-3.883389568452692842e-02,-3.111855217104474158e-02,-2.366038677467866003e-02,-1.594504326119647319e-02,-8.229699747714327995e-03,-7.715343513482048055e-04,6.943809162133968149e-03,1.440197455850007746e-02,2.211731807198224348e-02,2.983266158546442337e-02,3.729082698183051880e-02,4.500617049531269870e-02,5.272151400879486471e-02
3.857671756741093416e-03,-5.786507635111629022e-02,-1.175303995220450815e-01,-1.792531476299025206e-01,-1.813105725668310853e-01,-1.813105725668310853e-01,-1.813105725668310853e-01,-1.813105725668310853e-01,-1.813105725668310853e-01,-1.813105725668310853e-01,-1.813105725668310853e-01,-1.813105725668310853e-01,-1.813105725668310853e-01,-1.813105725668310853e-01,-1.813105725668310853e-01,-4.768096423602639078e-01,-4.693514769638977846e-01,-4.616361334504156533e-01,-4.539207899369334109e-01,-1.501920203957863020e-01,-1.424766768823041430e-01,-1.347613333688219839e-01,-1.273031679724558884e-01,-1.195878244589737016e-01,-1.118724809454914870e-01,-1.044143155491254193e-01,-9.669897203564323251e-02,-8.924080663927713708e-02,-8.152546312579495025e-02,-7.381011961231279117e-02,-6.635195421594666798e-02,-5.863661070246450890e-02,-5.092126718898232207e-02,-4.346310179261622664e-02,-3.574775827913406756e-02,-2.803241476565189461e-02,-2.057424936928578529e-02,-1.285890585580359846e-02,-5.143562342321439385e-03,2.314603054044669928e-03,1.002994656752684288e-02,1.774529008100901584e-02,2.520345547737511821e-02,3.291879899085729116e-02,4.037696438722339354e-02,4.809230790070556649e-02,5.580765141418773945e-02
-2.083142748640186281e-02,-8.255417559425926033e-02,-1.422194987651880793e-01,-1.813105725668310853e-01,-1.813105725668310853e-01,-1.813105725668310853e-01,-1.813105725668310853e-01,-1.813105725668311408e-01,-1.813105725668310853e-01,-1.813105725668310853e-01,-1.813105725668310853e-01,-1.813105725668310297e-01,-1.813105725668310853e-01,-1.813105725668310853e-01,-1.813105725668310853e-01,-1.774529008100900196e-01,-1.699947354137238964e-01,-1.622793919002417096e-01,-1.545640483867595227e-01,-1.471058829903934273e-01,-1.393905394769112960e-01,-1.316751959634291091e-01,-1.242170305670630137e-01,-1.165016870535808269e-01,-1.087863435400986400e-01,-1.013281781437325446e-01,-9.361283463025038554e-02,-8.615466923388429010e-02,-7.843932572040210327e-02,-7.072398220691991644e-02,-6.326581681055379325e-02,-5.555047329707163417e-02,-4.783512978358947509e-02,-4.037696438722337966e-02,-3.266162087374120671e-02,-2.494627736025900600e-02,-1.748811196389291056e-02,-9.772768450410737606e-03,-2.057424936928564652e-03,5.400740459437530783e-03,1.311608397291970374e-02,2.083142748640188363e-02,2.828959288276798600e-02,3.600493639625016590e-02,4.372027990973233191e-02,5.117844530609844123e-02,5.889378881958061418e-02
-4.552052672954481904e-02,-1.072432748374022027e-01,-1.669085980083310217e-01,-1.813105725668310853e-01,-1.813105725668310853e-01,-1.813105725668310853e-01,-1.813105725668310853e-01,-1.813105725668310853e-01,-1.813105725668310853e-01,-1.813105725668310853e-01,-1.813105725668310853e-01,-1.813105725668310853e-01,-1.813105725668310853e-01,-1.813105725668310853e-01,-1.813105725668310853e-01,-1.743667634046971449e-01,-1.669085980083310217e-01,-1.591932544948488626e-01,-1.514779109813666758e-01,-1.440197455850005803e-01,-1.363044020715183935e-01,-1.285890585580362344e-01,-1.211308931616701667e-01,-1.134155496481879521e-01,-1.057002061347057376e-01,-9.824204073833966988e-02,-9.052669722485751080e-02,-8.281135371137532397e-02,-7.535318831500925629e-02,-6.763784480152704170e-02,-6.017967940516094627e-02,-5.246433589167875944e-02,-4.474899237819660036e-02,-3.729082698183049105e-02,-2.957548346834831809e-02,-2.186013995486614514e-02,-1.440197455850003583e-02,-6.686631045017876751e-03,1.028712468464310081e-03,8.486877864830405516e-03,1.620222137831257847e-02,2.391756489179475142e-02,3.137573028816086074e-02,3.909107380164302675e-02,4.680641731512519971e-02,5.426458271149130208e-02,6.197992622497347504e-02
-7.020962597268776140e-02,-1.319323740805451450e-01,-1.813105725668310853e-01,-1.813105725668310853e-01,-1.813105725668310853e-01,-1.813105725668310853e-01,-1.813105725668310853e-01,-1.813105725668310853e-01,-1.813105725668310853e-01,-1.813105725668310853e-01,-1.813105725668310853e-01,-1.813105725668310853e-01,-1.813105725668310853e-01,-1.813105725668310853e-01,-1.789959695127864014e-01,-1.712806259993042701e-01,-1.638224606029381747e-01,-1.561071170894559879e-01,-1.483917735759738010e-01,-1.409336081796077056e-01,-1.332182646661255465e-01,-1.255029211526433597e-01,-1.180447557562772642e-01,-1.103294122427950774e-01,-1.026140687293128906e-01,-9.515590333294679515e-02,-8.744055981946463607e-02,-7.972521630598244924e-02,-7.226705090961635380e-02,-6.455170739613419473e-02,-5.683636388265198014e-02,-4.937819848628588471e-02,-4.166285497280372563e-02,-3.420468957643761632e-02,-2.648934606295544336e-02,-1.877400254947327041e-02,-1.131583715310716109e-02,-3.600493639625002018e-03,4.114849873857184814e-03,1.157301527022328025e-02,1.928835878370543933e-02,2.700370229718762616e-02,3.446186769355372853e-02,4.217721120703590149e-02,4.989255472051807444e-02,5.735072011688417681e-02,6.506606363036634977e-02
-9.489872521583073151e-02,-1.566214733236881429e-01,-1.813105725668310853e-01,-1.813105725668310853e-01,-1.813105725668310853e-01,-1.813105725668310853e-01,-1.813105725668310853e-01,-1.813105725668310853e-01,-1.813105725668310853e-01,-1.813105725668310853e-01,-1.813105725668310853e-01,-1.813105725668310853e-01,-1.813105725668310853e-01,-1.813105725668310297e-01,-1.759098321073935822e-01,-1.681944885939113954e-01,-1.607363231975452722e-01,-1.530209796840630854e-01,-1.453056361705809263e-01,-1.378474707742148309e-01,-1.301321272607326440e-01,-1.224167837472505127e-01,-1.149586183508843895e-01,-1.072432748374022027e-01,-9.952793132392001585e-02,-9.206976592755394817e-02,-8.435442241407176134e-02,-7.663907890058960226e-02,-6.918091350422347907e-02,-6.146556999074129224e-02,-5.375022647725913316e-02,-4.629206108089303773e-02,-3.857671756741086477e-02,-3.111855217104476934e-02,-2.340320865756258251e-02,-1.568786514408040955e-02,-8.229699747714327995e-03,-5.143562342321411629e-04,7.200987279250045670e-03,1.465915267561614110e-02,2.237449618909832100e-02,3.008983970258049395e-02,3.754800509894659633e-02,4.526334861242876928e-02,5.297869212591094223e-02,6.043685752227705155e-02,6.815220103575922450e-02
-1.195878244589736739e-01,-1.813105725668310853e-01,-1.813105725668310853e-01,-1.813105725668310853e-01,-1.813105725668310853e-01,-1.813105725668310853e-01,-1.813105725668310853e-01,-1.813105725668310853e-01,-1.813105725668310853e-01,-1.813105725668310853e-01,-1.813105725668310853e-01,-1.813105725668310853e-01,-1.813105725668310853e-01,-1.802818600983667752e-01,-1.728236947020007075e-01,-1.651083511885185207e-01,-1.573930076750363338e-01,-1.499348422786702384e-01,-1.422194987651880793e-01,-1.347613333688219561e-01,-1.270459898553397970e-01,-1.193306463418576380e-01,-1.118724809454915148e-01,-1.041571374320093279e-01,-9.644179391852714112e-02,-8.898362852216107344e-02,-8.126828500867888661e-02,-7.355294149519672753e-02,-6.609477609883060434e-02,-5.837943258534844526e-02,-5.066408907186625843e-02,-4.320592367550016299e-02,-3.549058016201797616e-02,-2.777523664853581709e-02,-2.031707125216970777e-02,-1.260172773868753482e-02,-5.143562342321439385e-03,2.571781171160719692e-03,1.028712468464290652e-02,1.774529008100901584e-02,2.546063359449118879e-02,3.317597710797336868e-02,4.063414250433946412e-02,4.834948601782164401e-02,5.606482953130381697e-02,6.352299492766991240e-02,7.123833844115208536e-02
-1.442769237021166162e-01,-1.813105725668310853e-01,-1.813105725668310853e-01,-1.813105725668310853e-01,-1.813105725668310853e-01,-1.813105725668310853e-01,-1.813105725668310853e-01,-1.813105725668310853e-01,-1.813105725668310853e-01,-1.813105725668310853e-01,-1.813105725668310853e-01,-1.813105725668310853e-01,-1.813105725668310853e-01,-1.771957226929739559e-01,-1.697375572966078328e-01,-1.620222137831256737e-01,-1.543068702696434591e-01,-1.468487048732773914e-01,-1.391333613597951768e-01,-1.314180178463130177e-01,-1.239598524499469223e-01,-1.162445089364647632e-01,-1.087863435400986400e-01,-1.010710000266164810e-01,-9.335565651313432189e-02,-8.589749111676819870e-02,-7.818214760328601187e-02,-7.046680408980385280e-02,-6.300863869343772961e-02,-5.529329517995557053e-02,-4.757795166647338370e-02,-4.011978627010728826e-02,-3.240444275662510143e-02,-2.468909924314294235e-02,-1.723093384677683304e-02,-9.515590333294660086e-03,-1.800246819812501009e-03,5.657918576553608303e-03,1.337326209003578126e-02,2.083142748640187669e-02,2.854677099988405659e-02,3.626211451336622954e-02,4.372027990973233191e-02,5.143562342321451181e-02,5.915096693669668476e-02,6.660913233306278713e-02,7.432447584654496009e-02
-1.689660229452596418e-01,-1.813105725668310853e-01,-1.813105725668310853e-01,-1.813105725668310853e-01,-1.813105725668310853e-01,-1.813105725668310853e-01,-1.813105725668310853e-01,-1.813105725668310853e-01,-1.813105725668310853e-01,-1.813105725668310853e-01,-1.813105725668310853e-01,-1.813105725668310853e-01,-1.813105725668310853e-01,-1.741095852875810257e-01,-1.666514198912149580e-01,-1.589360763777327712e-01,-1.512207328642506121e-01,-1.437625674678845167e-01,-1.360472239544023298e-01,-1.283318804409201708e-01,-1.208737150445540198e-01,-1.131583715310718607e-01,-1.057002061347057653e-01,-9.798486262122360624e-02,-9.026951910774141941e-02,-8.281135371137532397e-02,-7.509601019789313714e-02,-6.738066668441097806e-02,-5.992250128804488263e-02,-5.220715777456269580e-02,-4.449181426108053672e-02,-3.703364886471442741e-02,-2.931830535123224057e-02,-2.160296183775009538e-02,-1.414479644138397219e-02,-6.429452927901799231e-03,1.285890585580373724e-03,8.744055981946469158e-03,1.645939949542865599e-02,2.417474300891082895e-02,3.163290840527693132e-02,3.934825191875909733e-02,4.680641731512519971e-02,5.452176082860737960e-02,6.223710434208955256e-02,6.969526973845564799e-02,7.741061325193783482e-02
-1.813105725668311408e-01,-1.813105725668310853e-01,-1.813105725668310853e-01,-1.813105725668310853e-01,-1.813105725668310853e-01,-1.813105725668310853e-01,-1.813105725668310853e-01,-1.813105725668310853e-01,-1.813105725668310853e-01,-1.813105725668311408e-01,-1.813105725668310853e-01,-1.813105725668310853e-01,-1.787387913956703378e-01,-1.710234478821882065e-01,-1.635652824858220833e-01,-1.558499389723398687e-01,-1.481345954588577096e-01,-1.406764300624916142e-01,-1.329610865490094551e-01,-1.252457430355272683e-01,-1.177875776391611728e-01,-1.100722341256790138e-01,-2.247521183884321760e-01,-2.172939529920661084e-01,-2.095786094785839215e-01,-2.021204440822178539e-01,-1.944051005687356670e-01,-6.429452927901810333e-02,-5.683636388265200790e-02,-4.912102036916984882e-02,-4.140567685568766199e-02,-3.394751145932155267e-02,-2.623216794583937972e-02,-1.851682443235720676e-02,-1.105865903599109745e-02,-3.343315522508938376e-03,4.372027990973248457e-03,1.183019338733934389e-02,1.954553690082152378e-02,2.726088041430369674e-02,3.471904581066979911e-02,4.243438932415197207e-02,4.989255472051806750e-02,5.760789823400025433e-02,6.532324174748241341e-02,7.278140714384852272e-02,8.049675065733069568e-02
-1.813105725668310853e-01,-1.813105725668310853e-01,-1.813105725668310853e-01,-1.813105725668310853e-01,-1.813105725668310853e-01,-1.813105725668310853e-01,-1.813105725668310853e-01,-1.813105725668311408e-01,-1.813105725668310853e-01,-1.813105725668310853e-01,-1.813105725668310853e-01,-1.813105725668310853e-01,-1.756526539902775186e-01,-1.679373104767953040e-01,-1.604791450804292086e-01,-1.527638015669470495e-01,-1.450484580534648349e-01,-1.375902926570987395e-01,-1.298749491436166081e-01,-1.221596056301344213e-01,-1.147014402337682981e-01,-1.069860967202861390e-01,-2.216659809830393013e-01,-2.142078155866732336e-01,-2.064924720731910468e-01,-1.987771285597088600e-01,-1.913189631633427368e-01,-6.120839187362522860e-02,-5.375022647725913316e-02,-4.603488296377694633e-02,-3.831953945029478725e-02,-3.086137405392869182e-02,-2.314603054044650499e-02,-1.543068702696433203e-02,-7.972521630598222719e-03,-2.571781171160636426e-04,7.458165396366123190e-03,1.491633079273221862e-02,2.263167430621439158e-02,3.034701781969656453e-02,3.780518321606266691e-02,4.552052672954484680e-02,5.323587024302701975e-02,6.069403563939311519e-02,6.840937915287528814e-02,7.586754454924139746e-02,8.203981936002713304e-02
-1.813105725668310853e-01,-1.813105725668310853e-01,-1.813105725668310853e-01,-1.813105725668310853e-01,-1.813105725668310853e-01,-1.813105725668310853e-01,-1.813105725668310853e-01,-1.813105725668310853e-01,-1.813105725668310853e-01,-1.813105725668310853e-01,-1.813105725668310853e-01,-1.802818600983667752e-01,-1.725665165848846438e-01,-1.648511730714024570e-01,-1.573930076750363616e-01,-1.496776641615541470e-01,-1.419623206480720157e-01,-1.345041552517058925e-01,-1.267888117382237334e-01,-1.190734682247415188e-01,-1.116153028283754234e-01,-1.038999593148932643e-01,-2.185798435776464821e-01,-2.111216781812803589e-01,-2.034063346677981721e-01,-1.956909911543159852e-01,-1.882328257579498620e-01,-5.812225446823235386e-02,-5.040691095475019479e-02,-4.294874555838408547e-02,-3.523340204490189864e-02,-2.777523664853581709e-02,-2.005989313505363025e-02,-1.234454962157145730e-02,-4.886384225205375742e-03,2.828959288276811090e-03,1.054430280175899792e-02,1.800246819812509336e-02,2.571781171160725937e-02,3.343315522508943927e-02,4.089132062145553470e-02,4.860666413493771459e-02,5.632200764841988755e-02,6.378017304478598992e-02,7.149551655826816288e-02,7.921086007175033583e-02,8.203981936002713304e-02
-1.813105725668310853e-01,-1.813105725668310853e-01,-1.813105725668311408e-01,-1.813105725668310853e-01,-1.813105725668310853e-01,-1.813105725668310853e-01,-1.813105725668310853e-01,-1.813105725668310853e-01,-1.813105725668310853e-01,-1.813105725668310853e-01,-1.813105725668311408e-01,-1.769385445758578923e-01,-1.694803791794917691e-01,-1.617650356660095823e-01,-1.543068702696434591e-01,-1.465915267561613000e-01,-1.388761832426791409e-01,-1.314180178463130177e-01,-1.237026743328308309e-01,-1.159873308193486718e-01,-1.085291654229825486e-01,-1.008138219095003896e-01,-2.154937061722535518e-01,-2.080355407758874842e-01,-2.003201972624052973e-01,-1.926048537489231105e-01,-1.851466883525569873e-01,-5.503611706283950689e-02,-4.732077354935732005e-02,-3.986260815299121074e-02,-3.214726463950905166e-02,-2.468909924314294235e-02,-1.697375572966076940e-02,-9.258412216178596443e-03,-1.800246819812501009e-03,5.915096693669685823e-03,1.363044020715184490e-02,2.108860560351795421e-02,2.880394911700013411e-02,3.651929263048230706e-02,4.397745802684840943e-02,5.169280154033058239e-02,5.940814505381275534e-02,6.686631045017885078e-02,7.458165396366103761e-02,8.203981936002713304e-02,8.203981936002713304e-02
-1.813105725668310853e-01,-1.813105725668310853e-01,-1.813105725668310853e-01,-1.813105725668310853e-01,-1.813105725668310853e-01,-1.813105725668310853e-01,-1.813105725668311408e-01,-1.813105725668310853e-01,-1.813105725668310853e-01,-1.813105725668311408e-01,-1.813105725668310853e-01,-1.738524071704650176e-01,-1.663942417740988944e-01,-1.586788982606167075e-01,-1.512207328642506121e-01,-1.435053893507684253e-01,-1.357900458372862662e-01,-1.283318804409201708e-01,-1.206165369274380117e-01,-1.129011934139558249e-01,-1.054430280175896739e-01,-9.772768450410751484e-02,-2.124075687668607326e-01,-2.049494033704946094e-01,-1.972340598570124781e-01,-1.895187163435302358e-01,-1.820605509471641126e-01,-5.194997965744663215e-02,-4.423463614396447308e-02,-3.677647074759834989e-02,-2.906112723411617693e-02,-2.134578372063400398e-02,-1.388761832426789466e-02,-6.172274810785721710e-03,1.285890585580373724e-03,9.001234099062560556e-03,1.671657761254471963e-02,2.417474300891082895e-02,3.189008652239300190e-02,3.960543003587517485e-02,4.706359543224127723e-02,5.477893894572345018e-02,6.249428245920562314e-02,6.995244785557172551e-02,7.766779136905389846e-02,8.203981936002713304e-02,8.203981936002713304e-02
-1.813105725668310853e-01,-1.813105725668310853e-01,-1.813105725668310853e-01,-1.813105725668310853e-01,-1.813105725668310853e-01,-1.813105725668310853e-01,-1.813105725668310853e-01,-1.813105725668310853e-01,-1.813105725668310853e-01,-1.813105725668310853e-01,-1.784816132785542742e-01,-1.707662697650721428e-01,-1.633081043687060196e-01,-1.555927608552238051e-01,-1.478774173417416737e-01,-1.404192519453755505e-01,-1.327039084318933915e-01,-1.249885649184112046e-01,-1.175303995220451092e-01,-1.098150560085629224e-01,-1.023568906121968269e-01,-9.464154709871466786e-02,-8.692620358523248103e-02,-7.946803818886638560e-02,-7.175269467538422652e-02,-6.403735116190201193e-02,-5.657918576553591650e-02,-4.886384225205375742e-02,-4.114849873857158447e-02,-3.369033334220547515e-02,-2.597498982872331608e-02,-1.825964631524112924e-02,-1.080148091887501993e-02,-3.086137405392860855e-03,4.629206108089312099e-03,1.208737150445542141e-02,1.980271501793760131e-02,2.726088041430370368e-02,3.497622392778587663e-02,4.269156744126804959e-02,5.014973283763414502e-02,5.786507635111632492e-02,6.558041986459849093e-02,7.303858526096460024e-02,8.075392877444677320e-02,8.203981936002713304e-02,8.203981936002713304e-02
-1.813105725668310853e-01,-1.813105725668310853e-01,-1.813105725668310853e-01,-1.813105725668310853e-01,-1.813105725668310853e-01,-1.813105725668310853e-01,-1.813105725668310853e-01,-1.813105725668310853e-01,-1.813105725668310853e-01,-1.813105725668310853e-01,-1.753954758731613994e-01,-1.676801323596792681e-01,-1.602219669633131449e-01,-1.525066234498309581e-01,-1.447912799363487713e-01,-1.373331145399826758e-01,-1.296177710265005445e-01,-1.219024275130183854e-01,-1.144442621166522067e-01,-1.067289186031700476e-01,-9.927075320680395221e-02,-9.155540969332179313e-02,-8.384006617983963405e-02,-7.638190078347351086e-02,-6.866655726999135179e-02,-6.095121375650913720e-02,-5.349304836014306952e-02,-4.577770484666088269e-02,-3.806236133317870973e-02,-3.060419593681261430e-02,-2.288885242333042747e-02,-1.517350890984825451e-02,-7.715343513482159077e-03,0.000000000000000000e+00,7.715343513482186832e-03,1.517350890984828227e-02,2.288885242333046910e-02,3.034701781969657147e-02,3.806236133317874443e-02,4.577770484666091044e-02,5.323587024302701975e-02,6.095121375650919271e-02,6.866655726999136566e-02,7.612472266635746110e-02,8.203981936002713304e-02,8.203981936002713304e-02,8.203981936002713304e-02
-1.813105725668310853e-01,-1.813105725668310853e-01,-1.813105725668310853e-01,-1.813105725668310853e-01,-1.813105725668310853e-01,-1.813105725668310853e-01,-1.813105725668310853e-01,-1.813105725668310853e-01,-1.813105725668310297e-01,-1.800246819812507115e-01,-1.723093384677685247e-01,-1.645939949542863656e-01,-1.571358295579202702e-01,-1.494204860444381111e-01,-1.417051425309559520e-01,-1.342469771345898288e-01,-1.265316336211076420e-01,-1.188162901076254552e-01,-1.113581247112593597e-01,-1.036427811977772007e-01,-9.592743768429504159e-02,-8.846927228792891840e-02,-8.075392877444673156e-02,-7.329576337808066389e-02,-6.558041986459847705e-02,-5.786507635111629022e-02,-5.040691095475019479e-02,-4.269156744126803571e-02,-3.497622392778584888e-02,-2.751805853141973957e-02,-1.980271501793758049e-02,-1.208737150445537978e-02,-4.629206108089284344e-03,3.086137405392874733e-03,1.080148091887506157e-02,1.825964631524115700e-02,2.597498982872334383e-02,3.369033334220550985e-02,4.114849873857160528e-02,4.886384225205378518e-02,5.632200764841988061e-02,6.403735116190206744e-02,7.175269467538422652e-02,7.921086007175033583e-02,8.203981936002713304e-02,8.203981936002713304e-02,8.203981936002713304e-02
-1.813105725668310853e-01,-1.813105725668310853e-01,-1.813105725668310853e-01,-1.813105725668310853e-01,-1.813105725668310853e-01,-1.813105725668310853e-01,-1.813105725668310853e-01,-1.813105725668310853e-01,-1.813105725668310853e-01,-1.769385445758578923e-01,-1.692232010623757055e-01,-1.615078575488935186e-01,-1.540496921525273955e-01,-1.463343486390452364e-01,-1.386190051255630495e-01,-1.311608397291969541e-01,-1.234454962157147950e-01,-1.157301527022325804e-01,-1.082719873058665128e-01,-1.005566437923843259e-01,-9.284130027890213910e-02,-8.538313488253607142e-02,-7.766779136905388459e-02,-6.995244785557169775e-02,-6.249428245920560232e-02,-5.477893894572341549e-02,-4.732077354935732005e-02,-3.960543003587514710e-02,-3.189008652239296027e-02,-2.443192112602686483e-02,-1.671657761254469188e-02,-9.001234099062518923e-03,-1.543068702696423489e-03,6.172274810785763344e-03,1.388761832426792242e-02,2.134578372063403173e-02,2.906112723411620469e-02,3.677647074759837764e-02,4.423463614396448002e-02,5.194997965744665297e-02,5.966532317092883286e-02,6.712348856729492830e-02,7.483883208077710125e-02,8.203981936002713304e-02,8.203981936002713304e-02,8.203981936002713304e-02,8.203981936002713304e-02
-1.813105725668310853e-01,-1.813105725668310853e-01,-1.813105725668310297e-01,-1.813105725668310853e-01,-1.813105725668310853e-01,-1.813105725668310853e-01,-1.813105725668310853e-01,-1.813105725668310853e-01,-1.813105725668310853e-01,-1.738524071704650176e-01,-1.661370636569828030e-01,-1.584217201435006439e-01,-1.509635547471345207e-01,-1.432482112336523616e-01,-1.355328677201702026e-01,-1.280747023238040794e-01,-1.203593588103219203e-01,-1.126440152968397057e-01,-1.051858499004736380e-01,-9.747050638699145120e-02,-8.975516287350929212e-02,-8.229699747714319669e-02,-7.458165396366100985e-02,-6.686631045017882302e-02,-5.940814505381269983e-02,-5.169280154033056851e-02,-4.423463614396444532e-02,-3.651929263048228624e-02,-2.880394911700009941e-02,-2.134578372063400398e-02,-1.363044020715181714e-02,-5.915096693669644190e-03,1.543068702696437366e-03,9.258412216178624199e-03,1.697375572966079715e-02,2.443192112602689953e-02,3.214726463950907942e-02,3.986260815299124544e-02,4.732077354935734781e-02,5.503611706283952076e-02,6.275146057632169372e-02,7.020962597268780303e-02,7.792496948616997599e-02,8.203981936002713304e-02,8.203981936002713304e-02,8.203981936002713304e-02,8.203981936002713304e-02
-1.813105725668310853e-01,-1.813105725668310853e-01,-1.813105725668310853e-01,-1.813105725668310853e-01,-1.813105725668310853e-01,-1.813105725668310853e-01,-1.813105725668310853e-01,-1.813105725668310853e-01,-1.782244351614382105e-01,-1.705090916479560237e-01,-1.630509262515899283e-01,-1.553355827381077414e-01,-1.478774173417416737e-01,-1.401620738282594869e-01,-1.324467303147773001e-01,-1.249885649184112602e-01,-1.172732214049290178e-01,-1.095578778914468587e-01,-1.020997124950807355e-01,-9.438436898159857646e-02,-8.666902546811641739e-02,-7.921086007175032195e-02,-7.149551655826813512e-02,-6.378017304478594829e-02,-5.632200764841985285e-02,-4.860666413493769378e-02,-4.089132062145549307e-02,-3.343315522508941151e-02,-2.571781171160723856e-02,-1.825964631524112924e-02,-1.054430280175895629e-02,-2.828959288276797213e-03,4.629206108089312099e-03,1.234454962157148505e-02,2.005989313505366495e-02,2.751805853141976732e-02,3.523340204490194721e-02,4.294874555838411323e-02,5.040691095475021560e-02,5.812225446823239550e-02,6.583759798171456845e-02,7.329576337808066389e-02,8.101110689156283684e-02,8.203981936002713304e-02,8.203981936002713304e-02,8.203981936002713304e-02,8.203981936002713304e-02
-1.813105725668310853e-01,-1.813105725668310853e-01,-1.813105725668310853e-01,-1.813105725668310853e-01,-1.813105725668310853e-01,-1.813105725668310853e-01,-1.813105725668310853e-01,-1.813105725668310853e-01,-1.751382977560453358e-01,-1.674229542425631767e-01,-1.599647888461970535e-01,-1.522494453327148944e-01,-1.445341018192327076e-01,-1.370759364228666399e-01,-1.293605929093844531e-01,-1.219024275130183854e-01,-1.141870839995361431e-01,-1.064717404860539840e-01,-9.901357508968788856e-02,-9.129823157620570173e-02,-8.358288806272354265e-02,-7.612472266635744722e-02,-6.840937915287526039e-02,-6.069403563939310131e-02,-5.323587024302697812e-02,-4.552052672954481904e-02,-3.780518321606264609e-02,-3.034701781969653678e-02,-2.263167430621434995e-02,-1.491633079273217699e-02,-7.458165396366081557e-03,2.571781171160913981e-04,7.715343513482186832e-03,1.543068702696435979e-02,2.314603054044653968e-02,3.060419593681264205e-02,3.831953945029481501e-02,4.603488296377698796e-02,5.349304836014309034e-02,6.120839187362526329e-02,6.892373538710744318e-02,7.638190078347353862e-02,8.203981936002713304e-02,8.203981936002713304e-02,8.203981936002713304e-02,8.203981936002713304e-02,8.203981936002713304e-02
-5.786507635111629022e-02,-1.566214733236881429e-01,-1.813105725668310853e-01,-1.813105725668310853e-01,-1.813105725668310853e-01,-1.813105725668310853e-01,-1.813105725668310853e-01,-1.797675038641346479e-01,-1.720521603506524611e-01,-1.643368168371703297e-01,-1.568786514408042065e-01,-1.491633079273220197e-01,-1.414479644138398606e-01,-1.339897990174737652e-01,-1.262744555039915784e-01,-1.188162901076254552e-01,-1.111009465941432683e-01,-1.033856030806611370e-01,-9.592743768429504159e-02,-8.821209417081282700e-02,-8.049675065733069568e-02,-7.303858526096460024e-02,-6.532324174748238566e-02,-5.760789823400022658e-02,-5.014973283763413114e-02,-4.243438932415194431e-02,-3.471904581066977136e-02,-2.726088041430366204e-02,-1.954553690082148909e-02,-1.183019338733931614e-02,-4.372027990973220701e-03,3.343315522508966131e-03,1.105865903599113909e-02,1.851682443235723452e-02,2.623216794583940747e-02,3.369033334220550291e-02,4.140567685568767586e-02,4.912102036916985576e-02,5.657918576553595813e-02,6.429452927901813108e-02,7.200987279250030404e-02,7.946803818886641335e-02,8.203981936002713304e-02,8.203981936002713304e-02,8.203981936002713304e-02,8.203981936002713304e-02,8.203981936002713304e-02
8.203981936002713304e-02,8.203981936002713304e-02,-8.486877864830377760e-03,-1.072432748374022027e-01,-1.813105725668310853e-01,-1.813105725668310853e-01,-1.813105725668310853e-01,-1.766813664587417732e-01,-1.689660229452596418e-01,-1.612506794317774550e-01,-1.537925140354113041e-01,-1.460771705219291450e-01,-1.383618270084469859e-01,-1.309036616120808905e-01,-1.231883180985987036e-01,-1.154729745851165168e-01,-1.080148091887504491e-01,-1.002994656752682623e-01,-9.284130027890213910e-02,-8.512595676541998002e-02,-7.741061325193782094e-02,-6.995244785557169775e-02,-6.223710434208951092e-02,-5.452176082860735185e-02,-4.706359543224125641e-02,-3.934825191875908346e-02,-3.163290840527691050e-02,-2.417474300891080119e-02,-1.645939949542861436e-02,-8.744055981946441403e-03,-1.285890585580345968e-03,6.429452927901826986e-03,1.414479644138399994e-02,2.160296183775010231e-02,2.931830535123228221e-02,3.677647074759837764e-02,4.449181426108055060e-02,5.220715777456272355e-02,5.966532317092883286e-02,6.738066668441100582e-02,7.509601019789317877e-02,8.203981936002713304e-02,8.203981936002713304e-02,8.203981936002713304e-02,8.203981936002713304e-02,8.203981936002713304e-02,8.203981936002713304e-02
8.203981936002713304e-02,8.203981936002713304e-02,8.203981936002713304e-02,8.203981936002713304e-02,3.266162087374122058e-02,-6.609477609883060434e-02,-1.646100685866061231e-01,-1.735952290533488984e-01,-1.658798855398667393e-01,-1.581645420263845525e-01,-1.507063766300184571e-01,-1.429910331165362702e-01,-1.352756896030541112e-01,-1.278175242066880157e-01,-1.201021806932058289e-01,-1.123868371797236698e-01,-1.049286717833575466e-01,-9.721332826987538756e-02,-8.949798475639317297e-02,-8.203981936002710529e-02,-7.432447584654494621e-02,-6.686631045017882302e-02,-5.915096693669663619e-02,-5.143562342321447711e-02,-4.397745802684838168e-02,-3.626211451336620872e-02,-2.854677099988403577e-02,-2.108860560351792646e-02,-1.337326209003575350e-02,-5.657918576553594425e-03,1.800246819812514887e-03,9.515590333294687841e-03,1.723093384677687467e-02,2.468909924314297705e-02,3.240444275662514306e-02,4.011978627010731602e-02,4.757795166647341839e-02,5.529329517995559828e-02,6.275146057632169372e-02,7.046680408980386667e-02,7.818214760328603963e-02,8.203981936002713304e-02,8.203981936002713304e-02,8.203981936002713304e-02,8.203981936002713304e-02,8.203981936002713304e-02,8.203981936002713304e-02
8.203981936002713304e-02,8.203981936002713304e-02,8.203981936002713304e-02,8.203981936002713304e-02,8.203981936002713304e-02,8.203981936002713304e-02,8.203981936002713304e-02,-1.266602226796656461e-02,-1.015853562608486083e-01,-1.550784046209917055e-01,-1.476202392246255823e-01,-1.399048957111434233e-01,-1.321895521976612642e-01,-1.247313868012951410e-01,-1.170160432878129542e-01,-1.093006997743307673e-01,-1.018425343779646719e-01,-9.412719086448251282e-02,-8.641184735100032599e-02,-7.895368195463425831e-02,-7.123833844115207148e-02,-6.352299492766988465e-02,-5.606482953130376146e-02,-4.834948601782160238e-02,-4.089132062145550695e-02,-3.317597710797332011e-02,-2.546063359449116104e-02,-1.800246819812505172e-02,-1.028712468464287877e-02,-2.571781171160719692e-03,4.886384225205389620e-03,1.260172773868756257e-02,2.031707125216973553e-02,2.777523664853584484e-02,3.549058016201801780e-02,4.320592367550019075e-02,5.066408907186629312e-02,5.837943258534846608e-02,6.609477609883063209e-02,7.355294149519674141e-02,8.126828500867891436e-02,8.203981936002713304e-02,8.203981936002713304e-02,8.203981936002713304e-02,8.203981936002713304e-02,8.203981936002713304e-02,8.203981936002713304e-02
8.203981936002713304e-02,8.203981936002713304e-02,8.203981936002713304e-02,8.203981936002713304e-02,8.203981936002713304e-02,8.203981936002713304e-02,8.203981936002713304e-02,8.203981936002713304e-02,8.203981936002713304e-02,3.815880312709726829e-02,-5.248844634015839561e-02,-1.299794277536949760e-01,-1.291034147922683895e-01,-1.216452493959022663e-01,-1.139299058824201072e-01,-1.062145623689378926e-01,-9.875639697257179717e-02,-9.104105345908963809e-02,-8.332570994560747901e-02,-7.586754454924138358e-02,-6.815220103575919675e-02,-6.043685752227700991e-02,-5.297869212591091448e-02,-4.526334861242875540e-02,-3.780518321606263221e-02,-3.008983970258045926e-02,-2.237449618909828630e-02,-1.491633079273217699e-02,-7.200987279250017914e-03,5.143562342321550407e-04,7.972521630598264353e-03,1.568786514408043731e-02,2.340320865756261026e-02,3.086137405392871264e-02,3.857671756741087865e-02,4.629206108089305854e-02,5.375022647725916092e-02,6.146556999074133387e-02,6.918091350422350683e-02,7.663907890058961614e-02,8.203981936002713304e-02,8.203981936002713304e-02,8.203981936002713304e-02,8.203981936002713304e-02,8.203981936002713304e-02,8.203981936002713304e-02,8.203981936002713304e-02
8.203981936002713304e-02,8.203981936002713304e-02,8.203981936002713304e-02,8.203981936002713304e-02,8.203981936002713304e-02,8.203981936002713304e-02,8.203981936002713304e-02,8.203981936002713304e-02,8.203981936002713304e-02,8.203981936002713304e-02,8.203981936002713304e-02,7.529693060189010523e-02,-2.483376193402067611e-03,-7.467809575757952678e-02,-1.108437684770272047e-01,-1.031284249635450734e-01,-9.567025956717895019e-02,-8.795491605369679111e-02,-8.023957254021460428e-02,-7.278140714384850884e-02,-6.506606363036632201e-02,-5.735072011688413518e-02,-4.989255472051803975e-02,-4.217721120703588067e-02,-3.446186769355369384e-02,-2.700370229718759840e-02,-1.928835878370542545e-02,-1.183019338733931614e-02,-4.114849873857157059e-03,3.600493639625029774e-03,1.105865903599113909e-02,1.877400254947331204e-02,2.648934606295548499e-02,3.394751145932158737e-02,4.166285497280375338e-02,4.937819848628592634e-02,5.683636388265203565e-02,6.455170739613420861e-02,7.226705090961638156e-02,7.972521630598247699e-02,8.203981936002713304e-02,8.203981936002713304e-02,8.203981936002713304e-02,8.203981936002713304e-02,8.203981936002713304e-02,8.203981936002713304e-02,8.203981936002713304e-02
8.203981936002713304e-02,8.203981936002713304e-02,8.203981936002713304e-02,8.203981936002713304e-02,8.203981936002713304e-02,8.203981936002713304e-02,8.203981936002713304e-02,8.203981936002713304e-02,8.203981936002713304e-02,8.203981936002713304e-02,8.203981936002713304e-02,8.203981936002713304e-02,8.203981936002713304e-02,8.203981936002713304e-02,4.052162707810118975e-02,-2.607143162264183300e-02,-8.712712398922942136e-02,-8.486877864830391638e-02,-7.715343513482175730e-02,-6.969526973845563411e-02,-6.197992622497344728e-02,-5.426458271149126045e-02,-4.680641731512519277e-02,-3.909107380164300594e-02,-3.137573028816083298e-02,-2.391756489179472367e-02,-1.620222137831253684e-02,-8.486877864830377760e-03,-1.028712468464282326e-03,6.686631045017904507e-03,1.414479644138399994e-02,2.186013995486617290e-02,2.957548346834834585e-02,3.703364886471444822e-02,4.474899237819662118e-02,5.246433589167880107e-02,5.992250128804489651e-02,6.763784480152706946e-02,7.535318831500924242e-02,8.203981936002713304e-02,8.203981936002713304e-02,8.203981936002713304e-02,8.203981936002713304e-02,8.203981936002713304e-02,8.203981936002713304e-02,8.203981936002713304e-02,8.203981936002713304e-02
8.203981936002713304e-02,8.203981936002713304e-02,8.203981936002713304e-02,8.203981936002713304e-02,8.203981936002713304e-02,8.203981936002713304e-02,8.203981936002713304e-02,8.203981936002713304e-02,8.203981936002713304e-02,8.203981936002713304e-02,8.203981936002713304e-02,8.203981936002713304e-02,8.203981936002713304e-02,8.203981936002713304e-02,8.203981936002713304e-02,8.203981936002713304e-02,7.131870660275085871e-02,1.036749284624167988e-02,-4.479721327515587270e-02,-6.660913233306275938e-02,-5.889378881958057255e-02,-5.117844530609841347e-02,-4.372027990973231804e-02,-3.600493639625013120e-02,-2.828959288276797213e-02,-2.083142748640184894e-02,-1.311608397291967598e-02,-5.400740459437503027e-03,2.057424936928578529e-03,9.772768450410779240e-03,1.723093384677686080e-02,2.494627736025903375e-02,3.266162087374122058e-02,4.011978627010731602e-02,4.783512978358948897e-02,5.555047329707166887e-02,6.300863869343777124e-02,7.072398220691994419e-02,7.843932572040211715e-02,8.203981936002713304e-02,8.203981936002713304e-02,8.203981936002713304e-02,8.203981936002713304e-02,8.203981936002713304e-02,8.203981936002713304e-02,8.203981936002713304e-02,8.203981936002713304e-02
