-1.720663088675142005e-01,-1.720663088675142005e-01,-1.720663088675142005e-01,-1.720663088675142005e-01,-1.720663088675142005e-01,-1.720663088675142005e-01,-1.720663088675142005e-01,-1.720663088675142005e-01,-1.720663088675142005e-01,-1.720663088675142005e-01,-1.720663088675142005e-01,-1.720663088675142005e-01,-1.720663088675142005e-01,-1.720663088675142005e-01,-1.720663088675142005e-01,-1.720663088675142005e-01,-1.720663088675142005e-01,-1.720663088675142005e-01,-1.720663088675142005e-01,-1.720663088675142005e-01,-1.720663088675142005e-01,-1.720663088675142005e-01,-1.720663088675142005e-01,-1.720663088675142005e-01,-1.720663088675142005e-01,-1.720663088675142005e-01,-1.720663088675142005e-01,-1.675854154074226943e-01,-1.496618415670566138e-01,-1.308420890346722598e-01,-1.120223365022879058e-01,-9.320258396990353800e-02,-7.438283143751917015e-02,-5.556307890513480230e-02,-7.964788125312671774e-02,-1.720663088675142005e-01,-1.720663088675142005e-01,-1.720663088675142005e-01,-1.720663088675142005e-01,-1.720663088675142005e-01,-1.720663088675142005e-01,-1.720663088675142005e-01,-1.720663088675142005e-01,-1.720663088675142005e-01,-1.720663088675142005e-01,-1.720663088675142005e-01,-1.720663088675142005e-01
-1.720663088675142005e-01,-1.720663088675142005e-01,-1.720663088675142005e-01,-1.720663088675142005e-01,-1.720663088675142005e-01,-1.720663088675142005e-01,-1.720663088675142005e-01,-1.720663088675142005e-01,-1.720663088675142005e-01,-1.720663088675142005e-01,-1.720663088675142005e-01,-1.720663088675142005e-01,-1.720663088675142005e-01,-1.720663088675142005e-01,-1.720663088675142005e-01,-1.720663088675142005e-01,-1.720663088675142005e-01,-1.720663088675142005e-01,-1.720663088675142005e-01,-1.720663088675142005e-01,-1.720663088675142005e-01,-1.720663088675142005e-01,-1.720663088675142005e-01,-1.720663088675142005e-01,-1.720663088675142005e-01,-1.720663088675142005e-01,-1.648968793313677628e-01,-1.460771267989834088e-01,-1.272573742665990548e-01,-1.084376217342146870e-01,-9.051404789384862037e-02,-7.169429536146426640e-02,-5.287454282907991243e-02,-3.405479029669553070e-02,-1.523503776431117673e-02,-7.527901012953747140e-02,-1.720663088675142005e-01,-1.720663088675142005e-01,-1.720663088675142005e-01,-1.720663088675142005e-01,-1.720663088675142005e-01,-1.720663088675142005e-01,-1.720663088675142005e-01,-1.720663088675142005e-01,-1.720663088675142005e-01,-1.720663088675142005e-01,-1.720663088675142005e-01
-1.720663088675142005e-01,-1.720663088675142005e-01,-1.720663088675142005e-01,-1.720663088675142005e-01,-1.720663088675142005e-01,-1.720663088675142005e-01,-1.720663088675142005e-01,-1.720663088675142005e-01,-1.720663088675142005e-01,-1.720663088675142005e-01,-1.720663088675142005e-01,-1.720663088675142005e-01,-1.720663088675142005e-01,-1.720663088675142005e-01,-1.720663088675142005e-01,-1.720663088675142005e-01,-1.720663088675142005e-01,-1.720663088675142005e-01,-1.720663088675142005e-01,-1.720663088675142005e-01,-1.720663088675142005e-01,-1.720663088675142005e-01,-1.720663088675142005e-01,-1.720663088675142005e-01,-1.720663088675142005e-01,-1.613121645632945578e-01,-1.433885907229285051e-01,-1.245688381905441372e-01,-1.057490856581597832e-01,-8.692933312577541538e-02,-6.810958059339106141e-02,-4.928982806100669356e-02,-3.136625422064062696e-02,-1.254650168825624523e-02,0.000000000000000000e+00,-2.775557561562891351e-17,-9.141022658586692162e-02,-1.720663088675142005e-01,-1.720663088675142005e-01,-1.720663088675142005e-01,-1.720663088675142005e-01,-1.720663088675142005e-01,-1.720663088675142005e-01,-1.720663088675142005e-01,-1.720663088675142005e-01,-1.720663088675142005e-01,-1.720663088675142005e-01
-1.720663088675142005e-01,-1.720663088675142005e-01,-1.720663088675142005e-01,-1.720663088675142005e-01,-1.720663088675142005e-01,-1.720663088675142005e-01,-1.720663088675142005e-01,-1.720663088675142005e-01,-1.720663088675142005e-01,-1.720663088675142005e-01,-1.720663088675142005e-01,-1.720663088675142005e-01,-1.720663088675142005e-01,-1.720663088675142005e-01,-1.720663088675142005e-01,-1.720663088675142005e-01,-1.720663088675142005e-01,-1.720663088675142005e-01,-1.720663088675142005e-01,-1.720663088675142005e-01,-1.720663088675142005e-01,-1.720663088675142005e-01,-1.720663088675142005e-01,-1.720663088675142005e-01,-1.586236284872396540e-01,-1.398038759548553001e-01,-1.209841234224709322e-01,-1.021643708900865644e-01,-8.424079704972051164e-02,-6.542104451733614379e-02,-4.660129198495177594e-02,-2.778153945256739421e-02,-8.961786920183040239e-03,-2.775557561562891351e-17,-2.775557561562891351e-17,-2.775557561562891351e-17,-2.775557561562891351e-17,-1.129185151943062071e-01,-1.720663088675142005e-01,-1.720663088675142005e-01,-1.720663088675142005e-01,-1.720663088675142005e-01,-1.720663088675142005e-01,-1.720663088675142005e-01,-1.720663088675142005e-01,-1.720663088675142005e-01,-1.720663088675142005e-01
-1.720663088675142005e-01,-1.720663088675142005e-01,-1.720663088675142005e-01,-1.720663088675142005e-01,-1.720663088675142005e-01,-1.720663088675142005e-01,-1.720663088675142005e-01,-1.720663088675142005e-01,-1.720663088675142005e-01,-1.720663088675142005e-01,-1.720663088675142005e-01,-1.720663088675142005e-01,-1.720663088675142005e-01,-1.720663088675142005e-01,-1.720663088675142005e-01,-1.720663088675142005e-01,-1.720663088675142005e-01,-1.720663088675142005e-01,-1.720663088675142005e-01,-1.720663088675142005e-01,-1.720663088675142005e-01,-1.720663088675142005e-01,-1.720663088675142005e-01,-1.559350924111847503e-01,-1.371153398788003963e-01,-1.182955873464160146e-01,-9.947583481403166061e-02,-8.065608228164729276e-02,-6.183632974926293879e-02,-4.391275590889687219e-02,-2.509300337651251822e-02,-6.273250844128136494e-03,-2.775557561562891351e-17,0.000000000000000000e+00,-2.775557561562891351e-17,-2.775557561562891351e-17,-2.775557561562891351e-17,-2.775557561562891351e-17,-1.290497316506356573e-01,-1.720663088675142005e-01,-1.720663088675142005e-01,-1.720663088675142005e-01,-1.720663088675142005e-01,-1.720663088675142005e-01,-1.720663088675142005e-01,-1.720663088675142005e-01,-1.720663088675142005e-01
-1.720663088675142005e-01,-1.720663088675142005e-01,-1.720663088675142005e-01,-1.720663088675142005e-01,-1.720663088675142005e-01,-1.720663088675142005e-01,-1.720663088675142005e-01,-1.720663088675142005e-01,-1.720663088675142005e-01,-1.720663088675142005e-01,-1.720663088675142005e-01,-1.720663088675142005e-01,-1.720663088675142005e-01,-1.720663088675142005e-01,-1.720663088675142005e-01,-1.720663088675142005e-01,-1.720663088675142005e-01,-1.720663088675142005e-01,-1.720663088675142005e-01,-1.720663088675142005e-01,-1.720663088675142005e-01,-1.711701301754958993e-01,-1.523503776431115453e-01,-1.335306251107271636e-01,-1.147108725783428096e-01,-9.678729873797675687e-02,-7.796754620559238902e-02,-5.914779367320802117e-02,-4.032804114082366720e-02,-2.150828860843928547e-02,-2.688536076054931501e-03,-2.775557561562891351e-17,-2.775557561562891351e-17,-2.775557561562891351e-17,-2.775557561562891351e-17,-2.775557561562891351e-17,-2.775557561562891351e-17,0.000000000000000000e+00,-1.613121645632950574e-02,-1.505580202590749428e-01,-1.720663088675142005e-01,-1.720663088675142005e-01,-1.720663088675142005e-01,-1.720663088675142005e-01,-1.720663088675142005e-01,-1.720663088675142005e-01,-1.720663088675142005e-01
-1.720663088675142005e-01,-1.720663088675142005e-01,-1.720663088675142005e-01,-1.720663088675142005e-01,-1.720663088675142005e-01,-1.720663088675142005e-01,-1.720663088675142005e-01,-1.720663088675142005e-01,-1.720663088675142005e-01,-1.720663088675142005e-01,-1.720663088675142005e-01,-1.720663088675142005e-01,-1.720663088675142005e-01,-1.720663088675142005e-01,-1.720663088675142005e-01,-1.720663088675142005e-01,-1.720663088675142005e-01,-1.720663088675142005e-01,-1.720663088675142005e-01,-1.720663088675142005e-01,-1.675854154074226943e-01,-1.496618415670566415e-01,-1.308420890346722598e-01,-1.120223365022879058e-01,-9.320258396990353800e-02,-7.438283143751917015e-02,-5.556307890513481618e-02,-3.763950506476876345e-02,-1.881975253238440948e-02,-2.775557561562891351e-17,-2.775557561562891351e-17,-5.551115123125782702e-17,-2.775557561562891351e-17,-2.775557561562891351e-17,-2.775557561562891351e-17,-2.775557561562891351e-17,-2.775557561562891351e-17,0.000000000000000000e+00,-2.775557561562891351e-17,-3.763950506476876345e-02,-1.666892367154043930e-01,-1.720663088675142005e-01,-1.720663088675142005e-01,-1.720663088675142005e-01,-1.720663088675142005e-01,-1.720663088675142005e-01,-1.720663088675142005e-01
-1.720663088675142005e-01,-1.720663088675142005e-01,-1.720663088675142005e-01,-1.720663088675142005e-01,-1.720663088675142005e-01,-1.720663088675142005e-01,-1.720663088675142005e-01,-1.720663088675142005e-01,-1.720663088675142005e-01,-1.720663088675142005e-01,-1.720663088675142005e-01,-1.720663088675142005e-01,-1.720663088675142005e-01,-1.720663088675142005e-01,-1.720663088675142005e-01,-1.720663088675142005e-01,-1.720663088675142005e-01,-1.720663088675142005e-01,-1.720663088675142005e-01,-1.648968793313677628e-01,-1.460771267989834088e-01,-1.272573742665990548e-01,-1.084376217342146870e-01,-9.051404789384862037e-02,-7.169429536146426640e-02,-5.287454282907989855e-02,-3.405479029669553070e-02,-1.523503776431120449e-02,-5.551115123125782702e-17,-2.775557561562891351e-17,-2.775557561562891351e-17,-5.551115123125782702e-17,-2.775557561562891351e-17,-2.775557561562891351e-17,0.000000000000000000e+00,-2.775557561562891351e-17,-2.775557561562891351e-17,-2.775557561562891351e-17,-2.775557561562891351e-17,0.000000000000000000e+00,-5.377072152109821368e-02,-1.720663088675142005e-01,-1.720663088675142005e-01,-1.720663088675142005e-01,-1.720663088675142005e-01,-1.720663088675142005e-01,-1.720663088675142005e-01
-1.720663088675142005e-01,-1.720663088675142005e-01,-1.720663088675142005e-01,-1.720663088675142005e-01,-1.720663088675142005e-01,-2.653779823298302865e-01,-2.653779823298302865e-01,-2.653779823298302865e-01,-2.653779823298302865e-01,-2.653779823298302865e-01,-1.720663088675142005e-01,-1.720663088675142005e-01,-1.720663088675142005e-01,-1.720663088675142005e-01,-1.720663088675142005e-01,-1.720663088675142005e-01,-1.720663088675142005e-01,-1.720663088675142005e-01,-1.622083432553128590e-01,-1.433885907229285051e-01,-1.245688381905441511e-01,-1.057490856581597832e-01,-8.692933312577541538e-02,-6.810958059339104753e-02,-5.018600675302499481e-02,-3.136625422064062696e-02,-1.254650168825627299e-02,-5.551115123125782702e-17,-2.775557561562891351e-17,-2.775557561562891351e-17,-2.775557561562891351e-17,-2.775557561562891351e-17,-2.775557561562891351e-17,-2.775557561562891351e-17,-5.551115123125782702e-17,-2.775557561562891351e-17,-5.551115123125782702e-17,-2.775557561562891351e-17,-2.775557561562891351e-17,0.000000000000000000e+00,-2.775557561562891351e-17,-7.527901012953747140e-02,-1.720663088675142005e-01,-1.720663088675142005e-01,-1.720663088675142005e-01,-1.720663088675142005e-01,-1.720663088675142005e-01
-1.720663088675142005e-01,-1.720663088675142005e-01,-1.720663088675142005e-01,-1.720663088675142005e-01,-1.720663088675142005e-01,-2.653779823298302865e-01,-2.653779823298302865e-01,-2.653779823298302865e-01,-2.653779823298302865e-01,-2.653779823298302865e-01,-1.720663088675142005e-01,-1.720663088675142005e-01,-1.720663088675142005e-01,-1.720663088675142005e-01,-1.720663088675142005e-01,-1.720663088675142005e-01,-1.720663088675142005e-01,-1.586236284872396540e-01,-1.398038759548553001e-01,-1.209841234224709322e-01,-1.030605495821048656e-01,-8.424079704972051164e-02,-6.542104451733614379e-02,-4.660129198495180369e-02,-2.778153945256742197e-02,-8.961786920183067995e-03,-2.775557561562891351e-17,-5.551115123125782702e-17,-2.775557561562891351e-17,-2.775557561562891351e-17,-2.775557561562891351e-17,-2.775557561562891351e-17,-2.775557561562891351e-17,-2.775557561562891351e-17,-2.775557561562891351e-17,-2.775557561562891351e-17,-2.775557561562891351e-17,-2.775557561562891351e-17,-2.775557561562891351e-17,-2.775557561562891351e-17,-5.551115123125782702e-17,-2.775557561562891351e-17,-9.141022658586693550e-02,-1.720663088675142005e-01,-1.720663088675142005e-01,-1.720663088675142005e-01,-1.720663088675142005e-01
-1.720663088675142005e-01,-1.720663088675142005e-01,-1.720663088675142005e-01,-1.720663088675142005e-01,-1.720663088675142005e-01,-2.653779823298302865e-01,-2.653779823298302865e-01,-2.653779823298302865e-01,-2.653779823298302865e-01,-2.653779823298302865e-01,-1.720663088675142005e-01,-1.720663088675142005e-01,-1.720663088675142005e-01,-1.720663088675142005e-01,-1.720663088675142005e-01,-1.720663088675142005e-01,-1.559350924111847503e-01,-1.371153398788003686e-01,-1.182955873464160146e-01,-9.947583481403166061e-02,-8.065608228164729276e-02,-6.183632974926292492e-02,-4.391275590889687219e-02,-2.509300337651251822e-02,-6.273250844128136494e-03,-2.775557561562891351e-17,-2.775557561562891351e-17,-2.775557561562891351e-17,-2.775557561562891351e-17,0.000000000000000000e+00,-2.775557561562891351e-17,-2.775557561562891351e-17,-2.775557561562891351e-17,-2.775557561562891351e-17,-2.775557561562891351e-17,-2.775557561562891351e-17,-2.775557561562891351e-17,-2.775557561562891351e-17,-2.775557561562891351e-17,-2.775557561562891351e-17,-2.775557561562891351e-17,-2.775557561562891351e-17,-2.775557561562891351e-17,-1.129185151943062071e-01,-1.720663088675142005e-01,-1.720663088675142005e-01,-1.720663088675142005e-01
-1.720663088675142005e-01,-1.720663088675142005e-01,-1.720663088675142005e-01,-1.720663088675142005e-01,-1.720663088675142005e-01,-2.653779823298302865e-01,-2.653779823298302865e-01,-2.653779823298302865e-01,-2.653779823298302865e-01,-2.653779823298302865e-01,-1.720663088675142005e-01,-1.720663088675142005e-01,-1.720663088675142005e-01,-1.720663088675142005e-01,-1.711701301754958993e-01,-1.523503776431115453e-01,-1.335306251107271636e-01,-1.147108725783428096e-01,-9.678729873797675687e-02,-7.796754620559237514e-02,-5.914779367320802117e-02,-4.032804114082366720e-02,-2.150828860843931323e-02,-2.688536076054931501e-03,-2.775557561562891351e-17,-2.775557561562891351e-17,-2.775557561562891351e-17,-2.775557561562891351e-17,-2.775557561562891351e-17,-2.775557561562891351e-17,0.000000000000000000e+00,-2.775557561562891351e-17,-2.775557561562891351e-17,-2.775557561562891351e-17,-2.775557561562891351e-17,-2.775557561562891351e-17,-2.775557561562891351e-17,-2.775557561562891351e-17,-2.775557561562891351e-17,-2.775557561562891351e-17,-2.775557561562891351e-17,-2.775557561562891351e-17,-2.775557561562891351e-17,-2.775557561562891351e-17,-1.290497316506356573e-01,-1.720663088675142005e-01,-1.720663088675142005e-01
-1.720663088675142005e-01,-1.720663088675142005e-01,-1.720663088675142005e-01,-1.720663088675142005e-01,-1.720663088675142005e-01,-2.653779823298302865e-01,-2.653779823298302865e-01,-2.653779823298302865e-01,-2.653779823298302865e-01,-2.653779823298302865e-01,-1.720663088675142005e-01,-1.720663088675142005e-01,-1.720663088675142005e-01,-1.684815940994409955e-01,-1.496618415670566415e-01,-1.308420890346722598e-01,-1.120223365022879058e-01,-9.320258396990352412e-02,-7.438283143751917015e-02,-5.645925759715310355e-02,-3.763950506476873570e-02,-1.881975253238438173e-02,-2.775557561562891351e-17,-2.775557561562891351e-17,-2.775557561562891351e-17,-2.775557561562891351e-17,-2.775557561562891351e-17,0.000000000000000000e+00,-2.775557561562891351e-17,-2.775557561562891351e-17,0.000000000000000000e+00,-2.775557561562891351e-17,-2.775557561562891351e-17,-5.551115123125782702e-17,-2.775557561562891351e-17,-5.551115123125782702e-17,-2.775557561562891351e-17,-2.775557561562891351e-17,-2.775557561562891351e-17,-2.775557561562891351e-17,-2.775557561562891351e-17,-2.775557561562891351e-17,0.000000000000000000e+00,-2.775557561562891351e-17,-1.613121645632947798e-02,-1.505580202590749428e-01,-1.720663088675142005e-01
-1.720663088675142005e-01,-1.720663088675142005e-01,-1.720663088675142005e-01,-1.720663088675142005e-01,-1.720663088675142005e-01,-1.720663088675142005e-01,-1.720663088675142005e-01,-1.720663088675142005e-01,-1.720663088675142005e-01,-1.720663088675142005e-01,-1.720663088675142005e-01,-1.720663088675142005e-01,-1.648968793313677628e-01,-1.460771267989834088e-01,-1.272573742665990548e-01,-1.093338004262329882e-01,-9.051404789384863425e-02,-7.169429536146426640e-02,-5.287454282907989855e-02,-3.405479029669555846e-02,-1.523503776431114898e-02,-2.775557561562891351e-17,-2.775557561562891351e-17,-2.775557561562891351e-17,-2.775557561562891351e-17,-2.775557561562891351e-17,-2.775557561562891351e-17,-2.775557561562891351e-17,-2.775557561562891351e-17,-2.775557561562891351e-17,-2.775557561562891351e-17,-2.775557561562891351e-17,-2.775557561562891351e-17,-2.775557561562891351e-17,-2.775557561562891351e-17,0.000000000000000000e+00,-2.775557561562891351e-17,-2.775557561562891351e-17,-2.775557561562891351e-17,-2.775557561562891351e-17,-2.775557561562891351e-17,-5.551115123125782702e-17,-2.775557561562891351e-17,-2.775557561562891351e-17,-2.775557561562891351e-17,-3.763950506476876345e-02,-1.666892367154043930e-01
-1.720663088675142005e-01,-1.720663088675142005e-01,-1.720663088675142005e-01,-1.720663088675142005e-01,-1.720663088675142005e-01,-1.720663088675142005e-01,-1.720663088675142005e-01,-1.720663088675142005e-01,-1.720663088675142005e-01,-1.720663088675142005e-01,-1.720663088675142005e-01,-1.622083432553128590e-01,-1.433885907229285051e-01,-1.245688381905441511e-01,-1.057490856581597832e-01,-8.692933312577541538e-02,-6.810958059339106141e-02,-5.018600675302498093e-02,-3.136625422064062696e-02,-1.254650168825624523e-02,-2.775557561562891351e-17,-2.775557561562891351e-17,-2.775557561562891351e-17,-2.775557561562891351e-17,-2.775557561562891351e-17,-2.775557561562891351e-17,-5.551115123125782702e-17,-2.775557561562891351e-17,-2.775557561562891351e-17,-5.551115123125782702e-17,0.000000000000000000e+00,-2.775557561562891351e-17,-2.775557561562891351e-17,-2.775557561562891351e-17,-2.775557561562891351e-17,-2.775557561562891351e-17,-2.775557561562891351e-17,-2.775557561562891351e-17,-2.775557561562891351e-17,-2.775557561562891351e-17,-2.775557561562891351e-17,-2.775557561562891351e-17,-2.775557561562891351e-17,-5.551115123125782702e-17,-2.775557561562891351e-17,-2.775557561562891351e-17,-5.377072152109821368e-02
-1.720663088675142005e-01,-1.720663088675142005e-01,-1.720663088675142005e-01,-1.720663088675142005e-01,-1.720663088675142005e-01,-1.720663088675142005e-01,-1.720663088675142005e-01,-1.720663088675142005e-01,-1.720663088675142005e-01,-1.720663088675142005e-01,-1.586236284872396540e-01,-1.398038759548553001e-01,-1.209841234224709183e-01,-1.030605495821048656e-01,-8.424079704972051164e-02,-6.542104451733612991e-02,-4.660129198495177594e-02,-2.778153945256739421e-02,-8.961786920183067995e-03,-2.775557561562891351e-17,-2.775557561562891351e-17,-2.775557561562891351e-17,-2.775557561562891351e-17,-2.775557561562891351e-17,-2.775557561562891351e-17,-5.551115123125782702e-17,-2.775557561562891351e-17,-2.775557561562891351e-17,-2.775557561562891351e-17,-2.775557561562891351e-17,-2.775557561562891351e-17,-5.551115123125782702e-17,0.000000000000000000e+00,-2.775557561562891351e-17,-2.775557561562891351e-17,-2.775557561562891351e-17,-2.775557561562891351e-17,-2.775557561562891351e-17,-2.775557561562891351e-17,-2.775557561562891351e-17,-2.775557561562891351e-17,-2.775557561562891351e-17,-2.775557561562891351e-17,-2.775557561562891351e-17,0.000000000000000000e+00,-2.775557561562891351e-17,-2.775557561562891351e-17
-1.720663088675142005e-01,-1.720663088675142005e-01,-1.720663088675142005e-01,-1.720663088675142005e-01,-1.720663088675142005e-01,-1.720663088675142005e-01,-1.720663088675142005e-01,-1.720663088675142005e-01,-1.720663088675142005e-01,-1.559350924111847503e-01,-1.371153398788003686e-01,-1.182955873464160146e-01,-9.947583481403166061e-02,-8.065608228164730664e-02,-6.183632974926292492e-02,-4.391275590889687219e-02,-2.509300337651251822e-02,-6.273250844128164250e-03,-2.775557561562891351e-17,-2.775557561562891351e-17,-2.775557561562891351e-17,-2.775557561562891351e-17,-5.551115123125782702e-17,-2.775557561562891351e-17,-2.775557561562891351e-17,-2.775557561562891351e-17,-2.775557561562891351e-17,-2.775557561562891351e-17,-2.775557561562891351e-17,-2.775557561562891351e-17,-2.775557561562891351e-17,-2.775557561562891351e-17,-2.775557561562891351e-17,-2.775557561562891351e-17,-2.775557561562891351e-17,-2.775557561562891351e-17,-2.775557561562891351e-17,-2.775557561562891351e-17,-2.775557561562891351e-17,-2.775557561562891351e-17,-2.775557561562891351e-17,-2.775557561562891351e-17,-2.775557561562891351e-17,-2.775557561562891351e-17,-2.775557561562891351e-17,-2.775557561562891351e-17,-2.775557561562891351e-17
-1.720663088675142005e-01,-1.720663088675142005e-01,-1.720663088675142005e-01,-1.720663088675142005e-01,-1.720663088675142005e-01,-1.720663088675142005e-01,-1.720663088675142005e-01,-1.711701301754958993e-01,-1.523503776431115453e-01,-1.335306251107271636e-01,-1.156070512703611108e-01,-9.678729873797675687e-02,-7.796754620559237514e-02,-5.914779367320802117e-02,-4.032804114082366720e-02,-2.150828860843931323e-02,-3.584714768073232749e-03,-2.775557561562891351e-17,-2.775557561562891351e-17,-2.775557561562891351e-17,-2.775557561562891351e-17,-2.775557561562891351e-17,-2.775557561562891351e-17,-2.775557561562891351e-17,-2.775557561562891351e-17,-2.775557561562891351e-17,-2.775557561562891351e-17,0.000000000000000000e+00,-2.775557561562891351e-17,-2.775557561562891351e-17,-2.775557561562891351e-17,-2.775557561562891351e-17,-2.775557561562891351e-17,-2.775557561562891351e-17,-2.775557561562891351e-17,-2.775557561562891351e-17,-2.775557561562891351e-17,-2.775557561562891351e-17,-5.551115123125782702e-17,0.000000000000000000e+00,-2.775557561562891351e-17,-2.775557561562891351e-17,-2.775557561562891351e-17,-2.775557561562891351e-17,-2.775557561562891351e-17,-2.775557561562891351e-17,-2.775557561562891351e-17
-1.720663088675142005e-01,-1.720663088675142005e-01,-1.720663088675142005e-01,-1.720663088675142005e-01,-1.720663088675142005e-01,-1.720663088675142005e-01,-1.684815940994409955e-01,-1.496618415670566415e-01,-1.308420890346722598e-01,-1.120223365022879058e-01,-9.320258396990353800e-02,-7.438283143751918403e-02,-5.645925759715310355e-02,-3.763950506476876345e-02,-1.881975253238438173e-02,-2.775557561562891351e-17,-2.775557561562891351e-17,-2.775557561562891351e-17,-2.775557561562891351e-17,-2.775557561562891351e-17,-2.775557561562891351e-17,-2.775557561562891351e-17,-2.775557561562891351e-17,-2.775557561562891351e-17,-2.775557561562891351e-17,-2.775557561562891351e-17,-2.775557561562891351e-17,-2.775557561562891351e-17,-2.775557561562891351e-17,-5.551115123125782702e-17,-2.775557561562891351e-17,-2.775557561562891351e-17,-2.775557561562891351e-17,-2.775557561562891351e-17,-2.775557561562891351e-17,-2.775557561562891351e-17,-2.775557561562891351e-17,-5.551115123125782702e-17,-2.775557561562891351e-17,-2.775557561562891351e-17,-2.775557561562891351e-17,-2.775557561562891351e-17,-2.775557561562891351e-17,-2.775557561562891351e-17,-2.775557561562891351e-17,-2.775557561562891351e-17,0.000000000000000000e+00
-1.720663088675142005e-01,-1.720663088675142005e-01,-1.720663088675142005e-01,-1.720663088675142005e-01,-1.720663088675142005e-01,-1.648968793313677628e-01,-1.460771267989834088e-01,-1.272573742665990548e-01,-1.093338004262330021e-01,-9.051404789384863425e-02,-7.169429536146426640e-02,-5.287454282907988468e-02,-3.405479029669553070e-02,-1.523503776431117673e-02,-2.775557561562891351e-17,-2.775557561562891351e-17,-2.775557561562891351e-17,0.000000000000000000e+00,-2.775557561562891351e-17,-2.775557561562891351e-17,-2.775557561562891351e-17,-2.775557561562891351e-17,-2.775557561562891351e-17,-2.775557561562891351e-17,-2.775557561562891351e-17,-2.775557561562891351e-17,-2.775557561562891351e-17,-2.775557561562891351e-17,-2.775557561562891351e-17,-2.775557561562891351e-17,-2.775557561562891351e-17,-2.775557561562891351e-17,-2.775557561562891351e-17,-2.775557561562891351e-17,-2.775557561562891351e-17,-2.775557561562891351e-17,-2.775557561562891351e-17,0.000000000000000000e+00,-2.775557561562891351e-17,-2.775557561562891351e-17,-2.775557561562891351e-17,-2.775557561562891351e-17,-2.775557561562891351e-17,-2.775557561562891351e-17,-2.775557561562891351e-17,-2.775557561562891351e-17,0.000000000000000000e+00
-1.720663088675142005e-01,-1.720663088675142005e-01,-1.720663088675142005e-01,-1.720663088675142005e-01,-1.622083432553128590e-01,-1.433885907229285051e-01,-1.245688381905441372e-01,-1.057490856581597832e-01,-8.692933312577541538e-02,-6.810958059339104753e-02,-5.018600675302500869e-02,-3.136625422064062696e-02,-1.254650168825627299e-02,0.000000000000000000e+00,-5.551115123125782702e-17,-2.775557561562891351e-17,-2.775557561562891351e-17,-2.775557561562891351e-17,-2.775557561562891351e-17,-2.775557561562891351e-17,-2.775557561562891351e-17,-2.775557561562891351e-17,-2.775557561562891351e-17,-2.775557561562891351e-17,-2.775557561562891351e-17,0.000000000000000000e+00,-2.775557561562891351e-17,-2.775557561562891351e-17,-2.775557561562891351e-17,-2.775557561562891351e-17,-5.551115123125782702e-17,-2.775557561562891351e-17,-2.775557561562891351e-17,0.000000000000000000e+00,-5.551115123125782702e-17,-2.775557561562891351e-17,-2.775557561562891351e-17,-2.775557561562891351e-17,-2.775557561562891351e-17,-2.775557561562891351e-17,-2.775557561562891351e-17,-2.775557561562891351e-17,-2.775557561562891351e-17,-2.775557561562891351e-17,-2.775557561562891351e-17,0.000000000000000000e+00,-2.775557561562891351e-17
-1.720663088675142005e-01,-1.720663088675142005e-01,-1.720663088675142005e-01,-1.586236284872396540e-01,-1.398038759548553001e-01,-1.218803021144892335e-01,-1.030605495821048656e-01,-8.424079704972051164e-02,-6.542104451733615766e-02,-4.660129198495180369e-02,-2.778153945256742197e-02,-9.857965612201341488e-03,-2.775557561562891351e-17,-2.775557561562891351e-17,-2.775557561562891351e-17,-2.775557561562891351e-17,-2.775557561562891351e-17,-2.775557561562891351e-17,-5.551115123125782702e-17,-2.775557561562891351e-17,-2.775557561562891351e-17,0.000000000000000000e+00,-2.775557561562891351e-17,-2.775557561562891351e-17,-2.775557561562891351e-17,-2.775557561562891351e-17,-2.775557561562891351e-17,-2.775557561562891351e-17,-2.775557561562891351e-17,-2.775557561562891351e-17,-2.775557561562891351e-17,-5.551115123125782702e-17,-2.775557561562891351e-17,-2.775557561562891351e-17,-2.775557561562891351e-17,-2.775557561562891351e-17,-2.775557561562891351e-17,-2.775557561562891351e-17,-2.775557561562891351e-17,-2.775557561562891351e-17,-2.775557561562891351e-17,-5.551115123125782702e-17,-2.775557561562891351e-17,-2.775557561562891351e-17,-5.551115123125782702e-17,-2.775557561562891351e-17,-2.775557561562891351e-17
-1.720663088675142005e-01,-1.720663088675142005e-01,-1.559350924111847503e-01,-1.371153398788003686e-01,-1.182955873464160146e-01,-9.947583481403166061e-02,-8.065608228164729276e-02,-6.273250844128122616e-02,-4.391275590889687219e-02,-2.509300337651251822e-02,-6.273250844128136494e-03,-2.775557561562891351e-17,-2.775557561562891351e-17,-2.775557561562891351e-17,-2.775557561562891351e-17,0.000000000000000000e+00,-2.775557561562891351e-17,-2.775557561562891351e-17,-2.775557561562891351e-17,-2.775557561562891351e-17,-2.775557561562891351e-17,-2.775557561562891351e-17,-2.775557561562891351e-17,-2.775557561562891351e-17,-2.775557561562891351e-17,-2.775557561562891351e-17,-2.775557561562891351e-17,-2.775557561562891351e-17,-2.775557561562891351e-17,-2.775557561562891351e-17,-2.775557561562891351e-17,-2.775557561562891351e-17,-2.775557561562891351e-17,-2.775557561562891351e-17,-2.775557561562891351e-17,-2.775557561562891351e-17,-2.775557561562891351e-17,0.000000000000000000e+00,-2.775557561562891351e-17,-2.775557561562891351e-17,-2.775557561562891351e-17,-2.775557561562891351e-17,-2.775557561562891351e-17,-2.775557561562891351e-17,-2.775557561562891351e-17,-5.551115123125782702e-17,-5.551115123125782702e-17
-1.711701301754958993e-01,-1.523503776431115453e-01,-1.335306251107271636e-01,-1.156070512703611108e-01,-9.678729873797675687e-02,-7.796754620559237514e-02,-5.914779367320802117e-02,-4.032804114082363944e-02,-2.150828860843931323e-02,-3.584714768073232749e-03,-2.775557561562891351e-17,-2.775557561562891351e-17,-2.775557561562891351e-17,-2.775557561562891351e-17,-2.775557561562891351e-17,-2.775557561562891351e-17,-2.775557561562891351e-17,-2.775557561562891351e-17,-2.775557561562891351e-17,-2.775557561562891351e-17,-2.775557561562891351e-17,-2.775557561562891351e-17,-2.775557561562891351e-17,-2.775557561562891351e-17,-2.775557561562891351e-17,-2.775557561562891351e-17,-2.775557561562891351e-17,-2.775557561562891351e-17,-2.775557561562891351e-17,-2.775557561562891351e-17,-2.775557561562891351e-17,0.000000000000000000e+00,-2.775557561562891351e-17,-2.775557561562891351e-17,-2.775557561562891351e-17,-2.775557561562891351e-17,-2.775557561562891351e-17,-2.775557561562891351e-17,-2.775557561562891351e-17,-5.551115123125782702e-17,-2.775557561562891351e-17,-2.775557561562891351e-17,-2.775557561562891351e-17,-5.551115123125782702e-17,-2.775557561562891351e-17,-2.775557561562891351e-17,-2.775557561562891351e-17
-1.496618415670566415e-01,-1.308420890346722598e-01,-1.120223365022879058e-01,-9.320258396990353800e-02,-7.527901012953747140e-02,-5.645925759715311743e-02,-3.763950506476876345e-02,-1.881975253238440948e-02,-2.775557561562891351e-17,-2.775557561562891351e-17,-2.775557561562891351e-17,-2.775557561562891351e-17,-2.775557561562891351e-17,-2.775557561562891351e-17,-2.775557561562891351e-17,-2.775557561562891351e-17,-5.551115123125782702e-17,-2.775557561562891351e-17,-2.775557561562891351e-17,-2.775557561562891351e-17,-2.775557561562891351e-17,-2.775557561562891351e-17,-2.775557561562891351e-17,-2.775557561562891351e-17,-2.775557561562891351e-17,-2.775557561562891351e-17,-2.775557561562891351e-17,-2.775557561562891351e-17,-2.775557561562891351e-17,-2.775557561562891351e-17,-2.775557561562891351e-17,-2.775557561562891351e-17,-5.551115123125782702e-17,-2.775557561562891351e-17,-2.775557561562891351e-17,-2.775557561562891351e-17,0.000000000000000000e+00,-2.775557561562891351e-17,-2.775557561562891351e-17,-2.775557561562891351e-17,-2.775557561562891351e-17,-2.775557561562891351e-17,-5.551115123125782702e-17,-2.775557561562891351e-17,-2.775557561562891351e-17,-5.377072152109835246e-03,-4.122421983284196845e-02
-1.281535529586173561e-01,-1.093338004262329882e-01,-9.051404789384863425e-02,-7.169429536146426640e-02,-5.287454282907989855e-02,-3.405479029669553070e-02,-1.613121645632947798e-02,-2.775557561562891351e-17,-2.775557561562891351e-17,-5.551115123125782702e-17,-2.775557561562891351e-17,-2.775557561562891351e-17,-2.775557561562891351e-17,-2.775557561562891351e-17,-2.775557561562891351e-17,-5.551115123125782702e-17,-2.775557561562891351e-17,-2.775557561562891351e-17,-2.775557561562891351e-17,-2.775557561562891351e-17,-2.775557561562891351e-17,-2.775557561562891351e-17,-2.775557561562891351e-17,-2.775557561562891351e-17,-2.775557561562891351e-17,-2.775557561562891351e-17,-2.775557561562891351e-17,-5.551115123125782702e-17,-2.775557561562891351e-17,-2.775557561562891351e-17,-2.775557561562891351e-17,-2.775557561562891351e-17,-2.775557561562891351e-17,0.000000000000000000e+00,-2.775557561562891351e-17,-2.775557561562891351e-17,-2.775557561562891351e-17,-2.775557561562891351e-17,-2.775557561562891351e-17,-2.775557561562891351e-17,-2.775557561562891351e-17,-2.775557561562891351e-17,-5.551115123125782702e-17,-2.775557561562891351e-17,-1.075414430421964274e-02,-4.839364936898837843e-02,-8.603315443375710025e-02
-1.057490856581597832e-01,-8.692933312577541538e-02,-6.900575928540934878e-02,-5.018600675302498093e-02,-3.136625422064062696e-02,-1.254650168825624523e-02,0.000000000000000000e+00,-2.775557561562891351e-17,-2.775557561562891351e-17,-2.775557561562891351e-17,-2.775557561562891351e-17,-2.775557561562891351e-17,-5.551115123125782702e-17,-2.775557561562891351e-17,-2.775557561562891351e-17,-2.775557561562891351e-17,-2.775557561562891351e-17,-2.775557561562891351e-17,-2.775557561562891351e-17,-2.775557561562891351e-17,-2.775557561562891351e-17,-2.775557561562891351e-17,-2.775557561562891351e-17,-2.775557561562891351e-17,-2.775557561562891351e-17,-2.775557561562891351e-17,0.000000000000000000e+00,0.000000000000000000e+00,-2.775557561562891351e-17,-2.775557561562891351e-17,-2.775557561562891351e-17,-2.775557561562891351e-17,-5.551115123125782702e-17,-2.775557561562891351e-17,-2.775557561562891351e-17,-2.775557561562891351e-17,-2.775557561562891351e-17,-2.775557561562891351e-17,-2.775557561562891351e-17,-2.775557561562891351e-17,-2.775557561562891351e-17,-2.775557561562891351e-17,-2.775557561562891351e-17,-1.792357384036608048e-02,-5.377072152109821368e-02,-9.141022658586692162e-02,-1.290497316506356573e-01
-8.424079704972049776e-02,-6.542104451733614379e-02,-4.660129198495177594e-02,-2.778153945256739421e-02,-9.857965612201369243e-03,-2.775557561562891351e-17,-2.775557561562891351e-17,-2.775557561562891351e-17,-2.775557561562891351e-17,-2.775557561562891351e-17,-2.775557561562891351e-17,-5.551115123125782702e-17,0.000000000000000000e+00,-2.775557561562891351e-17,-2.775557561562891351e-17,-2.775557561562891351e-17,-2.775557561562891351e-17,-2.775557561562891351e-17,-2.775557561562891351e-17,-2.775557561562891351e-17,-2.775557561562891351e-17,-2.775557561562891351e-17,-2.775557561562891351e-17,0.000000000000000000e+00,-2.775557561562891351e-17,-2.775557561562891351e-17,-2.775557561562891351e-17,-2.775557561562891351e-17,-2.775557561562891351e-17,-2.775557561562891351e-17,-2.775557561562891351e-17,-2.775557561562891351e-17,-2.775557561562891351e-17,-2.775557561562891351e-17,0.000000000000000000e+00,-2.775557561562891351e-17,-2.775557561562891351e-17,-2.775557561562891351e-17,-2.775557561562891351e-17,-2.775557561562891351e-17,-2.775557561562891351e-17,0.000000000000000000e+00,-2.330064599247588797e-02,-6.094015105724463754e-02,-9.857965612201335937e-02,-1.344268038027454648e-01,-1.720663088675142005e-01
-6.273250844128124004e-02,-4.391275590889687219e-02,-2.509300337651251822e-02,-6.273250844128136494e-03,-2.775557561562891351e-17,-2.775557561562891351e-17,-2.775557561562891351e-17,-2.775557561562891351e-17,0.000000000000000000e+00,-2.775557561562891351e-17,-2.775557561562891351e-17,-2.775557561562891351e-17,-2.775557561562891351e-17,-2.775557561562891351e-17,-2.775557561562891351e-17,-2.775557561562891351e-17,-2.775557561562891351e-17,-2.775557561562891351e-17,-2.775557561562891351e-17,0.000000000000000000e+00,-2.775557561562891351e-17,-5.551115123125782702e-17,-2.775557561562891351e-17,-2.775557561562891351e-17,-2.775557561562891351e-17,-2.775557561562891351e-17,-2.775557561562891351e-17,-2.775557561562891351e-17,-2.775557561562891351e-17,-2.775557561562891351e-17,-2.775557561562891351e-17,-2.775557561562891351e-17,-2.775557561562891351e-17,-2.775557561562891351e-17,-2.775557561562891351e-17,-2.775557561562891351e-17,-2.775557561562891351e-17,-2.775557561562891351e-17,-2.775557561562891351e-17,-2.775557561562891351e-17,-2.775557561562891351e-17,-2.867771814458572321e-02,-6.631722320935445891e-02,-1.039567282741231669e-01,-1.415962333388919026e-01,-1.720663088675142005e-01,-1.720663088675142005e-01
-4.032804114082366720e-02,-2.240446730045758672e-02,-3.584714768073232749e-03,-2.775557561562891351e-17,-2.775557561562891351e-17,-2.775557561562891351e-17,-2.775557561562891351e-17,-2.775557561562891351e-17,-2.775557561562891351e-17,-2.775557561562891351e-17,-2.775557561562891351e-17,-2.775557561562891351e-17,-2.775557561562891351e-17,-2.775557561562891351e-17,-2.775557561562891351e-17,-2.775557561562891351e-17,-2.775557561562891351e-17,-2.775557561562891351e-17,-5.551115123125782702e-17,0.000000000000000000e+00,-2.775557561562891351e-17,-2.775557561562891351e-17,-2.775557561562891351e-17,-2.775557561562891351e-17,0.000000000000000000e+00,-2.775557561562891351e-17,-2.775557561562891351e-17,-2.775557561562891351e-17,-2.775557561562891351e-17,-2.775557561562891351e-17,-2.775557561562891351e-17,-5.551115123125782702e-17,-2.775557561562891351e-17,-2.775557561562891351e-17,-2.775557561562891351e-17,-2.775557561562891351e-17,0.000000000000000000e+00,-2.775557561562891351e-17,-2.775557561562891351e-17,-2.775557561562891351e-17,-3.584714768073213320e-02,-7.348665274550085502e-02,-1.111261578102696046e-01,-1.469733054910017100e-01,-1.720663088675142005e-01,-1.720663088675142005e-01,-1.720663088675142005e-01
-1.881975253238440948e-02,-2.775557561562891351e-17,-2.775557561562891351e-17,-2.775557561562891351e-17,-2.775557561562891351e-17,-2.775557561562891351e-17,-2.775557561562891351e-17,-2.775557561562891351e-17,-2.775557561562891351e-17,-2.775557561562891351e-17,-2.775557561562891351e-17,-2.775557561562891351e-17,-2.775557561562891351e-17,-2.775557561562891351e-17,-2.775557561562891351e-17,-2.775557561562891351e-17,-2.775557561562891351e-17,-2.775557561562891351e-17,-2.775557561562891351e-17,-2.775557561562891351e-17,-2.775557561562891351e-17,-2.775557561562891351e-17,-2.775557561562891351e-17,-2.775557561562891351e-17,-5.551115123125782702e-17,-2.775557561562891351e-17,-2.775557561562891351e-17,-2.775557561562891351e-17,-2.775557561562891351e-17,-2.775557561562891351e-17,-2.775557561562891351e-17,-2.775557561562891351e-17,0.000000000000000000e+00,-5.551115123125782702e-17,-2.775557561562891351e-17,-2.775557561562891351e-17,-2.775557561562891351e-17,-2.775557561562891351e-17,-5.377072152109835246e-03,-4.122421983284194069e-02,-7.886372489761069027e-02,-1.165032299623794121e-01,-1.541427350271481478e-01,-1.720663088675142005e-01,-1.720663088675142005e-01,-1.720663088675142005e-01,-1.720663088675142005e-01
-2.775557561562891351e-17,-2.775557561562891351e-17,-2.775557561562891351e-17,-5.551115123125782702e-17,-2.775557561562891351e-17,-2.775557561562891351e-17,-2.775557561562891351e-17,-2.775557561562891351e-17,-2.775557561562891351e-17,-5.551115123125782702e-17,-2.775557561562891351e-17,-2.775557561562891351e-17,-2.775557561562891351e-17,-5.551115123125782702e-17,0.000000000000000000e+00,-2.775557561562891351e-17,-2.775557561562891351e-17,-5.551115123125782702e-17,-2.775557561562891351e-17,-2.775557561562891351e-17,-2.775557561562891351e-17,-5.551115123125782702e-17,-5.551115123125782702e-17,0.000000000000000000e+00,-2.775557561562891351e-17,-5.551115123125782702e-17,-2.775557561562891351e-17,-2.775557561562891351e-17,-5.551115123125782702e-17,-2.775557561562891351e-17,0.000000000000000000e+00,-2.775557561562891351e-17,-2.775557561562891351e-17,0.000000000000000000e+00,0.000000000000000000e+00,-2.775557561562891351e-17,-2.775557561562891351e-17,-1.075414430421964274e-02,-4.839364936898837843e-02,-8.603315443375711413e-02,-1.218803021144892335e-01,-1.595198071792579553e-01,-1.720663088675142005e-01,-1.720663088675142005e-01,-1.720663088675142005e-01,-1.720663088675142005e-01,-1.720663088675142005e-01
-5.377072152109821368e-02,-2.775557561562891351e-17,-5.551115123125782702e-17,-2.775557561562891351e-17,-2.775557561562891351e-17,-2.775557561562891351e-17,-2.775557561562891351e-17,-2.775557561562891351e-17,-2.775557561562891351e-17,-2.775557561562891351e-17,-2.775557561562891351e-17,0.000000000000000000e+00,-2.775557561562891351e-17,-2.775557561562891351e-17,-2.775557561562891351e-17,-2.775557561562891351e-17,-2.775557561562891351e-17,-2.775557561562891351e-17,-5.551115123125782702e-17,-2.775557561562891351e-17,-2.775557561562891351e-17,-2.775557561562891351e-17,-2.775557561562891351e-17,-2.775557561562891351e-17,-2.775557561562891351e-17,-5.551115123125782702e-17,-2.775557561562891351e-17,-2.775557561562891351e-17,-2.775557561562891351e-17,-2.775557561562891351e-17,-2.775557561562891351e-17,0.000000000000000000e+00,-2.775557561562891351e-17,-2.775557561562891351e-17,-2.775557561562891351e-17,-2.775557561562891351e-17,-1.613121645632947798e-02,-5.377072152109819980e-02,-9.141022658586692162e-02,-1.290497316506356573e-01,-1.666892367154043930e-01,-1.720663088675142005e-01,-1.720663088675142005e-01,-1.720663088675142005e-01,-1.720663088675142005e-01,-1.720663088675142005e-01,-1.720663088675142005e-01
-1.666892367154043930e-01,-3.763950506476876345e-02,-2.775557561562891351e-17,-2.775557561562891351e-17,0.000000000000000000e+00,-2.775557561562891351e-17,-2.775557561562891351e-17,-2.775557561562891351e-17,-2.775557561562891351e-17,-2.775557561562891351e-17,-2.775557561562891351e-17,-2.775557561562891351e-17,-2.775557561562891351e-17,-2.775557561562891351e-17,-2.775557561562891351e-17,-2.775557561562891351e-17,-5.551115123125782702e-17,-2.775557561562891351e-17,-2.775557561562891351e-17,-2.775557561562891351e-17,-2.775557561562891351e-17,0.000000000000000000e+00,-2.775557561562891351e-17,-2.775557561562891351e-17,-2.775557561562891351e-17,-2.775557561562891351e-17,-2.775557561562891351e-17,-2.775557561562891351e-17,-2.775557561562891351e-17,-2.775557561562891351e-17,-2.775557561562891351e-17,-2.775557561562891351e-17,-2.775557561562891351e-17,-5.551115123125782702e-17,-2.775557561562891351e-17,-2.330064599247591572e-02,-6.094015105724463754e-02,-9.857965612201334549e-02,-1.344268038027454648e-01,-1.720663088675142005e-01,-1.720663088675142005e-01,-1.720663088675142005e-01,-1.720663088675142005e-01,-1.720663088675142005e-01,-1.720663088675142005e-01,-1.720663088675142005e-01,-1.720663088675142005e-01
-1.720663088675142005e-01,-1.505580202590749428e-01,-1.613121645632947798e-02,-2.775557561562891351e-17,-2.775557561562891351e-17,-5.551115123125782702e-17,-2.775557561562891351e-17,-2.775557561562891351e-17,-2.775557561562891351e-17,-2.775557561562891351e-17,-2.775557561562891351e-17,-2.775557561562891351e-17,-2.775557561562891351e-17,-2.775557561562891351e-17,-2.775557561562891351e-17,-2.775557561562891351e-17,-2.775557561562891351e-17,-2.775557561562891351e-17,0.000000000000000000e+00,-2.775557561562891351e-17,-2.775557561562891351e-17,-2.775557561562891351e-17,-2.775557561562891351e-17,-2.775557561562891351e-17,-2.775557561562891351e-17,-2.775557561562891351e-17,-5.551115123125782702e-17,-2.775557561562891351e-17,-2.775557561562891351e-17,-2.775557561562891351e-17,-2.775557561562891351e-17,-2.775557561562891351e-17,-5.551115123125782702e-17,-2.775557561562891351e-17,-2.867771814458572321e-02,-6.631722320935444503e-02,-1.039567282741231669e-01,-1.415962333388919026e-01,-1.720663088675142005e-01,-1.720663088675142005e-01,-1.720663088675142005e-01,-1.720663088675142005e-01,-1.720663088675142005e-01,-1.720663088675142005e-01,-1.720663088675142005e-01,-1.720663088675142005e-01,-1.720663088675142005e-01
-1.720663088675142005e-01,-1.720663088675142005e-01,-1.290497316506356573e-01,-2.775557561562891351e-17,-2.775557561562891351e-17,-2.775557561562891351e-17,0.000000000000000000e+00,-2.775557561562891351e-17,-2.775557561562891351e-17,-2.775557561562891351e-17,-2.775557561562891351e-17,-5.551115123125782702e-17,-2.775557561562891351e-17,-2.775557561562891351e-17,-2.775557561562891351e-17,-2.775557561562891351e-17,-2.775557561562891351e-17,0.000000000000000000e+00,-2.775557561562891351e-17,-2.775557561562891351e-17,-2.775557561562891351e-17,-2.775557561562891351e-17,-2.775557561562891351e-17,-2.775557561562891351e-17,-2.775557561562891351e-17,-2.775557561562891351e-17,-2.775557561562891351e-17,-2.775557561562891351e-17,-2.775557561562891351e-17,-2.775557561562891351e-17,-2.775557561562891351e-17,-2.775557561562891351e-17,-2.775557561562891351e-17,-1.449452360446581434e-01,-1.825847411094268513e-01,-2.184318887901589845e-01,-2.560713938549277202e-01,-1.720663088675142005e-01,-1.720663088675142005e-01,-1.720663088675142005e-01,-1.720663088675142005e-01,-1.720663088675142005e-01,-1.720663088675142005e-01,-1.720663088675142005e-01,-1.720663088675142005e-01,-1.720663088675142005e-01,-1.720663088675142005e-01
-1.720663088675142005e-01,-1.720663088675142005e-01,-1.720663088675142005e-01,-1.129185151943062071e-01,-2.775557561562891351e-17,-2.775557561562891351e-17,-2.775557561562891351e-17,-2.775557561562891351e-17,-2.775557561562891351e-17,-2.775557561562891351e-17,-2.775557561562891351e-17,-2.775557561562891351e-17,0.000000000000000000e+00,-2.775557561562891351e-17,-2.775557561562891351e-17,-2.775557561562891351e-17,-2.775557561562891351e-17,-2.775557561562891351e-17,-2.775557561562891351e-17,-2.775557561562891351e-17,-2.775557561562891351e-17,-5.551115123125782702e-17,-2.775557561562891351e-17,-2.775557561562891351e-17,-2.775557561562891351e-17,-2.775557561562891351e-17,-2.775557561562891351e-17,-2.775557561562891351e-17,-2.775557561562891351e-17,-2.775557561562891351e-17,-2.775557561562891351e-17,-3.584714768073260505e-03,-4.122421983284196845e-02,-1.879618132615367143e-01,-2.256013183263054223e-01,-2.632408233910741302e-01,-2.811643972314402107e-01,-1.720663088675142005e-01,-1.720663088675142005e-01,-1.720663088675142005e-01,-1.720663088675142005e-01,-1.720663088675142005e-01,-1.720663088675142005e-01,-1.720663088675142005e-01,-1.720663088675142005e-01,-1.720663088675142005e-01,-1.720663088675142005e-01
-1.720663088675142005e-01,-1.720663088675142005e-01,-1.720663088675142005e-01,-1.720663088675142005e-01,-9.141022658586693550e-02,-2.775557561562891351e-17,-2.775557561562891351e-17,-2.775557561562891351e-17,-2.775557561562891351e-17,-2.775557561562891351e-17,-2.775557561562891351e-17,-2.775557561562891351e-17,-2.775557561562891351e-17,-5.551115123125782702e-17,0.000000000000000000e+00,-2.775557561562891351e-17,-2.775557561562891351e-17,-2.775557561562891351e-17,-2.775557561562891351e-17,-2.775557561562891351e-17,-2.775557561562891351e-17,-5.551115123125782702e-17,-2.775557561562891351e-17,-2.775557561562891351e-17,-2.775557561562891351e-17,-2.775557561562891351e-17,0.000000000000000000e+00,-2.775557561562891351e-17,-2.775557561562891351e-17,-2.775557561562891351e-17,-1.075414430421967049e-02,-4.839364936898839231e-02,-8.603315443375711413e-02,-2.309783904784152297e-01,-2.686178955431839377e-01,-2.811643972314402107e-01,-2.811643972314402107e-01,-1.720663088675142005e-01,-1.720663088675142005e-01,-1.720663088675142005e-01,-1.720663088675142005e-01,-1.720663088675142005e-01,-1.720663088675142005e-01,-1.720663088675142005e-01,-1.720663088675142005e-01,-1.720663088675142005e-01,-1.720663088675142005e-01
-1.720663088675142005e-01,-1.720663088675142005e-01,-1.720663088675142005e-01,-1.720663088675142005e-01,-1.720663088675142005e-01,-7.527901012953747140e-02,-2.775557561562891351e-17,-2.775557561562891351e-17,-2.775557561562891351e-17,-2.775557561562891351e-17,-2.775557561562891351e-17,-2.775557561562891351e-17,-5.551115123125782702e-17,-2.775557561562891351e-17,-2.775557561562891351e-17,-2.775557561562891351e-17,-2.775557561562891351e-17,-2.775557561562891351e-17,-2.775557561562891351e-17,-2.775557561562891351e-17,-2.775557561562891351e-17,-2.775557561562891351e-17,-2.775557561562891351e-17,-2.775557561562891351e-17,-2.775557561562891351e-17,-2.775557561562891351e-17,-2.775557561562891351e-17,-2.775557561562891351e-17,-2.775557561562891351e-17,-1.613121645632947798e-02,-5.377072152109821368e-02,-9.141022658586692162e-02,-1.290497316506356573e-01,-2.757873250793303477e-01,-2.811643972314402107e-01,-2.811643972314402107e-01,-2.811643972314402107e-01,-1.720663088675142005e-01,-1.720663088675142005e-01,-1.720663088675142005e-01,-1.720663088675142005e-01,-1.720663088675142005e-01,-1.720663088675142005e-01,-1.720663088675142005e-01,-1.720663088675142005e-01,-1.720663088675142005e-01,-1.720663088675142005e-01
-1.720663088675142005e-01,-1.720663088675142005e-01,-1.720663088675142005e-01,-1.720663088675142005e-01,-1.720663088675142005e-01,-1.720663088675142005e-01,-5.377072152109821368e-02,-2.775557561562891351e-17,-2.775557561562891351e-17,0.000000000000000000e+00,-2.775557561562891351e-17,-2.775557561562891351e-17,-2.775557561562891351e-17,-2.775557561562891351e-17,-2.775557561562891351e-17,-2.775557561562891351e-17,-2.775557561562891351e-17,-2.775557561562891351e-17,-2.775557561562891351e-17,-2.775557561562891351e-17,0.000000000000000000e+00,-2.775557561562891351e-17,-2.775557561562891351e-17,-2.775557561562891351e-17,-2.775557561562891351e-17,-2.775557561562891351e-17,-2.775557561562891351e-17,-2.775557561562891351e-17,-2.330064599247591572e-02,-6.094015105724463754e-02,-9.678729873797675687e-02,-1.344268038027454648e-01,-1.720663088675142005e-01,-1.720663088675142005e-01,-1.720663088675142005e-01,-1.720663088675142005e-01,-1.720663088675142005e-01,-1.720663088675142005e-01,-1.720663088675142005e-01,-1.720663088675142005e-01,-1.720663088675142005e-01,-1.720663088675142005e-01,-1.720663088675142005e-01,-1.720663088675142005e-01,-1.720663088675142005e-01,-1.720663088675142005e-01,-1.720663088675142005e-01
-1.720663088675142005e-01,-1.720663088675142005e-01,-1.720663088675142005e-01,-1.720663088675142005e-01,-1.720663088675142005e-01,-1.720663088675142005e-01,-1.666892367154043930e-01,-3.763950506476876345e-02,-2.775557561562891351e-17,-2.775557561562891351e-17,-2.775557561562891351e-17,-2.775557561562891351e-17,-2.775557561562891351e-17,-2.775557561562891351e-17,0.000000000000000000e+00,-2.775557561562891351e-17,-2.775557561562891351e-17,-2.775557561562891351e-17,-2.775557561562891351e-17,-2.775557561562891351e-17,-2.775557561562891351e-17,-2.775557561562891351e-17,0.000000000000000000e+00,-2.775557561562891351e-17,-2.775557561562891351e-17,-2.775557561562891351e-17,-2.775557561562891351e-17,-2.867771814458572321e-02,-6.631722320935444503e-02,-1.039567282741231807e-01,-1.415962333388919026e-01,-1.720663088675142005e-01,-1.720663088675142005e-01,-1.720663088675142005e-01,-1.720663088675142005e-01,-1.720663088675142005e-01,-1.720663088675142005e-01,-1.720663088675142005e-01,-1.720663088675142005e-01,-1.720663088675142005e-01,-1.720663088675142005e-01,-1.720663088675142005e-01,-1.720663088675142005e-01,-1.720663088675142005e-01,-1.720663088675142005e-01,-1.720663088675142005e-01,-1.720663088675142005e-01
-1.720663088675142005e-01,-1.720663088675142005e-01,-1.720663088675142005e-01,-1.720663088675142005e-01,-1.720663088675142005e-01,-1.720663088675142005e-01,-1.720663088675142005e-01,-1.505580202590749428e-01,-1.613121645632950574e-02,-2.775557561562891351e-17,-2.775557561562891351e-17,-2.775557561562891351e-17,-2.775557561562891351e-17,-2.775557561562891351e-17,-2.775557561562891351e-17,-2.775557561562891351e-17,0.000000000000000000e+00,-2.775557561562891351e-17,-2.775557561562891351e-17,-2.775557561562891351e-17,-2.775557561562891351e-17,-2.775557561562891351e-17,-2.775557561562891351e-17,-1.682484887656132411e-01,-1.682484887656132411e-01,-1.682484887656132411e-01,-2.040956364463453465e-01,-2.417351415111140822e-01,-1.093338004262329882e-01,-1.469733054910017100e-01,-1.720663088675142005e-01,-1.720663088675142005e-01,-1.720663088675142005e-01,-1.720663088675142005e-01,-1.720663088675142005e-01,-1.720663088675142005e-01,-1.720663088675142005e-01,-1.720663088675142005e-01,-1.720663088675142005e-01,-1.720663088675142005e-01,-1.720663088675142005e-01,-1.720663088675142005e-01,-1.720663088675142005e-01,-1.720663088675142005e-01,-1.720663088675142005e-01,-1.720663088675142005e-01,-1.720663088675142005e-01
-1.720663088675142005e-01,-1.720663088675142005e-01,-1.720663088675142005e-01,-1.720663088675142005e-01,-1.720663088675142005e-01,-1.720663088675142005e-01,-1.720663088675142005e-01,-1.720663088675142005e-01,-1.290497316506356573e-01,-2.775557561562891351e-17,-2.775557561562891351e-17,-2.775557561562891351e-17,-2.775557561562891351e-17,-2.775557561562891351e-17,-2.775557561562891351e-17,-2.775557561562891351e-17,-5.551115123125782702e-17,-2.775557561562891351e-17,-2.775557561562891351e-17,-2.775557561562891351e-17,-2.775557561562891351e-17,-5.551115123125782702e-17,-2.775557561562891351e-17,-1.682484887656132411e-01,-1.935572526600944920e-01,-2.311967577248632000e-01,-2.688362627896319079e-01,-2.847517187279926532e-01,-1.541427350271481478e-01,-1.720663088675142005e-01,-1.720663088675142005e-01,-1.720663088675142005e-01,-1.720663088675142005e-01,-1.720663088675142005e-01,-1.720663088675142005e-01,-1.720663088675142005e-01,-1.720663088675142005e-01,-1.720663088675142005e-01,-1.720663088675142005e-01,-1.720663088675142005e-01,-1.720663088675142005e-01,-1.720663088675142005e-01,-1.720663088675142005e-01,-1.720663088675142005e-01,-1.720663088675142005e-01,-1.720663088675142005e-01,-1.720663088675142005e-01
-1.720663088675142005e-01,-1.720663088675142005e-01,-1.720663088675142005e-01,-1.720663088675142005e-01,-1.720663088675142005e-01,-1.720663088675142005e-01,-1.720663088675142005e-01,-1.720663088675142005e-01,-1.720663088675142005e-01,-1.129185151943062071e-01,-2.775557561562891351e-17,-2.775557561562891351e-17,-2.775557561562891351e-17,-5.551115123125782702e-17,-2.775557561562891351e-17,-2.775557561562891351e-17,-2.775557561562891351e-17,-2.775557561562891351e-17,-2.775557561562891351e-17,-2.775557561562891351e-17,-5.551115123125782702e-17,-2.775557561562891351e-17,0.000000000000000000e+00,-1.790026330698329116e-01,-2.383661872610096100e-01,-2.760056923257783179e-01,-3.118528400065104789e-01,-3.277682959448711686e-01,-1.720663088675142005e-01,-1.720663088675142005e-01,-1.720663088675142005e-01,-1.720663088675142005e-01,-1.720663088675142005e-01,-1.720663088675142005e-01,-1.720663088675142005e-01,-1.720663088675142005e-01,-1.720663088675142005e-01,-1.720663088675142005e-01,-1.720663088675142005e-01,-1.720663088675142005e-01,-1.720663088675142005e-01,-1.720663088675142005e-01,-1.720663088675142005e-01,-1.720663088675142005e-01,-1.720663088675142005e-01,-1.720663088675142005e-01,-1.720663088675142005e-01
-1.720663088675142005e-01,-1.720663088675142005e-01,-1.720663088675142005e-01,-1.720663088675142005e-01,-1.720663088675142005e-01,-1.720663088675142005e-01,-1.720663088675142005e-01,-1.720663088675142005e-01,-1.720663088675142005e-01,-1.720663088675142005e-01,-9.141022658586692162e-02,-5.551115123125782702e-17,-2.775557561562891351e-17,-2.775557561562891351e-17,0.000000000000000000e+00,-2.775557561562891351e-17,-2.775557561562891351e-17,0.000000000000000000e+00,-2.775557561562891351e-17,0.000000000000000000e+00,-2.775557561562891351e-17,-2.775557561562891351e-17,-1.613121645632947798e-02,-2.220192102867113992e-01,-2.813827644778881254e-01,-3.190222695426568889e-01,-3.566617746074256523e-01,-3.403147976331274416e-01,-1.720663088675142005e-01,-1.720663088675142005e-01,-1.720663088675142005e-01,-1.720663088675142005e-01,-1.720663088675142005e-01,-1.720663088675142005e-01,-1.720663088675142005e-01,-1.720663088675142005e-01,-1.720663088675142005e-01,-1.720663088675142005e-01,-1.720663088675142005e-01,-1.720663088675142005e-01,-1.720663088675142005e-01,-1.720663088675142005e-01,-1.720663088675142005e-01,-1.720663088675142005e-01,-1.720663088675142005e-01,-1.720663088675142005e-01,-1.720663088675142005e-01
-1.720663088675142005e-01,-1.720663088675142005e-01,-1.720663088675142005e-01,-1.720663088675142005e-01,-1.720663088675142005e-01,-1.720663088675142005e-01,-1.720663088675142005e-01,-1.720663088675142005e-01,-1.720663088675142005e-01,-1.720663088675142005e-01,-1.720663088675142005e-01,-7.527901012953747140e-02,-2.775557561562891351e-17,-2.775557561562891351e-17,-2.775557561562891351e-17,-2.775557561562891351e-17,-2.775557561562891351e-17,-5.551115123125782702e-17,-2.775557561562891351e-17,-2.775557561562891351e-17,-2.775557561562891351e-17,-2.330064599247591572e-02,-6.094015105724463754e-02,-2.650357875035899702e-01,-3.026752925683586781e-01,-3.403147976331274416e-01,-3.403147976331274416e-01,-3.403147976331274416e-01,-1.720663088675142005e-01,-1.720663088675142005e-01,-1.720663088675142005e-01,-1.720663088675142005e-01,-1.720663088675142005e-01,-1.720663088675142005e-01,-1.720663088675142005e-01,-1.720663088675142005e-01,-1.720663088675142005e-01,-1.720663088675142005e-01,-1.720663088675142005e-01,-1.720663088675142005e-01,-1.720663088675142005e-01,-1.720663088675142005e-01,-1.720663088675142005e-01,-1.720663088675142005e-01,-1.720663088675142005e-01,-1.720663088675142005e-01,-1.720663088675142005e-01
-1.720663088675142005e-01,-1.720663088675142005e-01,-1.720663088675142005e-01,-1.720663088675142005e-01,-1.720663088675142005e-01,-1.720663088675142005e-01,-1.720663088675142005e-01,-1.720663088675142005e-01,-1.720663088675142005e-01,-1.720663088675142005e-01,-1.720663088675142005e-01,-1.720663088675142005e-01,-5.377072152109821368e-02,-2.775557561562891351e-17,-2.775557561562891351e-17,-2.775557561562891351e-17,-2.775557561562891351e-17,-2.775557561562891351e-17,0.000000000000000000e+00,-2.775557561562891351e-17,-2.867771814458572321e-02,-6.631722320935443116e-02,-1.039567282741231807e-01,-1.415962333388919026e-01,-1.720663088675142005e-01,-1.720663088675142005e-01,-1.720663088675142005e-01,-1.720663088675142005e-01,-1.720663088675142005e-01,-1.720663088675142005e-01,-1.720663088675142005e-01,-1.720663088675142005e-01,-1.720663088675142005e-01,-1.720663088675142005e-01,-1.720663088675142005e-01,-1.720663088675142005e-01,-1.720663088675142005e-01,-1.720663088675142005e-01,-1.720663088675142005e-01,-1.720663088675142005e-01,-1.720663088675142005e-01,-1.720663088675142005e-01,-1.720663088675142005e-01,-1.720663088675142005e-01,-1.720663088675142005e-01,-1.720663088675142005e-01,-1.720663088675142005e-01
