-9.422444251526003456e-02,-9.362627972949073840e-02,-9.243915666234857331e-02,-8.977043038737783642e-02,-8.711090661680355451e-02,-8.238081935702781800e-02,-7.824889488302140539e-02,-7.352801012764212385e-02,-6.585312146100213981e-02,-5.977946855934459375e-02,-5.006162391669251310e-02,-4.711682250982825171e-02,-4.417202110296399031e-02,-3.828241828923545365e-02,-3.533761688237119225e-02,-2.944801406864265558e-02,-2.650321266177839419e-02,-2.355841125491413279e-02,-1.766880844118561000e-02,-1.472400703432133473e-02,-8.834404220592811940e-03,-1.141110545159902678e-02,-1.435590685846330206e-02,-1.766880844118561000e-02,-2.355841125491413279e-02,-2.944801406864265558e-02,-3.533761688237119225e-02,-4.122721969609972198e-02,-4.711682250982825171e-02,-5.300642532355678144e-02,-5.889602813728531117e-02,-6.478563095101383396e-02,-7.067523376474237062e-02,-7.656483657847090729e-02,-8.245443939219943008e-02,-8.834404220592795287e-02,-9.423364501965648954e-02,-9.423364501965648954e-02,-9.423364501965648954e-02,-9.423364501965648954e-02,-9.423364501965648954e-02,-9.423364501965648954e-02,-9.423364501965648954e-02,-9.423364501965648954e-02,-9.423364501965648954e-02,-9.423364501965648954e-02,-9.423364501965648954e-02
-9.423364501965648954e-02,-8.510476065837727089e-02,-7.568139615641161777e-02,-6.625803165444597853e-02,-5.683466715248032541e-02,-4.741130265051467230e-02,-3.798793814854903306e-02,-2.856457364658337994e-02,-1.914120914461774070e-02,-9.717844642652087583e-03,-2.944801406864344662e-04,-1.387778780781445676e-17,-1.387778780781445676e-17,-1.387778780781445676e-17,-1.387778780781445676e-17,-1.387778780781445676e-17,-1.387778780781445676e-17,-1.387778780781445676e-17,-1.387778780781445676e-17,-1.387778780781445676e-17,-1.387778780781445676e-17,-5.705552725799520331e-03,-1.159515553952805700e-02,-1.748475835325659367e-02,-2.337436116698511646e-02,-2.926396398071363925e-02,-3.515356679444217591e-02,-4.104316960817070564e-02,-4.693277242189923537e-02,-5.263832514769874876e-02,-5.852792796142727849e-02,-6.441753077515580128e-02,-7.030713358888433795e-02,-7.619673640261287462e-02,-8.208633921634139741e-02,-8.797594203006992020e-02,-9.386554484379845686e-02,-9.423364501965648954e-02,-9.423364501965648954e-02,-9.423364501965648954e-02,-9.423364501965648954e-02,-9.423364501965648954e-02,-9.423364501965648954e-02,-9.423364501965648954e-02,-9.423364501965648954e-02,-9.423364501965648954e-02,-9.423364501965648954e-02
-9.423364501965648954e-02,-8.539924079906369148e-02,-7.597587629709803836e-02,-6.655251179513239912e-02,-5.712914729316675294e-02,-4.770578279120109982e-02,-3.828241828923546058e-02,-2.885905378726981441e-02,-1.943568928530416129e-02,-1.001232478333850817e-02,-5.889602813728689323e-04,-1.387778780781445676e-17,-1.387778780781445676e-17,-1.387778780781445676e-17,-1.387778780781445676e-17,-1.387778780781445676e-17,-1.387778780781445676e-17,-1.387778780781445676e-17,-1.387778780781445676e-17,-1.387778780781445676e-17,-1.387778780781445676e-17,-5.337452549941487656e-03,-1.122705536367002432e-02,-1.711665817739856099e-02,-2.300626099112708378e-02,-2.889586380485560657e-02,-3.478546661858414324e-02,-4.067506943231267297e-02,-4.656467224604120270e-02,-5.245427505976973243e-02,-5.834387787349826215e-02,-6.423348068722678494e-02,-7.012308350095532161e-02,-7.601268631468385828e-02,-8.190228912841238107e-02,-8.779189194214090386e-02,-9.368149475586944053e-02,-9.423364501965648954e-02,-9.423364501965648954e-02,-9.423364501965648954e-02,-9.423364501965648954e-02,-9.423364501965648954e-02,-9.423364501965648954e-02,-9.423364501965648954e-02,-9.423364501965648954e-02,-9.423364501965648954e-02,-9.423364501965648954e-02
-9.423364501965648954e-02,-8.569372093975012594e-02,-7.627035643778447283e-02,-6.714147207650525417e-02,-5.771810757453960106e-02,-4.829474307257396182e-02,-3.887137857060830870e-02,-2.944801406864266946e-02,-2.002464956667701634e-02,-1.060128506471137710e-02,-1.177920562745723987e-03,-1.387778780781445676e-17,-1.387778780781445676e-17,-1.387778780781445676e-17,-1.387778780781445676e-17,-1.387778780781445676e-17,-1.387778780781445676e-17,-1.387778780781445676e-17,-1.387778780781445676e-17,-1.387778780781445676e-17,-1.387778780781445676e-17,-5.153402462012471319e-03,-1.104300527574100799e-02,-1.693260808946954465e-02,-2.282221090319806744e-02,-2.871181371692659023e-02,-3.460141653065512690e-02,-4.049101934438365663e-02,-4.638062215811218636e-02,-5.227022497184071609e-02,-5.815982778556924582e-02,-6.404943059929776861e-02,-6.993903341302630527e-02,-7.582863622675484194e-02,-8.171823904048336473e-02,-8.760784185421188752e-02,-9.331339458001140785e-02,-9.423364501965648954e-02,-9.423364501965648954e-02,-9.423364501965648954e-02,-9.423364501965648954e-02,-9.423364501965648954e-02,-9.423364501965648954e-02,-9.423364501965648954e-02,-9.423364501965648954e-02,-9.423364501965648954e-02,-9.423364501965648954e-02
-9.423364501965648954e-02,-8.628268122112298100e-02,-7.685931671915732788e-02,-6.743595221719167476e-02,-5.801258771522603552e-02,-4.858922321326038241e-02,-3.916585871129473623e-02,-2.974249420932909005e-02,-2.031912970736345081e-02,-1.089576520539779769e-02,-1.472400703432144575e-03,-1.387778780781445676e-17,-1.387778780781445676e-17,-1.387778780781445676e-17,-1.387778780781445676e-17,-1.387778780781445676e-17,-1.387778780781445676e-17,-1.387778780781445676e-17,-2.775557561562891351e-17,-1.387778780781445676e-17,-1.387778780781445676e-17,-4.969352374083454982e-03,-1.085895518781199165e-02,-1.656450791361151198e-02,-2.245411072734003477e-02,-2.834371354106855756e-02,-3.423331635479709423e-02,-4.012291916852562396e-02,-4.601252198225415369e-02,-5.190212479598267648e-02,-5.779172760971121314e-02,-6.368133042343973593e-02,-6.957093323716827260e-02,-7.546053605089680927e-02,-8.135013886462533206e-02,-8.723974167835385485e-02,-9.312934449208239152e-02,-9.423364501965648954e-02,-9.423364501965648954e-02,-9.423364501965648954e-02,-9.423364501965648954e-02,-9.423364501965648954e-02,-9.423364501965648954e-02,-9.423364501965648954e-02,-9.423364501965648954e-02,-9.423364501965648954e-02,-9.423364501965648954e-02
-9.423364501965648954e-02,-8.657716136180940159e-02,-7.715379685984374847e-02,-6.773043235787810923e-02,-5.830706785591245611e-02,-4.888370335394680993e-02,-3.946033885198116375e-02,-3.003697435001552452e-02,-2.061360984804987140e-02,-1.119024534608421828e-02,-2.061360984805013508e-03,-1.387778780781445676e-17,-1.387778780781445676e-17,-1.387778780781445676e-17,-1.387778780781445676e-17,-1.387778780781445676e-17,-1.387778780781445676e-17,-1.387778780781445676e-17,-1.387778780781445676e-17,-1.387778780781445676e-17,-1.387778780781445676e-17,-4.601252198225422307e-03,-1.049085501195394510e-02,-1.638045782568249564e-02,-2.227006063941101843e-02,-2.815966345313954122e-02,-3.404926626686807789e-02,-3.993886908059660068e-02,-4.582847189432513735e-02,-5.171807470805366014e-02,-5.760767752178219681e-02,-6.349728033551071960e-02,-6.938688314923925626e-02,-7.527648596296779293e-02,-8.116608877669631572e-02,-8.705569159042483851e-02,-9.294529440415337518e-02,-9.423364501965648954e-02,-9.423364501965648954e-02,-9.423364501965648954e-02,-9.423364501965648954e-02,-9.423364501965648954e-02,-9.423364501965648954e-02,-9.423364501965648954e-02,-9.423364501965648954e-02,-9.423364501965648954e-02,-9.423364501965648954e-02
-9.423364501965648954e-02,-8.716612164318225664e-02,-7.774275714121660352e-02,-6.831939263925096428e-02,-5.889602813728531117e-02,-4.947266363531966499e-02,-4.004929913335401881e-02,-3.062593463138836569e-02,-2.120257012942271257e-02,-1.177920562745707334e-02,-2.355841125491434096e-03,-1.387778780781445676e-17,-1.387778780781445676e-17,-1.387778780781445676e-17,-1.387778780781445676e-17,-1.387778780781445676e-17,-1.387778780781445676e-17,-1.387778780781445676e-17,-1.387778780781445676e-17,-1.387778780781445676e-17,-1.387778780781445676e-17,-4.417202110296419848e-03,-1.030680492402494264e-02,-1.619640773775347931e-02,-2.208601055148200210e-02,-2.797561336521052489e-02,-3.386521617893906155e-02,-3.975481899266759128e-02,-4.564442180639612101e-02,-5.153402462012464380e-02,-5.723957734592416413e-02,-6.312918015965268692e-02,-6.901878297338122359e-02,-7.490838578710974638e-02,-8.079798860083828305e-02,-8.668759141456680584e-02,-9.257719422829534250e-02,-9.423364501965648954e-02,-9.423364501965648954e-02,-9.423364501965648954e-02,-9.423364501965648954e-02,-9.423364501965648954e-02,-9.423364501965648954e-02,-9.423364501965648954e-02,-9.423364501965648954e-02,-9.423364501965648954e-02,-9.423364501965648954e-02
-9.423364501965648954e-02,-8.746060178386867723e-02,-7.803723728190303799e-02,-6.861387277993738487e-02,-5.919050827797173869e-02,-4.976714377600609251e-02,-4.034377927404043940e-02,-3.092041477207480016e-02,-2.149705027010914704e-02,-1.207368576814350780e-02,-2.650321266177854684e-03,-1.387778780781445676e-17,-1.387778780781445676e-17,-2.775557561562891351e-17,-1.387778780781445676e-17,-1.387778780781445676e-17,-1.387778780781445676e-17,-1.387778780781445676e-17,-1.387778780781445676e-17,-1.387778780781445676e-17,0.000000000000000000e+00,-4.049101934438359418e-03,-9.938704748166909964e-03,-1.582830756189544663e-02,-2.171791037562396942e-02,-2.760751318935249221e-02,-3.349711600308102888e-02,-3.938671881680955861e-02,-4.527632163053808834e-02,-5.116592444426661807e-02,-5.705552725799514779e-02,-6.294513007172367058e-02,-6.883473288545220725e-02,-7.472433569918074392e-02,-8.061393851290926671e-02,-8.650354132663778950e-02,-9.239314414036632617e-02,-9.423364501965648954e-02,-9.423364501965648954e-02,-9.423364501965648954e-02,-9.423364501965648954e-02,-9.423364501965648954e-02,-9.423364501965648954e-02,-9.423364501965648954e-02,-9.423364501965648954e-02,-9.423364501965648954e-02,-9.423364501965648954e-02
-9.423364501965648954e-02,-8.775508192455511169e-02,-7.833171742258945858e-02,-6.890835292062380546e-02,-5.977946855934458681e-02,-5.035610405737894757e-02,-4.093273955541329445e-02,-3.150937505344765521e-02,-2.208601055148200210e-02,-1.266264604951634898e-02,-3.239281547550709739e-03,-1.387778780781445676e-17,-1.387778780781445676e-17,-1.387778780781445676e-17,-1.387778780781445676e-17,0.000000000000000000e+00,-1.387778780781445676e-17,-1.387778780781445676e-17,-1.387778780781445676e-17,-1.387778780781445676e-17,0.000000000000000000e+00,-3.865051846509370836e-03,-9.754654660237893626e-03,-1.564425747396643029e-02,-2.153386028769495308e-02,-2.742346310142347587e-02,-3.331306591515201254e-02,-3.920266872888053533e-02,-4.509227154260907200e-02,-5.098187435633759479e-02,-5.687147717006613146e-02,-6.276107998379465425e-02,-6.865068279752319091e-02,-7.454028561125171370e-02,-8.042988842498025037e-02,-8.631949123870877316e-02,-9.220909405243730983e-02,-9.423364501965648954e-02,-9.423364501965648954e-02,-9.423364501965648954e-02,-9.423364501965648954e-02,-9.423364501965648954e-02,-9.423364501965648954e-02,-9.423364501965648954e-02,-9.423364501965648954e-02,-9.423364501965648954e-02,-9.423364501965648954e-02
-9.423364501965648954e-02,-8.834404220592795287e-02,-7.892067770396231363e-02,-6.949731320199666051e-02,-6.007394870003101434e-02,-5.065058419806536816e-02,-4.122721969609972198e-02,-3.180385519413407580e-02,-2.238049069216842268e-02,-1.295712619020276957e-02,-3.533761688237130327e-03,-1.387778780781445676e-17,-1.387778780781445676e-17,-1.387778780781445676e-17,-1.387778780781445676e-17,-1.387778780781445676e-17,-1.387778780781445676e-17,-1.387778780781445676e-17,-1.387778780781445676e-17,-1.387778780781445676e-17,0.000000000000000000e+00,-3.681001758580340621e-03,-9.570604572308863411e-03,-1.546020738603741396e-02,-2.116576011183692041e-02,-2.705536292556544320e-02,-3.294496573929397987e-02,-3.883456855302250960e-02,-4.472417136675103932e-02,-5.061377418047956905e-02,-5.650337699420809878e-02,-6.239297980793662851e-02,-6.828258262166515824e-02,-7.417218543539369491e-02,-8.006178824912221770e-02,-8.595139106285074049e-02,-9.184099387657927716e-02,-9.423364501965648954e-02,-9.423364501965648954e-02,-9.423364501965648954e-02,-9.423364501965648954e-02,-9.423364501965648954e-02,-9.423364501965648954e-02,-9.423364501965648954e-02,-9.423364501965648954e-02,-9.423364501965648954e-02,-9.423364501965648954e-02
-9.423364501965648954e-02,-8.863852234661438734e-02,-7.921515784464873422e-02,-6.979179334268309498e-02,-6.036842884071744186e-02,-5.094506433875180262e-02,-4.152169983678614951e-02,-3.209833533482050333e-02,-2.267497083285484327e-02,-1.325160633088920403e-02,-3.828241828923564793e-03,-1.387778780781445676e-17,-1.387778780781445676e-17,-1.387778780781445676e-17,-1.387778780781445676e-17,-1.387778780781445676e-17,-2.775557561562891351e-17,-1.387778780781445676e-17,-2.775557561562891351e-17,0.000000000000000000e+00,0.000000000000000000e+00,-3.312901582722307947e-03,-9.202504396450844615e-03,-1.509210721017938128e-02,-2.098171002390790407e-02,-2.687131283763642686e-02,-3.276091565136496353e-02,-3.865051846509348632e-02,-4.454012127882202299e-02,-5.042972409255054578e-02,-5.631932690627908245e-02,-6.220892972000760524e-02,-6.809853253373614190e-02,-7.398813534746466469e-02,-7.987773816119320136e-02,-8.576734097492172415e-02,-9.165694378865026082e-02,-9.423364501965648954e-02,-9.423364501965648954e-02,-9.423364501965648954e-02,-9.423364501965648954e-02,-9.423364501965648954e-02,-9.423364501965648954e-02,-9.423364501965648954e-02,-9.423364501965648954e-02,-9.423364501965648954e-02,-9.423364501965648954e-02
-9.423364501965648954e-02,-8.922748262798724239e-02,-7.980411812602158927e-02,-7.038075362405593616e-02,-6.095738912209029692e-02,-5.153402462012464380e-02,-4.211066011815900456e-02,-3.268729561619335838e-02,-2.326393111422771220e-02,-1.384056661226205909e-02,-4.417202110296405970e-03,-1.387778780781445676e-17,-1.387778780781445676e-17,-1.387778780781445676e-17,-1.387778780781445676e-17,-1.387778780781445676e-17,-1.387778780781445676e-17,-1.387778780781445676e-17,-1.387778780781445676e-17,-1.387778780781445676e-17,-1.387778780781445676e-17,-3.128851494793291610e-03,-9.018454308521828278e-03,-1.490805712225036495e-02,-2.079765993597888774e-02,-2.668726274970741053e-02,-3.257686556343594025e-02,-3.846646837716446998e-02,-4.435607119089300665e-02,-5.024567400462152944e-02,-5.613527681835006611e-02,-6.184082954414957256e-02,-6.773043235787810923e-02,-7.362003517160663202e-02,-7.950963798533516869e-02,-8.539924079906369148e-02,-9.128884361279222814e-02,-9.423364501965648954e-02,-9.423364501965648954e-02,-9.423364501965648954e-02,-9.423364501965648954e-02,-9.423364501965648954e-02,-9.423364501965648954e-02,-9.423364501965648954e-02,-9.423364501965648954e-02,-9.423364501965648954e-02,-9.423364501965648954e-02
-9.423364501965648954e-02,-8.952196276867366298e-02,-8.009859826670800986e-02,-7.067523376474237062e-02,-6.125186926277672445e-02,-5.182850476081107827e-02,-4.240514025884542515e-02,-3.298177575687978591e-02,-2.355841125491413279e-02,-1.413504675294849355e-02,-4.711682250982840436e-03,-1.387778780781445676e-17,-1.387778780781445676e-17,-1.387778780781445676e-17,-1.387778780781445676e-17,-1.387778780781445676e-17,-1.387778780781445676e-17,-1.387778780781445676e-17,-1.387778780781445676e-17,-1.387778780781445676e-17,-1.387778780781445676e-17,-2.760751318935258936e-03,-8.650354132663781725e-03,-1.453995694639233227e-02,-2.042955976012085506e-02,-2.631916257384937785e-02,-3.220876538757790758e-02,-3.809836820130643731e-02,-4.398797101503496704e-02,-4.987757382876350370e-02,-5.576717664249203343e-02,-6.165677945622055622e-02,-6.754638226994909289e-02,-7.343598508367761568e-02,-7.932558789740615235e-02,-8.521519071113467514e-02,-9.110479352486321181e-02,-9.423364501965648954e-02,-9.423364501965648954e-02,-9.423364501965648954e-02,-9.423364501965648954e-02,-9.423364501965648954e-02,-9.423364501965648954e-02,-9.423364501965648954e-02,-9.423364501965648954e-02,-9.423364501965648954e-02,-9.423364501965648954e-02
-9.423364501965648954e-02,-8.981644290936009745e-02,-8.039307840739444433e-02,-7.096971390542880509e-02,-6.154634940346315197e-02,-5.241746504218393332e-02,-4.299410054021828020e-02,-3.357073603825262709e-02,-2.414737153628698785e-02,-1.472400703432134861e-02,-5.300642532355695491e-03,-1.387778780781445676e-17,-1.387778780781445676e-17,-1.387778780781445676e-17,-1.387778780781445676e-17,-1.387778780781445676e-17,-2.775557561562891351e-17,-1.387778780781445676e-17,-1.387778780781445676e-17,0.000000000000000000e+00,-1.387778780781445676e-17,-2.576701231006242598e-03,-8.466304044734779266e-03,-1.435590685846331593e-02,-2.024550967219183872e-02,-2.613511248592036151e-02,-3.202471529964888430e-02,-3.791431811337742097e-02,-4.380392092710595764e-02,-4.969352374083448737e-02,-5.558312655456301016e-02,-6.147272936829153989e-02,-6.736233218202006268e-02,-7.325193499574859934e-02,-7.914153780947713601e-02,-8.503114062320565880e-02,-9.092074343693419547e-02,-9.423364501965648954e-02,-9.423364501965648954e-02,-9.423364501965648954e-02,-9.423364501965648954e-02,-9.423364501965648954e-02,-9.423364501965648954e-02,-9.423364501965648954e-02,-9.423364501965648954e-02,-9.423364501965648954e-02,-9.423364501965648954e-02
-9.423364501965648954e-02,-9.040540319073293862e-02,-8.098203868876729938e-02,-7.155867418680164627e-02,-6.213530968483600009e-02,-5.271194518287035391e-02,-4.328858068090470079e-02,-3.386521617893906155e-02,-2.444185167697342231e-02,-1.501848717500775532e-02,-5.595122673042116079e-03,-1.387778780781445676e-17,-1.387778780781445676e-17,-1.387778780781445676e-17,-1.387778780781445676e-17,-1.387778780781445676e-17,-1.387778780781445676e-17,0.000000000000000000e+00,-1.387778780781445676e-17,-1.387778780781445676e-17,-1.387778780781445676e-17,-2.392651143077226261e-03,-8.282253956805762929e-03,-1.417185677053429960e-02,-2.006145958426282239e-02,-2.595106239799134518e-02,-3.165661512379085163e-02,-3.754621793751938830e-02,-4.343582075124791803e-02,-4.932542356497644775e-02,-5.521502637870498442e-02,-6.110462919243350721e-02,-6.699423200616204388e-02,-7.288383481989056667e-02,-7.877343763361910334e-02,-8.466304044734762613e-02,-9.055264326107616280e-02,-9.423364501965648954e-02,-9.423364501965648954e-02,-9.423364501965648954e-02,-9.423364501965648954e-02,-9.423364501965648954e-02,-9.423364501965648954e-02,-9.423364501965648954e-02,-9.423364501965648954e-02,-9.423364501965648954e-02,-9.423364501965648954e-02
-9.423364501965648954e-02,-9.069988333141937309e-02,-8.127651882945371997e-02,-7.185315432748808073e-02,-6.242978982552242762e-02,-5.300642532355678144e-02,-4.358306082159113526e-02,-3.415969631962548908e-02,-2.473633181765984290e-02,-1.531296731569418978e-02,-5.889602813728550545e-03,-1.387778780781445676e-17,-1.387778780781445676e-17,-2.775557561562891351e-17,-1.387778780781445676e-17,-1.387778780781445676e-17,-1.387778780781445676e-17,-1.387778780781445676e-17,-1.387778780781445676e-17,-1.387778780781445676e-17,-1.387778780781445676e-17,-2.024550967219193587e-03,-7.914153780947730255e-03,-1.380375659467626692e-02,-1.969335940840478971e-02,-2.558296222213331250e-02,-3.147256503586183529e-02,-3.736216784959037196e-02,-4.325177066331890169e-02,-4.914137347704743142e-02,-5.503097629077596115e-02,-6.092057910450449087e-02,-6.681018191823302754e-02,-7.269978473196155033e-02,-7.858938754569008700e-02,-8.447899035941860979e-02,-9.036859317314714646e-02,-9.423364501965648954e-02,-9.423364501965648954e-02,-9.423364501965648954e-02,-9.423364501965648954e-02,-9.423364501965648954e-02,-9.423364501965648954e-02,-9.423364501965648954e-02,-9.423364501965648954e-02,-9.423364501965648954e-02,-9.423364501965648954e-02
-9.423364501965648954e-02,-9.128884361279222814e-02,-8.186547911082657503e-02,-7.244211460886093579e-02,-6.301875010689528267e-02,-5.359538560492962955e-02,-4.417202110296398337e-02,-3.474865660099834413e-02,-2.532529209903269796e-02,-1.590192759706704484e-02,-6.478563095101405600e-03,-1.387778780781445676e-17,-1.387778780781445676e-17,0.000000000000000000e+00,0.000000000000000000e+00,0.000000000000000000e+00,0.000000000000000000e+00,0.000000000000000000e+00,0.000000000000000000e+00,-2.775557561562891351e-17,-1.387778780781445676e-17,-1.840500879290163372e-03,-7.730103693018700040e-03,-1.361970650674723671e-02,-1.950930932047577337e-02,-2.539891213420429616e-02,-3.128851494793283283e-02,-3.717811776166135562e-02,-4.306772057538988535e-02,-4.895732338911841508e-02,-5.484692620284694481e-02,-6.073652901657547454e-02,-6.644208174237499487e-02,-7.233168455610351766e-02,-7.822128736983205433e-02,-8.411089018356057712e-02,-9.000049299728911378e-02,-9.423364501965648954e-02,-9.423364501965648954e-02,-9.423364501965648954e-02,-9.423364501965648954e-02,-9.423364501965648954e-02,-9.423364501965648954e-02,-9.423364501965648954e-02,-9.423364501965648954e-02,-9.423364501965648954e-02,-9.423364501965648954e-02
-9.423364501965648954e-02,-9.158332375347864873e-02,-8.215995925151300949e-02,-7.273659474954735638e-02,-6.331323024758170326e-02,-5.388986574561606402e-02,-4.446650124365041090e-02,-3.504313674168477166e-02,-2.561977223971911855e-02,-1.619640773775347931e-02,-6.773043235787826188e-03,-1.387778780781445676e-17,-1.387778780781445676e-17,-1.387778780781445676e-17,0.000000000000000000e+00,-1.387778780781445676e-17,0.000000000000000000e+00,0.000000000000000000e+00,-1.387778780781445676e-17,-1.387778780781445676e-17,-1.387778780781445676e-17,-8.390918906620711826e-02,-8.979879187993564105e-02,-9.568839469366419159e-02,-1.015779975073927144e-01,-2.503081195834626349e-02,-3.092041477207478628e-02,-3.681001758580332295e-02,-4.269962039953185962e-02,-4.858922321326038241e-02,-5.447882602698891213e-02,-6.036842884071744186e-02,-6.625803165444596465e-02,-7.214763446817450132e-02,-7.803723728190303799e-02,-8.392684009563156078e-02,-8.981644290936009745e-02,-9.423364501965648954e-02,-9.423364501965648954e-02,-9.423364501965648954e-02,-9.423364501965648954e-02,-9.423364501965648954e-02,-9.423364501965648954e-02,-9.423364501965648954e-02,-9.423364501965648954e-02,-9.423364501965648954e-02,-9.423364501965648954e-02
-9.423364501965648954e-02,-9.187780389416508320e-02,-8.245443939219943008e-02,-7.303107489023377696e-02,-6.360771038826813772e-02,-5.418434588630248461e-02,-4.505546152502326596e-02,-3.563209702305761978e-02,-2.620873252109197360e-02,-1.678536801912632048e-02,-7.362003517160681243e-03,-1.387778780781445676e-17,-1.387778780781445676e-17,-1.387778780781445676e-17,-1.387778780781445676e-17,-1.387778780781445676e-17,-1.387778780781445676e-17,-2.775557561562891351e-17,-2.775557561562891351e-17,-2.775557561562891351e-17,-1.387778780781445676e-17,-8.372513897827808804e-02,-8.961474179200662471e-02,-9.550434460573517526e-02,-1.013939474194636980e-01,-2.484676187041724715e-02,-3.073636468414576994e-02,-3.662596749787430661e-02,-4.251557031160284328e-02,-4.840517312533137301e-02,-5.429477593905989580e-02,-6.018437875278842553e-02,-6.607398156651694832e-02,-7.196358438024548498e-02,-7.785318719397402165e-02,-8.374279000770254444e-02,-8.963239282143108111e-02,-9.423364501965648954e-02,-9.423364501965648954e-02,-9.423364501965648954e-02,-9.423364501965648954e-02,-9.423364501965648954e-02,-9.423364501965648954e-02,-9.423364501965648954e-02,-9.423364501965648954e-02,-9.423364501965648954e-02,-9.423364501965648954e-02
-9.423364501965648954e-02,-9.246676417553792438e-02,-8.304339967357228514e-02,-7.362003517160663202e-02,-6.419667066964099278e-02,-5.477330616767533966e-02,-4.534994166570969348e-02,-3.592657716374404731e-02,-2.650321266177839419e-02,-1.707984815981275495e-02,-7.656483657847101831e-03,-1.387778780781445676e-17,-1.387778780781445676e-17,-1.387778780781445676e-17,-1.387778780781445676e-17,-1.387778780781445676e-17,-1.387778780781445676e-17,-2.775557561562891351e-17,-2.775557561562891351e-17,-2.775557561562891351e-17,-2.818120718454313889e-01,-3.653531607357804467e-01,-3.712427635495089695e-01,-9.532029451780614504e-02,-1.012098973315346678e-01,-2.466271178248823082e-02,-3.055231459621675361e-02,-3.625786732201628088e-02,-4.214747013574480367e-02,-4.803707294947333339e-02,-5.392667576320186312e-02,-5.981627857693039285e-02,-6.570588139065891564e-02,-7.159548420438745231e-02,-7.748508701811598898e-02,-8.337468983184451177e-02,-8.926429264557304843e-02,-9.423364501965648954e-02,-9.423364501965648954e-02,-9.423364501965648954e-02,-9.423364501965648954e-02,-9.423364501965648954e-02,-9.423364501965648954e-02,-9.423364501965648954e-02,-9.423364501965648954e-02,-9.423364501965648954e-02,-9.423364501965648954e-02
-9.423364501965648954e-02,-9.276124431622435884e-02,-8.333787981425870572e-02,-7.391451531229306648e-02,-6.449115081032741337e-02,-5.506778630836176719e-02,-4.564442180639612101e-02,-3.622105730443047483e-02,-2.679769280246482865e-02,-1.737432830049917554e-02,-7.950963798533522420e-03,-1.387778780781445676e-17,-1.387778780781445676e-17,-1.387778780781445676e-17,-1.387778780781445676e-17,-1.387778780781445676e-17,-1.387778780781445676e-17,-1.387778780781445676e-17,-2.775557561562891351e-17,-1.387778780781445676e-17,-2.818120718454313889e-01,-3.649850605599224140e-01,-3.708746633736509368e-01,-9.495219434194811237e-02,-1.008417971556766490e-01,-2.429461160663019814e-02,-3.018421442035872093e-02,-3.607381723408725760e-02,-4.196342004781578733e-02,-4.785302286154431706e-02,-5.374262567527285372e-02,-5.963222848900137651e-02,-6.552183130272991318e-02,-7.141143411645843597e-02,-7.730103693018697264e-02,-8.319063974391549543e-02,-8.908024255764403210e-02,-9.423364501965648954e-02,-9.423364501965648954e-02,-9.423364501965648954e-02,-9.423364501965648954e-02,-9.423364501965648954e-02,-9.423364501965648954e-02,-9.423364501965648954e-02,-9.423364501965648954e-02,-9.423364501965648954e-02,-9.423364501965648954e-02
-9.423364501965648954e-02,-9.335020459759721390e-02,-8.392684009563156078e-02,-7.450347559366590766e-02,-6.508011109170026842e-02,-5.565674658973461530e-02,-4.623338208776897607e-02,-3.681001758580332295e-02,-2.738665308383768371e-02,-1.796328858187203059e-02,-8.539924079906405230e-03,-1.387778780781445676e-17,-1.387778780781445676e-17,-2.775557561562891351e-17,-1.387778780781445676e-17,0.000000000000000000e+00,-1.387778780781445676e-17,-1.387778780781445676e-17,0.000000000000000000e+00,-1.387778780781445676e-17,-2.818120718454313889e-01,-2.823642221092184101e-01,-2.882538249229469884e-01,-1.233135589124412235e-02,-1.822095870497267289e-02,-2.411056151870118180e-02,-3.000016433242970459e-02,-3.588976714615824820e-02,-4.177936995988677099e-02,-4.766897277361530072e-02,-5.355857558734383045e-02,-5.944817840107236018e-02,-6.533778121480089685e-02,-7.104333394060040330e-02,-7.693293675432893997e-02,-8.282253956805746276e-02,-8.871214238178598555e-02,-9.423364501965648954e-02,-9.423364501965648954e-02,-9.423364501965648954e-02,-9.423364501965648954e-02,-9.423364501965648954e-02,-9.423364501965648954e-02,-9.423364501965648954e-02,-9.423364501965648954e-02,-9.423364501965648954e-02,-9.423364501965648954e-02
-9.423364501965648954e-02,-9.364468473828363448e-02,-8.422132023631798137e-02,-7.479795573435234213e-02,-6.537459123238668901e-02,-5.595122673042104977e-02,-4.652786222845538971e-02,-3.710449772648975048e-02,-2.768113322452411817e-02,-1.825776872255845118e-02,-8.834404220592825818e-03,-1.387778780781445676e-17,-1.387778780781445676e-17,-1.387778780781445676e-17,-1.387778780781445676e-17,-1.387778780781445676e-17,-2.775557561562891351e-17,-1.387778780781445676e-17,-1.387778780781445676e-17,-1.387778780781445676e-17,-1.387778780781445676e-17,-1.840500879290302150e-04,-6.073652901657553005e-03,-1.196325571538608967e-02,-1.785285852911462634e-02,-2.374246134284314913e-02,-2.963206415657165804e-02,-3.552166697030021553e-02,-4.141126978402874526e-02,-4.730087259775726805e-02,-5.319047541148579084e-02,-5.908007822521432750e-02,-6.496968103894285029e-02,-7.085928385267138696e-02,-7.674888666639990975e-02,-8.263848948012844642e-02,-8.852809229385696921e-02,-9.423364501965648954e-02,-9.423364501965648954e-02,-9.423364501965648954e-02,-9.423364501965648954e-02,-9.423364501965648954e-02,-9.423364501965648954e-02,-9.423364501965648954e-02,-9.423364501965648954e-02,-9.423364501965648954e-02,-9.423364501965648954e-02
-9.423364501965648954e-02,-9.393916487897006895e-02,-8.451580037700441583e-02,-7.509243587503877659e-02,-6.566907137307312348e-02,-5.624570687110747036e-02,-4.682234236914182418e-02,-3.769345800786260553e-02,-2.827009350589695935e-02,-1.884672900393130623e-02,-9.423364501965666995e-03,-1.387778780781445676e-17,-1.387778780781445676e-17,-1.387778780781445676e-17,-1.387778780781445676e-17,-1.387778780781445676e-17,-1.387778780781445676e-17,-1.387778780781445676e-17,-1.387778780781445676e-17,-1.387778780781445676e-17,-1.387778780781445676e-17,-1.387778780781445676e-17,-5.889602813728536668e-03,-1.177920562745707334e-02,-1.766880844118561000e-02,-2.355841125491413279e-02,-2.944801406864265558e-02,-3.533761688237119225e-02,-4.122721969609972198e-02,-4.711682250982825171e-02,-5.300642532355678144e-02,-5.889602813728531117e-02,-6.478563095101383396e-02,-7.067523376474237062e-02,-7.656483657847090729e-02,-8.245443939219943008e-02,-8.834404220592795287e-02,-9.423364501965648954e-02,-9.423364501965648954e-02,-9.423364501965648954e-02,-9.423364501965648954e-02,-9.423364501965648954e-02,-9.423364501965648954e-02,-9.423364501965648954e-02,-9.423364501965648954e-02,-9.423364501965648954e-02,-9.423364501965648954e-02
-9.423364501965648954e-02,-9.423364501965648954e-02,-8.510476065837727089e-02,-7.568139615641161777e-02,-6.625803165444597853e-02,-5.683466715248032541e-02,-4.741130265051467230e-02,-3.798793814854903306e-02,-2.856457364658337994e-02,-1.914120914461774070e-02,-9.717844642652087583e-03,-2.944801406864344662e-04,-1.387778780781445676e-17,-1.387778780781445676e-17,-1.387778780781445676e-17,-1.387778780781445676e-17,-1.387778780781445676e-17,-1.387778780781445676e-17,-1.387778780781445676e-17,-1.387778780781445676e-17,-1.387778780781445676e-17,-1.387778780781445676e-17,-5.705552725799520331e-03,-1.159515553952805700e-02,-1.748475835325659367e-02,-2.337436116698511646e-02,-2.926396398071363925e-02,-3.515356679444217591e-02,-4.085911952024169624e-02,-4.674872233397021903e-02,-5.263832514769874876e-02,-5.852792796142727849e-02,-6.441753077515580128e-02,-7.030713358888433795e-02,-7.619673640261287462e-02,-8.208633921634139741e-02,-8.797594203006992020e-02,-9.386554484379845686e-02,-9.423364501965648954e-02,-9.423364501965648954e-02,-9.423364501965648954e-02,-9.423364501965648954e-02,-9.423364501965648954e-02,-9.423364501965648954e-02,-9.423364501965648954e-02,-9.423364501965648954e-02,-9.423364501965648954e-02
-9.423364501965648954e-02,-9.423364501965648954e-02,-8.539924079906369148e-02,-7.597587629709803836e-02,-6.655251179513239912e-02,-5.712914729316674600e-02,-4.770578279120109982e-02,-3.828241828923545365e-02,-2.885905378726981441e-02,-1.943568928530416129e-02,-1.001232478333850817e-02,-5.889602813728689323e-04,-1.387778780781445676e-17,-1.387778780781445676e-17,-1.387778780781445676e-17,-1.387778780781445676e-17,-1.387778780781445676e-17,-1.387778780781445676e-17,-1.387778780781445676e-17,-1.387778780781445676e-17,-1.387778780781445676e-17,0.000000000000000000e+00,-5.337452549941487656e-03,-1.122705536367002432e-02,-1.711665817739856099e-02,-2.300626099112708378e-02,-2.889586380485560657e-02,-3.478546661858414324e-02,-4.067506943231267297e-02,-4.656467224604120270e-02,-5.245427505976973243e-02,-5.834387787349826215e-02,-6.423348068722678494e-02,-7.012308350095532161e-02,-7.601268631468385828e-02,-8.190228912841238107e-02,-8.779189194214090386e-02,-9.368149475586944053e-02,-9.423364501965648954e-02,-9.423364501965648954e-02,-9.423364501965648954e-02,-9.423364501965648954e-02,-9.423364501965648954e-02,-9.423364501965648954e-02,-9.423364501965648954e-02,-9.423364501965648954e-02,-9.423364501965648954e-02
-9.423364501965648954e-02,-9.423364501965648954e-02,-8.598820108043654653e-02,-7.656483657847090729e-02,-6.714147207650525417e-02,-5.771810757453960106e-02,-4.829474307257396182e-02,-3.887137857060830870e-02,-2.944801406864265558e-02,-2.002464956667701634e-02,-1.060128506471137710e-02,-1.177920562745723987e-03,-1.387778780781445676e-17,-1.387778780781445676e-17,-1.387778780781445676e-17,-1.387778780781445676e-17,-1.387778780781445676e-17,-1.387778780781445676e-17,-1.387778780781445676e-17,-1.387778780781445676e-17,-1.387778780781445676e-17,-1.387778780781445676e-17,-5.153402462012471319e-03,-1.104300527574100799e-02,-1.693260808946954465e-02,-2.282221090319806744e-02,-2.871181371692659023e-02,-3.460141653065512690e-02,-4.049101934438364969e-02,-4.638062215811218636e-02,-5.227022497184071609e-02,-5.815982778556924582e-02,-6.404943059929776861e-02,-6.993903341302630527e-02,-7.582863622675484194e-02,-8.153418895255434840e-02,-8.742379176628287119e-02,-9.331339458001140785e-02,-9.423364501965648954e-02,-9.423364501965648954e-02,-9.423364501965648954e-02,-9.423364501965648954e-02,-9.423364501965648954e-02,-9.423364501965648954e-02,-9.423364501965648954e-02,-9.423364501965648954e-02,-9.423364501965648954e-02
-9.423364501965648954e-02,-9.423364501965648954e-02,-8.628268122112298100e-02,-7.685931671915732788e-02,-6.743595221719167476e-02,-5.801258771522602858e-02,-4.858922321326038241e-02,-3.916585871129473623e-02,-2.974249420932909005e-02,-2.031912970736345081e-02,-1.089576520539779769e-02,-1.472400703432144575e-03,-1.387778780781445676e-17,-1.387778780781445676e-17,-1.387778780781445676e-17,-1.387778780781445676e-17,-1.387778780781445676e-17,-1.387778780781445676e-17,-1.387778780781445676e-17,-2.775557561562891351e-17,-1.387778780781445676e-17,-1.387778780781445676e-17,-4.785302286154438645e-03,-1.067490509988296143e-02,-1.656450791361151198e-02,-2.245411072734003477e-02,-2.834371354106855756e-02,-3.423331635479709423e-02,-4.012291916852562396e-02,-4.601252198225415369e-02,-5.190212479598267648e-02,-5.779172760971121314e-02,-6.368133042343973593e-02,-6.957093323716827260e-02,-7.546053605089680927e-02,-8.135013886462533206e-02,-8.723974167835385485e-02,-9.312934449208239152e-02,-9.423364501965648954e-02,-9.423364501965648954e-02,-9.423364501965648954e-02,-9.423364501965648954e-02,-9.423364501965648954e-02,-9.423364501965648954e-02,-9.423364501965648954e-02,-9.423364501965648954e-02,-9.423364501965648954e-02
-9.423364501965648954e-02,-9.423364501965648954e-02,-8.657716136180940159e-02,-7.715379685984374847e-02,-6.773043235787810923e-02,-5.830706785591245611e-02,-4.888370335394680993e-02,-3.946033885198116375e-02,-3.033145449070194510e-02,-2.090808998873629199e-02,-1.148472548677065275e-02,-2.061360984804985752e-03,-1.387778780781445676e-17,-1.387778780781445676e-17,-1.387778780781445676e-17,-1.387778780781445676e-17,-1.387778780781445676e-17,-1.387778780781445676e-17,-1.387778780781445676e-17,-1.387778780781445676e-17,-1.387778780781445676e-17,0.000000000000000000e+00,-4.601252198225422307e-03,-1.049085501195395898e-02,-1.638045782568249564e-02,-2.227006063941101843e-02,-2.815966345313954122e-02,-3.404926626686807789e-02,-3.993886908059660762e-02,-4.582847189432513735e-02,-5.171807470805366708e-02,-5.760767752178219681e-02,-6.349728033551071960e-02,-6.938688314923925626e-02,-7.527648596296779293e-02,-8.116608877669631572e-02,-8.705569159042483851e-02,-9.294529440415337518e-02,-9.423364501965648954e-02,-9.423364501965648954e-02,-9.423364501965648954e-02,-9.423364501965648954e-02,-9.423364501965648954e-02,-9.423364501965648954e-02,-9.423364501965648954e-02,-9.423364501965648954e-02,-9.423364501965648954e-02
-9.423364501965648954e-02,-9.423364501965648954e-02,-8.716612164318225664e-02,-7.774275714121660352e-02,-6.831939263925096428e-02,-5.889602813728531117e-02,-4.947266363531965805e-02,-4.004929913335401881e-02,-3.062593463138836569e-02,-2.120257012942271257e-02,-1.177920562745708721e-02,-2.355841125491434096e-03,-1.387778780781445676e-17,-1.387778780781445676e-17,-1.387778780781445676e-17,-1.387778780781445676e-17,-1.387778780781445676e-17,-1.387778780781445676e-17,-2.775557561562891351e-17,-1.387778780781445676e-17,-1.387778780781445676e-17,-1.387778780781445676e-17,-4.417202110296419848e-03,-1.030680492402494264e-02,-1.619640773775347931e-02,-2.208601055148200210e-02,-2.797561336521052489e-02,-3.386521617893906155e-02,-3.975481899266758434e-02,-4.546037171846710467e-02,-5.134997453219563440e-02,-5.723957734592416413e-02,-6.312918015965268692e-02,-6.901878297338122359e-02,-7.490838578710976026e-02,-8.079798860083828305e-02,-8.668759141456680584e-02,-9.257719422829534250e-02,-9.423364501965648954e-02,-9.423364501965648954e-02,-9.423364501965648954e-02,-9.423364501965648954e-02,-9.423364501965648954e-02,-9.423364501965648954e-02,-9.423364501965648954e-02,-9.423364501965648954e-02,-9.423364501965648954e-02
-9.423364501965648954e-02,-9.423364501965648954e-02,-8.746060178386867723e-02,-7.803723728190303799e-02,-6.861387277993738487e-02,-5.919050827797173869e-02,-4.976714377600609251e-02,-4.034377927404043940e-02,-3.092041477207480016e-02,-2.149705027010914704e-02,-1.207368576814350780e-02,-2.650321266177854684e-03,-1.387778780781445676e-17,-1.387778780781445676e-17,-2.775557561562891351e-17,-1.387778780781445676e-17,-1.387778780781445676e-17,-1.387778780781445676e-17,-1.387778780781445676e-17,-1.387778780781445676e-17,0.000000000000000000e+00,-1.387778780781445676e-17,-4.049101934438359418e-03,-9.938704748166896086e-03,-1.582830756189544663e-02,-2.171791037562396942e-02,-2.760751318935249221e-02,-3.349711600308102888e-02,-3.938671881680955861e-02,-4.527632163053808834e-02,-5.116592444426661113e-02,-5.705552725799514779e-02,-6.294513007172367058e-02,-6.883473288545220725e-02,-7.472433569918073004e-02,-8.061393851290926671e-02,-8.650354132663778950e-02,-9.239314414036632617e-02,-9.423364501965648954e-02,-9.423364501965648954e-02,-9.423364501965648954e-02,-9.423364501965648954e-02,-9.423364501965648954e-02,-9.423364501965648954e-02,-9.423364501965648954e-02,-9.423364501965648954e-02,-9.423364501965648954e-02
-9.423364501965648954e-02,-9.423364501965648954e-02,-8.775508192455511169e-02,-7.862619756327587917e-02,-6.920283306131023993e-02,-5.977946855934458681e-02,-5.035610405737894063e-02,-4.093273955541329445e-02,-3.150937505344765521e-02,-2.208601055148200210e-02,-1.266264604951634898e-02,-3.239281547550695861e-03,-1.387778780781445676e-17,-1.387778780781445676e-17,-1.387778780781445676e-17,0.000000000000000000e+00,-1.387778780781445676e-17,-1.387778780781445676e-17,-1.387778780781445676e-17,0.000000000000000000e+00,0.000000000000000000e+00,-1.387778780781445676e-17,-3.865051846509370836e-03,-9.754654660237893626e-03,-1.564425747396643029e-02,-2.153386028769495308e-02,-2.742346310142347587e-02,-3.331306591515201254e-02,-3.920266872888054227e-02,-4.509227154260907200e-02,-5.098187435633759479e-02,-5.687147717006613146e-02,-6.276107998379465425e-02,-6.865068279752319091e-02,-7.454028561125171370e-02,-8.042988842498025037e-02,-8.613544115077975682e-02,-9.202504396450829349e-02,-9.423364501965648954e-02,-9.423364501965648954e-02,-9.423364501965648954e-02,-9.423364501965648954e-02,-9.423364501965648954e-02,-9.423364501965648954e-02,-9.423364501965648954e-02,-9.423364501965648954e-02,-9.423364501965648954e-02
-9.423364501965648954e-02,-9.423364501965648954e-02,-8.834404220592795287e-02,-7.892067770396231363e-02,-6.949731320199666051e-02,-6.007394870003102127e-02,-5.065058419806536816e-02,-4.122721969609972198e-02,-3.180385519413407580e-02,-2.238049069216842268e-02,-1.295712619020276957e-02,-3.533761688237144205e-03,-1.387778780781445676e-17,-1.387778780781445676e-17,-1.387778780781445676e-17,-1.387778780781445676e-17,-1.387778780781445676e-17,-1.387778780781445676e-17,-1.387778780781445676e-17,-1.387778780781445676e-17,0.000000000000000000e+00,-1.387778780781445676e-17,-3.681001758580340621e-03,-9.386554484379860952e-03,-1.527615729810838374e-02,-2.116576011183692041e-02,-2.705536292556544320e-02,-3.294496573929397987e-02,-3.883456855302250960e-02,-4.472417136675103932e-02,-5.061377418047956905e-02,-5.650337699420809878e-02,-6.239297980793662851e-02,-6.828258262166515824e-02,-7.417218543539368103e-02,-8.006178824912221770e-02,-8.595139106285074049e-02,-9.184099387657927716e-02,-9.423364501965648954e-02,-9.423364501965648954e-02,-9.423364501965648954e-02,-9.423364501965648954e-02,-9.423364501965648954e-02,-9.423364501965648954e-02,-9.423364501965648954e-02,-9.423364501965648954e-02,-9.423364501965648954e-02
-9.423364501965648954e-02,-9.423364501965648954e-02,-8.863852234661438734e-02,-7.921515784464873422e-02,-6.979179334268309498e-02,-6.036842884071744186e-02,-5.094506433875179569e-02,-4.152169983678614951e-02,-3.209833533482051027e-02,-2.267497083285484327e-02,-1.354608647157563850e-02,-4.122721969609985382e-03,-1.387778780781445676e-17,-1.387778780781445676e-17,-1.387778780781445676e-17,-1.387778780781445676e-17,-1.387778780781445676e-17,-2.775557561562891351e-17,-2.775557561562891351e-17,-1.387778780781445676e-17,0.000000000000000000e+00,-1.387778780781445676e-17,-3.312901582722307947e-03,-9.202504396450830737e-03,-1.509210721017938128e-02,-2.098171002390790407e-02,-2.687131283763642686e-02,-3.276091565136496353e-02,-3.865051846509349326e-02,-4.454012127882202299e-02,-5.042972409255054578e-02,-5.631932690627908245e-02,-6.220892972000760524e-02,-6.809853253373614190e-02,-7.398813534746466469e-02,-7.987773816119320136e-02,-8.576734097492172415e-02,-9.165694378865026082e-02,-9.423364501965648954e-02,-9.423364501965648954e-02,-9.423364501965648954e-02,-9.423364501965648954e-02,-9.423364501965648954e-02,-9.423364501965648954e-02,-9.423364501965648954e-02,-9.423364501965648954e-02,-9.423364501965648954e-02
-9.423364501965648954e-02,-9.423364501965648954e-02,-8.922748262798724239e-02,-7.980411812602158927e-02,-7.038075362405593616e-02,-6.095738912209029692e-02,-5.153402462012465074e-02,-4.211066011815900456e-02,-3.268729561619335144e-02,-2.326393111422771220e-02,-1.384056661226205909e-02,-4.417202110296419848e-03,-1.387778780781445676e-17,-1.387778780781445676e-17,0.000000000000000000e+00,-1.387778780781445676e-17,-2.775557561562891351e-17,-1.387778780781445676e-17,-1.387778780781445676e-17,0.000000000000000000e+00,-1.387778780781445676e-17,-1.387778780781445676e-17,-3.128851494793291610e-03,-9.018454308521814400e-03,-1.490805712225036495e-02,-2.079765993597888774e-02,-2.668726274970741053e-02,-3.257686556343594025e-02,-3.846646837716446998e-02,-4.435607119089300665e-02,-5.006162391669251310e-02,-5.595122673042104977e-02,-6.184082954414957256e-02,-6.773043235787810923e-02,-7.362003517160663202e-02,-7.950963798533516869e-02,-8.539924079906369148e-02,-9.128884361279222814e-02,-9.423364501965648954e-02,-9.423364501965648954e-02,-9.423364501965648954e-02,-9.423364501965648954e-02,-9.423364501965648954e-02,-9.423364501965648954e-02,-9.423364501965648954e-02,-9.423364501965648954e-02,-9.423364501965648954e-02
-9.423364501965648954e-02,-9.423364501965648954e-02,-8.952196276867366298e-02,-8.009859826670802374e-02,-7.067523376474237062e-02,-6.125186926277672445e-02,-5.182850476081107827e-02,-4.240514025884542515e-02,-3.298177575687978591e-02,-2.355841125491413279e-02,-1.413504675294849355e-02,-4.711682250982840436e-03,-1.387778780781445676e-17,-1.387778780781445676e-17,-1.387778780781445676e-17,-1.387778780781445676e-17,-2.775557561562891351e-17,-1.387778780781445676e-17,-1.387778780781445676e-17,-1.387778780781445676e-17,-1.387778780781445676e-17,-1.387778780781445676e-17,-2.760751318935258936e-03,-8.650354132663781725e-03,-1.453995694639233227e-02,-2.042955976012085506e-02,-2.631916257384937785e-02,-3.220876538757790758e-02,-3.809836820130645119e-02,-4.398797101503496704e-02,-4.987757382876350370e-02,-5.576717664249203343e-02,-6.165677945622055622e-02,-6.754638226994909289e-02,-7.343598508367761568e-02,-7.932558789740615235e-02,-8.521519071113467514e-02,-9.110479352486321181e-02,-9.423364501965648954e-02,-9.423364501965648954e-02,-9.423364501965648954e-02,-9.423364501965648954e-02,-9.423364501965648954e-02,-9.423364501965648954e-02,-9.423364501965648954e-02,-9.423364501965648954e-02,-9.423364501965648954e-02
-9.423364501965648954e-02,-9.423364501965648954e-02,-8.981644290936009745e-02,-8.039307840739444433e-02,-7.126419404611522568e-02,-6.184082954414957256e-02,-5.241746504218392638e-02,-4.299410054021828020e-02,-3.357073603825262709e-02,-2.414737153628698785e-02,-1.472400703432134861e-02,-5.300642532355695491e-03,-1.387778780781445676e-17,-1.387778780781445676e-17,-1.387778780781445676e-17,-1.387778780781445676e-17,-1.387778780781445676e-17,-2.775557561562891351e-17,-1.387778780781445676e-17,0.000000000000000000e+00,0.000000000000000000e+00,-1.387778780781445676e-17,-2.576701231006256476e-03,-8.466304044734765388e-03,-1.435590685846331593e-02,-2.024550967219183872e-02,-2.613511248592036151e-02,-3.202471529964889124e-02,-3.791431811337742097e-02,-4.380392092710595764e-02,-4.969352374083448737e-02,-5.558312655456301016e-02,-6.147272936829154683e-02,-6.736233218202006268e-02,-7.325193499574859934e-02,-7.914153780947713601e-02,-8.503114062320565880e-02,-9.073669334900517913e-02,-9.423364501965648954e-02,-9.423364501965648954e-02,-9.423364501965648954e-02,-9.423364501965648954e-02,-9.423364501965648954e-02,-9.423364501965648954e-02,-9.423364501965648954e-02,-9.423364501965648954e-02,-9.423364501965648954e-02
-9.423364501965648954e-02,-9.423364501965648954e-02,-9.040540319073293862e-02,-8.098203868876729938e-02,-7.155867418680164627e-02,-6.213530968483600009e-02,-5.271194518287035391e-02,-4.328858068090470079e-02,-3.386521617893906155e-02,-2.444185167697340844e-02,-1.501848717500775532e-02,-5.595122673042116079e-03,-1.387778780781445676e-17,-1.387778780781445676e-17,-1.387778780781445676e-17,-1.387778780781445676e-17,-1.387778780781445676e-17,-1.387778780781445676e-17,-1.387778780781445676e-17,0.000000000000000000e+00,-1.387778780781445676e-17,-1.387778780781445676e-17,-2.392651143077226261e-03,-8.282253956805749051e-03,-1.398780668260528326e-02,-1.987740949633380605e-02,-2.576701231006232884e-02,-3.165661512379085163e-02,-3.754621793751939524e-02,-4.343582075124791803e-02,-4.932542356497644775e-02,-5.521502637870498442e-02,-6.110462919243350721e-02,-6.699423200616204388e-02,-7.288383481989056667e-02,-7.877343763361910334e-02,-8.466304044734762613e-02,-9.055264326107616280e-02,-9.423364501965648954e-02,-9.423364501965648954e-02,-9.423364501965648954e-02,-9.423364501965648954e-02,-9.423364501965648954e-02,-9.423364501965648954e-02,-9.423364501965648954e-02,-9.423364501965648954e-02,-9.423364501965648954e-02
-9.423364501965648954e-02,-9.423364501965648954e-02,-9.069988333141937309e-02,-8.127651882945371997e-02,-7.185315432748808073e-02,-6.242978982552242762e-02,-5.300642532355678144e-02,-4.358306082159113526e-02,-3.415969631962548214e-02,-2.473633181765984290e-02,-1.531296731569418978e-02,-6.184082954414985012e-03,-1.387778780781445676e-17,-2.775557561562891351e-17,-1.387778780781445676e-17,-1.387778780781445676e-17,-1.387778780781445676e-17,-1.387778780781445676e-17,-1.387778780781445676e-17,-1.387778780781445676e-17,-1.387778780781445676e-17,-1.387778780781445676e-17,-2.024550967219193587e-03,-7.914153780947716377e-03,-1.380375659467626692e-02,-1.969335940840478971e-02,-2.558296222213331250e-02,-3.147256503586183529e-02,-3.736216784959037196e-02,-4.325177066331890169e-02,-4.914137347704743142e-02,-5.503097629077596115e-02,-6.092057910450449087e-02,-6.681018191823302754e-02,-7.269978473196155033e-02,-7.858938754569008700e-02,-8.447899035941860979e-02,-9.036859317314714646e-02,-9.423364501965648954e-02,-9.423364501965648954e-02,-9.423364501965648954e-02,-9.423364501965648954e-02,-9.423364501965648954e-02,-9.423364501965648954e-02,-9.423364501965648954e-02,-9.423364501965648954e-02,-9.423364501965648954e-02
-9.423364501965648954e-02,-9.423364501965648954e-02,-9.128884361279222814e-02,-8.186547911082657503e-02,-7.244211460886093579e-02,-6.301875010689528267e-02,-5.359538560492962955e-02,-4.417202110296398337e-02,-3.474865660099834413e-02,-2.532529209903269796e-02,-1.590192759706704484e-02,-6.478563095101405600e-03,-1.387778780781445676e-17,0.000000000000000000e+00,0.000000000000000000e+00,0.000000000000000000e+00,0.000000000000000000e+00,0.000000000000000000e+00,0.000000000000000000e+00,-1.387778780781445676e-17,-2.775557561562891351e-17,-1.387778780781445676e-17,-1.840500879290177250e-03,-7.730103693018700040e-03,-1.361970650674723671e-02,-1.950930932047577337e-02,-2.539891213420429616e-02,-3.128851494793281895e-02,-3.717811776166135562e-02,-4.306772057538988535e-02,-4.895732338911841508e-02,-5.466287611491792847e-02,-6.055247892864646514e-02,-6.644208174237499487e-02,-7.233168455610351766e-02,-7.822128736983205433e-02,-8.411089018356057712e-02,-9.000049299728911378e-02,-9.423364501965648954e-02,-9.423364501965648954e-02,-9.423364501965648954e-02,-9.423364501965648954e-02,-9.423364501965648954e-02,-9.423364501965648954e-02,-9.423364501965648954e-02,-9.423364501965648954e-02,-9.423364501965648954e-02
-9.423364501965648954e-02,-9.423364501965648954e-02,-9.158332375347864873e-02,-8.215995925151300949e-02,-7.273659474954735638e-02,-6.331323024758170326e-02,-5.388986574561605708e-02,-4.446650124365041090e-02,-3.504313674168477166e-02,-2.561977223971911855e-02,-1.619640773775347931e-02,-6.773043235787826188e-03,-1.387778780781445676e-17,-1.387778780781445676e-17,-1.387778780781445676e-17,0.000000000000000000e+00,0.000000000000000000e+00,0.000000000000000000e+00,-1.387778780781445676e-17,-1.387778780781445676e-17,-1.387778780781445676e-17,-1.387778780781445676e-17,-1.472400703432144575e-03,-7.362003517160667365e-03,-1.325160633088921791e-02,-1.914120914461774070e-02,-2.503081195834626349e-02,-3.092041477207478628e-02,-3.681001758580332295e-02,-4.269962039953184574e-02,-4.858922321326038241e-02,-5.447882602698891213e-02,-6.036842884071744186e-02,-6.625803165444596465e-02,-7.214763446817450132e-02,-7.803723728190303799e-02,-8.392684009563156078e-02,-8.981644290936009745e-02,-9.423364501965648954e-02,-9.423364501965648954e-02,-9.423364501965648954e-02,-9.423364501965648954e-02,-9.423364501965648954e-02,-9.423364501965648954e-02,-9.423364501965648954e-02,-9.423364501965648954e-02,-9.423364501965648954e-02
-9.423364501965648954e-02,-9.423364501965648954e-02,-9.187780389416508320e-02,-8.245443939219943008e-02,-7.303107489023377696e-02,-6.390219052895455831e-02,-5.447882602698891907e-02,-4.505546152502326596e-02,-3.563209702305761978e-02,-2.620873252109197360e-02,-1.678536801912632048e-02,-7.362003517160667365e-03,-1.387778780781445676e-17,-1.387778780781445676e-17,-1.387778780781445676e-17,-1.387778780781445676e-17,-1.387778780781445676e-17,-1.387778780781445676e-17,-2.775557561562891351e-17,-1.387778780781445676e-17,-2.775557561562891351e-17,0.000000000000000000e+00,-1.288350615503128238e-03,-7.177953429231651028e-03,-1.306755624296018770e-02,-1.895715905668872436e-02,-2.484676187041724715e-02,-3.073636468414576994e-02,-3.662596749787430661e-02,-4.251557031160284328e-02,-4.840517312533136607e-02,-5.429477593905989580e-02,-6.018437875278842553e-02,-6.607398156651694832e-02,-7.196358438024548498e-02,-7.785318719397402165e-02,-8.374279000770254444e-02,-8.963239282143108111e-02,-9.423364501965648954e-02,-9.423364501965648954e-02,-9.423364501965648954e-02,-9.423364501965648954e-02,-9.423364501965648954e-02,-9.423364501965648954e-02,-9.423364501965648954e-02,-9.423364501965648954e-02,-9.423364501965648954e-02
-9.423364501965648954e-02,-9.423364501965648954e-02,-9.246676417553792438e-02,-8.304339967357228514e-02,-7.362003517160663202e-02,-6.419667066964099278e-02,-5.477330616767533966e-02,-4.534994166570970042e-02,-3.592657716374404731e-02,-2.650321266177840807e-02,-1.707984815981275495e-02,-7.656483657847101831e-03,-1.387778780781445676e-17,-1.387778780781445676e-17,0.000000000000000000e+00,-1.387778780781445676e-17,-1.387778780781445676e-17,-2.775557561562891351e-17,-2.775557561562891351e-17,-1.387778780781445676e-17,-2.775557561562891351e-17,-1.387778780781445676e-17,-1.104300527574125779e-03,-6.993903341302648569e-03,-1.288350615503117136e-02,-1.858905888083069169e-02,-2.447866169455921448e-02,-3.036826450828773727e-02,-3.625786732201628088e-02,-4.214747013574480367e-02,-4.803707294947333339e-02,-5.392667576320186312e-02,-5.981627857693039285e-02,-6.570588139065891564e-02,-7.159548420438745231e-02,-7.748508701811598898e-02,-8.337468983184451177e-02,-8.926429264557304843e-02,-9.423364501965648954e-02,-9.423364501965648954e-02,-9.423364501965648954e-02,-9.423364501965648954e-02,-9.423364501965648954e-02,-9.423364501965648954e-02,-9.423364501965648954e-02,-9.423364501965648954e-02,-9.423364501965648954e-02
-9.423364501965648954e-02,-9.423364501965648954e-02,-9.276124431622435884e-02,-8.333787981425870572e-02,-7.391451531229306648e-02,-6.449115081032741337e-02,-5.506778630836176719e-02,-4.564442180639612101e-02,-3.622105730443047483e-02,-2.679769280246482865e-02,-1.737432830049917554e-02,-7.950963798533536298e-03,-1.387778780781445676e-17,-1.387778780781445676e-17,-1.387778780781445676e-17,-1.387778780781445676e-17,-1.387778780781445676e-17,-1.387778780781445676e-17,-1.387778780781445676e-17,-1.387778780781445676e-17,-1.387778780781445676e-17,-1.387778780781445676e-17,-7.362003517160792265e-04,-6.625803165444602016e-03,-1.251540597917315256e-02,-1.840500879290167535e-02,-2.429461160663019814e-02,-3.018421442035872093e-02,-3.607381723408725760e-02,-4.196342004781578733e-02,-4.785302286154431706e-02,-5.374262567527285372e-02,-5.963222848900137651e-02,-6.552183130272991318e-02,-7.141143411645843597e-02,-7.730103693018697264e-02,-8.319063974391549543e-02,-8.908024255764403210e-02,-9.423364501965648954e-02,-9.423364501965648954e-02,-9.423364501965648954e-02,-9.423364501965648954e-02,-9.423364501965648954e-02,-9.423364501965648954e-02,-9.423364501965648954e-02,-9.423364501965648954e-02,-9.423364501965648954e-02
-9.423364501965648954e-02,-9.423364501965648954e-02,-9.335020459759721390e-02,-8.392684009563156078e-02,-7.450347559366590766e-02,-6.508011109170026842e-02,-5.565674658973461530e-02,-4.623338208776897607e-02,-3.681001758580332295e-02,-2.738665308383768371e-02,-1.796328858187203059e-02,-8.539924079906405230e-03,-2.775557561562891351e-17,-1.387778780781445676e-17,-1.387778780781445676e-17,-1.387778780781445676e-17,-1.387778780781445676e-17,-1.387778780781445676e-17,-1.387778780781445676e-17,-1.387778780781445676e-17,-1.387778780781445676e-17,0.000000000000000000e+00,-5.521502637870628893e-04,-6.441753077515599557e-03,-1.233135589124413622e-02,-1.822095870497265901e-02,-2.411056151870118180e-02,-3.000016433242970459e-02,-3.588976714615824820e-02,-4.177936995988677099e-02,-4.766897277361530766e-02,-5.355857558734383045e-02,-5.926412831314334384e-02,-6.515373112687186663e-02,-7.104333394060040330e-02,-7.693293675432893997e-02,-8.282253956805746276e-02,-8.871214238178598555e-02,-9.423364501965648954e-02,-9.423364501965648954e-02,-9.423364501965648954e-02,-9.423364501965648954e-02,-9.423364501965648954e-02,-9.423364501965648954e-02,-9.423364501965648954e-02,-9.423364501965648954e-02,-9.423364501965648954e-02
-9.423364501965648954e-02,-9.423364501965648954e-02,-9.364468473828363448e-02,-8.422132023631798137e-02,-7.479795573435234213e-02,-6.537459123238668901e-02,-5.595122673042104977e-02,-4.652786222845540359e-02,-3.710449772648975048e-02,-2.768113322452410430e-02,-1.825776872255845118e-02,-8.834404220592825818e-03,-1.387778780781445676e-17,-1.387778780781445676e-17,-1.387778780781445676e-17,-1.387778780781445676e-17,-2.775557561562891351e-17,-2.775557561562891351e-17,-1.387778780781445676e-17,-1.387778780781445676e-17,-1.387778780781445676e-17,-1.387778780781445676e-17,-1.840500879290302150e-04,-6.073652901657553005e-03,-1.196325571538608967e-02,-1.785285852911461246e-02,-2.374246134284314913e-02,-2.963206415657167192e-02,-3.552166697030021553e-02,-4.141126978402873832e-02,-4.730087259775726805e-02,-5.319047541148579084e-02,-5.908007822521432056e-02,-6.496968103894285029e-02,-7.085928385267138696e-02,-7.674888666639992363e-02,-8.263848948012844642e-02,-8.852809229385696921e-02,-9.423364501965648954e-02,-9.423364501965648954e-02,-9.423364501965648954e-02,-9.423364501965648954e-02,-9.423364501965648954e-02,-9.423364501965648954e-02,-9.423364501965648954e-02,-9.423364501965648954e-02,-9.423364501965648954e-02
-9.423364501965648954e-02,-9.423364501965648954e-02,-9.393916487897006895e-02,-8.451580037700441583e-02,-7.509243587503876272e-02,-6.566907137307312348e-02,-5.654018701179389789e-02,-4.711682250982825171e-02,-3.769345800786260553e-02,-2.827009350589695935e-02,-1.884672900393130623e-02,-9.423364501965666995e-03,-1.387778780781445676e-17,-1.387778780781445676e-17,-1.387778780781445676e-17,-1.387778780781445676e-17,-1.387778780781445676e-17,-1.387778780781445676e-17,-1.387778780781445676e-17,-1.387778780781445676e-17,-1.387778780781445676e-17,-1.387778780781445676e-17,-1.387778780781445676e-17,-5.889602813728536668e-03,-1.435590685846330206e-02,-2.245411072734003477e-02,-3.018421442035873481e-02,-3.957076890473856801e-02,-4.638062215811218636e-02,-5.447882602698891213e-02,-6.036842884071744186e-02,-6.588993147858793198e-02,-7.214763446817450132e-02,-7.674888666639992363e-02,-8.171823904048336473e-02,-8.539924079906369148e-02,-8.871214238178598555e-02,-9.184099387657927716e-02,-9.423364501965648954e-02,-9.423364501965648954e-02,-9.423364501965648954e-02,-9.423364501965648954e-02,-9.423364501965648954e-02,-9.423364501965648954e-02,-9.423364501965648954e-02,-9.423364501965648954e-02,-9.423364501965648954e-02
