3.315635225931983648e-02,3.315635225931983648e-02,3.315635225931983648e-02,3.315635225931983648e-02,3.315635225931983648e-02,3.315635225931983648e-02,3.315635225931983648e-02,3.315635225931983648e-02,3.315635225931983648e-02,3.315635225931983648e-02,3.315635225931983648e-02,3.315635225931983648e-02,3.315635225931983648e-02,3.315635225931983648e-02,3.315635225931983648e-02,3.315635225931983648e-02,3.315635225931983648e-02,3.315635225931983648e-02,3.315635225931983648e-02,3.315635225931983648e-02,3.315635225931983648e-02,3.315635225931983648e-02,3.315635225931983648e-02,3.315635225931983648e-02,3.315635225931983648e-02,3.315635225931983648e-02,3.315635225931983648e-02,3.315635225931983648e-02,3.315635225931983648e-02,3.315635225931983648e-02,3.315635225931983648e-02,3.315635225931983648e-02,3.315635225931983648e-02,3.315635225931983648e-02,3.315635225931983648e-02,3.315635225931983648e-02,3.315635225931983648e-02,3.315635225931983648e-02,3.315635225931983648e-02,3.315635225931983648e-02,3.315635225931983648e-02,3.315635225931983648e-02,3.315635225931983648e-02,3.315635225931983648e-02,3.315635225931983648e-02,3.315635225931983648e-02,3.315635225931983648e-02
3.315635225931983648e-02,3.315635225931983648e-02,3.315635225931983648e-02,3.315635225931983648e-02,3.315635225931983648e-02,3.315635225931983648e-02,3.315635225931983648e-02,3.315635225931983648e-02,3.315635225931983648e-02,3.315635225931983648e-02,3.315635225931983648e-02,3.315635225931983648e-02,3.315635225931983648e-02,3.315635225931983648e-02,3.315635225931983648e-02,3.315635225931983648e-02,3.315635225931983648e-02,3.315635225931983648e-02,3.315635225931983648e-02,3.315635225931983648e-02,3.315635225931983648e-02,3.315635225931983648e-02,3.315635225931983648e-02,3.315635225931983648e-02,3.315635225931983648e-02,3.315635225931983648e-02,3.315635225931983648e-02,3.315635225931983648e-02,3.315635225931983648e-02,3.315635225931983648e-02,3.315635225931983648e-02,3.315635225931983648e-02,3.315635225931983648e-02,3.315635225931983648e-02,3.315635225931983648e-02,3.315635225931983648e-02,3.315635225931983648e-02,3.315635225931983648e-02,3.315635225931983648e-02,3.315635225931983648e-02,3.315635225931983648e-02,3.315635225931983648e-02,3.315635225931983648e-02,3.315635225931983648e-02,3.315635225931983648e-02,3.315635225931983648e-02,3.315635225931983648e-02
3.315635225931983648e-02,3.315635225931983648e-02,3.315635225931983648e-02,3.315635225931983648e-02,3.315635225931983648e-02,3.315635225931983648e-02,3.315635225931983648e-02,3.315635225931983648e-02,3.315635225931983648e-02,3.315635225931983648e-02,3.315635225931983648e-02,3.315635225931983648e-02,3.315635225931983648e-02,3.315635225931983648e-02,3.315635225931983648e-02,3.315635225931983648e-02,3.315635225931983648e-02,3.315635225931983648e-02,3.315635225931983648e-02,3.315635225931983648e-02,3.315635225931983648e-02,3.315635225931983648e-02,3.315635225931983648e-02,3.315635225931983648e-02,3.315635225931983648e-02,3.315635225931983648e-02,3.315635225931983648e-02,3.315635225931983648e-02,3.315635225931983648e-02,3.315635225931983648e-02,3.315635225931983648e-02,3.315635225931983648e-02,3.315635225931983648e-02,3.315635225931983648e-02,3.315635225931983648e-02,3.315635225931983648e-02,3.315635225931983648e-02,3.315635225931983648e-02,3.315635225931983648e-02,3.315635225931983648e-02,3.315635225931983648e-02,3.315635225931983648e-02,3.315635225931983648e-02,3.315635225931983648e-02,3.315635225931983648e-02,3.315635225931983648e-02,3.315635225931983648e-02
3.315635225931983648e-02,3.315635225931983648e-02,3.315635225931983648e-02,3.315635225931983648e-02,3.315635225931983648e-02,3.315635225931983648e-02,3.315635225931983648e-02,3.315635225931983648e-02,3.315635225931983648e-02,3.315635225931983648e-02,3.315635225931983648e-02,3.315635225931983648e-02,3.315635225931983648e-02,3.315635225931983648e-02,3.315635225931983648e-02,3.315635225931983648e-02,3.315635225931983648e-02,3.315635225931983648e-02,3.315635225931983648e-02,3.315635225931983648e-02,3.315635225931983648e-02,3.315635225931983648e-02,3.315635225931983648e-02,3.315635225931983648e-02,3.315635225931983648e-02,3.315635225931983648e-02,3.315635225931983648e-02,3.315635225931983648e-02,3.315635225931983648e-02,3.315635225931983648e-02,3.315635225931983648e-02,3.315635225931983648e-02,3.315635225931983648e-02,3.315635225931983648e-02,3.315635225931983648e-02,3.315635225931983648e-02,3.315635225931983648e-02,3.315635225931983648e-02,3.315635225931983648e-02,3.315635225931983648e-02,3.315635225931983648e-02,3.315635225931983648e-02,3.315635225931983648e-02,3.315635225931983648e-02,3.315635225931983648e-02,3.315635225931983648e-02,3.315635225931983648e-02
3.315635225931983648e-02,3.315635225931983648e-02,3.315635225931983648e-02,3.315635225931983648e-02,3.315635225931983648e-02,3.315635225931983648e-02,3.315635225931983648e-02,3.315635225931983648e-02,3.315635225931983648e-02,3.315635225931983648e-02,3.315635225931983648e-02,3.315635225931983648e-02,3.315635225931983648e-02,3.315635225931983648e-02,3.315635225931983648e-02,3.315635225931983648e-02,3.315635225931983648e-02,3.315635225931983648e-02,3.315635225931983648e-02,3.315635225931983648e-02,3.315635225931983648e-02,3.315635225931983648e-02,3.315635225931983648e-02,3.315635225931983648e-02,3.315635225931983648e-02,3.315635225931983648e-02,3.315635225931983648e-02,3.315635225931983648e-02,3.315635225931983648e-02,3.315635225931983648e-02,3.315635225931983648e-02,3.315635225931983648e-02,3.315635225931983648e-02,3.315635225931983648e-02,3.315635225931983648e-02,3.315635225931983648e-02,3.315635225931983648e-02,3.315635225931983648e-02,3.315635225931983648e-02,3.315635225931983648e-02,3.315635225931983648e-02,-5.114038558868341106e-02,-5.114038558868341106e-02,-5.114038558868341106e-02,3.315635225931983648e-02,3.315635225931983648e-02,3.315635225931983648e-02
3.315635225931983648e-02,3.315635225931983648e-02,3.315635225931983648e-02,3.315635225931983648e-02,3.315635225931983648e-02,3.315635225931983648e-02,3.315635225931983648e-02,3.315635225931983648e-02,3.315635225931983648e-02,3.315635225931983648e-02,3.315635225931983648e-02,3.315635225931983648e-02,3.315635225931983648e-02,3.315635225931983648e-02,3.315635225931983648e-02,3.315635225931983648e-02,3.315635225931983648e-02,3.315635225931983648e-02,3.315635225931983648e-02,3.315635225931983648e-02,3.315635225931983648e-02,3.315635225931983648e-02,3.315635225931983648e-02,3.315635225931983648e-02,3.315635225931983648e-02,3.315635225931983648e-02,3.315635225931983648e-02,3.315635225931983648e-02,3.315635225931983648e-02,3.315635225931983648e-02,3.315635225931983648e-02,3.315635225931983648e-02,3.315635225931983648e-02,3.315635225931983648e-02,3.315635225931983648e-02,3.315635225931983648e-02,3.315635225931983648e-02,3.315635225931983648e-02,3.315635225931983648e-02,3.315635225931983648e-02,3.315635225931983648e-02,-5.114038558868341106e-02,-5.114038558868341106e-02,-5.114038558868341106e-02,3.315635225931983648e-02,3.315635225931983648e-02,3.315635225931983648e-02
3.315635225931983648e-02,3.315635225931983648e-02,3.212021625121608964e-02,3.236691530076460377e-02,3.315635225931983648e-02,3.315635225931983648e-02,3.315635225931983648e-02,3.315635225931983648e-02,3.315635225931983648e-02,3.315635225931983648e-02,3.315635225931983648e-02,3.315635225931983648e-02,3.315635225931983648e-02,3.315635225931983648e-02,3.315635225931983648e-02,3.315635225931983648e-02,3.315635225931983648e-02,3.315635225931983648e-02,3.315635225931983648e-02,3.315635225931983648e-02,3.315635225931983648e-02,3.315635225931983648e-02,3.315635225931983648e-02,3.315635225931983648e-02,3.315635225931983648e-02,3.315635225931983648e-02,3.315635225931983648e-02,3.315635225931983648e-02,3.315635225931983648e-02,3.315635225931983648e-02,3.315635225931983648e-02,3.315635225931983648e-02,3.315635225931983648e-02,3.315635225931983648e-02,3.315635225931983648e-02,3.315635225931983648e-02,3.315635225931983648e-02,3.315635225931983648e-02,3.315635225931983648e-02,3.315635225931983648e-02,3.315635225931983648e-02,-5.114038558868341106e-02,-5.114038558868341106e-02,-5.114038558868341106e-02,3.315635225931983648e-02,3.315635225931983648e-02,3.315635225931983648e-02
3.315635225931983648e-02,3.315635225931983648e-02,2.190687559990774774e-02,7.894369585552341029e-03,1.263099133688374426e-02,1.657817612965991824e-02,2.131479788099132494e-02,2.605141963232272817e-02,3.078804138365413487e-02,3.315635225931983648e-02,3.315635225931983648e-02,3.315635225931983648e-02,3.315635225931983648e-02,3.315635225931983648e-02,3.315635225931983648e-02,3.315635225931983648e-02,3.315635225931983648e-02,3.315635225931983648e-02,3.315635225931983648e-02,3.315635225931983648e-02,3.315635225931983648e-02,3.315635225931983648e-02,3.315635225931983648e-02,3.315635225931983648e-02,3.315635225931983648e-02,3.315635225931983648e-02,3.315635225931983648e-02,3.315635225931983648e-02,3.315635225931983648e-02,3.315635225931983648e-02,3.315635225931983648e-02,3.315635225931983648e-02,3.315635225931983648e-02,3.315635225931983648e-02,3.315635225931983648e-02,3.315635225931983648e-02,3.315635225931983648e-02,3.315635225931983648e-02,3.315635225931983648e-02,3.315635225931983648e-02,3.315635225931983648e-02,3.315635225931983648e-02,3.315635225931983648e-02,3.315635225931983648e-02,3.315635225931983648e-02,3.315635225931983648e-02,3.315635225931983648e-02
3.315635225931983648e-02,3.315635225931983648e-02,2.072272016207486744e-03,-1.736761308821515443e-02,-1.263099133688375814e-02,-7.894369585552341029e-03,-3.157747834220937799e-03,1.578873917110465430e-03,6.315495668441875599e-03,1.105211741977327883e-02,1.578873917110468206e-02,2.052536092243608876e-02,2.526198267376749546e-02,2.999860442509889868e-02,3.315635225931983648e-02,3.315635225931983648e-02,3.315635225931983648e-02,3.315635225931983648e-02,3.315635225931983648e-02,3.315635225931983648e-02,3.315635225931983648e-02,3.315635225931983648e-02,3.315635225931983648e-02,3.315635225931983648e-02,3.315635225931983648e-02,3.315635225931983648e-02,3.315635225931983648e-02,3.315635225931983648e-02,3.315635225931983648e-02,3.315635225931983648e-02,3.315635225931983648e-02,3.315635225931983648e-02,3.315635225931983648e-02,3.315635225931983648e-02,3.315635225931983648e-02,3.315635225931983648e-02,3.315635225931983648e-02,3.315635225931983648e-02,3.315635225931983648e-02,3.315635225931983648e-02,3.315635225931983648e-02,3.315635225931983648e-02,3.315635225931983648e-02,3.315635225931983648e-02,3.315635225931983648e-02,3.315635225931983648e-02,3.315635225931983648e-02
3.315635225931983648e-02,3.315635225931983648e-02,-2.664349735123915791e-02,-4.184015880342741717e-02,-3.710353705209602088e-02,-3.236691530076461071e-02,-2.763029354943320054e-02,-2.289367179810179731e-02,-1.815705004677038714e-02,-1.342042829543898391e-02,-9.473243502662813398e-03,-4.736621751331410168e-03,0.000000000000000000e+00,4.736621751331403229e-03,9.473243502662809928e-03,1.420986525399421663e-02,1.894648700532561986e-02,2.368310875665702656e-02,2.841973050798843325e-02,3.315635225931983648e-02,3.315635225931983648e-02,3.315635225931983648e-02,3.315635225931983648e-02,3.315635225931983648e-02,3.315635225931983648e-02,3.315635225931983648e-02,3.315635225931983648e-02,3.315635225931983648e-02,3.315635225931983648e-02,3.315635225931983648e-02,3.315635225931983648e-02,3.315635225931983648e-02,3.315635225931983648e-02,3.315635225931983648e-02,3.315635225931983648e-02,3.315635225931983648e-02,3.315635225931983648e-02,3.315635225931983648e-02,3.315635225931983648e-02,3.315635225931983648e-02,3.315635225931983648e-02,3.315635225931983648e-02,3.315635225931983648e-02,3.315635225931983648e-02,3.315635225931983648e-02,3.315635225931983648e-02,3.315635225931983648e-02
3.315635225931983648e-02,3.315635225931983648e-02,-6.527656851053592613e-02,-6.710214147719492650e-02,-6.236551972586350939e-02,-5.762889797453209922e-02,-5.289227622320068906e-02,-4.815565447186929277e-02,-4.341903272053788260e-02,-3.868241096920650018e-02,-3.394578921787507614e-02,-2.920916746654367985e-02,-2.447254571521226968e-02,-1.973592396388085951e-02,-1.499930221254945628e-02,-1.026268046121804611e-02,-5.526058709886642883e-03,-7.894369585552396540e-04,3.947184792776170514e-03,8.683806544107577213e-03,1.342042829543898044e-02,1.815705004677038714e-02,2.289367179810179037e-02,2.763029354943319707e-02,3.236691530076460377e-02,3.315635225931983648e-02,3.315635225931983648e-02,3.315635225931983648e-02,3.315635225931983648e-02,3.315635225931983648e-02,3.315635225931983648e-02,3.315635225931983648e-02,3.315635225931983648e-02,3.315635225931983648e-02,3.315635225931983648e-02,3.315635225931983648e-02,3.315635225931983648e-02,3.315635225931983648e-02,3.315635225931983648e-02,3.315635225931983648e-02,3.315635225931983648e-02,3.315635225931983648e-02,3.315635225931983648e-02,3.315635225931983648e-02,3.315635225931983648e-02,3.315635225931983648e-02,3.315635225931983648e-02
3.315635225931983648e-02,1.218693304769642716e-02,-9.631130894373857165e-02,-9.157468719240718924e-02,-8.683806544107577907e-02,-8.210144368974436890e-02,-7.736482193841295874e-02,-7.262820018708154857e-02,-6.789157843575013840e-02,-6.315495668441872823e-02,-5.841833493308733888e-02,-5.368171318175594259e-02,-4.894509143042451854e-02,-4.420846967909313613e-02,-3.947184792776172596e-02,-3.552466313498554157e-02,-3.078804138365414528e-02,-2.605141963232273511e-02,-2.131479788099132494e-02,-1.657817612965992171e-02,-1.184155437832851848e-02,-7.104932626997108314e-03,-2.368310875665705084e-03,2.368310875665705084e-03,7.104932626997104844e-03,1.184155437832851154e-02,1.657817612965991824e-02,2.131479788099132494e-02,2.605141963232272817e-02,3.078804138365413487e-02,3.315635225931983648e-02,3.315635225931983648e-02,3.315635225931983648e-02,3.315635225931983648e-02,3.315635225931983648e-02,3.315635225931983648e-02,3.315635225931983648e-02,3.315635225931983648e-02,3.315635225931983648e-02,3.315635225931983648e-02,3.315635225931983648e-02,3.315635225931983648e-02,3.315635225931983648e-02,3.315635225931983648e-02,3.315635225931983648e-02,3.315635225931983648e-02,3.315635225931983648e-02
3.315635225931983648e-02,-2.166017655035924749e-02,-1.215732916175060740e-01,-1.168366698661746916e-01,-1.121000481148432537e-01,-1.073634263635118435e-01,-1.026268046121804334e-01,-9.789018286084905096e-02,-9.315356110951764079e-02,-8.841693935818623062e-02,-8.368031760685484821e-02,-7.894369585552343804e-02,-7.420707410419202787e-02,-6.947045235286061771e-02,-6.473383060152920754e-02,-5.999720885019779043e-02,-5.526058709886639414e-02,-5.052396534753499785e-02,-4.578734359620360156e-02,-4.105072184487219139e-02,-3.631410009354078122e-02,-3.157747834220937105e-02,-2.684085659087796089e-02,-2.210423483954655766e-02,-1.736761308821515443e-02,-1.263099133688375120e-02,-7.894369585552347968e-03,-3.157747834220937799e-03,1.578873917110465430e-03,6.315495668441872129e-03,1.105211741977327883e-02,1.578873917110468206e-02,2.052536092243608876e-02,2.526198267376749546e-02,2.999860442509889868e-02,3.315635225931983648e-02,3.315635225931983648e-02,3.315635225931983648e-02,3.315635225931983648e-02,3.315635225931983648e-02,3.315635225931983648e-02,3.315635225931983648e-02,3.315635225931983648e-02,3.315635225931983648e-02,3.315635225931983648e-02,3.315635225931983648e-02,3.315635225931983648e-02
3.315635225931983648e-02,-6.456114126684522891e-02,-1.460458373327183090e-01,-1.413092155813869266e-01,-1.365725938300555165e-01,-3.907097672928814269e-01,-3.859731455415500445e-01,-3.812365237902186066e-01,-1.176261068247299035e-01,-1.128894850733984934e-01,-1.081528633220670832e-01,-1.034162415707357008e-01,-9.867961981940429061e-02,-9.394299806807288045e-02,-8.920637631674147028e-02,-8.446975456541006011e-02,-7.973313281407864994e-02,-7.499651106274723977e-02,-7.025988931141582960e-02,-6.552326756008444719e-02,-6.157608276730825586e-02,-5.683946101597687345e-02,-5.210283926464546328e-02,-4.736621751331405311e-02,-4.262959576198265682e-02,-3.789297401065126053e-02,-3.315635225931985036e-02,-2.841973050798844019e-02,-2.368310875665703003e-02,-1.894648700532561986e-02,-1.420986525399421663e-02,-9.473243502662813398e-03,-4.736621751331410168e-03,0.000000000000000000e+00,4.736621751331406699e-03,9.473243502662809928e-03,1.420986525399421663e-02,1.894648700532561986e-02,2.368310875665702656e-02,2.841973050798843325e-02,3.315635225931983648e-02,3.315635225931983648e-02,3.315635225931983648e-02,3.315635225931983648e-02,3.315635225931983648e-02,3.315635225931983648e-02,3.315635225931983648e-02
3.315635225931983648e-02,-1.166393106265358470e-01,-1.713078200064858114e-01,-1.665711982551544013e-01,-1.618345765038230188e-01,-4.159717499666489293e-01,-4.112351282153175469e-01,-4.064985064639861090e-01,-1.428880894984973782e-01,-1.381514677471659680e-01,-1.334148459958345856e-01,-1.286782242445031754e-01,-1.239416024931717653e-01,-1.192049807418403828e-01,-1.144683589905090004e-01,-1.097317372391775903e-01,-1.049951154878461523e-01,-1.002584937365147422e-01,-9.552187198518333200e-02,-9.078525023385194959e-02,-8.604862848252053942e-02,-8.131200673118912925e-02,-7.657538497985771908e-02,-7.183876322852630891e-02,-6.710214147719489874e-02,-6.236551972586350939e-02,-5.762889797453209922e-02,-5.289227622320070293e-02,-4.815565447186929277e-02,-4.341903272053788260e-02,-3.868241096920650018e-02,-3.394578921787507614e-02,-2.920916746654367985e-02,-2.447254571521226968e-02,-1.973592396388085951e-02,-1.499930221254945628e-02,-1.026268046121804611e-02,-5.526058709886642883e-03,-7.894369585552327151e-04,3.947184792776170514e-03,8.683806544107573744e-03,1.342042829543898044e-02,1.736761308821515096e-02,2.210423483954655766e-02,2.684085659087796089e-02,3.157747834220937105e-02,3.315635225931983648e-02
3.315635225931983648e-02,-1.728866939235962907e-01,-1.942014918045876226e-01,-1.910437439703666918e-01,-1.863071222190352538e-01,-4.404442956818612198e-01,-4.357076739305297819e-01,-4.309710521791983995e-01,-1.673606352137096409e-01,-1.626240134623782307e-01,-1.578873917110468483e-01,-1.531507699597154104e-01,-1.484141482083840280e-01,-1.436775264570526178e-01,-1.389409047057212077e-01,-1.342042829543897975e-01,-1.294676612030584151e-01,-1.247310394517270049e-01,-1.199944177003956225e-01,-1.152577959490642401e-01,-1.105211741977328022e-01,-1.057845524464013920e-01,-1.010479306950700096e-01,-9.631130894373857165e-02,-9.157468719240716148e-02,-8.762750239963101873e-02,-8.289088064829960856e-02,-7.815425889696819839e-02,-7.341763714563678822e-02,-6.868101539430537805e-02,-6.394439364297399564e-02,-5.920777189164257853e-02,-5.447115014031116836e-02,-4.973452838897977207e-02,-4.499790663764836190e-02,-4.026128488631696561e-02,-3.552466313498554157e-02,-3.078804138365414528e-02,-2.605141963232273511e-02,-2.131479788099132494e-02,-1.657817612965991477e-02,-1.184155437832851848e-02,-7.104932626997108314e-03,-2.368310875665705084e-03,2.368310875665701615e-03,7.104932626997104844e-03,1.184155437832851154e-02
1.217459809521900110e-02,-1.922886253280884084e-01,-1.939282251650877309e-01,-1.942014918045876226e-01,-1.942014918045876226e-01,-1.942014918045876226e-01,-1.942014918045876226e-01,-1.942014918045876226e-01,-1.926226178874771711e-01,-1.878859961361457331e-01,-1.831493743848142952e-01,-1.784127526334829406e-01,-1.736761308821515304e-01,-1.689395091308201202e-01,-1.642028873794887101e-01,-1.594662656281572999e-01,-1.547296438768259175e-01,-1.499930221254944795e-01,-1.452564003741630971e-01,-1.405197786228316870e-01,-1.357831568715002768e-01,-1.310465351201688944e-01,-1.263099133688374842e-01,-1.215732916175060740e-01,-1.168366698661746916e-01,-1.121000481148432815e-01,-1.073634263635118713e-01,-1.026268046121804611e-01,-9.789018286084905096e-02,-9.315356110951764079e-02,-8.841693935818625838e-02,-8.368031760685482046e-02,-7.894369585552343804e-02,-7.420707410419200012e-02,-6.947045235286061771e-02,-6.473383060152920754e-02,-5.999720885019780431e-02,-5.526058709886639414e-02,-5.052396534753499785e-02,-4.578734359620358768e-02,-4.105072184487217751e-02,-3.631410009354078122e-02,-3.157747834220937105e-02,-2.684085659087797476e-02,-2.210423483954655766e-02,-1.736761308821515443e-02,-1.263099133688375120e-02
-2.732951047748367196e-02,-1.835440928640919567e-01,-1.851836927010912792e-01,-1.868232925380906018e-01,-1.884628923750899521e-01,-1.901024922120893024e-01,-1.917420920490885972e-01,-1.933816918860879475e-01,-1.942014918045875949e-01,-1.942014918045876226e-01,-1.942014918045876226e-01,-1.942014918045876226e-01,-1.942014918045876226e-01,-1.934120548460323830e-01,-1.886754330947009728e-01,-1.839388113433695904e-01,-1.792021895920381525e-01,-1.744655678407067700e-01,-1.697289460893753599e-01,-1.649923243380439497e-01,-1.602557025867125395e-01,-1.555190808353811294e-01,-1.507824590840497192e-01,-1.460458373327183090e-01,-1.413092155813868989e-01,-1.365725938300555165e-01,-1.318359720787241340e-01,-1.270993503273927239e-01,-1.223627285760613137e-01,-1.184155437832851432e-01,-1.136789220319537330e-01,-1.089423002806223229e-01,-1.042056785292909404e-01,-9.946905677795953027e-02,-9.473243502662809234e-02,-8.999581327529670993e-02,-8.525919152396529976e-02,-8.052256977263388960e-02,-7.578594802130250718e-02,-7.104932626997106926e-02,-6.631270451863965909e-02,-6.157608276730826974e-02,-5.683946101597687345e-02,-5.210283926464546328e-02,-4.736621751331405311e-02,-4.262959576198265682e-02,-3.789297401065126053e-02
-6.368251311345324295e-02,-1.750728270395954245e-01,-1.767124268765947470e-01,-1.783520267135940696e-01,-1.799916265505934199e-01,-1.816312263875927424e-01,-1.832708262245920650e-01,-1.849104260615913875e-01,-1.865500258985907378e-01,-1.881896257355900604e-01,-1.898292255725894107e-01,-1.914688254095887332e-01,-1.928351586070881640e-01,-1.942014918045876226e-01,-1.942014918045876504e-01,-1.942014918045876226e-01,-1.942014918045876226e-01,-1.942014918045876226e-01,-1.942014918045876226e-01,-1.902543070118114521e-01,-1.855176852604800419e-01,-1.807810635091486318e-01,-1.760444417578172493e-01,-1.713078200064858114e-01,-1.665711982551544013e-01,-1.618345765038229911e-01,-1.570979547524916087e-01,-1.523613330011601985e-01,-1.476247112498287606e-01,-1.428880894984973782e-01,-1.381514677471659958e-01,-1.334148459958345856e-01,-1.286782242445032032e-01,-1.239416024931717930e-01,-1.192049807418403828e-01,-1.144683589905089727e-01,-1.097317372391775625e-01,-1.049951154878461523e-01,-1.002584937365147422e-01,-9.552187198518335975e-02,-9.078525023385194959e-02,-8.604862848252051166e-02,-8.131200673118912925e-02,-7.657538497985771908e-02,-7.183876322852630891e-02,-6.710214147719489874e-02,-6.236551972586350939e-02
-9.667945983306480695e-02,-1.663282945755989728e-01,-1.679678944125982953e-01,-1.696074942495976179e-01,-1.712470940865969682e-01,-1.728866939235962907e-01,-1.745262937605956410e-01,-1.761658935975949636e-01,-1.778054934345943416e-01,-1.794450932715936364e-01,-1.810846931085929867e-01,-1.827242929455922815e-01,-1.843638927825916318e-01,-1.860034926195909544e-01,-1.876430924565902769e-01,-1.892826922935896272e-01,-1.909222921305889775e-01,-1.925618919675882723e-01,-1.942014918045876226e-01,-1.942014918045876504e-01,-1.942014918045876226e-01,-1.942014918045876226e-01,-1.942014918045876226e-01,-1.942014918045876226e-01,-1.910437439703666640e-01,-1.863071222190352538e-01,-1.815705004677038437e-01,-1.768338787163724612e-01,-1.720972569650410511e-01,-1.673606352137096409e-01,-1.626240134623782585e-01,-1.578873917110468483e-01,-1.531507699597154382e-01,-1.484141482083840280e-01,-1.444669634156078575e-01,-1.397303416642764196e-01,-1.349937199129450371e-01,-1.302570981616136547e-01,-1.255204764102822446e-01,-1.207838546589508621e-01,-1.160472329076194242e-01,-1.113106111562880418e-01,-1.065739894049566039e-01,-1.018373676536252492e-01,-9.710074590229381131e-02,-9.236412415096240114e-02,-8.762750239963099097e-02
-1.266277756057557768e-01,-1.578570287511024406e-01,-1.594966285881017631e-01,-1.611362284251010857e-01,-1.627758282621004360e-01,-1.644154280990997308e-01,-1.660550279360990811e-01,-1.676946277730984314e-01,-1.693342276100977262e-01,-1.709738274470970765e-01,-1.726134272840963990e-01,-1.742530271210957493e-01,-1.758926269580950996e-01,-1.775322267950943944e-01,-1.791718266320937447e-01,-1.808114264690930673e-01,-1.824510263060923898e-01,-1.838173595035918484e-01,-1.854569593405911709e-01,-1.870965591775905212e-01,-1.887361590145898438e-01,-1.903757588515891663e-01,-1.920153586885885166e-01,-1.936549585255878392e-01,-1.942014918045876226e-01,-1.942014918045876226e-01,-1.942014918045876226e-01,-1.942014918045876226e-01,-1.942014918045876226e-01,-1.926226178874771156e-01,-1.878859961361457609e-01,-1.831493743848143230e-01,-1.784127526334829406e-01,-1.736761308821515026e-01,-1.689395091308201202e-01,-1.642028873794887378e-01,-1.594662656281572999e-01,-1.547296438768259175e-01,-1.499930221254944795e-01,-1.452564003741630971e-01,-1.405197786228316870e-01,-1.357831568715002768e-01,-1.310465351201688666e-01,-1.263099133688374842e-01,-1.215732916175060740e-01,-1.168366698661746916e-01,-1.121000481148432537e-01
-1.474728964501066386e-01,-1.491124962871059612e-01,-1.507520961241053115e-01,-1.523916959611046618e-01,-1.540312957981039843e-01,-1.556708956351033346e-01,-1.573104954721026294e-01,-1.589500953091019797e-01,-1.605896951461013022e-01,-1.622292949831006248e-01,-1.638688948200999751e-01,-1.655084946570992976e-01,-1.671480944940986202e-01,-1.687876943310979705e-01,-1.704272941680972930e-01,-1.720668940050966433e-01,-1.737064938420959659e-01,-1.753460936790953162e-01,-1.769856935160946387e-01,-1.786252933530939890e-01,-1.802648931900933116e-01,-1.819044930270926341e-01,-1.835440928640919567e-01,-1.851836927010912515e-01,-1.868232925380906295e-01,-1.884628923750899521e-01,-1.901024922120892746e-01,-1.917420920490886249e-01,-1.933816918860879475e-01,-1.942014918045875949e-01,-1.942014918045876226e-01,-1.942014918045876226e-01,-1.942014918045876226e-01,-1.942014918045876226e-01,-1.934120548460323830e-01,-1.886754330947010005e-01,-1.839388113433695904e-01,-1.792021895920381525e-01,-1.744655678407067700e-01,-1.705183830479305995e-01,-1.657817612965991894e-01,-1.610451395452677792e-01,-1.563085177939363413e-01,-1.515718960426049589e-01,-1.468352742912735487e-01,-1.420986525399421385e-01,-1.373620307886107283e-01
-1.390016306256101064e-01,-1.406412304626094012e-01,-1.422808302996087515e-01,-1.439204301366080740e-01,-1.455600299736073966e-01,-1.471996298106067469e-01,-1.488392296476060972e-01,-1.504788294846054197e-01,-1.521184293216047423e-01,-1.537580291586040926e-01,-1.553976289956034151e-01,-1.570372288326027377e-01,-1.586768286696021157e-01,-1.603164285066014105e-01,-1.619560283436007608e-01,-1.635956281806000834e-01,-1.652352280175994059e-01,-1.668748278545987562e-01,-1.685144276915980788e-01,-1.701540275285974013e-01,-1.717936273655967516e-01,-1.734332272025960742e-01,-1.747995604000955328e-01,-1.764391602370948553e-01,-1.780787600740941778e-01,-1.797183599110935281e-01,-1.813579597480928507e-01,-1.829975595850921732e-01,-1.846371594220915235e-01,-1.862767592590908183e-01,-1.879163590960901964e-01,-1.895559589330895189e-01,-1.911955587700888415e-01,-1.928351586070881640e-01,-1.942014918045876226e-01,-1.942014918045876504e-01,-1.942014918045876504e-01,-1.942014918045876226e-01,-1.942014918045876226e-01,-1.942014918045876226e-01,-1.902543070118114521e-01,-1.855176852604800697e-01,-1.807810635091486595e-01,-1.760444417578172216e-01,-1.713078200064858114e-01,-1.665711982551544013e-01,-1.618345765038230188e-01
-1.305303648011135187e-01,-1.321699646381128690e-01,-1.338095644751122193e-01,-1.354491643121115418e-01,-1.370887641491108644e-01,-1.384550973466103230e-01,-1.400946971836096455e-01,-1.417342970206089681e-01,-1.433738968576083184e-01,-1.450134966946076409e-01,-1.466530965316069635e-01,-1.482926963686063138e-01,-1.499322962056056363e-01,-1.515718960426049589e-01,-1.532114958796043092e-01,-1.548510957166036595e-01,-1.564906955536029820e-01,-1.581302953906023046e-01,-1.597698952276016549e-01,-1.614094950646009774e-01,-1.630490949016002999e-01,-1.646886947385996502e-01,-1.663282945755989728e-01,-1.679678944125982953e-01,-1.696074942495976456e-01,-1.712470940865969682e-01,-1.728866939235963185e-01,-1.745262937605956410e-01,-1.761658935975949636e-01,-1.778054934345942861e-01,-1.794450932715936364e-01,-1.810846931085929590e-01,-1.827242929455923093e-01,-1.843638927825916318e-01,-1.860034926195909266e-01,-1.876430924565902769e-01,-1.892826922935896272e-01,-1.909222921305889498e-01,-1.925618919675882723e-01,-1.942014918045876226e-01,-1.942014918045876504e-01,-1.942014918045876226e-01,-1.942014918045876226e-01,-1.942014918045875949e-01,-1.942014918045876226e-01,-1.918331809289219037e-01,-1.870965591775904935e-01
-1.217858323371170948e-01,-1.234254321741163896e-01,-1.250650320111157399e-01,-1.267046318481150624e-01,-1.283442316851144127e-01,-1.299838315221137630e-01,-1.316234313591130856e-01,-3.329740783154395700e-01,-3.346136781524389203e-01,-3.362532779894382151e-01,-1.381818307071104313e-01,-1.398214305441097538e-01,-1.414610303811090763e-01,-1.431006302181083989e-01,-1.447402300551077214e-01,-1.463798298921070717e-01,-1.480194297291064220e-01,-1.496590295661057446e-01,-1.512986294031050949e-01,-1.529382292401044174e-01,-1.545778290771037677e-01,-1.562174289141030903e-01,-1.578570287511024128e-01,-1.594966285881017631e-01,-1.611362284251010857e-01,-1.627758282621004082e-01,-1.644154280990997585e-01,-1.657817612965991894e-01,-1.674213611335985119e-01,-1.690609609705978622e-01,-1.707005608075971570e-01,-1.723401606445965073e-01,-1.739797604815958576e-01,-1.756193603185951801e-01,-1.772589601555945305e-01,-1.788985599925938530e-01,-1.805381598295931755e-01,-1.821777596665924981e-01,-1.838173595035918484e-01,-1.854569593405911709e-01,-1.870965591775904935e-01,-1.887361590145898438e-01,-1.903757588515891663e-01,-1.920153586885885166e-01,-1.936549585255878392e-01,-1.942014918045875949e-01,-1.942014918045876226e-01
-1.133145665126205348e-01,-1.149541663496198574e-01,-1.165937661866191799e-01,-1.182333660236185302e-01,-1.198729658606178528e-01,-1.215125656976171753e-01,-1.231521655346164978e-01,-3.245028124909429823e-01,-3.261424123279423326e-01,-3.277820121649416829e-01,-1.294372982431139796e-01,-1.310768980801133021e-01,-1.327164979171126524e-01,-1.343560977541119750e-01,-1.359956975911112975e-01,-1.376352974281106478e-01,-1.392748972651099704e-01,-1.409144971021092929e-01,-1.425540969391086155e-01,-1.441936967761079658e-01,-1.458332966131073161e-01,-1.474728964501066386e-01,-1.491124962871059889e-01,-1.507520961241053115e-01,-1.523916959611046340e-01,-1.540312957981039843e-01,-1.556708956351033346e-01,-1.573104954721026572e-01,-1.589500953091019797e-01,-1.605896951461013300e-01,-1.622292949831006248e-01,-1.638688948200999751e-01,-1.655084946570993254e-01,-1.671480944940986202e-01,-1.687876943310979705e-01,-1.704272941680972930e-01,-1.720668940050966156e-01,-1.737064938420959659e-01,-1.753460936790952884e-01,-1.769856935160946387e-01,-1.786252933530939890e-01,-1.802648931900933116e-01,-1.819044930270926341e-01,-1.835440928640919567e-01,-1.851836927010912792e-01,-1.868232925380906018e-01,-1.884628923750899521e-01
-1.045700340486241109e-01,-1.062096338856234334e-01,-1.078492337226227837e-01,-1.094888335596221063e-01,-1.111284333966214011e-01,-1.127680332336207514e-01,-1.144076330706201017e-01,-3.157582800269465584e-01,-3.173978798639459087e-01,-3.190374797009452590e-01,-1.209660324186174196e-01,-1.226056322556167144e-01,-1.242452320926160647e-01,-1.258848319296154150e-01,-1.275244317666147376e-01,-1.291640316036140879e-01,-1.308036314406134382e-01,-1.324432312776127607e-01,-1.340828311146120833e-01,-1.357224309516114336e-01,-1.373620307886107561e-01,-1.390016306256100787e-01,-1.406412304626094012e-01,-1.422808302996087515e-01,-1.439204301366081018e-01,-1.455600299736074243e-01,-1.471996298106067469e-01,-1.488392296476060694e-01,-1.504788294846054197e-01,-1.521184293216047423e-01,-1.537580291586040926e-01,-1.553976289956034429e-01,-1.567639621931028737e-01,-1.584035620301021963e-01,-1.600431618671015466e-01,-1.616827617041008691e-01,-1.633223615411002194e-01,-1.649619613780995142e-01,-1.666015612150988368e-01,-1.682411610520981871e-01,-1.698807608890975374e-01,-1.715203607260968877e-01,-1.731599605630961825e-01,-1.747995604000955328e-01,-1.764391602370948553e-01,-1.780787600740941778e-01,-1.464566861344664406e-01
-9.609876822412755093e-02,-9.773836806112690123e-02,-9.937796789812625153e-02,-1.010175677351255463e-01,-1.026571675721248966e-01,-1.042967674091242192e-01,-1.059363672461235417e-01,-1.075759670831228643e-01,-1.092155669201222146e-01,-1.108551667571215371e-01,-1.124947665941208597e-01,-1.141343664311202100e-01,-1.876381759037339947e-01,-1.892777757407333450e-01,-1.909173755777326398e-01,-1.922837087752320984e-01,-1.220590989766169587e-01,-1.236986988136162813e-01,-1.253382986506156316e-01,-1.269778984876149819e-01,-1.286174983246143044e-01,-1.302570981616136270e-01,-1.318966979986129773e-01,-1.335362978356123276e-01,-1.351758976726116501e-01,-1.368154975096110004e-01,-1.384550973466103230e-01,-1.400946971836096455e-01,-1.417342970206089681e-01,-1.433738968576082906e-01,-1.450134966946076409e-01,-1.466530965316069635e-01,-1.482926963686062860e-01,-1.499322962056056641e-01,-1.515718960426049866e-01,-1.532114958796043092e-01,-1.548510957166036595e-01,-1.564906955536029542e-01,-1.581302953906023046e-01,-1.597698952276016271e-01,-1.614094950646009774e-01,-1.630490949016002722e-01,-1.646886947385996502e-01,-1.663282945755989450e-01,-1.679678944125982953e-01,-1.696074942495976456e-01,-1.009834094051880737e-01
-8.735423576013109925e-02,-8.899383559713044956e-02,-9.063343543412979986e-02,-9.227303527112912240e-02,-9.391263510812844495e-02,-9.555223494512779525e-02,-9.719183478212711780e-02,-9.883143461912646810e-02,-1.004710344561257906e-01,-1.021106342931251132e-01,-1.037502341301244357e-01,-1.053898339671237583e-01,-1.788936434397375708e-01,-1.805332432767369211e-01,-1.821728431137362159e-01,-1.838124429507355662e-01,-1.135878331521204265e-01,-1.152274329891197491e-01,-1.168670328261190716e-01,-1.185066326631184219e-01,-1.201462325001177445e-01,-1.217858323371170393e-01,-1.234254321741164173e-01,-1.250650320111157399e-01,-1.267046318481150624e-01,-1.283442316851144127e-01,-1.299838315221137353e-01,-1.316234313591130856e-01,-1.332630311961124359e-01,-1.349026310331117584e-01,-1.365422308701110810e-01,-1.381818307071104313e-01,-1.398214305441097538e-01,-1.414610303811090763e-01,-1.431006302181084267e-01,-1.447402300551077492e-01,-1.463798298921070995e-01,-1.477461630896065303e-01,-1.493857629266058529e-01,-1.510253627636051754e-01,-1.526649626006044980e-01,-1.543045624376038760e-01,-1.559441622746031986e-01,-1.575837621116025489e-01,-1.592233619486018714e-01,-1.608629617856012217e-01,-5.855876362283033570e-02
-7.888296993563453929e-02,-8.052256977263388960e-02,-8.216216960963321214e-02,-8.380176944663253469e-02,-8.544136928363188499e-02,-8.708096912063123529e-02,-8.872056895763055784e-02,-9.036016879462990814e-02,-9.199976863162920293e-02,-9.363936846862858099e-02,-9.527896830562790353e-02,-9.691856814262722608e-02,-1.704223776152410386e-01,-1.720619774522403889e-01,-1.737015772892396837e-01,-1.753411771262390340e-01,-1.051165673276238666e-01,-1.067561671646232169e-01,-1.083957670016225394e-01,-1.100353668386218620e-01,-1.114017000361213205e-01,-1.130412998731206708e-01,-1.146808997101199656e-01,-1.163204995471192882e-01,-1.179600993841186107e-01,-1.195996992211179610e-01,-1.212392990581173113e-01,-1.228788988951166339e-01,-1.245184987321159564e-01,-1.261580985691153067e-01,-1.277976984061146293e-01,-1.294372982431139518e-01,-1.310768980801133021e-01,-1.327164979171126524e-01,-1.343560977541119750e-01,-1.359956975911112975e-01,-1.376352974281106478e-01,-1.392748972651099704e-01,-1.409144971021093207e-01,-1.425540969391086432e-01,-1.441936967761079658e-01,-1.458332966131072883e-01,-1.474728964501066386e-01,-1.491124962871059612e-01,-1.507520961241052837e-01,-1.523916959611046340e-01,-1.949017375683061160e-02
-7.041170411113800709e-02,-7.205130394813735739e-02,-7.341763714563678822e-02,-7.505723698263611077e-02,-7.669683681963543331e-02,-7.833643665663478362e-02,-7.997603649363410616e-02,-8.161563633063342871e-02,-8.325523616763275125e-02,-8.489483600463210156e-02,-8.653443584163142410e-02,-8.817403567863077440e-02,-1.616778451512445869e-01,-1.633174449882439094e-01,-1.649570448252432597e-01,-1.665966446622426100e-01,-9.637203486362747040e-02,-9.801163470062679295e-02,-9.965123453762611550e-02,-1.012908343746254658e-01,-1.029304342116247883e-01,-1.045700340486241109e-01,-1.062096338856234334e-01,-1.078492337226227837e-01,-1.094888335596221063e-01,-1.111284333966214288e-01,-1.127680332336207514e-01,-1.144076330706200739e-01,-1.160472329076194242e-01,-1.176868327446187468e-01,-1.193264325816180693e-01,-1.209660324186174196e-01,-1.226056322556167422e-01,-1.242452320926160647e-01,-1.258848319296154150e-01,-1.275244317666147653e-01,-1.291640316036140879e-01,-1.308036314406134104e-01,-1.324432312776127607e-01,-1.340828311146121110e-01,-1.357224309516114336e-01,-1.373620307886107561e-01,-1.387283639861101869e-01,-1.403679638231095372e-01,-1.420075636601088598e-01,-1.436471634971082101e-01,1.642731017243602085e-02
-6.166717164714157623e-02,-6.330677148414090571e-02,-6.494637132114022826e-02,-6.658597115813957856e-02,-6.822557099513890111e-02,-6.986517083213825141e-02,-7.150477066913757396e-02,-7.314437050613689650e-02,-7.478397034313621905e-02,-7.642357018013554160e-02,-7.806317001713489190e-02,-7.970276985413421444e-02,-8.134236969113356475e-02,-8.298196952813288729e-02,-8.462156936513220984e-02,-8.626116920213153239e-02,-8.790076903913088269e-02,-8.954036887613020523e-02,-9.117996871312955554e-02,-9.281956855012890584e-02,-9.445916838712822838e-02,-9.609876822412755093e-02,-9.773836806112690123e-02,-9.937796789812625153e-02,-1.010175677351255463e-01,-1.023839009326250049e-01,-1.040235007696243275e-01,-1.056631006066236500e-01,-1.073027004436230281e-01,-1.089423002806222951e-01,-1.105819001176216454e-01,-1.122214999546209957e-01,-1.138610997916203182e-01,-1.155006996286196408e-01,-1.171402994656189633e-01,-1.187798993026183136e-01,-1.204194991396176362e-01,-1.220590989766169587e-01,-1.236986988136162813e-01,-1.253382986506156316e-01,-1.269778984876149541e-01,-1.286174983246143044e-01,-1.302570981616136270e-01,-1.318966979986129773e-01,-1.335362978356122998e-01,-1.193947492414930700e-01,3.315635225931983648e-02
-5.319590582264501627e-02,-5.483550565964435269e-02,-5.647510549664368912e-02,-5.811470533364302554e-02,-5.975430517064234809e-02,-6.139390500764168451e-02,-6.303350484464101400e-02,-6.439983804214047258e-02,-6.603943787913979513e-02,-6.767903771613911768e-02,-6.931863755313846798e-02,-7.095823739013779052e-02,-7.259783722713714083e-02,-7.423743706413646337e-02,-7.587703690113578592e-02,-7.751663673813510846e-02,-7.915623657513443101e-02,-8.079583641213378131e-02,-8.243543624913310386e-02,-8.407503608613242641e-02,-8.571463592313177671e-02,-8.735423576013112701e-02,-8.899383559713044956e-02,-9.063343543412979986e-02,-9.227303527112912240e-02,-9.391263510812847271e-02,-9.555223494512776750e-02,-9.719183478212711780e-02,-9.883143461912646810e-02,-1.004710344561257906e-01,-1.021106342931251132e-01,-1.037502341301244635e-01,-1.053898339671237860e-01,-1.070294338041231086e-01,-1.086690336411224589e-01,-1.103086334781217537e-01,-1.119482333151211040e-01,-1.135878331521204265e-01,-1.152274329891197491e-01,-1.168670328261190716e-01,-1.185066326631184219e-01,-1.201462325001177445e-01,-1.217858323371170670e-01,-1.234254321741163896e-01,-1.250650320111157399e-01,-8.174373006789900642e-02,3.315635225931983648e-02
-4.445137335864856459e-02,-4.609097319564790102e-02,-4.773057303264722356e-02,-4.937017286964657387e-02,-5.100977270664589641e-02,-5.264937254364523284e-02,-5.428897238064456926e-02,-5.592857221764390568e-02,-5.756817205464324211e-02,-5.920777189164256465e-02,-6.084737172864191496e-02,-6.248697156564123750e-02,-6.412657140264055311e-02,-6.576617123963990341e-02,-6.740577107663922596e-02,-6.904537091363857626e-02,-7.068497075063789881e-02,-7.232457058763722135e-02,-7.396417042463657165e-02,-7.560377026163589420e-02,-7.724337009863521675e-02,-7.888296993563456705e-02,-8.052256977263388960e-02,-8.216216960963321214e-02,-8.380176944663253469e-02,-8.544136928363188499e-02,-8.708096912063123529e-02,-8.872056895763053008e-02,-9.036016879462988038e-02,-9.172650199212933897e-02,-9.336610182912868927e-02,-9.500570166612801182e-02,-9.664530150312733436e-02,-9.828490134012668467e-02,-9.992450117712600721e-02,-1.015641010141253298e-01,-1.032037008511246801e-01,-1.048433006881240026e-01,-1.064829005251233252e-01,-1.081225003621226477e-01,-1.097621001991219702e-01,-1.114017000361213205e-01,-1.130412998731206431e-01,-1.146808997101199656e-01,-1.163204995471192882e-01,-4.712426267625686310e-02,3.315635225931983648e-02
-3.598010753415201851e-02,-3.761970737115135494e-02,-3.925930720815069136e-02,-4.089890704515001391e-02,-4.253850688214933645e-02,-4.417810671914868675e-02,-4.581770655614800930e-02,-4.745730639314734572e-02,-4.909690623014668215e-02,-5.073650606714600469e-02,-5.237610590414535500e-02,-5.401570574114467754e-02,-5.538203893864412225e-02,-5.702163877564345867e-02,-5.866123861264279510e-02,-6.030083844964213152e-02,-6.194043828664145407e-02,-6.358003812364079743e-02,-6.521963796064011998e-02,-6.685923779763947028e-02,-6.849883763463879283e-02,-7.013843747163811537e-02,-7.177803730863746567e-02,-7.341763714563678822e-02,-7.505723698263611077e-02,-7.669683681963543331e-02,-7.833643665663478362e-02,-7.997603649363410616e-02,-8.161563633063345646e-02,-8.325523616763277901e-02,-8.489483600463210156e-02,-8.653443584163145186e-02,-8.817403567863077440e-02,-8.981363551563012471e-02,-9.145323535262944725e-02,-9.309283518962879755e-02,-9.473243502662812010e-02,-9.637203486362744265e-02,-9.801163470062679295e-02,-9.965123453762614325e-02,-1.012908343746254658e-01,-1.029304342116247606e-01,-1.045700340486241109e-01,-1.062096338856234334e-01,-1.078492337226227837e-01,-1.587793036594145613e-02,3.315635225931983648e-02
-2.723557507015558071e-02,-2.887517490715491714e-02,-3.051477474415425356e-02,-3.215437458115358998e-02,-3.379397441815291253e-02,-3.543357425515224896e-02,-3.707317409215158538e-02,-3.871277392915090793e-02,-4.035237376615024435e-02,-4.199197360314956690e-02,-4.363157344014890332e-02,-4.527117327714822587e-02,-4.691077311414756229e-02,-4.855037295114689871e-02,-5.018997278814623514e-02,-5.182957262514557156e-02,-5.346917246214489411e-02,-5.510877229914423053e-02,-5.674837213614356696e-02,-5.838797197314290338e-02,-6.002757181014223981e-02,-6.166717164714157623e-02,-6.330677148414090571e-02,-6.494637132114025602e-02,-6.658597115813957856e-02,-6.822557099513890111e-02,-6.986517083213825141e-02,-7.150477066913757396e-02,-7.314437050613689650e-02,-7.478397034313621905e-02,-7.642357018013554160e-02,-7.806317001713489190e-02,-7.970276985413421444e-02,-8.134236969113353699e-02,-8.270870288863299558e-02,-8.434830272563231812e-02,-8.598790256263166842e-02,-8.762750239963099097e-02,-8.926710223663034127e-02,-9.090670207362966382e-02,-9.254630191062898636e-02,-9.418590174762833667e-02,-9.582550158462765921e-02,-9.746510142162700951e-02,-9.910470125862633206e-02,1.223437517260959895e-02,3.315635225931983648e-02
-1.876430924565903463e-02,-2.040390908265836412e-02,-2.204350891965769360e-02,-2.368310875665703003e-02,-2.532270859365636645e-02,-2.696230843065569593e-02,-2.860190826765502542e-02,-3.024150810465436184e-02,-3.188110794165369827e-02,-3.352070777865302081e-02,-3.516030761565235724e-02,-3.679990745265169366e-02,-3.843950728965103009e-02,-4.007910712665033875e-02,-4.171870696364967518e-02,-4.335830680064901160e-02,-4.499790663764833415e-02,-4.636423983514779273e-02,-4.800383967214711528e-02,-4.964343950914645170e-02,-5.128303934614578813e-02,-5.292263918314512455e-02,-5.456223902014444710e-02,-5.620183885714378352e-02,-5.784143869414313383e-02,-5.948103853114245637e-02,-6.112063836814180667e-02,-6.276023820514112228e-02,-6.439983804214047258e-02,-6.603943787913979513e-02,-6.767903771613911768e-02,-6.931863755313846798e-02,-7.095823739013779052e-02,-7.259783722713714083e-02,-7.423743706413646337e-02,-7.587703690113578592e-02,-7.751663673813510846e-02,-7.915623657513443101e-02,-8.079583641213378131e-02,-8.243543624913310386e-02,-8.407503608613242641e-02,-8.571463592313177671e-02,-8.735423576013109925e-02,-8.899383559713044956e-02,-8.289657370328917807e-02,3.315635225931983648e-02,3.315635225931983648e-02
-1.001977678166258989e-02,-1.165937661866191938e-02,-1.329897645566124886e-02,-1.493857629266059223e-02,-1.657817612965992865e-02,-1.821777596665926507e-02,-1.985737580365858762e-02,-2.149697564065792404e-02,-2.313657547765725353e-02,-2.477617531465658995e-02,-2.641577515165591944e-02,-2.805537498865524892e-02,-2.969497482565457841e-02,-3.133457466265391483e-02,-3.297417449965325126e-02,-3.461377433665257380e-02,-3.625337417365191023e-02,-3.789297401065124665e-02,-3.953257384765058308e-02,-4.117217368464990562e-02,-4.281177352164922817e-02,-4.445137335864856459e-02,-4.609097319564788714e-02,-4.773057303264723744e-02,-4.937017286964655999e-02,-5.100977270664591029e-02,-5.264937254364523284e-02,-5.428897238064456926e-02,-5.592857221764389181e-02,-5.756817205464324211e-02,-5.920777189164256465e-02,-6.084737172864191496e-02,-6.248697156564123750e-02,-6.412657140264058087e-02,-6.576617123963990341e-02,-6.740577107663922596e-02,-6.904537091363857626e-02,-7.068497075063789881e-02,-7.232457058763724911e-02,-7.369090378513667994e-02,-7.533050362213600248e-02,-7.697010345913532503e-02,-7.860970329613467533e-02,-8.024930313313399788e-02,-5.312758916277004334e-02,3.315635225931983648e-02,3.315635225931983648e-02
-1.548510957166036872e-03,-3.188110794165373296e-03,-4.827710631164702781e-03,-6.467310468164039206e-03,-8.106910305163368691e-03,-9.746510142162698176e-03,-1.138610997916203460e-02,-1.302570981616136409e-02,-1.466530965316070051e-02,-1.630490949016003693e-02,-1.794450932715936642e-02,-1.958410916415870284e-02,-2.122370900115803233e-02,-2.286330883815736181e-02,-2.450290867515669824e-02,-2.614250851215602772e-02,-2.778210834915535721e-02,-2.942170818615470057e-02,-3.106130802315402312e-02,-3.270090786015335954e-02,-3.434050769715269597e-02,-3.598010753415201851e-02,-3.734644073165147710e-02,-3.898604056865079964e-02,-4.062564040565013607e-02,-4.226524024264945861e-02,-4.390484007964879504e-02,-4.554443991664811758e-02,-4.718403975364745401e-02,-4.882363959064679043e-02,-5.046323942764611298e-02,-5.210283926464546328e-02,-5.374243910164478583e-02,-5.538203893864413613e-02,-5.702163877564345867e-02,-5.866123861264279510e-02,-6.030083844964213152e-02,-6.194043828664145407e-02,-6.358003812364079743e-02,-6.521963796064011998e-02,-6.685923779763947028e-02,-6.849883763463879283e-02,-7.013843747163811537e-02,-7.177803730863746567e-02,-2.679151678096826361e-02,3.315635225931983648e-02,3.315635225931983648e-02
6.922754867330512679e-03,5.283155030331183194e-03,3.643555193331843300e-03,2.003955356332513815e-03,3.643555193331843300e-04,-1.001977678166267316e-03,-2.641577515165596801e-03,-4.281177352164926286e-03,-5.920777189164262710e-03,-7.560377026163585257e-03,-9.199976863162921681e-03,-1.083957670016225810e-02,-1.247917653716159453e-02,-1.411877637416092401e-02,-1.575837621116025350e-02,-1.739797604815958992e-02,-1.903757588515891941e-02,-2.067717572215825583e-02,-2.231677555915758532e-02,-2.395637539615692174e-02,-2.559597523315624429e-02,-2.723557507015558071e-02,-2.887517490715491714e-02,-3.051477474415425356e-02,-3.215437458115357611e-02,-3.379397441815292641e-02,-3.543357425515224896e-02,-3.707317409215159926e-02,-3.871277392915090793e-02,-4.035237376615024435e-02,-4.199197360314956690e-02,-4.363157344014890332e-02,-4.527117327714822587e-02,-4.691077311414756229e-02,-4.855037295114689871e-02,-5.018997278814624902e-02,-5.182957262514557156e-02,-5.346917246214489411e-02,-5.510877229914423053e-02,-5.674837213614356696e-02,-5.838797197314291726e-02,-6.002757181014223981e-02,-6.166717164714157623e-02,-6.330677148414090571e-02,-3.529694093540237942e-03,3.315635225931983648e-02,3.315635225931983648e-02
1.566728733132695395e-02,1.402768749432762099e-02,1.238808765732828804e-02,1.074848782032895508e-02,9.108887983329622129e-03,7.469288146330292644e-03,5.829688309330952750e-03,4.190088472331626734e-03,2.550488635332290310e-03,9.108887983329608251e-04,-7.287110386663755990e-04,-2.368310875665705084e-03,-4.007910712665034569e-03,-5.647510549664370993e-03,-7.287110386663700479e-03,-8.926710223663029964e-03,-1.056631006066236639e-02,-1.220590989766170281e-02,-1.384550973466103230e-02,-1.548510957166036178e-02,-1.712470940865969821e-02,-1.876430924565903463e-02,-2.040390908265836412e-02,-2.204350891965769360e-02,-2.368310875665703003e-02,-2.532270859365636645e-02,-2.696230843065568900e-02,-2.832864162815514064e-02,-2.996824146515447013e-02,-3.160784130215380655e-02,-3.324744113915314297e-02,-3.488704097615246552e-02,-3.652664081315181582e-02,-3.816624065015113837e-02,-3.980584048715046092e-02,-4.144544032414978346e-02,-4.308504016114911989e-02,-4.472463999814845631e-02,-4.636423983514779273e-02,-4.800383967214712916e-02,-4.964343950914645170e-02,-5.128303934614578813e-02,-5.292263918314511068e-02,-5.456223902014446098e-02,1.640169142498290600e-02,3.315635225931983648e-02,3.315635225931983648e-02
2.413855315582350697e-02,2.249895331882417401e-02,2.085935348182484106e-02,1.921975364482550810e-02,1.758015380782617515e-02,1.594055397082684220e-02,1.430095413382750924e-02,1.266135429682817976e-02,1.102175445982884333e-02,9.382154622829510376e-03,8.015821425330069139e-03,6.376221588330736184e-03,4.736621751331399760e-03,3.097021914332066805e-03,1.457422077332737320e-03,-1.821777596665921650e-04,-1.821777596665928589e-03,-3.461377433665258074e-03,-5.100977270664594498e-03,-6.740577107663923984e-03,-8.380176944663260408e-03,-1.001977678166258295e-02,-1.165937661866192632e-02,-1.329897645566125580e-02,-1.493857629266059223e-02,-1.657817612965992171e-02,-1.821777596665925120e-02,-1.985737580365858762e-02,-2.149697564065792404e-02,-2.313657547765725353e-02,-2.477617531465658302e-02,-2.641577515165591944e-02,-2.805537498865524892e-02,-2.969497482565457841e-02,-3.133457466265391483e-02,-3.297417449965325126e-02,-3.461377433665258768e-02,-3.625337417365191023e-02,-3.789297401065124665e-02,-3.953257384765058308e-02,-4.117217368464990562e-02,-4.281177352164922817e-02,-4.445137335864855072e-02,-4.609097319564790102e-02,3.315635225931983648e-02,3.315635225931983648e-02,3.315635225931983648e-02
3.288308561981994477e-02,3.124348578282061528e-02,2.960388594582128233e-02,2.796428610882194937e-02,2.632468627182261642e-02,2.468508643482328346e-02,2.304548659782395398e-02,2.140588676082461755e-02,1.976628692382528807e-02,1.812668708682595164e-02,1.648708724982661869e-02,1.484748741282728920e-02,1.320788757582795625e-02,1.156828773882862330e-02,9.928687901829290341e-03,8.289088064829957386e-03,6.649488227830620962e-03,5.009888390831288008e-03,3.370288553831958522e-03,1.730688716832622098e-03,9.108887983329261306e-05,-1.548510957166036872e-03,-3.188110794165373296e-03,-4.827710631164702781e-03,-6.467310468164032267e-03,-8.106910305163368691e-03,-9.746510142162698176e-03,-1.138610997916202766e-02,-1.302570981616136409e-02,-1.466530965316070745e-02,-1.630490949016002999e-02,-1.794450932715936642e-02,-1.931084252465880419e-02,-2.095044236165814061e-02,-2.259004219865747703e-02,-2.422964203565680652e-02,-2.586924187265613601e-02,-2.750884170965547243e-02,-2.914844154665479498e-02,-3.078804138365414528e-02,-3.242764122065346782e-02,-3.406724105765280425e-02,-3.570684089465214067e-02,-2.412716704584435407e-02,3.315635225931983648e-02,3.315635225931983648e-02,3.315635225931983648e-02
3.315635225931983648e-02,3.315635225931983648e-02,3.315635225931983648e-02,3.315635225931983648e-02,3.315635225931983648e-02,3.315635225931983648e-02,3.151675242232050700e-02,2.987715258532117057e-02,2.823755274832183762e-02,2.659795291132250467e-02,2.495835307432317518e-02,2.331875323732383876e-02,2.167915340032450927e-02,2.003955356332517285e-02,1.839995372632584336e-02,1.703362052882639865e-02,1.539402069182706223e-02,1.375442085482773275e-02,1.211482101782839632e-02,1.047522118082906684e-02,8.835621343829733881e-03,7.196021506830400927e-03,5.556421669831067972e-03,3.916821832831735017e-03,2.277221995832402063e-03,6.376221588330691081e-04,-1.001977678166260377e-03,-2.641577515165589862e-03,-4.281177352164926286e-03,-5.920777189164255772e-03,-7.560377026163592196e-03,-9.199976863162921681e-03,-1.083957670016225810e-02,-1.247917653716158759e-02,-1.411877637416091708e-02,-1.575837621116025350e-02,-1.739797604815958992e-02,-1.903757588515892635e-02,-2.067717572215826277e-02,-2.231677555915759226e-02,-2.395637539615692174e-02,-2.559597523315625123e-02,-2.723557507015558071e-02,-5.613352219726884529e-03,3.315635225931983648e-02,3.315635225931983648e-02,3.315635225931983648e-02
3.315635225931983648e-02,3.315635225931983648e-02,3.315635225931983648e-02,3.315635225931983648e-02,3.315635225931983648e-02,3.315635225931983648e-02,3.315635225931983648e-02,3.315635225931983648e-02,3.315635225931983648e-02,3.315635225931983648e-02,3.315635225931983648e-02,3.206328570132028349e-02,3.042368586432094707e-02,2.878408602732161758e-02,2.714448619032228116e-02,2.550488635332295168e-02,2.386528651632361872e-02,2.222568667932428577e-02,2.058608684232495281e-02,1.894648700532561986e-02,1.730688716832628690e-02,1.566728733132695395e-02,1.402768749432762099e-02,1.238808765732828804e-02,1.074848782032895508e-02,9.108887983329622129e-03,7.469288146330285705e-03,5.829688309330956220e-03,4.190088472331623265e-03,2.550488635332290310e-03,9.108887983329608251e-04,-7.287110386663755990e-04,-2.368310875665705084e-03,-4.007910712665041508e-03,-5.647510549664377932e-03,-7.287110386663700479e-03,-8.926710223663036903e-03,-1.029304342116247467e-02,-1.193264325816181803e-02,-1.357224309516114752e-02,-1.521184293216047700e-02,-1.685144276915981343e-02,-1.849104260615914291e-02,9.843292076985574179e-03,3.315635225931983648e-02,3.315635225931983648e-02,3.315635225931983648e-02
3.315635225931983648e-02,3.315635225931983648e-02,3.315635225931983648e-02,3.315635225931983648e-02,3.315635225931983648e-02,3.315635225931983648e-02,3.315635225931983648e-02,3.315635225931983648e-02,3.315635225931983648e-02,3.315635225931983648e-02,3.315635225931983648e-02,3.315635225931983648e-02,3.315635225931983648e-02,3.315635225931983648e-02,3.315635225931983648e-02,3.315635225931983648e-02,3.233655234082016827e-02,3.069695250382083879e-02,2.905735266682150236e-02,2.741775282982217288e-02,2.605141963232272817e-02,2.441181979532339522e-02,2.277221995832406226e-02,2.113262012132472931e-02,1.949302028432539635e-02,1.785342044732606340e-02,1.621382061032673044e-02,1.457422077332740096e-02,1.293462093632806453e-02,1.129502109932873505e-02,9.655421262329402093e-03,8.015821425330069139e-03,6.376221588330732715e-03,4.736621751331403229e-03,3.097021914332070275e-03,1.457422077332737320e-03,-1.821777596665921650e-04,-1.821777596665928589e-03,-3.461377433665258074e-03,-5.100977270664587560e-03,-6.740577107663923984e-03,-8.380176944663253469e-03,-1.001977678166258989e-02,2.195242003982439752e-02,3.315635225931983648e-02,3.315635225931983648e-02,3.315635225931983648e-02
3.315635225931983648e-02,3.315635225931983648e-02,3.315635225931983648e-02,3.315635225931983648e-02,3.315635225931983648e-02,3.315635225931983648e-02,3.315635225931983648e-02,3.315635225931983648e-02,3.315635225931983648e-02,3.315635225931983648e-02,3.315635225931983648e-02,3.315635225931983648e-02,3.315635225931983648e-02,3.315635225931983648e-02,3.315635225931983648e-02,3.315635225931983648e-02,3.315635225931983648e-02,3.315635225931983648e-02,3.315635225931983648e-02,3.315635225931983648e-02,3.315635225931983648e-02,3.288308561981994477e-02,3.124348578282061528e-02,2.960388594582128233e-02,2.796428610882194937e-02,2.632468627182261642e-02,2.468508643482328346e-02,2.304548659782395051e-02,2.140588676082461755e-02,1.976628692382528460e-02,1.812668708682595164e-02,1.648708724982662216e-02,1.484748741282728920e-02,1.320788757582795625e-02,1.156828773882861983e-02,9.928687901829290341e-03,8.289088064829953917e-03,6.649488227830624432e-03,5.009888390831291477e-03,3.370288553831958522e-03,1.730688716832622098e-03,9.108887983329261306e-05,-1.275244317666145155e-03,3.090190248344575411e-02,3.315635225931983648e-02,3.315635225931983648e-02,3.315635225931983648e-02
