1.738566245382196229e-02,1.738566245382196229e-02,1.738566245382196229e-02,1.738566245382196229e-02,1.738566245382196229e-02,1.738566245382196229e-02,1.738566245382196229e-02,1.738566245382196229e-02,1.738566245382196229e-02,1.738566245382196229e-02,1.738566245382196229e-02,1.738566245382196229e-02,1.738566245382196229e-02,1.738566245382196229e-02,1.383756807549095004e-02,-1.188611616740889096e-02,-3.672277681572598540e-02,-6.155943746404306249e-02,-8.639609811236015346e-02,-1.112327587606772444e-01,-1.360694194089943632e-01,-1.609060800573113847e-01,-1.813076227327147238e-01,-1.813076227327147238e-01,-1.813076227327147238e-01,-1.813076227327147238e-01,-1.813076227327147238e-01,-1.813076227327147238e-01,-1.813076227327147794e-01,-1.626801272464769577e-01,-6.954264981528784917e-02,1.738566245382196229e-02,1.738566245382196229e-02,1.738566245382196229e-02,1.738566245382196229e-02,1.738566245382196229e-02,1.738566245382196229e-02,1.738566245382196229e-02,1.738566245382196229e-02,1.738566245382196229e-02,1.738566245382196229e-02,1.738566245382196229e-02,1.738566245382196229e-02,1.738566245382196229e-02,1.738566245382196229e-02,1.738566245382196229e-02,1.738566245382196229e-02
1.738566245382196229e-02,1.738566245382196229e-02,1.738566245382196229e-02,1.738566245382196229e-02,1.738566245382196229e-02,1.738566245382196229e-02,1.738566245382196229e-02,1.738566245382196229e-02,1.738566245382196229e-02,1.738566245382196229e-02,1.738566245382196229e-02,1.738566245382196229e-02,1.738566245382196229e-02,1.738566245382196229e-02,-3.548094378331007048e-04,-2.519147008615019168e-02,-5.002813073446726877e-02,-7.486479138278437362e-02,-9.970145203110146459e-02,-1.245381126794185417e-01,-1.502617969223183914e-01,-1.750984575706354684e-01,-1.813076227327147238e-01,-1.813076227327147238e-01,-1.813076227327147238e-01,-1.813076227327147794e-01,-1.813076227327147238e-01,-1.813076227327147238e-01,-1.813076227327147238e-01,-1.813076227327147238e-01,-1.813076227327147238e-01,-1.502617969223183914e-01,-5.712431949112929674e-02,1.738566245382196229e-02,1.738566245382196229e-02,1.738566245382196229e-02,1.738566245382196229e-02,1.738566245382196229e-02,1.738566245382196229e-02,1.738566245382196229e-02,1.738566245382196229e-02,1.738566245382196229e-02,1.738566245382196229e-02,1.738566245382196229e-02,1.738566245382196229e-02,1.738566245382196229e-02,1.738566245382196229e-02
1.738566245382196229e-02,1.738566245382196229e-02,1.738566245382196229e-02,1.738566245382196229e-02,1.738566245382196229e-02,1.738566245382196229e-02,1.738566245382196229e-02,1.738566245382196229e-02,1.738566245382196229e-02,1.738566245382196229e-02,1.738566245382196229e-02,1.738566245382196229e-02,1.738566245382196229e-02,1.117649729174268955e-02,-1.366016335657439448e-02,-3.849682400489148892e-02,-6.333348465320856602e-02,-8.817014530152565699e-02,-1.130068059498427341e-01,-1.387304901927425838e-01,-1.635671508410596608e-01,-1.813076227327147238e-01,-1.813076227327147238e-01,-1.813076227327147238e-01,-1.813076227327147794e-01,-1.813076227327147238e-01,-1.813076227327147238e-01,-1.813076227327147794e-01,-1.813076227327147238e-01,-1.813076227327147794e-01,-1.813076227327147238e-01,-1.813076227327147794e-01,-1.813076227327147238e-01,-1.378434665981598251e-01,-3.849682400489148892e-02,1.738566245382196229e-02,1.738566245382196229e-02,1.738566245382196229e-02,1.738566245382196229e-02,1.738566245382196229e-02,1.738566245382196229e-02,1.738566245382196229e-02,1.738566245382196229e-02,1.738566245382196229e-02,1.738566245382196229e-02,1.738566245382196229e-02,1.738566245382196229e-02
1.738566245382196229e-02,1.738566245382196229e-02,1.738566245382196229e-02,1.738566245382196229e-02,1.738566245382196229e-02,1.738566245382196229e-02,1.738566245382196229e-02,1.738566245382196229e-02,1.738566245382196229e-02,1.738566245382196229e-02,1.738566245382196229e-02,1.738566245382196229e-02,1.738566245382196229e-02,-2.128856626998604229e-03,-2.696551727531569520e-02,-5.180217792363277229e-02,-7.663883857194986327e-02,-1.023625228148497129e-01,-1.271991834631667762e-01,-1.520358441114839088e-01,-1.768725047598009859e-01,-1.813076227327147238e-01,-1.813076227327147238e-01,-1.813076227327147238e-01,-1.813076227327147238e-01,-1.813076227327147238e-01,-1.813076227327147238e-01,-1.813076227327147238e-01,-1.813076227327147238e-01,-1.813076227327147238e-01,-1.813076227327147238e-01,-1.813076227327147794e-01,-1.813076227327147238e-01,-1.813076227327147238e-01,-1.813076227327147238e-01,-1.192159711119220172e-01,-2.607849368073293650e-02,1.738566245382196229e-02,1.738566245382196229e-02,1.738566245382196229e-02,1.738566245382196229e-02,1.738566245382196229e-02,1.738566245382196229e-02,1.738566245382196229e-02,1.738566245382196229e-02,1.738566245382196229e-02,1.738566245382196229e-02
1.738566245382196229e-02,1.738566245382196229e-02,1.738566245382196229e-02,1.738566245382196229e-02,1.738566245382196229e-02,1.738566245382196229e-02,1.738566245382196229e-02,1.738566245382196229e-02,1.738566245382196229e-02,1.738566245382196229e-02,1.738566245382196229e-02,1.738566245382196229e-02,9.402450102577182556e-03,-1.543421054573990148e-02,-4.027087119405698551e-02,-6.599455543695682824e-02,-9.083121608527390534e-02,-1.156678767335910102e-01,-1.405045373819081012e-01,-1.653411980302251783e-01,-1.813076227327147238e-01,-1.813076227327147238e-01,-1.813076227327147238e-01,-1.813076227327147238e-01,-1.813076227327147238e-01,-1.813076227327147794e-01,-1.813076227327147238e-01,-1.813076227327147238e-01,-1.813076227327147794e-01,-1.813076227327147238e-01,-1.813076227327147238e-01,-1.813076227327147238e-01,-1.813076227327147238e-01,-1.813076227327147238e-01,-1.813076227327147238e-01,-1.813076227327147238e-01,-1.813076227327147238e-01,-1.067976407877634787e-01,-1.366016335657439795e-02,1.738566245382196229e-02,1.738566245382196229e-02,1.738566245382196229e-02,1.738566245382196229e-02,1.738566245382196229e-02,1.738566245382196229e-02,1.738566245382196229e-02,1.738566245382196229e-02
1.738566245382196229e-02,1.738566245382196229e-02,1.738566245382196229e-02,1.738566245382196229e-02,1.738566245382196229e-02,1.738566245382196229e-02,1.738566245382196229e-02,1.738566245382196229e-02,1.738566245382196229e-02,1.738566245382196229e-02,1.738566245382196229e-02,1.738566245382196229e-02,-3.902903816164114692e-03,-2.873956446448119872e-02,-5.446324870738104840e-02,-7.929990935569812549e-02,-1.041365700040152165e-01,-1.289732306523322936e-01,-1.538098913006493706e-01,-1.786465519489665033e-01,-1.813076227327147794e-01,-1.813076227327147238e-01,-1.813076227327147238e-01,-1.813076227327147238e-01,-1.813076227327147238e-01,-1.813076227327147794e-01,-1.813076227327147238e-01,-1.813076227327147238e-01,-1.813076227327147238e-01,-1.813076227327147794e-01,-1.813076227327147238e-01,-1.813076227327147238e-01,-1.813076227327147238e-01,-1.813076227327147238e-01,-1.813076227327147238e-01,-1.813076227327147238e-01,-1.813076227327147238e-01,-1.813076227327147238e-01,-1.813076227327147238e-01,-9.437931046360492626e-02,4.967332129663418541e-03,1.738566245382196229e-02,1.738566245382196229e-02,1.738566245382196229e-02,1.738566245382196229e-02,1.738566245382196229e-02,1.738566245382196229e-02
1.738566245382196229e-02,1.738566245382196229e-02,1.738566245382196229e-02,1.738566245382196229e-02,1.738566245382196229e-02,1.738566245382196229e-02,1.738566245382196229e-02,1.738566245382196229e-02,1.738566245382196229e-02,1.738566245382196229e-02,1.738566245382196229e-02,7.628402913411677297e-03,-1.809528132948816370e-02,-4.293194197780525467e-02,-6.776860262612233177e-02,-9.260526327443942274e-02,-1.174419239227565276e-01,-1.422785845710735630e-01,-1.671152452193906957e-01,-1.813076227327147238e-01,-1.813076227327147238e-01,-1.813076227327147238e-01,-1.813076227327147238e-01,-1.813076227327147238e-01,-1.813076227327147794e-01,-1.813076227327147238e-01,-1.813076227327147238e-01,-1.813076227327147238e-01,-1.813076227327147238e-01,-1.813076227327147794e-01,-1.813076227327147238e-01,-1.813076227327147238e-01,-1.813076227327147238e-01,-1.813076227327147238e-01,-1.813076227327147238e-01,-1.813076227327147238e-01,-1.813076227327147238e-01,-1.813076227327147238e-01,-1.813076227327147238e-01,-1.813076227327147238e-01,-1.750984575706354684e-01,-7.575181497736711844e-02,1.738566245382196229e-02,1.738566245382196229e-02,1.738566245382196229e-02,1.738566245382196229e-02,1.738566245382196229e-02
1.738566245382196229e-02,1.738566245382196229e-02,1.738566245382196229e-02,1.738566245382196229e-02,1.738566245382196229e-02,1.738566245382196229e-02,1.738566245382196229e-02,1.738566245382196229e-02,1.738566245382196229e-02,1.738566245382196229e-02,1.738566245382196229e-02,-6.563974599912373448e-03,-3.140063524822946789e-02,-5.623729589654653804e-02,-8.107395654486364289e-02,-1.059106171931807200e-01,-1.307472778414978110e-01,-1.555839384898148881e-01,-1.813076227327147238e-01,-1.813076227327147238e-01,-1.813076227327147238e-01,-1.813076227327147794e-01,-1.813076227327147238e-01,-1.813076227327147238e-01,-1.813076227327147238e-01,-1.813076227327147238e-01,-1.813076227327147238e-01,-1.813076227327147238e-01,-1.813076227327147794e-01,-1.813076227327147238e-01,-1.813076227327147794e-01,-1.813076227327147794e-01,-1.813076227327147238e-01,-1.813076227327147238e-01,-1.813076227327147238e-01,-1.813076227327147238e-01,-1.813076227327147238e-01,-1.813076227327147238e-01,-1.813076227327147794e-01,-1.813076227327147238e-01,-1.813076227327147238e-01,-1.813076227327147238e-01,-1.532111503743060488e-01,-4.769414990122140818e-02,1.738566245382196229e-02,1.738566245382196229e-02,1.738566245382196229e-02
1.738566245382196229e-02,1.738566245382196229e-02,1.738566245382196229e-02,1.738566245382196229e-02,1.738566245382196229e-02,1.738566245382196229e-02,1.738566245382196229e-02,1.738566245382196229e-02,1.738566245382196229e-02,1.738566245382196229e-02,4.967332129663418541e-03,-1.986932851865366723e-02,-4.470598916697075820e-02,-6.954264981528784917e-02,-9.437931046360494014e-02,-1.192159711119220172e-01,-1.449396553548218392e-01,-1.697763160031389718e-01,-1.813076227327147238e-01,-1.813076227327147238e-01,-1.813076227327147238e-01,-1.813076227327147238e-01,-1.813076227327147238e-01,-1.813076227327147238e-01,-1.813076227327147238e-01,-1.813076227327147238e-01,-1.813076227327147238e-01,-1.813076227327147238e-01,-1.813076227327147238e-01,-1.813076227327147238e-01,-1.813076227327147238e-01,-1.813076227327147238e-01,-1.813076227327147794e-01,-1.813076227327147238e-01,-1.813076227327147794e-01,-1.813076227327147238e-01,-1.813076227327147238e-01,-1.813076227327147238e-01,-1.813076227327147238e-01,-1.813076227327147238e-01,-1.813076227327147238e-01,-1.813076227327147238e-01,-1.589546281492293933e-01,-1.241833032415854271e-01,-6.837843134739798878e-02,-6.946503525076187097e-03,1.738566245382196229e-02
1.738566245382196229e-02,1.738566245382196229e-02,1.738566245382196229e-02,1.738566245382196229e-02,1.738566245382196229e-02,1.738566245382196229e-02,1.738566245382196229e-02,1.738566245382196229e-02,1.738566245382196229e-02,1.649863885923921053e-02,-8.338021789077880441e-03,-3.317468243739497141e-02,-5.801134308571205545e-02,-8.284800373402914642e-02,-1.085716879769289683e-01,-1.334083486252460871e-01,-1.582450092735631642e-01,-1.813076227327147794e-01,-1.813076227327147238e-01,-1.813076227327147794e-01,-1.813076227327147238e-01,-1.813076227327147238e-01,-1.813076227327147238e-01,-1.813076227327147238e-01,-1.813076227327147238e-01,-1.813076227327147238e-01,-1.813076227327147238e-01,-1.813076227327147238e-01,-1.813076227327147238e-01,-1.813076227327147238e-01,-1.813076227327147238e-01,-1.813076227327147238e-01,-1.813076227327147238e-01,-1.813076227327147238e-01,-1.813076227327147238e-01,-1.813076227327147238e-01,-1.813076227327147794e-01,-1.813076227327147794e-01,-1.813076227327147794e-01,-1.813076227327147238e-01,-1.813076227327147794e-01,-1.750984575706354684e-01,-1.390852996305756983e-01,-1.043139747229317599e-01,-6.954264981528784917e-02,-3.477132490764392458e-02,4.346415613455490573e-03
1.738566245382196229e-02,1.738566245382196229e-02,1.738566245382196229e-02,1.738566245382196229e-02,1.738566245382196229e-02,1.738566245382196229e-02,1.738566245382196229e-02,1.738566245382196229e-02,1.738566245382196229e-02,3.193284940497911548e-03,-2.164337570781917769e-02,-4.648003635613626172e-02,-7.131669700445335269e-02,-9.704038124735318849e-02,-1.218770418956702933e-01,-1.467137025439873566e-01,-1.715503631923044892e-01,-1.813076227327147238e-01,-1.813076227327147238e-01,-1.813076227327147238e-01,-1.813076227327147238e-01,-1.813076227327147794e-01,-1.813076227327147238e-01,-1.813076227327147238e-01,-1.813076227327147238e-01,-1.813076227327147238e-01,-1.813076227327147794e-01,-1.813076227327147238e-01,-1.813076227327147794e-01,-1.813076227327147238e-01,-1.813076227327147238e-01,-1.813076227327147238e-01,-1.813076227327147238e-01,-1.813076227327147238e-01,-1.813076227327147238e-01,-1.813076227327147238e-01,-1.813076227327147238e-01,-1.813076227327147238e-01,-1.813076227327147238e-01,-1.813076227327147238e-01,-1.813076227327147238e-01,-1.552291290519818290e-01,-1.204578041443378628e-01,-8.568647923669396593e-02,-5.091515432905004135e-02,-1.614382942140610983e-02,1.738566245382196229e-02
1.738566245382196229e-02,1.738566245382196229e-02,1.738566245382196229e-02,1.738566245382196229e-02,1.738566245382196229e-02,1.738566245382196229e-02,1.738566245382196229e-02,1.738566245382196229e-02,1.472459167007370354e-02,-1.011206897824338743e-02,-3.494872962656047494e-02,-6.067241386946030379e-02,-8.550907451777740864e-02,-1.103457351660945135e-01,-1.351823958144115490e-01,-1.600190564627286816e-01,-1.813076227327147794e-01,-1.813076227327147238e-01,-1.813076227327147238e-01,-1.813076227327147238e-01,-1.813076227327147794e-01,-1.813076227327147238e-01,-1.813076227327147238e-01,-1.813076227327147238e-01,-1.813076227327147238e-01,-1.813076227327147794e-01,-1.813076227327147238e-01,-1.813076227327147238e-01,-1.813076227327147238e-01,-1.813076227327147238e-01,-1.813076227327147794e-01,-1.813076227327147238e-01,-1.813076227327147238e-01,-1.813076227327147794e-01,-1.813076227327147238e-01,-1.813076227327147238e-01,-1.813076227327147238e-01,-1.813076227327147794e-01,-1.813076227327147238e-01,-1.813076227327147238e-01,-1.713729584733879041e-01,-1.366016335657440073e-01,-1.018303086581000549e-01,-6.705898375045614423e-02,-3.228765884281221965e-02,2.483666064831708403e-03,1.738566245382196229e-02
1.738566245382196229e-02,1.738566245382196229e-02,1.738566245382196229e-02,1.738566245382196229e-02,1.738566245382196229e-02,1.738566245382196229e-02,1.738566245382196229e-02,1.738566245382196229e-02,1.419237751332402819e-03,-2.341742289698468121e-02,-4.914110713988452395e-02,-7.397776778820161492e-02,-9.881442843651870589e-02,-1.236510890848357830e-01,-1.484877497331528740e-01,-1.733244103814699510e-01,-1.813076227327147794e-01,-1.813076227327147238e-01,-1.813076227327147238e-01,-1.813076227327147238e-01,-1.813076227327147238e-01,-1.813076227327147238e-01,-1.813076227327147238e-01,-1.813076227327147238e-01,-1.813076227327147794e-01,-1.813076227327147794e-01,-1.813076227327147238e-01,-1.813076227327147794e-01,-1.813076227327147238e-01,-1.813076227327147238e-01,-1.813076227327147238e-01,-1.813076227327147238e-01,-1.813076227327147794e-01,-1.813076227327147238e-01,-1.813076227327147238e-01,-1.813076227327147238e-01,-1.813076227327147238e-01,-1.813076227327147794e-01,-1.813076227327147238e-01,-1.813076227327147238e-01,-1.527454629871500824e-01,-1.179741380795061440e-01,-8.320281317186223324e-02,-4.843148826421832254e-02,-1.241833032415854202e-02,1.738566245382196229e-02,1.738566245382196229e-02
1.738566245382196229e-02,1.738566245382196229e-02,1.738566245382196229e-02,1.738566245382196229e-02,1.738566245382196229e-02,1.738566245382196229e-02,1.738566245382196229e-02,1.295054448090819654e-02,-1.277313976199164619e-02,-3.760980041030873022e-02,-6.244646105862582119e-02,-8.728312170694291217e-02,-1.121197823552600031e-01,-1.369564430035770664e-01,-1.617931036518941434e-01,-1.813076227327147238e-01,-1.813076227327147238e-01,-1.813076227327147238e-01,-1.813076227327147238e-01,-1.813076227327147238e-01,-1.813076227327147238e-01,-1.813076227327147238e-01,-1.813076227327147238e-01,-1.813076227327147238e-01,-1.813076227327147794e-01,-1.813076227327147238e-01,-1.813076227327147238e-01,-1.813076227327147238e-01,-1.813076227327147238e-01,-1.813076227327147238e-01,-1.813076227327147238e-01,-1.813076227327147794e-01,-1.813076227327147238e-01,-1.813076227327147238e-01,-1.813076227327147238e-01,-1.813076227327147794e-01,-1.813076227327147794e-01,-1.813076227327147238e-01,-1.813076227327147238e-01,-1.688892924085562131e-01,-1.341179675009122607e-01,-9.934664259326835001e-02,-6.457531768562442542e-02,-2.856215974556464837e-02,6.209165162079272743e-03,1.738566245382196229e-02,1.738566245382196229e-02
1.738566245382196229e-02,1.738566245382196229e-02,1.738566245382196229e-02,1.738566245382196229e-02,1.738566245382196229e-02,1.738566245382196229e-02,1.738566245382196229e-02,-1.241833032415852467e-03,-2.607849368073294344e-02,-5.091515432905002747e-02,-7.575181497736711844e-02,-1.005884756256842094e-01,-1.254251362740013143e-01,-1.511488205169010945e-01,-1.759854811652182272e-01,-1.813076227327147238e-01,-1.813076227327147794e-01,-1.813076227327147238e-01,-1.813076227327147238e-01,-1.813076227327147238e-01,-1.813076227327147238e-01,-1.813076227327147238e-01,-1.813076227327147238e-01,-1.813076227327147238e-01,-1.813076227327147238e-01,-1.813076227327147238e-01,-1.813076227327147238e-01,-1.813076227327147238e-01,-1.813076227327147794e-01,-1.813076227327147238e-01,-1.813076227327147238e-01,-1.813076227327147238e-01,-1.813076227327147238e-01,-1.813076227327147238e-01,-1.813076227327147238e-01,-1.813076227327147238e-01,-1.813076227327147238e-01,-1.813076227327147238e-01,-1.813076227327147238e-01,-1.502617969223183914e-01,-1.154904720146744529e-01,-7.947731407461468278e-02,-4.470598916697075820e-02,-9.934664259326833613e-03,1.738566245382196229e-02,1.738566245382196229e-02,1.738566245382196229e-02
1.738566245382196229e-02,1.738566245382196229e-02,1.738566245382196229e-02,1.738566245382196229e-02,1.738566245382196229e-02,1.738566245382196229e-02,1.028947369715993779e-02,-1.454718695115715665e-02,-3.938384759947424069e-02,-6.422050824779132472e-02,-8.905716889610841569e-02,-1.138938295444254928e-01,-1.396175137873253425e-01,-1.644541744356424195e-01,-1.813076227327147238e-01,-1.813076227327147238e-01,-1.813076227327147794e-01,-1.813076227327147238e-01,-1.813076227327147238e-01,-1.813076227327147794e-01,-1.813076227327147794e-01,-1.813076227327147238e-01,-1.813076227327147238e-01,-1.813076227327147238e-01,-1.813076227327147794e-01,-1.813076227327147238e-01,-1.813076227327147238e-01,-1.813076227327147238e-01,-1.813076227327147238e-01,-1.813076227327147238e-01,-1.813076227327147794e-01,-1.813076227327147238e-01,-1.813076227327147794e-01,-1.813076227327147238e-01,-1.813076227327147238e-01,-1.813076227327147238e-01,-1.813076227327147238e-01,-1.813076227327147238e-01,-1.664056263437245220e-01,-1.316343014360805697e-01,-9.562114349602077179e-02,-6.084981858837687496e-02,-2.607849368073294344e-02,8.692831226910981146e-03,1.738566245382196229e-02,1.738566245382196229e-02,1.738566245382196229e-02
1.738566245382196229e-02,1.738566245382196229e-02,1.738566245382196229e-02,1.738566245382196229e-02,1.738566245382196229e-02,1.738566245382196229e-02,-3.015880221581362930e-03,-2.785254086989845390e-02,-5.268920151821553099e-02,-7.752586216653262197e-02,-1.032495464094324716e-01,-1.280862070577495349e-01,-1.529228677060666119e-01,-1.777595283543837446e-01,-1.813076227327147238e-01,-1.813076227327147238e-01,-1.813076227327147238e-01,-1.813076227327147238e-01,-1.813076227327147794e-01,-1.813076227327147238e-01,-1.813076227327147794e-01,-1.813076227327147238e-01,-1.813076227327147238e-01,-1.813076227327147794e-01,-1.813076227327147238e-01,-1.813076227327147238e-01,-1.813076227327147238e-01,-1.813076227327147238e-01,-1.813076227327147794e-01,-1.813076227327147238e-01,-1.813076227327147238e-01,-1.813076227327147794e-01,-1.813076227327147794e-01,-1.813076227327147238e-01,-1.813076227327147238e-01,-1.813076227327147794e-01,-1.813076227327147794e-01,-1.813076227327147238e-01,-1.465362978250708270e-01,-1.117649729174268886e-01,-7.699364800978296397e-02,-4.222232310213905326e-02,-7.450998194495128679e-03,1.738566245382196229e-02,1.738566245382196229e-02,1.738566245382196229e-02,1.738566245382196229e-02
1.738566245382196229e-02,1.738566245382196229e-02,1.738566245382196229e-02,1.738566245382196229e-02,1.738566245382196229e-02,8.515426507994430794e-03,-1.632123414032265324e-02,-4.115789478863974421e-02,-6.599455543695681436e-02,-9.171823967985667792e-02,-1.165549003281737411e-01,-1.413915609764908599e-01,-1.662282216248079370e-01,-1.813076227327147238e-01,-1.813076227327147238e-01,-1.813076227327147238e-01,-1.813076227327147238e-01,-1.813076227327147238e-01,-1.813076227327147238e-01,-1.813076227327147238e-01,-1.813076227327147238e-01,-1.813076227327147238e-01,-1.813076227327147238e-01,-1.813076227327147238e-01,-1.813076227327147238e-01,-1.813076227327147238e-01,-1.813076227327147238e-01,-1.813076227327147238e-01,-1.813076227327147238e-01,-1.813076227327147238e-01,-1.813076227327147238e-01,-1.813076227327147238e-01,-1.813076227327147794e-01,-1.813076227327147238e-01,-1.813076227327147238e-01,-1.813076227327147238e-01,-1.813076227327147238e-01,-1.626801272464769577e-01,-1.279088023388330053e-01,-9.313747743118908073e-02,-5.836615252354514227e-02,-2.359482761590123157e-02,1.117649729174268955e-02,1.738566245382196229e-02,1.738566245382196229e-02,1.738566245382196229e-02,1.738566245382196229e-02
1.738566245382196229e-02,1.738566245382196229e-02,1.738566245382196229e-02,1.738566245382196229e-02,1.738566245382196229e-02,-4.789927410746866454e-03,-2.962658805906395743e-02,-5.535027230196379322e-02,-8.018693295028088419e-02,-1.050235935985979752e-01,-1.298602542469150523e-01,-1.546969148952321293e-01,-1.795335755435492620e-01,-1.813076227327147238e-01,-1.813076227327147794e-01,-1.813076227327147238e-01,-1.813076227327147794e-01,-1.813076227327147238e-01,-1.813076227327147238e-01,-1.813076227327147238e-01,-1.813076227327147238e-01,-1.813076227327147794e-01,-1.813076227327147238e-01,-1.813076227327147238e-01,-1.813076227327147238e-01,-1.813076227327147794e-01,-1.813076227327147238e-01,-1.813076227327147794e-01,-1.813076227327147238e-01,-1.813076227327147238e-01,-1.813076227327147238e-01,-1.813076227327147238e-01,-1.813076227327147238e-01,-1.813076227327147238e-01,-1.813076227327147238e-01,-1.813076227327147238e-01,-1.788239566678830328e-01,-1.440526317602391360e-01,-1.092813068525951697e-01,-7.450998194495125904e-02,-3.973865703730734833e-02,-4.967332129663416806e-03,1.738566245382196229e-02,1.738566245382196229e-02,1.738566245382196229e-02,1.738566245382196229e-02,1.738566245382196229e-02
1.738566245382196229e-02,1.738566245382196229e-02,1.738566245382196229e-02,1.738566245382196229e-02,6.741379318828923800e-03,-1.898230492407092240e-02,-4.381896557238800644e-02,-6.865562622070509047e-02,-9.349228686902218144e-02,-1.183289475173392863e-01,-1.431656081656563773e-01,-1.680022688139734544e-01,-1.813076227327147238e-01,-1.813076227327147238e-01,-1.813076227327147238e-01,-1.813076227327147238e-01,-1.813076227327147238e-01,-1.813076227327147238e-01,-1.813076227327147794e-01,-1.813076227327147238e-01,-1.813076227327147238e-01,-1.813076227327147238e-01,-1.813076227327147238e-01,-1.813076227327147238e-01,-1.813076227327147238e-01,-1.813076227327147238e-01,-1.813076227327147238e-01,-1.813076227327147238e-01,-1.813076227327147238e-01,-1.813076227327147238e-01,-1.813076227327147238e-01,-1.813076227327147794e-01,-1.813076227327147238e-01,-1.813076227327147238e-01,-1.813076227327147238e-01,-1.813076227327147238e-01,-1.601964611816452111e-01,-1.254251362740013143e-01,-9.065381136635737580e-02,-5.588248645871345122e-02,-1.986932851865366723e-02,1.490199638899025389e-02,1.738566245382196229e-02,1.738566245382196229e-02,1.738566245382196229e-02,1.738566245382196229e-02,1.738566245382196229e-02
1.738566245382196229e-02,1.738566245382196229e-02,1.738566245382196229e-02,1.738566245382196229e-02,-7.450998194495128679e-03,-3.228765884281221965e-02,-5.712431949112929674e-02,-8.196098013944638772e-02,-1.067976407877634787e-01,-1.316343014360805697e-01,-1.564709620843976468e-01,-1.813076227327147238e-01,-1.813076227327147238e-01,-1.813076227327147238e-01,-1.813076227327147238e-01,-1.813076227327147238e-01,-1.813076227327147238e-01,-1.813076227327147794e-01,-1.813076227327147238e-01,-1.813076227327147238e-01,-1.813076227327147238e-01,-1.813076227327147238e-01,-1.813076227327147238e-01,-1.813076227327147238e-01,-1.813076227327147238e-01,-1.813076227327147238e-01,-1.813076227327147238e-01,-1.813076227327147238e-01,-1.813076227327147238e-01,-1.813076227327147238e-01,-1.813076227327147794e-01,-1.813076227327147794e-01,-1.813076227327147238e-01,-1.813076227327147238e-01,-1.813076227327147238e-01,-1.763402906030513417e-01,-1.415689656954073894e-01,-1.067976407877634648e-01,-7.202631588011955410e-02,-3.601315794005977705e-02,-1.241833032415852467e-03,1.738566245382196229e-02,1.738566245382196229e-02,1.738566245382196229e-02,1.738566245382196229e-02,1.738566245382196229e-02,1.738566245382196229e-02
1.738566245382196229e-02,1.738566245382196229e-02,1.738566245382196229e-02,4.080308535080665044e-03,-2.075635211323642593e-02,-4.559301276155351690e-02,-7.042967340987059399e-02,-9.526633405818769884e-02,-1.201029947065047759e-01,-1.458266789494045979e-01,-1.706633395977217305e-01,-1.813076227327147238e-01,-1.813076227327147238e-01,-1.813076227327147238e-01,-1.813076227327147238e-01,-1.813076227327147238e-01,-1.813076227327147238e-01,-1.813076227327147238e-01,-1.813076227327147238e-01,-1.813076227327147238e-01,-1.813076227327147238e-01,-1.813076227327147238e-01,-1.813076227327147238e-01,-1.813076227327147238e-01,-1.813076227327147238e-01,-1.813076227327147238e-01,-1.813076227327147238e-01,-1.813076227327147238e-01,-1.813076227327147238e-01,-1.813076227327147238e-01,-1.813076227327147238e-01,-1.813076227327147238e-01,-1.813076227327147238e-01,-1.813076227327147238e-01,-1.813076227327147238e-01,-1.577127951168135200e-01,-1.229414702091695816e-01,-8.692831226910981146e-02,-5.215698736146588688e-02,-1.738566245382196229e-02,1.738566245382196229e-02,1.738566245382196229e-02,1.738566245382196229e-02,1.738566245382196229e-02,1.738566245382196229e-02,1.738566245382196229e-02,1.738566245382196229e-02
1.738566245382196229e-02,1.738566245382196229e-02,1.561161526465645530e-02,-9.225045383660632203e-03,-3.406170603197772317e-02,-5.889836668029480027e-02,-8.373502732861189124e-02,-1.085716879769289961e-01,-1.342953722198288458e-01,-1.591320328681459229e-01,-1.813076227327147794e-01,-1.813076227327147238e-01,-1.813076227327147238e-01,-1.813076227327147794e-01,-1.813076227327147238e-01,-1.813076227327147238e-01,-1.813076227327147238e-01,-1.813076227327147238e-01,-1.813076227327147238e-01,-1.813076227327147238e-01,-1.813076227327147794e-01,-1.813076227327147238e-01,-1.813076227327147238e-01,-1.813076227327147238e-01,-1.813076227327147238e-01,-1.813076227327147238e-01,-1.813076227327147238e-01,-1.813076227327147238e-01,-1.813076227327147238e-01,-1.813076227327147238e-01,-1.813076227327147238e-01,-1.813076227327147794e-01,-1.813076227327147238e-01,-1.813076227327147238e-01,-1.738566245382196507e-01,-1.378434665981598251e-01,-1.030721416905159282e-01,-6.830081678287198976e-02,-3.352949187522807212e-02,1.241833032415855936e-03,1.738566245382196229e-02,1.738566245382196229e-02,1.738566245382196229e-02,1.738566245382196229e-02,1.738566245382196229e-02,1.738566245382196229e-02,1.738566245382196229e-02
1.738566245382196229e-02,1.738566245382196229e-02,2.306261345915158051e-03,-2.253039930240192945e-02,-4.736705995071902042e-02,-7.220372059903611139e-02,-9.792740484193594719e-02,-1.227640654902530520e-01,-1.476007261385701153e-01,-1.724373867868871923e-01,-1.813076227327147238e-01,-1.813076227327147238e-01,-1.813076227327147238e-01,-1.813076227327147238e-01,-1.813076227327147238e-01,-1.813076227327147794e-01,-1.813076227327147238e-01,-1.813076227327147238e-01,-1.813076227327147238e-01,-1.813076227327147238e-01,-1.813076227327147238e-01,-1.813076227327147238e-01,-1.813076227327147238e-01,-1.813076227327147238e-01,-1.813076227327147794e-01,-1.813076227327147238e-01,-1.813076227327147238e-01,-1.813076227327147238e-01,-1.813076227327147238e-01,-1.813076227327147238e-01,-1.813076227327147794e-01,-1.813076227327147238e-01,-1.813076227327147238e-01,-1.813076227327147238e-01,-1.539872960195659557e-01,-1.192159711119220172e-01,-8.444464620427809265e-02,-4.967332129663418194e-02,-1.490199638899025042e-02,1.738566245382196229e-02,1.738566245382196229e-02,1.738566245382196229e-02,1.738566245382196229e-02,1.738566245382196229e-02,1.738566245382196229e-02,1.738566245382196229e-02,1.738566245382196229e-02
1.738566245382196229e-02,1.383756807549094831e-02,-1.099909257282613920e-02,-3.583575322114322670e-02,-6.067241386946030379e-02,-8.639609811236015346e-02,-1.112327587606772444e-01,-1.360694194089943077e-01,-1.609060800573113847e-01,-1.813076227327147238e-01,-1.813076227327147238e-01,-1.813076227327147238e-01,-1.813076227327147794e-01,-1.813076227327147238e-01,-1.813076227327147238e-01,-1.813076227327147794e-01,-1.813076227327147238e-01,-1.813076227327147238e-01,-1.813076227327147238e-01,-1.813076227327147794e-01,-1.813076227327147238e-01,-1.813076227327147238e-01,-1.813076227327147238e-01,-1.813076227327147238e-01,-1.813076227327147238e-01,-1.813076227327147238e-01,-1.813076227327147238e-01,-1.813076227327147238e-01,-1.813076227327147794e-01,-1.813076227327147238e-01,-1.813076227327147238e-01,-1.813076227327147238e-01,-1.813076227327147238e-01,-1.701311254409720863e-01,-1.353598005333281340e-01,-1.005884756256842094e-01,-6.581715071804028483e-02,-3.104582581039636024e-02,3.725499097247564340e-03,1.738566245382196229e-02,1.738566245382196229e-02,1.738566245382196229e-02,1.738566245382196229e-02,1.738566245382196229e-02,1.738566245382196229e-02,1.738566245382196229e-02,1.738566245382196229e-02
1.738566245382196229e-02,5.322141567496510572e-04,-2.430444649156743298e-02,-5.002813073446728265e-02,-7.486479138278435974e-02,-9.970145203110146459e-02,-1.245381126794185417e-01,-1.493747733277356327e-01,-1.742114339760527097e-01,-1.813076227327147238e-01,-1.813076227327147794e-01,-1.813076227327147238e-01,-1.813076227327147238e-01,-1.813076227327147238e-01,-1.813076227327147238e-01,-1.813076227327147238e-01,-1.813076227327147238e-01,-1.813076227327147238e-01,-1.813076227327147794e-01,-1.813076227327147794e-01,-1.813076227327147238e-01,-1.813076227327147238e-01,-1.813076227327147238e-01,-1.813076227327147238e-01,-1.813076227327147238e-01,-1.813076227327147238e-01,-1.813076227327147238e-01,-1.813076227327147238e-01,-1.813076227327147794e-01,-1.813076227327147238e-01,-1.813076227327147238e-01,-1.813076227327147238e-01,-1.813076227327147794e-01,-1.515036299547342646e-01,-1.167323050470902984e-01,-8.196098013944638772e-02,-4.718965523180247701e-02,-1.117649729174268955e-02,1.738566245382196229e-02,1.738566245382196229e-02,1.738566245382196229e-02,1.738566245382196229e-02,1.738566245382196229e-02,1.738566245382196229e-02,1.738566245382196229e-02,1.738566245382196229e-02,1.738566245382196229e-02
1.206352088632544305e-02,-1.366016335657439795e-02,-3.849682400489148892e-02,-6.333348465320856602e-02,-8.817014530152565699e-02,-1.130068059498427341e-01,-1.378434665981598251e-01,-1.626801272464769021e-01,-1.813076227327147238e-01,-1.813076227327147794e-01,-1.813076227327147238e-01,-1.813076227327147238e-01,-1.813076227327147238e-01,-1.813076227327147238e-01,-1.813076227327147238e-01,-1.813076227327147238e-01,-1.813076227327147794e-01,-1.813076227327147794e-01,-1.813076227327147238e-01,-1.813076227327147238e-01,-1.813076227327147238e-01,-1.813076227327147238e-01,-1.813076227327147794e-01,-1.813076227327147238e-01,-1.813076227327147238e-01,-1.813076227327147238e-01,-1.813076227327147238e-01,-1.813076227327147238e-01,-1.813076227327147238e-01,-1.813076227327147238e-01,-1.813076227327147238e-01,-1.813076227327147238e-01,-1.676474593761403398e-01,-1.328761344684964429e-01,-9.810480956085250448e-02,-6.333348465320857990e-02,-2.732032671314879591e-02,7.450998194495126944e-03,1.738566245382196229e-02,1.738566245382196229e-02,1.738566245382196229e-02,1.738566245382196229e-02,1.738566245382196229e-02,1.738566245382196229e-02,1.738566245382196229e-02,1.738566245382196229e-02,1.738566245382196229e-02
-2.128856626998607698e-03,-2.696551727531569520e-02,-5.180217792363277229e-02,-7.663883857194987714e-02,-1.014754992202669542e-01,-1.263121598685840730e-01,-1.511488205169011501e-01,-1.768725047598009859e-01,-1.813076227327147238e-01,-1.813076227327147238e-01,-1.813076227327147238e-01,-1.813076227327147238e-01,-1.813076227327147238e-01,-1.813076227327147238e-01,-1.813076227327147238e-01,-1.813076227327147238e-01,-1.813076227327147238e-01,-1.813076227327147238e-01,-1.813076227327147238e-01,-1.813076227327147238e-01,-1.813076227327147238e-01,-1.813076227327147238e-01,-1.813076227327147238e-01,-1.813076227327147238e-01,-1.813076227327147238e-01,-1.813076227327147238e-01,-1.813076227327147238e-01,-1.813076227327147238e-01,-1.813076227327147238e-01,-1.813076227327147238e-01,-1.813076227327147238e-01,-1.813076227327147238e-01,-1.490199638899025181e-01,-1.142486389822586074e-01,-7.823548104219883725e-02,-4.346415613455490573e-02,-8.692831226910981146e-03,1.738566245382196229e-02,1.738566245382196229e-02,1.738566245382196229e-02,1.738566245382196229e-02,1.738566245382196229e-02,1.738566245382196229e-02,1.738566245382196229e-02,1.738566245382196229e-02,1.738566245382196229e-02,1.738566245382196229e-02
-1.543421054573990148e-02,-4.027087119405699939e-02,-6.510753184237406954e-02,-8.994419249069116051e-02,-1.147808531390082515e-01,-1.405045373819081012e-01,-1.653411980302251783e-01,-1.813076227327147238e-01,-1.813076227327147238e-01,-1.813076227327147238e-01,-1.813076227327147238e-01,-1.813076227327147238e-01,-1.813076227327147238e-01,-1.813076227327147238e-01,-1.813076227327147238e-01,-1.813076227327147238e-01,-1.813076227327147794e-01,-1.813076227327147238e-01,-1.813076227327147794e-01,-1.813076227327147238e-01,-1.813076227327147238e-01,-1.813076227327147238e-01,-1.813076227327147238e-01,-1.813076227327147238e-01,-1.813076227327147238e-01,-1.813076227327147238e-01,-1.813076227327147238e-01,-1.813076227327147238e-01,-1.813076227327147238e-01,-1.813076227327147238e-01,-1.813076227327147238e-01,-1.651637933113086487e-01,-1.303924684036646964e-01,-9.437931046360494014e-02,-5.960798555596100168e-02,-2.483666064831709097e-02,9.934664259326835348e-03,1.738566245382196229e-02,1.738566245382196229e-02,1.738566245382196229e-02,1.738566245382196229e-02,1.738566245382196229e-02,1.738566245382196229e-02,1.738566245382196229e-02,1.738566245382196229e-02,1.738566245382196229e-02,1.738566245382196229e-02
-2.873956446448119872e-02,-5.357622511279828970e-02,-7.841288576111536679e-02,-1.041365700040152303e-01,-1.289732306523322936e-01,-1.538098913006493706e-01,-1.786465519489665033e-01,-1.813076227327147238e-01,-1.813076227327147238e-01,-1.813076227327147794e-01,-1.813076227327147794e-01,-1.813076227327147238e-01,-1.813076227327147238e-01,-1.813076227327147238e-01,-1.813076227327147238e-01,-1.813076227327147238e-01,-1.813076227327147238e-01,-1.813076227327147794e-01,-1.813076227327147238e-01,-1.813076227327147238e-01,-1.813076227327147794e-01,-1.813076227327147238e-01,-1.813076227327147794e-01,-1.813076227327147238e-01,-1.813076227327147238e-01,-1.813076227327147238e-01,-1.813076227327147794e-01,-1.813076227327147794e-01,-1.813076227327147238e-01,-1.813076227327147238e-01,-1.813076227327147238e-01,-1.452944647926549537e-01,-1.105231398850110430e-01,-7.575181497736711844e-02,-4.098049006972319386e-02,-6.209165162079272743e-03,1.738566245382196229e-02,1.738566245382196229e-02,1.738566245382196229e-02,1.738566245382196229e-02,1.738566245382196229e-02,1.738566245382196229e-02,1.738566245382196229e-02,1.738566245382196229e-02,1.738566245382196229e-02,1.738566245382196229e-02,1.738566245382196229e-02
-4.204491838322250291e-02,-6.688157903153957307e-02,-9.260526327443942274e-02,-1.174419239227565276e-01,-1.422785845710736186e-01,-1.671152452193906957e-01,-1.813076227327147238e-01,-1.813076227327147238e-01,-1.813076227327147794e-01,-1.813076227327147238e-01,-1.813076227327147238e-01,-1.813076227327147238e-01,-1.813076227327147238e-01,-1.813076227327147238e-01,-1.813076227327147238e-01,-1.813076227327147794e-01,-1.813076227327147238e-01,-1.813076227327147238e-01,-1.813076227327147238e-01,-1.813076227327147238e-01,-1.813076227327147238e-01,-1.813076227327147238e-01,-1.813076227327147238e-01,-1.813076227327147238e-01,-1.813076227327147238e-01,-1.813076227327147238e-01,-1.813076227327147794e-01,-1.813076227327147238e-01,-1.813076227327147238e-01,-1.813076227327147238e-01,-1.614382942140610844e-01,-1.266669693064171320e-01,-9.189564439877322133e-02,-5.712431949112931062e-02,-2.235299458348537910e-02,1.241833032415854549e-02,1.738566245382196229e-02,1.738566245382196229e-02,1.738566245382196229e-02,1.738566245382196229e-02,1.738566245382196229e-02,1.738566245382196229e-02,1.738566245382196229e-02,1.738566245382196229e-02,1.738566245382196229e-02,1.738566245382196229e-02,1.738566245382196229e-02
-5.623729589654653804e-02,-8.107395654486364289e-02,-1.059106171931807200e-01,-1.307472778414978110e-01,-1.555839384898148881e-01,-1.804205991381320207e-01,-1.813076227327147238e-01,-1.813076227327147238e-01,-1.813076227327147238e-01,-1.813076227327147238e-01,-1.813076227327147794e-01,-1.813076227327147238e-01,-1.813076227327147794e-01,-1.813076227327147238e-01,-1.813076227327147238e-01,-1.813076227327147238e-01,-1.813076227327147238e-01,-1.813076227327147238e-01,-1.813076227327147238e-01,-1.813076227327147238e-01,-1.813076227327147238e-01,-1.813076227327147238e-01,-1.813076227327147238e-01,-1.813076227327147238e-01,-1.813076227327147794e-01,-1.813076227327147238e-01,-1.813076227327147794e-01,-1.813076227327147238e-01,-1.813076227327147238e-01,-1.775821236354671595e-01,-1.428107987278232627e-01,-1.080394738201793242e-01,-7.326814891253539963e-02,-3.849682400489148892e-02,-3.725499097247564340e-03,1.738566245382196229e-02,1.738566245382196229e-02,1.738566245382196229e-02,1.738566245382196229e-02,1.738566245382196229e-02,1.738566245382196229e-02,1.738566245382196229e-02,1.738566245382196229e-02,1.738566245382196229e-02,1.738566245382196229e-02,1.738566245382196229e-02,1.738566245382196229e-02
-6.954264981528783529e-02,-9.437931046360494014e-02,-1.192159711119220172e-01,-1.440526317602391360e-01,-1.688892924085561575e-01,-1.813076227327147794e-01,-1.813076227327147238e-01,-1.813076227327147794e-01,-1.813076227327147238e-01,-1.813076227327147238e-01,-1.813076227327147238e-01,-1.813076227327147238e-01,-1.813076227327147238e-01,-1.813076227327147238e-01,-1.813076227327147238e-01,-1.813076227327147238e-01,-1.813076227327147238e-01,-1.813076227327147238e-01,-1.813076227327147238e-01,-1.813076227327147238e-01,-1.813076227327147238e-01,-1.813076227327147238e-01,-1.813076227327147238e-01,-1.813076227327147238e-01,-1.813076227327147238e-01,-1.813076227327147238e-01,-1.813076227327147238e-01,-1.813076227327147238e-01,-1.813076227327147238e-01,-1.589546281492293933e-01,-1.241833032415854549e-01,-8.941197833394150252e-02,-5.464065342629760569e-02,-1.862749548623781476e-02,1.614382942140610636e-02,1.738566245382196229e-02,1.738566245382196229e-02,1.738566245382196229e-02,1.738566245382196229e-02,1.738566245382196229e-02,1.738566245382196229e-02,1.738566245382196229e-02,1.738566245382196229e-02,1.738566245382196229e-02,1.738566245382196229e-02,1.738566245382196229e-02,1.738566245382196229e-02
-8.284800373402913254e-02,-1.076846643823462374e-01,-1.325213250306633284e-01,-1.573579856789804055e-01,-1.813076227327147238e-01,-1.813076227327147238e-01,-1.813076227327147794e-01,-1.813076227327147238e-01,-1.813076227327147238e-01,-1.813076227327147794e-01,-1.813076227327147238e-01,-1.813076227327147238e-01,-1.813076227327147238e-01,-1.813076227327147238e-01,-1.813076227327147238e-01,-1.813076227327147238e-01,-1.813076227327147794e-01,-1.813076227327147238e-01,-1.813076227327147238e-01,-1.813076227327147238e-01,-1.813076227327147794e-01,-1.813076227327147238e-01,-1.813076227327147238e-01,-1.813076227327147238e-01,-1.813076227327147238e-01,-1.813076227327147238e-01,-1.813076227327147238e-01,-1.813076227327147238e-01,-1.750984575706354684e-01,-1.403271326629915716e-01,-1.055558077553476054e-01,-7.078448284770369470e-02,-3.477132490764392458e-02,0.000000000000000000e+00,1.738566245382196229e-02,1.738566245382196229e-02,1.738566245382196229e-02,1.738566245382196229e-02,1.738566245382196229e-02,1.738566245382196229e-02,1.738566245382196229e-02,1.738566245382196229e-02,1.738566245382196229e-02,1.738566245382196229e-02,1.738566245382196229e-02,1.738566245382196229e-02,1.738566245382196229e-02
-9.615335765277044366e-02,-1.209900183010875346e-01,-1.458266789494045979e-01,-1.715503631923044336e-01,-1.813076227327147238e-01,-1.813076227327147238e-01,-1.813076227327147238e-01,-1.813076227327147238e-01,-1.813076227327147238e-01,-1.813076227327147238e-01,-1.813076227327147794e-01,-1.813076227327147238e-01,-1.813076227327147238e-01,-1.813076227327147794e-01,-1.813076227327147238e-01,-1.813076227327147238e-01,-1.813076227327147238e-01,-1.813076227327147238e-01,-1.813076227327147238e-01,-1.813076227327147238e-01,-1.813076227327147238e-01,-1.813076227327147238e-01,-1.813076227327147238e-01,-1.813076227327147238e-01,-1.813076227327147238e-01,-1.813076227327147238e-01,-1.813076227327147238e-01,-1.813076227327147238e-01,-1.564709620843976468e-01,-1.216996371767537360e-01,-8.568647923669393818e-02,-5.091515432905002747e-02,-1.614382942140610983e-02,1.738566245382196229e-02,1.738566245382196229e-02,1.738566245382196229e-02,1.738566245382196229e-02,1.738566245382196229e-02,1.738566245382196229e-02,1.738566245382196229e-02,1.738566245382196229e-02,1.738566245382196229e-02,1.738566245382196229e-02,1.738566245382196229e-02,1.738566245382196229e-02,1.738566245382196229e-02,1.738566245382196229e-02
-1.094587115715117548e-01,-1.351823958144115490e-01,-1.600190564627286816e-01,-1.813076227327147238e-01,-1.813076227327147238e-01,-1.813076227327147794e-01,-1.813076227327147238e-01,-1.813076227327147238e-01,-1.813076227327147238e-01,-1.813076227327147794e-01,-1.813076227327147238e-01,-1.813076227327147238e-01,-1.813076227327147238e-01,-1.813076227327147238e-01,-1.813076227327147238e-01,-1.813076227327147238e-01,-1.813076227327147238e-01,-1.813076227327147794e-01,-1.813076227327147238e-01,-1.813076227327147238e-01,-1.813076227327147238e-01,-1.813076227327147238e-01,-1.813076227327147238e-01,-1.813076227327147238e-01,-1.813076227327147238e-01,-1.813076227327147238e-01,-1.813076227327147238e-01,-1.726147915058037219e-01,-1.378434665981598251e-01,-1.018303086581000549e-01,-6.705898375045614423e-02,-3.228765884281221965e-02,2.483666064831708403e-03,1.738566245382196229e-02,1.738566245382196229e-02,1.738566245382196229e-02,1.738566245382196229e-02,1.738566245382196229e-02,1.738566245382196229e-02,1.738566245382196229e-02,1.738566245382196229e-02,1.738566245382196229e-02,1.738566245382196229e-02,1.738566245382196229e-02,1.738566245382196229e-02,1.738566245382196229e-02,1.738566245382196229e-02
-1.236510890848357830e-01,-1.484877497331528740e-01,-1.733244103814699510e-01,-1.813076227327147238e-01,-1.813076227327147238e-01,-1.813076227327147238e-01,-1.813076227327147238e-01,-1.813076227327147238e-01,-1.813076227327147238e-01,-1.813076227327147238e-01,-1.813076227327147238e-01,-1.813076227327147238e-01,-1.813076227327147238e-01,-1.813076227327147238e-01,-1.813076227327147238e-01,-1.813076227327147238e-01,-1.813076227327147238e-01,-1.813076227327147238e-01,-1.813076227327147238e-01,-1.813076227327147238e-01,-1.813076227327147238e-01,-1.813076227327147238e-01,-1.813076227327147794e-01,-1.813076227327147794e-01,-1.813076227327147238e-01,-1.813076227327147238e-01,-1.813076227327147238e-01,-1.527454629871500824e-01,-1.179741380795061717e-01,-8.320281317186223324e-02,-4.843148826421832254e-02,-1.366016335657439795e-02,1.738566245382196229e-02,1.738566245382196229e-02,1.738566245382196229e-02,1.738566245382196229e-02,1.738566245382196229e-02,1.738566245382196229e-02,1.738566245382196229e-02,1.738566245382196229e-02,1.738566245382196229e-02,1.738566245382196229e-02,1.738566245382196229e-02,1.738566245382196229e-02,1.738566245382196229e-02,1.738566245382196229e-02,1.738566245382196229e-02
-9.837091663922732654e-02,-1.617931036518941434e-01,-1.813076227327147238e-01,-1.813076227327147238e-01,-1.813076227327147238e-01,-1.813076227327147238e-01,-1.813076227327147238e-01,-1.813076227327147238e-01,-1.813076227327147238e-01,-1.813076227327147794e-01,-1.813076227327147238e-01,-1.813076227327147238e-01,-1.813076227327147238e-01,-1.813076227327147794e-01,-1.813076227327147238e-01,-1.813076227327147238e-01,-1.813076227327147238e-01,-1.813076227327147238e-01,-1.813076227327147238e-01,-1.813076227327147238e-01,-1.813076227327147238e-01,-1.813076227327147238e-01,-1.813076227327147238e-01,-1.813076227327147238e-01,-1.813076227327147238e-01,-1.813076227327147238e-01,-1.688892924085562131e-01,-1.341179675009122607e-01,-9.934664259326835001e-02,-6.457531768562442542e-02,-2.980399277798050778e-02,4.967332129663418541e-03,1.738566245382196229e-02,1.738566245382196229e-02,1.738566245382196229e-02,1.738566245382196229e-02,1.738566245382196229e-02,1.738566245382196229e-02,1.738566245382196229e-02,1.738566245382196229e-02,1.738566245382196229e-02,1.738566245382196229e-02,1.738566245382196229e-02,1.738566245382196229e-02,1.738566245382196229e-02,1.738566245382196229e-02,1.738566245382196229e-02
1.738566245382196229e-02,-4.878075380458526955e-02,-1.440526317602390804e-01,-1.813076227327147238e-01,-1.813076227327147794e-01,-1.813076227327147794e-01,-1.813076227327147238e-01,-1.813076227327147238e-01,-1.813076227327147238e-01,-1.813076227327147238e-01,-1.813076227327147238e-01,-1.813076227327147238e-01,-1.813076227327147238e-01,-1.813076227327147238e-01,-1.813076227327147238e-01,-1.813076227327147238e-01,-1.813076227327147238e-01,-1.813076227327147794e-01,-1.813076227327147238e-01,-1.813076227327147238e-01,-1.813076227327147794e-01,-1.813076227327147238e-01,-1.813076227327147238e-01,-1.813076227327147238e-01,-1.813076227327147794e-01,-1.813076227327147238e-01,-1.502617969223183914e-01,-1.154904720146744529e-01,-8.071914710703052831e-02,-4.594782219938660373e-02,-1.117649729174268955e-02,1.738566245382196229e-02,1.738566245382196229e-02,1.738566245382196229e-02,1.738566245382196229e-02,1.738566245382196229e-02,1.738566245382196229e-02,1.738566245382196229e-02,1.738566245382196229e-02,1.738566245382196229e-02,1.738566245382196229e-02,1.738566245382196229e-02,1.738566245382196229e-02,1.738566245382196229e-02,1.738566245382196229e-02,1.738566245382196229e-02,1.738566245382196229e-02
1.738566245382196229e-02,1.738566245382196229e-02,1.738566245382196229e-02,-6.333348465320856602e-02,-1.564709620843976468e-01,-1.813076227327147794e-01,-1.813076227327147238e-01,-1.813076227327147238e-01,-1.813076227327147794e-01,-1.813076227327147238e-01,-1.813076227327147238e-01,-1.813076227327147238e-01,-1.813076227327147238e-01,-1.813076227327147238e-01,-1.813076227327147238e-01,-1.813076227327147238e-01,-1.813076227327147238e-01,-1.813076227327147238e-01,-1.813076227327147238e-01,-1.813076227327147238e-01,-1.813076227327147238e-01,-1.813076227327147238e-01,-1.813076227327147238e-01,-1.813076227327147238e-01,-1.813076227327147238e-01,-1.664056263437245220e-01,-1.316343014360805697e-01,-9.686297652843663120e-02,-6.209165162079272049e-02,-2.607849368073294344e-02,8.692831226910981146e-03,1.738566245382196229e-02,1.738566245382196229e-02,1.738566245382196229e-02,1.738566245382196229e-02,1.738566245382196229e-02,1.738566245382196229e-02,1.738566245382196229e-02,1.738566245382196229e-02,1.738566245382196229e-02,1.738566245382196229e-02,1.738566245382196229e-02,1.738566245382196229e-02,1.738566245382196229e-02,1.738566245382196229e-02,1.738566245382196229e-02,1.738566245382196229e-02
1.738566245382196229e-02,1.738566245382196229e-02,1.738566245382196229e-02,1.738566245382196229e-02,1.738566245382196229e-02,-7.575181497736711844e-02,-1.750984575706354684e-01,-1.813076227327147238e-01,-1.813076227327147238e-01,-1.813076227327147794e-01,-1.813076227327147238e-01,-1.813076227327147238e-01,-1.813076227327147238e-01,-1.813076227327147238e-01,-1.813076227327147238e-01,-1.813076227327147238e-01,-1.813076227327147238e-01,-1.813076227327147238e-01,-1.813076227327147238e-01,-1.813076227327147238e-01,-1.813076227327147238e-01,-1.813076227327147794e-01,-1.813076227327147238e-01,-1.813076227327147238e-01,-1.813076227327147238e-01,-1.477781308574867003e-01,-1.130068059498427341e-01,-7.823548104219882338e-02,-4.222232310213904632e-02,-7.450998194495125210e-03,1.738566245382196229e-02,1.738566245382196229e-02,1.738566245382196229e-02,1.738566245382196229e-02,1.738566245382196229e-02,1.738566245382196229e-02,1.738566245382196229e-02,1.738566245382196229e-02,1.738566245382196229e-02,1.738566245382196229e-02,1.738566245382196229e-02,1.738566245382196229e-02,1.738566245382196229e-02,1.738566245382196229e-02,1.738566245382196229e-02,1.738566245382196229e-02,1.738566245382196229e-02
1.738566245382196229e-02,1.738566245382196229e-02,1.738566245382196229e-02,1.738566245382196229e-02,1.738566245382196229e-02,1.738566245382196229e-02,-1.241833032415852467e-03,-9.437931046360492626e-02,-1.813076227327147238e-01,-1.813076227327147238e-01,-1.813076227327147238e-01,-1.813076227327147238e-01,-1.813076227327147238e-01,-1.813076227327147794e-01,-1.813076227327147238e-01,-1.813076227327147794e-01,-1.813076227327147238e-01,-1.813076227327147794e-01,-1.813076227327147238e-01,-1.813076227327147238e-01,-1.813076227327147238e-01,-1.813076227327147238e-01,-1.813076227327147238e-01,-1.813076227327147238e-01,-1.639219602788927754e-01,-1.291506353712488231e-01,-9.313747743118908073e-02,-5.836615252354515615e-02,-2.359482761590123157e-02,1.117649729174268955e-02,1.738566245382196229e-02,1.738566245382196229e-02,1.738566245382196229e-02,1.738566245382196229e-02,1.738566245382196229e-02,1.738566245382196229e-02,1.738566245382196229e-02,1.738566245382196229e-02,1.738566245382196229e-02,1.738566245382196229e-02,1.738566245382196229e-02,1.738566245382196229e-02,1.738566245382196229e-02,1.738566245382196229e-02,1.738566245382196229e-02,1.738566245382196229e-02,1.738566245382196229e-02
1.738566245382196229e-02,1.738566245382196229e-02,1.738566245382196229e-02,1.738566245382196229e-02,1.738566245382196229e-02,1.738566245382196229e-02,1.738566245382196229e-02,1.738566245382196229e-02,-1.366016335657439795e-02,-1.067976407877634787e-01,-1.813076227327147238e-01,-1.813076227327147238e-01,-1.813076227327147238e-01,-1.813076227327147238e-01,-1.813076227327147238e-01,-1.813076227327147238e-01,-1.813076227327147238e-01,-1.813076227327147238e-01,-1.813076227327147238e-01,-1.813076227327147794e-01,-1.813076227327147238e-01,-1.813076227327147238e-01,-1.813076227327147238e-01,-1.800657897002989061e-01,-1.440526317602391360e-01,-1.092813068525951975e-01,-7.450998194495125904e-02,-3.973865703730734139e-02,-4.967332129663416806e-03,1.738566245382196229e-02,1.738566245382196229e-02,1.738566245382196229e-02,1.738566245382196229e-02,1.738566245382196229e-02,1.738566245382196229e-02,1.738566245382196229e-02,1.738566245382196229e-02,1.738566245382196229e-02,1.738566245382196229e-02,1.738566245382196229e-02,1.738566245382196229e-02,1.738566245382196229e-02,1.738566245382196229e-02,1.738566245382196229e-02,1.738566245382196229e-02,1.738566245382196229e-02,1.738566245382196229e-02
1.738566245382196229e-02,1.738566245382196229e-02,1.738566245382196229e-02,1.738566245382196229e-02,1.738566245382196229e-02,1.738566245382196229e-02,1.738566245382196229e-02,1.738566245382196229e-02,1.738566245382196229e-02,1.738566245382196229e-02,-2.607849368073293650e-02,-1.192159711119220172e-01,-1.813076227327147238e-01,-1.813076227327147794e-01,-1.813076227327147238e-01,-1.813076227327147238e-01,-1.813076227327147238e-01,-1.813076227327147238e-01,-1.813076227327147238e-01,-1.813076227327147238e-01,-1.813076227327147238e-01,-1.813076227327147238e-01,-1.813076227327147238e-01,-1.601964611816452111e-01,-1.254251362740013143e-01,-9.065381136635737580e-02,-5.588248645871343734e-02,-2.111116155106952663e-02,1.366016335657439795e-02,1.738566245382196229e-02,1.738566245382196229e-02,1.738566245382196229e-02,1.738566245382196229e-02,1.738566245382196229e-02,1.738566245382196229e-02,1.738566245382196229e-02,1.738566245382196229e-02,1.738566245382196229e-02,1.738566245382196229e-02,1.738566245382196229e-02,1.738566245382196229e-02,1.738566245382196229e-02,1.738566245382196229e-02,1.738566245382196229e-02,1.738566245382196229e-02,1.738566245382196229e-02,1.738566245382196229e-02
1.738566245382196229e-02,1.738566245382196229e-02,1.738566245382196229e-02,1.738566245382196229e-02,1.738566245382196229e-02,1.738566245382196229e-02,1.738566245382196229e-02,1.738566245382196229e-02,1.738566245382196229e-02,1.738566245382196229e-02,1.738566245382196229e-02,1.738566245382196229e-02,-3.849682400489148892e-02,-1.378434665981598251e-01,-1.813076227327147238e-01,-1.813076227327147238e-01,-1.813076227327147238e-01,-1.813076227327147794e-01,-1.813076227327147238e-01,-1.813076227327147238e-01,-1.813076227327147794e-01,-1.813076227327147238e-01,-1.763402906030513417e-01,-1.415689656954073894e-01,-1.067976407877634648e-01,-7.202631588011955410e-02,-3.725499097247563646e-02,-2.483666064831708403e-03,1.738566245382196229e-02,1.738566245382196229e-02,1.738566245382196229e-02,1.738566245382196229e-02,1.738566245382196229e-02,1.738566245382196229e-02,1.738566245382196229e-02,1.738566245382196229e-02,1.738566245382196229e-02,1.738566245382196229e-02,1.738566245382196229e-02,1.738566245382196229e-02,1.738566245382196229e-02,1.738566245382196229e-02,1.738566245382196229e-02,1.738566245382196229e-02,1.738566245382196229e-02,1.738566245382196229e-02,1.738566245382196229e-02
1.738566245382196229e-02,1.738566245382196229e-02,1.738566245382196229e-02,1.738566245382196229e-02,1.738566245382196229e-02,1.738566245382196229e-02,1.738566245382196229e-02,1.738566245382196229e-02,1.738566245382196229e-02,1.738566245382196229e-02,1.738566245382196229e-02,1.738566245382196229e-02,1.738566245382196229e-02,1.738566245382196229e-02,-5.712431949112929674e-02,-1.502617969223183914e-01,-1.813076227327147238e-01,-1.813076227327147794e-01,-1.813076227327147238e-01,-1.813076227327147238e-01,-1.813076227327147238e-01,-1.813076227327147794e-01,-1.577127951168135200e-01,-1.229414702091696093e-01,-8.817014530152565699e-02,-5.339882039388174628e-02,-1.862749548623781476e-02,1.738566245382196229e-02,1.738566245382196229e-02,1.738566245382196229e-02,1.738566245382196229e-02,1.738566245382196229e-02,1.738566245382196229e-02,1.738566245382196229e-02,1.738566245382196229e-02,1.738566245382196229e-02,1.738566245382196229e-02,1.738566245382196229e-02,1.738566245382196229e-02,1.738566245382196229e-02,1.738566245382196229e-02,1.738566245382196229e-02,1.738566245382196229e-02,1.738566245382196229e-02,1.738566245382196229e-02,1.738566245382196229e-02,1.738566245382196229e-02
1.738566245382196229e-02,1.738566245382196229e-02,1.738566245382196229e-02,1.738566245382196229e-02,1.738566245382196229e-02,1.738566245382196229e-02,1.738566245382196229e-02,1.738566245382196229e-02,1.738566245382196229e-02,1.738566245382196229e-02,1.738566245382196229e-02,1.738566245382196229e-02,1.738566245382196229e-02,1.738566245382196229e-02,1.738566245382196229e-02,1.738566245382196229e-02,-6.954264981528784917e-02,-1.626801272464769577e-01,-1.813076227327147238e-01,-1.813076227327147794e-01,-1.813076227327147238e-01,-1.738566245382196507e-01,-1.390852996305756983e-01,-1.043139747229317738e-01,-6.954264981528783529e-02,-3.352949187522806518e-02,1.241833032415855936e-03,1.738566245382196229e-02,1.738566245382196229e-02,1.738566245382196229e-02,1.738566245382196229e-02,1.738566245382196229e-02,1.738566245382196229e-02,1.738566245382196229e-02,1.738566245382196229e-02,1.738566245382196229e-02,1.738566245382196229e-02,1.738566245382196229e-02,1.738566245382196229e-02,1.738566245382196229e-02,1.738566245382196229e-02,1.738566245382196229e-02,1.738566245382196229e-02,1.738566245382196229e-02,1.738566245382196229e-02,1.738566245382196229e-02,1.738566245382196229e-02
