0.000000000000000000e+00,0.000000000000000000e+00,0.000000000000000000e+00,0.000000000000000000e+00,0.000000000000000000e+00,0.000000000000000000e+00,0.000000000000000000e+00,0.000000000000000000e+00,0.000000000000000000e+00,0.000000000000000000e+00,0.000000000000000000e+00,0.000000000000000000e+00,0.000000000000000000e+00,0.000000000000000000e+00,0.000000000000000000e+00,0.000000000000000000e+00,0.000000000000000000e+00,0.000000000000000000e+00,0.000000000000000000e+00,0.000000000000000000e+00,0.000000000000000000e+00,0.000000000000000000e+00,0.000000000000000000e+00,0.000000000000000000e+00,0.000000000000000000e+00,0.000000000000000000e+00,0.000000000000000000e+00,0.000000000000000000e+00,0.000000000000000000e+00,0.000000000000000000e+00,0.000000000000000000e+00,0.000000000000000000e+00,0.000000000000000000e+00,0.000000000000000000e+00,0.000000000000000000e+00,0.000000000000000000e+00,0.000000000000000000e+00,0.000000000000000000e+00,0.000000000000000000e+00,0.000000000000000000e+00,0.000000000000000000e+00,0.000000000000000000e+00,0.000000000000000000e+00,0.000000000000000000e+00,0.000000000000000000e+00,0.000000000000000000e+00,0.000000000000000000e+00
0.000000000000000000e+00,0.000000000000000000e+00,0.000000000000000000e+00,0.000000000000000000e+00,0.000000000000000000e+00,0.000000000000000000e+00,0.000000000000000000e+00,0.000000000000000000e+00,0.000000000000000000e+00,0.000000000000000000e+00,0.000000000000000000e+00,0.000000000000000000e+00,0.000000000000000000e+00,0.000000000000000000e+00,0.000000000000000000e+00,0.000000000000000000e+00,0.000000000000000000e+00,0.000000000000000000e+00,0.000000000000000000e+00,0.000000000000000000e+00,0.000000000000000000e+00,0.000000000000000000e+00,0.000000000000000000e+00,0.000000000000000000e+00,0.000000000000000000e+00,0.000000000000000000e+00,0.000000000000000000e+00,0.000000000000000000e+00,0.000000000000000000e+00,0.000000000000000000e+00,0.000000000000000000e+00,0.000000000000000000e+00,0.000000000000000000e+00,0.000000000000000000e+00,0.000000000000000000e+00,0.000000000000000000e+00,0.000000000000000000e+00,0.000000000000000000e+00,0.000000000000000000e+00,0.000000000000000000e+00,0.000000000000000000e+00,0.000000000000000000e+00,0.000000000000000000e+00,0.000000000000000000e+00,0.000000000000000000e+00,0.000000000000000000e+00,0.000000000000000000e+00
0.000000000000000000e+00,0.000000000000000000e+00,0.000000000000000000e+00,0.000000000000000000e+00,0.000000000000000000e+00,0.000000000000000000e+00,0.000000000000000000e+00,0.000000000000000000e+00,0.000000000000000000e+00,0.000000000000000000e+00,-8.232608394931498295e-04,0.000000000000000000e+00,0.000000000000000000e+00,0.000000000000000000e+00,0.000000000000000000e+00,0.000000000000000000e+00,0.000000000000000000e+00,0.000000000000000000e+00,0.000000000000000000e+00,0.000000000000000000e+00,0.000000000000000000e+00,0.000000000000000000e+00,0.000000000000000000e+00,0.000000000000000000e+00,0.000000000000000000e+00,0.000000000000000000e+00,0.000000000000000000e+00,0.000000000000000000e+00,0.000000000000000000e+00,0.000000000000000000e+00,0.000000000000000000e+00,0.000000000000000000e+00,0.000000000000000000e+00,0.000000000000000000e+00,0.000000000000000000e+00,0.000000000000000000e+00,0.000000000000000000e+00,0.000000000000000000e+00,0.000000000000000000e+00,0.000000000000000000e+00,0.000000000000000000e+00,0.000000000000000000e+00,0.000000000000000000e+00,0.000000000000000000e+00,0.000000000000000000e+00,0.000000000000000000e+00,0.000000000000000000e+00
0.000000000000000000e+00,0.000000000000000000e+00,0.000000000000000000e+00,0.000000000000000000e+00,0.000000000000000000e+00,0.000000000000000000e+00,0.000000000000000000e+00,0.000000000000000000e+00,0.000000000000000000e+00,-6.066132501528472519e-03,-8.041958516312033151e-03,-2.495780229200285881e-03,0.000000000000000000e+00,0.000000000000000000e+00,0.000000000000000000e+00,0.000000000000000000e+00,0.000000000000000000e+00,0.000000000000000000e+00,0.000000000000000000e+00,0.000000000000000000e+00,0.000000000000000000e+00,0.000000000000000000e+00,0.000000000000000000e+00,0.000000000000000000e+00,0.000000000000000000e+00,0.000000000000000000e+00,0.000000000000000000e+00,0.000000000000000000e+00,0.000000000000000000e+00,0.000000000000000000e+00,0.000000000000000000e+00,0.000000000000000000e+00,0.000000000000000000e+00,0.000000000000000000e+00,0.000000000000000000e+00,0.000000000000000000e+00,0.000000000000000000e+00,0.000000000000000000e+00,0.000000000000000000e+00,0.000000000000000000e+00,0.000000000000000000e+00,0.000000000000000000e+00,0.000000000000000000e+00,0.000000000000000000e+00,0.000000000000000000e+00,0.000000000000000000e+00,0.000000000000000000e+00
0.000000000000000000e+00,0.000000000000000000e+00,0.000000000000000000e+00,0.000000000000000000e+00,0.000000000000000000e+00,0.000000000000000000e+00,0.000000000000000000e+00,0.000000000000000000e+00,-8.232608394931499596e-03,-2.052085966231346342e-02,-1.497468137520171355e-02,-9.428503088089968884e-03,-3.605015886622635161e-03,0.000000000000000000e+00,0.000000000000000000e+00,0.000000000000000000e+00,0.000000000000000000e+00,0.000000000000000000e+00,0.000000000000000000e+00,0.000000000000000000e+00,0.000000000000000000e+00,0.000000000000000000e+00,0.000000000000000000e+00,0.000000000000000000e+00,0.000000000000000000e+00,0.000000000000000000e+00,0.000000000000000000e+00,0.000000000000000000e+00,0.000000000000000000e+00,0.000000000000000000e+00,0.000000000000000000e+00,0.000000000000000000e+00,0.000000000000000000e+00,0.000000000000000000e+00,0.000000000000000000e+00,0.000000000000000000e+00,0.000000000000000000e+00,0.000000000000000000e+00,0.000000000000000000e+00,0.000000000000000000e+00,0.000000000000000000e+00,0.000000000000000000e+00,0.000000000000000000e+00,0.000000000000000000e+00,0.000000000000000000e+00,0.000000000000000000e+00,0.000000000000000000e+00
0.000000000000000000e+00,0.000000000000000000e+00,0.000000000000000000e+00,0.000000000000000000e+00,0.000000000000000000e+00,0.000000000000000000e+00,0.000000000000000000e+00,-7.279359001834167370e-03,-3.223716129383702444e-02,-2.745358252120314729e-02,-2.190740423409140089e-02,-1.608391703262406283e-02,-1.053773874551231816e-02,-4.714251544044984442e-03,0.000000000000000000e+00,0.000000000000000000e+00,0.000000000000000000e+00,0.000000000000000000e+00,0.000000000000000000e+00,0.000000000000000000e+00,0.000000000000000000e+00,0.000000000000000000e+00,0.000000000000000000e+00,0.000000000000000000e+00,0.000000000000000000e+00,0.000000000000000000e+00,0.000000000000000000e+00,0.000000000000000000e+00,0.000000000000000000e+00,0.000000000000000000e+00,0.000000000000000000e+00,0.000000000000000000e+00,0.000000000000000000e+00,0.000000000000000000e+00,0.000000000000000000e+00,0.000000000000000000e+00,0.000000000000000000e+00,0.000000000000000000e+00,0.000000000000000000e+00,0.000000000000000000e+00,0.000000000000000000e+00,0.000000000000000000e+00,0.000000000000000000e+00,0.000000000000000000e+00,0.000000000000000000e+00,0.000000000000000000e+00,0.000000000000000000e+00
0.000000000000000000e+00,0.000000000000000000e+00,0.000000000000000000e+00,0.000000000000000000e+00,0.000000000000000000e+00,0.000000000000000000e+00,-3.206384322236478443e-03,-3.860660042044192219e-02,-3.993248366720457410e-02,-3.438630538009283116e-02,-2.856281817862549657e-02,-2.301663989151374670e-02,-1.719315269004641558e-02,-1.164697440293466744e-02,-5.823487201467333722e-03,-2.773089143555873201e-04,0.000000000000000000e+00,0.000000000000000000e+00,0.000000000000000000e+00,0.000000000000000000e+00,0.000000000000000000e+00,0.000000000000000000e+00,0.000000000000000000e+00,0.000000000000000000e+00,0.000000000000000000e+00,0.000000000000000000e+00,0.000000000000000000e+00,0.000000000000000000e+00,0.000000000000000000e+00,0.000000000000000000e+00,0.000000000000000000e+00,0.000000000000000000e+00,0.000000000000000000e+00,0.000000000000000000e+00,0.000000000000000000e+00,0.000000000000000000e+00,0.000000000000000000e+00,0.000000000000000000e+00,0.000000000000000000e+00,0.000000000000000000e+00,0.000000000000000000e+00,0.000000000000000000e+00,0.000000000000000000e+00,0.000000000000000000e+00,0.000000000000000000e+00,0.000000000000000000e+00,0.000000000000000000e+00
0.000000000000000000e+00,0.000000000000000000e+00,0.000000000000000000e+00,0.000000000000000000e+00,0.000000000000000000e+00,0.000000000000000000e+00,-4.003647451008791880e-02,-5.241138481320600784e-02,-4.686520652609425797e-02,-4.104171932462692685e-02,-3.549554103751517697e-02,-2.967205383604784585e-02,-2.412587554893609945e-02,-1.857969726182434958e-02,-1.275621006035701499e-02,-7.210031773245270323e-03,-1.386544571777936601e-03,0.000000000000000000e+00,0.000000000000000000e+00,0.000000000000000000e+00,0.000000000000000000e+00,0.000000000000000000e+00,0.000000000000000000e+00,0.000000000000000000e+00,0.000000000000000000e+00,0.000000000000000000e+00,0.000000000000000000e+00,0.000000000000000000e+00,0.000000000000000000e+00,0.000000000000000000e+00,0.000000000000000000e+00,0.000000000000000000e+00,0.000000000000000000e+00,0.000000000000000000e+00,0.000000000000000000e+00,0.000000000000000000e+00,0.000000000000000000e+00,0.000000000000000000e+00,0.000000000000000000e+00,0.000000000000000000e+00,0.000000000000000000e+00,0.000000000000000000e+00,0.000000000000000000e+00,0.000000000000000000e+00,0.000000000000000000e+00,0.000000000000000000e+00,0.000000000000000000e+00
0.000000000000000000e+00,0.000000000000000000e+00,0.000000000000000000e+00,0.000000000000000000e+00,0.000000000000000000e+00,-3.977649740287955704e-02,-6.489028595920742770e-02,-5.934410767209569171e-02,-5.352062047062836059e-02,-4.797444218351661072e-02,-4.242826389640486084e-02,-3.660477669493752972e-02,-3.105859840782578332e-02,-2.523511120635844873e-02,-1.968893291924670233e-02,-1.386544571777936601e-02,-8.319267430667619603e-03,-2.495780229200285881e-03,0.000000000000000000e+00,0.000000000000000000e+00,0.000000000000000000e+00,0.000000000000000000e+00,0.000000000000000000e+00,0.000000000000000000e+00,0.000000000000000000e+00,0.000000000000000000e+00,0.000000000000000000e+00,0.000000000000000000e+00,0.000000000000000000e+00,0.000000000000000000e+00,0.000000000000000000e+00,0.000000000000000000e+00,0.000000000000000000e+00,0.000000000000000000e+00,0.000000000000000000e+00,0.000000000000000000e+00,0.000000000000000000e+00,0.000000000000000000e+00,0.000000000000000000e+00,0.000000000000000000e+00,0.000000000000000000e+00,0.000000000000000000e+00,0.000000000000000000e+00,0.000000000000000000e+00,0.000000000000000000e+00,0.000000000000000000e+00,0.000000000000000000e+00
0.000000000000000000e+00,0.000000000000000000e+00,0.000000000000000000e+00,0.000000000000000000e+00,-3.639679500917084032e-02,-7.736918710520886144e-02,-7.182300881809711157e-02,-6.599952161662978045e-02,-6.045334332951803752e-02,-5.490716504240629459e-02,-4.908367784093896347e-02,-4.353749955382720666e-02,-3.771401235235987554e-02,-3.216783406524813260e-02,-2.634434686378079801e-02,-2.079816857666905161e-02,-1.497468137520171702e-02,-9.428503088089968884e-03,-3.882324800978222482e-03,0.000000000000000000e+00,0.000000000000000000e+00,0.000000000000000000e+00,0.000000000000000000e+00,0.000000000000000000e+00,0.000000000000000000e+00,0.000000000000000000e+00,0.000000000000000000e+00,0.000000000000000000e+00,0.000000000000000000e+00,0.000000000000000000e+00,0.000000000000000000e+00,0.000000000000000000e+00,0.000000000000000000e+00,0.000000000000000000e+00,0.000000000000000000e+00,0.000000000000000000e+00,0.000000000000000000e+00,0.000000000000000000e+00,0.000000000000000000e+00,0.000000000000000000e+00,0.000000000000000000e+00,0.000000000000000000e+00,0.000000000000000000e+00,0.000000000000000000e+00,0.000000000000000000e+00,0.000000000000000000e+00,0.000000000000000000e+00
0.000000000000000000e+00,0.000000000000000000e+00,0.000000000000000000e+00,-2.989736732896175822e-02,-8.984808825121029519e-02,-8.430190996409853144e-02,-7.875573167698679544e-02,-7.293224447551946432e-02,-6.738606618840772833e-02,-6.156257898694038333e-02,-5.601640069982864040e-02,-5.019291349836130928e-02,-4.464673521124955941e-02,-3.882324800978222135e-02,-3.327706972267047841e-02,-2.773089143555873548e-02,-2.190740423409139742e-02,-1.636122594697965102e-02,-1.053773874551231816e-02,-4.991560458400571762e-03,0.000000000000000000e+00,0.000000000000000000e+00,0.000000000000000000e+00,0.000000000000000000e+00,0.000000000000000000e+00,0.000000000000000000e+00,0.000000000000000000e+00,0.000000000000000000e+00,0.000000000000000000e+00,0.000000000000000000e+00,0.000000000000000000e+00,0.000000000000000000e+00,0.000000000000000000e+00,0.000000000000000000e+00,0.000000000000000000e+00,0.000000000000000000e+00,0.000000000000000000e+00,0.000000000000000000e+00,0.000000000000000000e+00,0.000000000000000000e+00,0.000000000000000000e+00,0.000000000000000000e+00,0.000000000000000000e+00,0.000000000000000000e+00,0.000000000000000000e+00,0.000000000000000000e+00,0.000000000000000000e+00
0.000000000000000000e+00,0.000000000000000000e+00,-1.830238834746876486e-02,-9.151194173734381043e-02,-9.678081111009997906e-02,-9.123463282298824306e-02,-8.541114562152088419e-02,-7.986496733440914819e-02,-7.404148013294181707e-02,-6.849530184583006720e-02,-6.267181464436273608e-02,-5.712563635725099315e-02,-5.130214915578366203e-02,-4.575597086867190522e-02,-4.020979258156015534e-02,-3.438630538009282422e-02,-2.884012709298108476e-02,-2.301663989151374670e-02,-1.747046160440200030e-02,-1.164697440293466744e-02,-6.100796115822921042e-03,-2.773089143555873201e-04,0.000000000000000000e+00,0.000000000000000000e+00,0.000000000000000000e+00,0.000000000000000000e+00,0.000000000000000000e+00,0.000000000000000000e+00,0.000000000000000000e+00,0.000000000000000000e+00,0.000000000000000000e+00,0.000000000000000000e+00,0.000000000000000000e+00,0.000000000000000000e+00,0.000000000000000000e+00,0.000000000000000000e+00,0.000000000000000000e+00,0.000000000000000000e+00,0.000000000000000000e+00,0.000000000000000000e+00,0.000000000000000000e+00,0.000000000000000000e+00,0.000000000000000000e+00,0.000000000000000000e+00,0.000000000000000000e+00,0.000000000000000000e+00,0.000000000000000000e+00
0.000000000000000000e+00,-6.100796115822921042e-03,-7.931034950569798569e-02,-9.761273785316673668e-02,-9.761273785316673668e-02,-9.761273785316673668e-02,-9.234386848041058193e-02,-8.652038127894325081e-02,-8.097420299183150094e-02,-7.515071579036415594e-02,-6.960453750325241995e-02,-6.405835921614067008e-02,-5.823487201467333896e-02,-5.268869372756160296e-02,-4.686520652609425797e-02,-4.131902823898251503e-02,-3.549554103751517697e-02,-2.994936275040343404e-02,-2.412587554893610292e-02,-1.857969726182434958e-02,-1.303351897471260318e-02,-7.210031773245270323e-03,-1.663853486133523921e-03,0.000000000000000000e+00,0.000000000000000000e+00,0.000000000000000000e+00,0.000000000000000000e+00,0.000000000000000000e+00,0.000000000000000000e+00,0.000000000000000000e+00,0.000000000000000000e+00,0.000000000000000000e+00,0.000000000000000000e+00,0.000000000000000000e+00,0.000000000000000000e+00,0.000000000000000000e+00,0.000000000000000000e+00,0.000000000000000000e+00,0.000000000000000000e+00,0.000000000000000000e+00,0.000000000000000000e+00,0.000000000000000000e+00,0.000000000000000000e+00,0.000000000000000000e+00,0.000000000000000000e+00,0.000000000000000000e+00,0.000000000000000000e+00
0.000000000000000000e+00,-6.531120127564002398e-02,-9.761273785316673668e-02,-9.761273785316673668e-02,-9.761273785316673668e-02,-9.761273785316673668e-02,-9.761273785316673668e-02,-9.345310413783293468e-02,-8.762961693636558969e-02,-8.208343864925385369e-02,-7.653726036214210382e-02,-7.071377316067477270e-02,-6.516759487356302283e-02,-5.934410767209568477e-02,-5.379792938498394184e-02,-4.797444218351661072e-02,-4.242826389640486084e-02,-3.660477669493752972e-02,-3.105859840782578332e-02,-2.551242012071403692e-02,-1.968893291924669886e-02,-1.414275463213495246e-02,-8.319267430667619603e-03,-2.773089143555873201e-03,0.000000000000000000e+00,0.000000000000000000e+00,0.000000000000000000e+00,0.000000000000000000e+00,0.000000000000000000e+00,0.000000000000000000e+00,0.000000000000000000e+00,0.000000000000000000e+00,0.000000000000000000e+00,0.000000000000000000e+00,0.000000000000000000e+00,0.000000000000000000e+00,0.000000000000000000e+00,0.000000000000000000e+00,0.000000000000000000e+00,0.000000000000000000e+00,0.000000000000000000e+00,0.000000000000000000e+00,0.000000000000000000e+00,0.000000000000000000e+00,0.000000000000000000e+00,0.000000000000000000e+00,0.000000000000000000e+00
-4.792120877585013400e-02,-8.976885713282298229e-02,-9.412656864412508040e-02,-9.761273785316673668e-02,-9.761273785316673668e-02,-9.761273785316673668e-02,-9.761273785316672280e-02,-9.761273785316673668e-02,-9.456233979525527356e-02,-8.901616150814353756e-02,-8.319267430667619256e-02,-7.764649601956444269e-02,-7.182300881809711157e-02,-6.627683053098537558e-02,-6.045334332951803752e-02,-5.490716504240629459e-02,-4.936098675529454471e-02,-4.353749955382721359e-02,-3.799132126671546372e-02,-3.216783406524813260e-02,-2.662165577813638620e-02,-2.079816857666904814e-02,-1.525199028955730174e-02,-9.428503088089968884e-03,-3.882324800978222482e-03,0.000000000000000000e+00,0.000000000000000000e+00,0.000000000000000000e+00,0.000000000000000000e+00,0.000000000000000000e+00,0.000000000000000000e+00,0.000000000000000000e+00,0.000000000000000000e+00,0.000000000000000000e+00,0.000000000000000000e+00,0.000000000000000000e+00,0.000000000000000000e+00,0.000000000000000000e+00,0.000000000000000000e+00,0.000000000000000000e+00,0.000000000000000000e+00,0.000000000000000000e+00,0.000000000000000000e+00,0.000000000000000000e+00,0.000000000000000000e+00,0.000000000000000000e+00,0.000000000000000000e+00
-7.996400623239330319e-02,-8.432171774369538741e-02,-8.889731483056256822e-02,-9.325502634186465245e-02,-9.761273785316673668e-02,-9.761273785316673668e-02,-9.761273785316675056e-02,-9.761273785316673668e-02,-9.761273785316673668e-02,-9.567157545267762631e-02,-9.012539716556589031e-02,-8.430190996409854531e-02,-7.875573167698679544e-02,-7.293224447551946432e-02,-6.738606618840771445e-02,-6.183988790129597152e-02,-5.601640069982864040e-02,-5.047022241271689746e-02,-4.464673521124955941e-02,-3.910055692413780953e-02,-3.327706972267047841e-02,-2.773089143555873548e-02,-2.190740423409140089e-02,-1.636122594697965449e-02,-1.081504765986790462e-02,-4.991560458400571762e-03,0.000000000000000000e+00,0.000000000000000000e+00,0.000000000000000000e+00,0.000000000000000000e+00,0.000000000000000000e+00,0.000000000000000000e+00,0.000000000000000000e+00,0.000000000000000000e+00,0.000000000000000000e+00,0.000000000000000000e+00,0.000000000000000000e+00,0.000000000000000000e+00,0.000000000000000000e+00,0.000000000000000000e+00,0.000000000000000000e+00,0.000000000000000000e+00,0.000000000000000000e+00,0.000000000000000000e+00,0.000000000000000000e+00,0.000000000000000000e+00,0.000000000000000000e+00
-7.451686684326568055e-02,-7.909246393013287524e-02,-8.345017544143495947e-02,-8.780788695273704370e-02,-9.238348403960423838e-02,-9.674119555090630873e-02,-9.761273785316673668e-02,-9.761273785316673668e-02,-9.761273785316673668e-02,-9.761273785316672280e-02,-9.678081111009996518e-02,-9.123463282298822918e-02,-8.568845453587647931e-02,-7.986496733440914819e-02,-7.431878904729741220e-02,-6.849530184583008108e-02,-6.294912355871831733e-02,-5.712563635725099315e-02,-5.157945807013925021e-02,-4.575597086867191216e-02,-4.020979258156016228e-02,-3.466361429444841935e-02,-2.884012709298108476e-02,-2.329394880586933836e-02,-1.747046160440200030e-02,-1.192428331729025390e-02,-6.100796115822921042e-03,-5.546178287111746402e-04,0.000000000000000000e+00,0.000000000000000000e+00,0.000000000000000000e+00,0.000000000000000000e+00,0.000000000000000000e+00,0.000000000000000000e+00,0.000000000000000000e+00,0.000000000000000000e+00,0.000000000000000000e+00,0.000000000000000000e+00,0.000000000000000000e+00,0.000000000000000000e+00,0.000000000000000000e+00,0.000000000000000000e+00,0.000000000000000000e+00,0.000000000000000000e+00,0.000000000000000000e+00,0.000000000000000000e+00,0.000000000000000000e+00
-6.906972745413805792e-02,-7.364532454100526648e-02,-7.800303605230735071e-02,-8.257863313917454540e-02,-8.693634465047661575e-02,-9.151194173734381043e-02,-9.586965324864590854e-02,-9.761273785316673668e-02,-9.761273785316672280e-02,-9.761273785316673668e-02,-9.761273785316673668e-02,-9.761273785316673668e-02,-9.234386848041058193e-02,-8.679769019329883206e-02,-8.097420299183150094e-02,-7.542802470471975107e-02,-6.960453750325241995e-02,-6.405835921614067008e-02,-5.851218092902892021e-02,-5.268869372756160296e-02,-4.714251544044984615e-02,-4.131902823898250809e-02,-3.577284995187075822e-02,-2.994936275040343404e-02,-2.440318446329168764e-02,-1.857969726182434958e-02,-1.303351897471260491e-02,-7.487340687600857643e-03,-1.663853486133523921e-03,0.000000000000000000e+00,0.000000000000000000e+00,0.000000000000000000e+00,0.000000000000000000e+00,0.000000000000000000e+00,0.000000000000000000e+00,0.000000000000000000e+00,0.000000000000000000e+00,0.000000000000000000e+00,0.000000000000000000e+00,0.000000000000000000e+00,0.000000000000000000e+00,0.000000000000000000e+00,0.000000000000000000e+00,0.000000000000000000e+00,0.000000000000000000e+00,0.000000000000000000e+00,0.000000000000000000e+00
-6.384047364057557350e-02,-6.819818515187764385e-02,-7.277378223874483854e-02,-7.713149375004693664e-02,-8.170709083691413133e-02,-8.606480234821621556e-02,-9.064039943508339636e-02,-9.499811094638548059e-02,-9.761273785316675056e-02,-9.761273785316673668e-02,-9.761273785316673668e-02,-9.761273785316675056e-02,-9.761273785316673668e-02,-9.345310413783292081e-02,-8.790692585072117093e-02,-8.208343864925385369e-02,-7.653726036214210382e-02,-7.099108207503035395e-02,-6.516759487356302283e-02,-5.962141658645126602e-02,-5.379792938498394184e-02,-4.825175109787219196e-02,-4.242826389640486084e-02,-3.688208560929311097e-02,-3.105859840782578332e-02,-2.551242012071403692e-02,-1.996624183360228705e-02,-1.414275463213495419e-02,-8.596576345023206056e-03,-2.773089143555873201e-03,0.000000000000000000e+00,0.000000000000000000e+00,0.000000000000000000e+00,0.000000000000000000e+00,0.000000000000000000e+00,0.000000000000000000e+00,0.000000000000000000e+00,0.000000000000000000e+00,0.000000000000000000e+00,0.000000000000000000e+00,0.000000000000000000e+00,0.000000000000000000e+00,0.000000000000000000e+00,0.000000000000000000e+00,0.000000000000000000e+00,0.000000000000000000e+00,0.000000000000000000e+00
-5.839333425144796474e-02,-6.296893133831515943e-02,-6.732664284961722978e-02,-7.190223993648442447e-02,-7.625995144778652257e-02,-8.061766295908860680e-02,-8.519326004595580148e-02,-8.955097155725788571e-02,-9.412656864412508040e-02,-9.761273785316675056e-02,-9.761273785316673668e-02,-9.761273785316673668e-02,-9.761273785316673668e-02,-9.761273785316673668e-02,-9.483964870961086868e-02,-8.901616150814352368e-02,-8.346998322103177381e-02,-7.764649601956444269e-02,-7.210031773245270670e-02,-6.627683053098537558e-02,-6.073065224387362571e-02,-5.490716504240629459e-02,-4.936098675529454471e-02,-4.381480846818279484e-02,-3.799132126671546372e-02,-3.244514297960371385e-02,-2.662165577813638620e-02,-2.107547749102463980e-02,-1.525199028955730174e-02,-9.705812002445555337e-03,-3.882324800978222482e-03,0.000000000000000000e+00,0.000000000000000000e+00,0.000000000000000000e+00,0.000000000000000000e+00,0.000000000000000000e+00,0.000000000000000000e+00,0.000000000000000000e+00,0.000000000000000000e+00,0.000000000000000000e+00,0.000000000000000000e+00,0.000000000000000000e+00,0.000000000000000000e+00,0.000000000000000000e+00,0.000000000000000000e+00,0.000000000000000000e+00,0.000000000000000000e+00
-5.316408043788545257e-02,-5.752179194918754374e-02,-6.209738903605473842e-02,-6.645510054735681571e-02,-7.081281205865889994e-02,-7.538840914552610850e-02,-7.974612065682819273e-02,-8.432171774369538741e-02,-8.867942925499745777e-02,-9.325502634186463857e-02,-9.761273785316673668e-02,-9.761273785316673668e-02,-9.761273785316673668e-02,-9.761273785316673668e-02,-9.761273785316673668e-02,-9.594888436703320755e-02,-9.012539716556587643e-02,-8.457921887845412656e-02,-7.875573167698679544e-02,-7.320955338987505945e-02,-6.738606618840771445e-02,-6.183988790129597846e-02,-5.629370961418422858e-02,-5.047022241271690440e-02,-4.492404412560514759e-02,-3.910055692413781647e-02,-3.355437863702606660e-02,-2.773089143555873548e-02,-2.218471314844698561e-02,-1.636122594697965102e-02,-1.081504765986790635e-02,-5.268869372756159082e-03,0.000000000000000000e+00,0.000000000000000000e+00,0.000000000000000000e+00,0.000000000000000000e+00,0.000000000000000000e+00,0.000000000000000000e+00,0.000000000000000000e+00,0.000000000000000000e+00,0.000000000000000000e+00,0.000000000000000000e+00,0.000000000000000000e+00,0.000000000000000000e+00,0.000000000000000000e+00,0.000000000000000000e+00,0.000000000000000000e+00
-4.771694104875784381e-02,-5.207465256005993498e-02,-5.665024964692712967e-02,-6.100796115822921389e-02,-6.558355824509640164e-02,-6.994126975639847199e-02,-7.451686684326568055e-02,-7.887457835456776478e-02,-8.345017544143497334e-02,-8.780788695273704370e-02,-9.216559846403914180e-02,-9.674119555090632261e-02,-9.761273785316673668e-02,-9.761273785316672280e-02,-9.761273785316673668e-02,-9.761273785316673668e-02,-9.705812002445554643e-02,-9.123463282298822918e-02,-8.568845453587647931e-02,-8.014227624876474332e-02,-7.431878904729741220e-02,-6.877261076018564845e-02,-6.294912355871831733e-02,-5.740294527160658133e-02,-5.157945807013924328e-02,-4.603327978302750034e-02,-4.020979258156016228e-02,-3.466361429444841935e-02,-2.911743600733667295e-02,-2.329394880586933836e-02,-1.774777051875758849e-02,-1.192428331729025390e-02,-6.378105030178508363e-03,-5.546178287111746402e-04,0.000000000000000000e+00,0.000000000000000000e+00,0.000000000000000000e+00,0.000000000000000000e+00,0.000000000000000000e+00,0.000000000000000000e+00,0.000000000000000000e+00,0.000000000000000000e+00,0.000000000000000000e+00,0.000000000000000000e+00,0.000000000000000000e+00,0.000000000000000000e+00,0.000000000000000000e+00
-4.226980165963024200e-02,-4.684539874649742974e-02,-5.120311025779951397e-02,-5.577870734466670866e-02,-6.013641885596879288e-02,-6.471201594283598757e-02,-6.906972745413805792e-02,-7.364532454100525261e-02,-7.800303605230736459e-02,-8.236074756360944882e-02,-8.693634465047662963e-02,-9.129405616177869998e-02,-9.586965324864590854e-02,-9.761273785316673668e-02,-9.761273785316673668e-02,-9.761273785316673668e-02,-9.761273785316675056e-02,-9.761273785316673668e-02,-9.262117739476616318e-02,-8.679769019329881818e-02,-8.125151190618709607e-02,-7.542802470471973719e-02,-6.988184641760800120e-02,-6.405835921614067008e-02,-5.851218092902893408e-02,-5.268869372756160296e-02,-4.714251544044984615e-02,-4.159633715333809628e-02,-3.577284995187076516e-02,-3.022667166475901876e-02,-2.440318446329168764e-02,-1.885700617617993777e-02,-1.303351897471260318e-02,-7.487340687600857643e-03,-1.663853486133523921e-03,0.000000000000000000e+00,0.000000000000000000e+00,0.000000000000000000e+00,0.000000000000000000e+00,0.000000000000000000e+00,0.000000000000000000e+00,0.000000000000000000e+00,0.000000000000000000e+00,0.000000000000000000e+00,0.000000000000000000e+00,0.000000000000000000e+00,0.000000000000000000e+00
-3.704054784606772982e-02,-4.139825935736982793e-02,-4.597385644423702261e-02,-5.033156795553909990e-02,-5.490716504240629459e-02,-5.926487655370837881e-02,-6.362258806501046304e-02,-6.819818515187764385e-02,-7.255589666317974196e-02,-7.713149375004692276e-02,-8.148920526134903475e-02,-8.606480234821621556e-02,-9.042251385951829978e-02,-9.499811094638549447e-02,-9.761273785316673668e-02,-9.761273785316673668e-02,-9.761273785316672280e-02,-9.761273785316673668e-02,-9.761273785316673668e-02,-9.373041305218851593e-02,-8.790692585072118481e-02,-8.236074756360943494e-02,-7.653726036214208994e-02,-7.099108207503035395e-02,-6.544490378791861795e-02,-5.962141658645126602e-02,-5.407523829933953696e-02,-4.825175109787219196e-02,-4.270557281076044903e-02,-3.688208560929311097e-02,-3.133590732218136804e-02,-2.551242012071403692e-02,-1.996624183360228705e-02,-1.442006354649054065e-02,-8.596576345023206056e-03,-3.050398057911460521e-03,0.000000000000000000e+00,0.000000000000000000e+00,0.000000000000000000e+00,0.000000000000000000e+00,0.000000000000000000e+00,0.000000000000000000e+00,0.000000000000000000e+00,0.000000000000000000e+00,0.000000000000000000e+00,0.000000000000000000e+00,0.000000000000000000e+00
-3.159340845694012800e-02,-3.616900554380731575e-02,-4.052671705510940692e-02,-4.510231414197659466e-02,-4.946002565327867889e-02,-5.381773716458077006e-02,-5.839333425144796474e-02,-6.275104576275004897e-02,-6.732664284961722978e-02,-7.168435436091931401e-02,-7.625995144778652257e-02,-8.061766295908860680e-02,-8.519326004595580148e-02,-8.955097155725788571e-02,-9.390868306855995606e-02,-9.761273785316672280e-02,-9.761273785316673668e-02,-9.761273785316673668e-02,-9.761273785316673668e-02,-9.761273785316673668e-02,-9.483964870961086868e-02,-8.901616150814353756e-02,-8.346998322103177381e-02,-7.792380493392002394e-02,-7.210031773245270670e-02,-6.655413944534095683e-02,-6.073065224387361877e-02,-5.518447395676188277e-02,-4.936098675529454471e-02,-4.381480846818279484e-02,-3.799132126671546372e-02,-3.244514297960372079e-02,-2.689896469249197439e-02,-2.107547749102463633e-02,-1.552929920391288993e-02,-9.705812002445557071e-03,-4.159633715333809802e-03,0.000000000000000000e+00,0.000000000000000000e+00,0.000000000000000000e+00,0.000000000000000000e+00,0.000000000000000000e+00,0.000000000000000000e+00,0.000000000000000000e+00,0.000000000000000000e+00,0.000000000000000000e+00,0.000000000000000000e+00
-2.636415464337762277e-02,-3.072186615467970700e-02,-3.507957766598179122e-02,-3.965517475284898591e-02,-4.401288626415107708e-02,-4.858848335101825788e-02,-5.294619486232035599e-02,-5.752179194918755067e-02,-6.187950346048963490e-02,-6.645510054735681571e-02,-7.081281205865889994e-02,-7.517052356996099804e-02,-7.974612065682819273e-02,-8.410383216813027696e-02,-8.867942925499745777e-02,-9.303714076629954199e-02,-9.761273785316673668e-02,-9.761273785316673668e-02,-9.761273785316675056e-02,-9.761273785316673668e-02,-9.761273785316673668e-02,-9.594888436703322143e-02,-9.040270607992147156e-02,-8.457921887845412656e-02,-7.903304059134237669e-02,-7.320955338987505945e-02,-6.766337510276329570e-02,-6.183988790129597152e-02,-5.629370961418422858e-02,-5.074753132707249259e-02,-4.492404412560514759e-02,-3.937786583849339772e-02,-3.355437863702606660e-02,-2.800820034991432367e-02,-2.218471314844698561e-02,-1.663853486133524268e-02,-1.081504765986790462e-02,-5.268869372756159082e-03,0.000000000000000000e+00,0.000000000000000000e+00,0.000000000000000000e+00,0.000000000000000000e+00,0.000000000000000000e+00,0.000000000000000000e+00,0.000000000000000000e+00,0.000000000000000000e+00,0.000000000000000000e+00
-2.091701525425001748e-02,-2.527472676555210518e-02,-2.985032385241929292e-02,-3.420803536372137715e-02,-3.878363245058857184e-02,-4.314134396189066301e-02,-4.771694104875785075e-02,-5.207465256005994192e-02,-5.643236407136201921e-02,-6.100796115822921389e-02,-6.536567266953130506e-02,-6.994126975639849975e-02,-7.429898126770057010e-02,-7.887457835456776478e-02,-8.323228986586986289e-02,-8.780788695273704370e-02,-9.216559846403911405e-02,-9.652330997534122603e-02,-9.761273785316673668e-02,-9.761273785316673668e-02,-9.761273785316673668e-02,-9.761273785316675056e-02,-9.705812002445556030e-02,-9.151194173734381043e-02,-8.568845453587647931e-02,-8.014227624876474332e-02,-7.459609796165297957e-02,-6.877261076018564845e-02,-6.322643247307391245e-02,-5.740294527160658133e-02,-5.185676698449483840e-02,-4.603327978302749340e-02,-4.048710149591575047e-02,-3.466361429444841935e-02,-2.911743600733666948e-02,-2.357125772022492655e-02,-1.774777051875758849e-02,-1.220159223164584208e-02,-6.378105030178508363e-03,-8.319267430667619603e-04,0.000000000000000000e+00,0.000000000000000000e+00,0.000000000000000000e+00,0.000000000000000000e+00,0.000000000000000000e+00,0.000000000000000000e+00,0.000000000000000000e+00
-1.546987586512240873e-02,-2.004547295198959994e-02,-2.440318446329168764e-02,-2.897878155015887539e-02,-3.333649306146095614e-02,-3.791209014832815083e-02,-4.226980165963024894e-02,-4.662751317093232623e-02,-5.120311025779951397e-02,-5.556082176910159820e-02,-6.013641885596879288e-02,-6.449413036727089099e-02,-6.906972745413805792e-02,-7.342743896544015603e-02,-7.800303605230735071e-02,-8.236074756360944882e-02,-8.671845907491151917e-02,-9.129405616177869998e-02,-9.565176767308079808e-02,-9.761273785316672280e-02,-9.761273785316673668e-02,-9.761273785316673668e-02,-9.761273785316675056e-02,-9.761273785316673668e-02,-9.262117739476616318e-02,-8.707499910765442719e-02,-8.125151190618708219e-02,-7.570533361907534620e-02,-2.154964082409324966e-01,-2.099502299538207606e-01,-2.041267427523534295e-01,-1.985805644652416935e-01,-1.927570772637743346e-01,-4.159633715333809628e-02,-3.605015886622635335e-02,-3.022667166475901876e-02,-2.468049337764727236e-02,-1.885700617617993777e-02,-1.331082788906819137e-02,-7.487340687600857643e-03,-1.941162400489111241e-03,0.000000000000000000e+00,0.000000000000000000e+00,0.000000000000000000e+00,0.000000000000000000e+00,0.000000000000000000e+00,0.000000000000000000e+00
-1.024062205155990349e-02,-1.459833356286199119e-02,-1.917393064972918240e-02,-2.353164216103126663e-02,-2.788935367233335433e-02,-3.246495075920054207e-02,-3.682266227050262630e-02,-4.139825935736982099e-02,-4.575597086867190522e-02,-5.033156795553909296e-02,-5.468927946684118413e-02,-5.926487655370837881e-02,-6.362258806501046304e-02,-6.798029957631254727e-02,-7.255589666317974196e-02,-7.691360817448182619e-02,-8.148920526134902087e-02,-8.584691677265110510e-02,-9.042251385951829978e-02,-9.478022537082037013e-02,-9.761273785316675056e-02,-9.761273785316673668e-02,-9.761273785316673668e-02,-9.761273785316673668e-02,-9.761273785316673668e-02,-9.373041305218851593e-02,-8.818423476507676606e-02,-8.236074756360943494e-02,-2.224291310998221805e-01,-2.166056438983548493e-01,-2.110594656112431133e-01,-2.055132873241313496e-01,-1.996898001226640185e-01,-4.852906001222778709e-02,-4.270557281076044903e-02,-3.715939452364869916e-02,-3.133590732218136804e-02,-2.578972903506962164e-02,-1.996624183360228705e-02,-1.442006354649054065e-02,-8.873885259378794244e-03,-3.050398057911460521e-03,0.000000000000000000e+00,0.000000000000000000e+00,0.000000000000000000e+00,0.000000000000000000e+00,0.000000000000000000e+00
-4.793482662432295600e-03,-9.369079749299485949e-03,-1.372679126060157018e-02,-1.808450277190365788e-02,-2.266009985877085256e-02,-2.701781137007293679e-02,-3.159340845694012800e-02,-3.595111996824221223e-02,-4.052671705510940692e-02,-4.488442856641149115e-02,-4.946002565327868583e-02,-5.381773716458077006e-02,-5.817544867588286123e-02,-6.275104576275004897e-02,-6.710875727405213320e-02,-7.168435436091931401e-02,-7.604206587222141212e-02,-8.061766295908860680e-02,-8.497537447039069103e-02,-8.955097155725788571e-02,-9.390868306855995606e-02,-9.761273785316673668e-02,-9.761273785316673668e-02,-9.761273785316673668e-02,-9.761273785316673668e-02,-9.761273785316673668e-02,-9.483964870961086868e-02,-8.929347042249911881e-02,-2.290845450443562692e-01,-2.235383667572445332e-01,-2.179921884701327972e-01,-2.121687012686654383e-01,-2.066225229815537023e-01,-1.781901528369439214e-01,-1.726439745498321854e-01,-1.668204873483648543e-01,-1.612743090612530905e-01,-3.244514297960371385e-02,-2.689896469249197439e-02,-2.135278640538022452e-02,-1.552929920391289166e-02,-9.983120916801143524e-03,-4.159633715333809802e-03,0.000000000000000000e+00,0.000000000000000000e+00,0.000000000000000000e+00,0.000000000000000000e+00
0.000000000000000000e+00,-3.921940360171878061e-03,-8.279651871473964891e-03,-1.285524895834115611e-02,-1.721296046964324034e-02,-2.178855755651043155e-02,-2.614626906781251925e-02,-3.072186615467970700e-02,-3.507957766598179122e-02,-3.943728917728388239e-02,-4.401288626415107708e-02,-4.837059777545316130e-02,-5.294619486232035599e-02,-5.730390637362244716e-02,-6.187950346048963490e-02,-6.623721497179170525e-02,-7.081281205865889994e-02,-7.517052356996099804e-02,-7.952823508126308227e-02,-8.410383216813027696e-02,-8.846154367943234731e-02,-9.303714076629955587e-02,-9.739485227760164010e-02,-9.761273785316673668e-02,-9.761273785316675056e-02,-9.761273785316673668e-02,-9.761273785316672280e-02,-9.622619328138880268e-02,-2.360172679032459531e-01,-2.304710896161342171e-01,-2.246476024146668582e-01,-2.191014241275551222e-01,-2.132779369260878188e-01,-1.851228756958336052e-01,-1.792993884943662741e-01,-1.737532102072545381e-01,-1.682070319201427744e-01,-3.937786583849339772e-02,-3.383168755138165479e-02,-2.800820034991432367e-02,-2.246202206280257380e-02,-1.663853486133523921e-02,-1.109235657422349280e-02,-5.268869372756159082e-03,0.000000000000000000e+00,0.000000000000000000e+00,0.000000000000000000e+00
0.000000000000000000e+00,0.000000000000000000e+00,-3.050398057911460521e-03,-7.408109569213547352e-03,-1.198370665608073857e-02,-1.634141816738282627e-02,-2.091701525425001748e-02,-2.527472676555210518e-02,-2.963243827685418594e-02,-3.420803536372137021e-02,-3.856574687502346832e-02,-4.314134396189066301e-02,-4.749905547319274723e-02,-5.207465256005992804e-02,-5.643236407136202615e-02,-6.100796115822921389e-02,-6.536567266953129118e-02,-6.972338418083337541e-02,-7.429898126770057010e-02,-7.865669277900266820e-02,-8.323228986586986289e-02,-8.759000137717193324e-02,-9.216559846403912792e-02,-9.652330997534121215e-02,-9.761273785316673668e-02,-9.761273785316673668e-02,-9.761273785316673668e-02,-9.761273785316673668e-02,-2.429499907621356369e-01,-2.371265035606683058e-01,-2.315803252735565698e-01,-2.257568380720892387e-01,-2.202106597849775027e-01,-1.917782896403676940e-01,-1.862321113532559580e-01,-1.806859330661442220e-01,-1.748624458646768631e-01,-4.631058869738308159e-02,-4.048710149591575047e-02,-3.494092320880400754e-02,-2.911743600733666948e-02,-2.357125772022492308e-02,-1.774777051875758849e-02,-1.220159223164584208e-02,-6.655413944534095683e-03,-8.319267430667619603e-04,0.000000000000000000e+00
0.000000000000000000e+00,0.000000000000000000e+00,0.000000000000000000e+00,-2.178855755651042982e-03,-6.536567266953129812e-03,-1.089427877825521578e-02,-1.546987586512240699e-02,-1.982758737642449642e-02,-2.440318446329168417e-02,-2.876089597459376840e-02,-3.333649306146096308e-02,-3.769420457276305425e-02,-4.226980165963024894e-02,-4.662751317093233316e-02,-5.098522468223441045e-02,-5.556082176910161208e-02,-5.991853328040368937e-02,-6.449413036727087711e-02,-6.885184187857296134e-02,-7.342743896544015603e-02,-7.778515047674224026e-02,-8.236074756360944882e-02,-8.671845907491151917e-02,-9.107617058621361728e-02,-9.565176767308079808e-02,-9.761273785316673668e-02,-9.761273785316673668e-02,-9.761273785316673668e-02,-9.761273785316673668e-02,-9.761273785316673668e-02,-9.262117739476616318e-02,-8.707499910765442719e-02,-8.152882082054266344e-02,-1.987110124992573779e-01,-1.931648342121456419e-01,-1.873413470106783107e-01,-1.817951687235665470e-01,-5.296600264191718421e-02,-4.741982435480543434e-02,-4.159633715333809628e-02,-3.605015886622635335e-02,-3.050398057911460695e-02,-2.468049337764727236e-02,-1.913431509053552596e-02,-1.331082788906819137e-02,-7.764649601956444963e-03,-1.091903850275125019e-03
0.000000000000000000e+00,0.000000000000000000e+00,0.000000000000000000e+00,0.000000000000000000e+00,-1.089427877825521708e-03,-5.665024964692712273e-03,-1.002273647599479997e-02,-1.459833356286198945e-02,-1.895604507416407888e-02,-2.353164216103127010e-02,-2.788935367233335433e-02,-3.246495075920054207e-02,-3.682266227050262630e-02,-4.118037378180472441e-02,-4.575597086867191216e-02,-5.011368237997399638e-02,-5.468927946684118413e-02,-5.904699097814327530e-02,-6.362258806501046304e-02,-6.798029957631254727e-02,-7.255589666317974196e-02,-7.691360817448181231e-02,-8.127131968578391041e-02,-8.584691677265111898e-02,-9.020462828395318933e-02,-9.478022537082038401e-02,-9.761273785316673668e-02,-9.761273785316673668e-02,-9.761273785316673668e-02,-9.761273785316673668e-02,-9.761273785316673668e-02,-9.400772196654409718e-02,-8.818423476507676606e-02,-8.263805647796501619e-02,-7.681456927649768507e-02,-7.126839098938594907e-02,-6.544490378791860408e-02,-5.989872550080687502e-02,-5.407523829933953002e-02,-4.852906001222778015e-02,-4.298288172511603722e-02,-3.715939452364869916e-02,-3.161321623653695623e-02,-2.578972903506962511e-02,-2.024355074795787524e-02,-9.913793688212246477e-03,0.000000000000000000e+00
0.000000000000000000e+00,0.000000000000000000e+00,0.000000000000000000e+00,0.000000000000000000e+00,0.000000000000000000e+00,-2.178855755651043307e-04,-4.793482662432294733e-03,-9.151194173734382431e-03,-1.372679126060157365e-02,-1.808450277190366134e-02,-2.244221428320574557e-02,-2.701781137007294026e-02,-3.137552288137501755e-02,-3.595111996824220529e-02,-4.030883147954430340e-02,-4.488442856641149808e-02,-4.924214007771357537e-02,-5.381773716458077006e-02,-5.817544867588286123e-02,-6.253316018718493852e-02,-6.710875727405213320e-02,-7.146646878535421743e-02,-7.604206587222142599e-02,-8.039977738352351022e-02,-8.497537447039070491e-02,-8.933308598169276138e-02,-9.390868306855995606e-02,-9.761273785316675056e-02,-9.761273785316673668e-02,-9.761273785316673668e-02,-9.761273785316673668e-02,-9.761273785316673668e-02,-9.511695762396646381e-02,-8.929347042249911881e-02,-8.374729213538736894e-02,-7.792380493392003782e-02,-7.237762664680828795e-02,-6.683144835969655195e-02,-6.100796115822921389e-02,-5.546178287111747096e-02,-4.963829566965012596e-02,-4.409211738253838303e-02,-3.826863018107104497e-02,-3.272245189395930204e-02,-2.185540881264972854e-02,-1.334549150336264032e-03,0.000000000000000000e+00
0.000000000000000000e+00,0.000000000000000000e+00,0.000000000000000000e+00,0.000000000000000000e+00,0.000000000000000000e+00,0.000000000000000000e+00,0.000000000000000000e+00,-3.921940360171878061e-03,-8.279651871473964891e-03,-1.263736338277605259e-02,-1.721296046964324380e-02,-2.157067198094532803e-02,-2.614626906781252272e-02,-3.050398057911460695e-02,-3.507957766598179122e-02,-3.943728917728388239e-02,-4.401288626415107708e-02,-4.837059777545316130e-02,-5.272830928675524553e-02,-5.730390637362244716e-02,-6.166161788492453139e-02,-6.623721497179171913e-02,-7.059492648309378948e-02,-7.517052356996099804e-02,-7.952823508126309615e-02,-8.410383216813027696e-02,-8.846154367943236119e-02,-9.281925519073444542e-02,-9.739485227760162622e-02,-9.761273785316673668e-02,-9.761273785316673668e-02,-9.761273785316673668e-02,-9.761273785316673668e-02,-9.622619328138878880e-02,-9.040270607992147156e-02,-8.485652779280972169e-02,-7.931034950569797182e-02,-7.348686230423064070e-02,-6.794068401711889083e-02,-6.211719681565155970e-02,-5.657101852853980983e-02,-5.074753132707248565e-02,-4.520135303996073578e-02,-3.691674922358756383e-02,-6.343441415884059839e-03,0.000000000000000000e+00,0.000000000000000000e+00
0.000000000000000000e+00,0.000000000000000000e+00,0.000000000000000000e+00,0.000000000000000000e+00,0.000000000000000000e+00,0.000000000000000000e+00,0.000000000000000000e+00,0.000000000000000000e+00,-2.832512482346356570e-03,-7.408109569213547352e-03,-1.176582108051563332e-02,-1.634141816738282627e-02,-2.069912967868491049e-02,-2.527472676555210171e-02,-2.963243827685418247e-02,-3.399014978815627364e-02,-3.856574687502346138e-02,-4.292345838632555255e-02,-4.749905547319274030e-02,-5.185676698449483146e-02,-5.643236407136201921e-02,-6.079007558266411038e-02,-6.536567266953130506e-02,-6.972338418083337541e-02,-7.408109569213547352e-02,-7.865669277900268208e-02,-8.301440429030476631e-02,-8.759000137717193324e-02,-9.194771288847401747e-02,-9.652330997534121215e-02,-9.761273785316673668e-02,-9.761273785316672280e-02,-9.761273785316673668e-02,-9.761273785316673668e-02,-9.733542893881114155e-02,-9.178925065169939168e-02,-8.596576345023207444e-02,-8.041958516312031069e-02,-7.459609796165299345e-02,-6.904991967454124357e-02,-6.322643247307391245e-02,-5.768025418596216258e-02,-5.213407589885042659e-02,-1.447205896793221300e-02,0.000000000000000000e+00,0.000000000000000000e+00,0.000000000000000000e+00
0.000000000000000000e+00,0.000000000000000000e+00,0.000000000000000000e+00,0.000000000000000000e+00,0.000000000000000000e+00,0.000000000000000000e+00,0.000000000000000000e+00,0.000000000000000000e+00,0.000000000000000000e+00,-1.960970180085939030e-03,-6.536567266953129812e-03,-1.089427877825521578e-02,-1.525199028955730347e-02,-1.982758737642449642e-02,-2.418529888772658065e-02,-2.876089597459377534e-02,-3.311860748589585957e-02,-3.769420457276305425e-02,-4.205191608406514542e-02,-4.662751317093233316e-02,-5.098522468223441739e-02,-5.534293619353650162e-02,-5.991853328040368937e-02,-6.427624479170578053e-02,-6.885184187857296134e-02,-7.320955338987504557e-02,-7.778515047674224026e-02,-8.214286198804432448e-02,-8.671845907491153305e-02,-9.107617058621360340e-02,-9.543388209751568763e-02,-9.761273785316673668e-02,-9.761273785316673668e-02,-9.761273785316673668e-02,-9.761273785316673668e-02,-9.761273785316673668e-02,-9.289848630912175831e-02,-8.707499910765442719e-02,-8.152882082054267732e-02,-7.598264253343092745e-02,-7.015915533196359632e-02,-6.461297704485184645e-02,-2.572040180648072633e-02,0.000000000000000000e+00,0.000000000000000000e+00,0.000000000000000000e+00,0.000000000000000000e+00
0.000000000000000000e+00,0.000000000000000000e+00,0.000000000000000000e+00,0.000000000000000000e+00,0.000000000000000000e+00,0.000000000000000000e+00,0.000000000000000000e+00,0.000000000000000000e+00,0.000000000000000000e+00,0.000000000000000000e+00,-1.089427877825521491e-03,-5.447139389127607888e-03,-1.002273647599479997e-02,-1.438044798729688593e-02,-1.895604507416407541e-02,-2.331375658546616311e-02,-2.788935367233335433e-02,-3.224706518363543856e-02,-3.682266227050262630e-02,-4.118037378180472441e-02,-4.553808529310680864e-02,-5.011368237997400332e-02,-5.447139389127608755e-02,-5.904699097814328224e-02,-6.340470248944536646e-02,-6.798029957631254727e-02,-7.233801108761463150e-02,-7.691360817448184006e-02,-8.127131968578392429e-02,-8.562903119708600852e-02,-9.020462828395318933e-02,-9.456233979525527356e-02,-9.761273785316672280e-02,-9.761273785316673668e-02,-9.761273785316673668e-02,-9.761273785316673668e-02,-9.761273785316673668e-02,-9.400772196654411106e-02,-8.846154367943236119e-02,-8.263805647796501619e-02,-7.709187819085328019e-02,-4.008846993152959115e-02,0.000000000000000000e+00,0.000000000000000000e+00,0.000000000000000000e+00,0.000000000000000000e+00,0.000000000000000000e+00
0.000000000000000000e+00,0.000000000000000000e+00,0.000000000000000000e+00,0.000000000000000000e+00,0.000000000000000000e+00,0.000000000000000000e+00,0.000000000000000000e+00,0.000000000000000000e+00,0.000000000000000000e+00,0.000000000000000000e+00,0.000000000000000000e+00,-2.178855755651043307e-04,-4.575597086867191216e-03,-9.151194173734382431e-03,-1.350890568503646839e-02,-1.808450277190366134e-02,-2.244221428320574904e-02,-2.679992579450783327e-02,-3.137552288137501755e-02,-3.573323439267710872e-02,-4.030883147954429646e-02,-4.466654299084638763e-02,-4.924214007771357537e-02,-5.359985158901565960e-02,-5.817544867588285429e-02,-6.253316018718493852e-02,-6.689087169848702275e-02,-7.146646878535421743e-02,-7.582418029665630166e-02,-8.039977738352351022e-02,-8.475748889482559445e-02,-8.933308598169278913e-02,-9.369079749299485949e-02,-9.761273785316675056e-02,-9.761273785316673668e-02,-9.761273785316673668e-02,-9.761273785316673668e-02,-9.761273785316673668e-02,-9.511695762396644993e-02,-8.957077933685470006e-02,-5.757626334307881788e-02,0.000000000000000000e+00,0.000000000000000000e+00,0.000000000000000000e+00,0.000000000000000000e+00,0.000000000000000000e+00,0.000000000000000000e+00
0.000000000000000000e+00,0.000000000000000000e+00,0.000000000000000000e+00,0.000000000000000000e+00,0.000000000000000000e+00,0.000000000000000000e+00,0.000000000000000000e+00,0.000000000000000000e+00,0.000000000000000000e+00,0.000000000000000000e+00,0.000000000000000000e+00,0.000000000000000000e+00,0.000000000000000000e+00,-3.704054784606773676e-03,-8.279651871473963157e-03,-1.263736338277605085e-02,-1.699507489407813682e-02,-2.157067198094533150e-02,-2.592838349224741573e-02,-3.050398057911460348e-02,-3.486169209041668771e-02,-3.943728917728388239e-02,-4.379500068858597356e-02,-4.837059777545315437e-02,-5.272830928675524553e-02,-5.708602079805733670e-02,-6.166161788492453139e-02,-6.601932939622660867e-02,-7.059492648309378948e-02,-7.495263799439588759e-02,-7.952823508126308227e-02,-8.388594659256516650e-02,-8.846154367943234731e-02,-9.281925519073444542e-02,-9.717696670203652964e-02,-9.761273785316673668e-02,-9.761273785316672280e-02,-9.761273785316673668e-02,-9.761273785316673668e-02,-8.119085058117180009e-02,-5.667500937142315801e-03,0.000000000000000000e+00,0.000000000000000000e+00,0.000000000000000000e+00,0.000000000000000000e+00,0.000000000000000000e+00,0.000000000000000000e+00
0.000000000000000000e+00,0.000000000000000000e+00,0.000000000000000000e+00,0.000000000000000000e+00,0.000000000000000000e+00,0.000000000000000000e+00,0.000000000000000000e+00,0.000000000000000000e+00,0.000000000000000000e+00,0.000000000000000000e+00,0.000000000000000000e+00,0.000000000000000000e+00,0.000000000000000000e+00,0.000000000000000000e+00,-2.832512482346356136e-03,-7.190223993648442967e-03,-1.176582108051563505e-02,-1.612353259181771928e-02,-2.069912967868491396e-02,-2.505684118998700166e-02,-2.963243827685418594e-02,-3.399014978815626670e-02,-3.834786129945835786e-02,-4.292345838632555255e-02,-4.728116989762763678e-02,-5.185676698449483146e-02,-5.621447849579691569e-02,-6.079007558266411038e-02,-6.514778709396619460e-02,-6.972338418083337541e-02,-7.408109569213545964e-02,-7.843880720343757162e-02,-8.301440429030475243e-02,-8.737211580160683666e-02,-9.194771288847401747e-02,-9.630542439977610170e-02,-9.761273785316673668e-02,-9.761273785316673668e-02,-9.456233979525527356e-02,-1.830238834746876139e-02,0.000000000000000000e+00,0.000000000000000000e+00,0.000000000000000000e+00,0.000000000000000000e+00,0.000000000000000000e+00,0.000000000000000000e+00,0.000000000000000000e+00
0.000000000000000000e+00,0.000000000000000000e+00,0.000000000000000000e+00,0.000000000000000000e+00,0.000000000000000000e+00,0.000000000000000000e+00,0.000000000000000000e+00,0.000000000000000000e+00,0.000000000000000000e+00,0.000000000000000000e+00,0.000000000000000000e+00,0.000000000000000000e+00,0.000000000000000000e+00,0.000000000000000000e+00,0.000000000000000000e+00,-1.960970180085939030e-03,-6.318681691388025427e-03,-1.089427877825521751e-02,-1.525199028955730347e-02,-1.960970180085939291e-02,-2.418529888772658065e-02,-2.854301039902867182e-02,-3.311860748589585957e-02,-3.747631899719794379e-02,-4.205191608406514542e-02,-4.640962759536722271e-02,-5.098522468223441045e-02,-5.534293619353650162e-02,-5.970064770483858585e-02,-6.427624479170578053e-02,-6.863395630300786476e-02,-7.320955338987505945e-02,-7.756726490117714368e-02,-8.214286198804435224e-02,-8.650057349934642259e-02,-9.107617058621361728e-02,-9.543388209751568763e-02,-9.761273785316673668e-02,-3.050398057911460695e-02,0.000000000000000000e+00,0.000000000000000000e+00,0.000000000000000000e+00,0.000000000000000000e+00,0.000000000000000000e+00,0.000000000000000000e+00,0.000000000000000000e+00,0.000000000000000000e+00
0.000000000000000000e+00,0.000000000000000000e+00,0.000000000000000000e+00,0.000000000000000000e+00,0.000000000000000000e+00,0.000000000000000000e+00,0.000000000000000000e+00,0.000000000000000000e+00,0.000000000000000000e+00,0.000000000000000000e+00,0.000000000000000000e+00,0.000000000000000000e+00,0.000000000000000000e+00,0.000000000000000000e+00,0.000000000000000000e+00,0.000000000000000000e+00,-1.089427877825521491e-03,-5.447139389127608755e-03,-9.804850900429694718e-03,-1.438044798729688420e-02,-1.873815949859897190e-02,-2.331375658546616658e-02,-2.767146809676825081e-02,-3.224706518363543856e-02,-3.660477669493752279e-02,-4.118037378180472441e-02,-4.553808529310680864e-02,-4.989579680440889287e-02,-5.447139389127608061e-02,-5.882910540257817178e-02,-6.340470248944535259e-02,-6.776241400074743682e-02,-7.233801108761463150e-02,-7.669572259891672961e-02,-8.127131968578392429e-02,-8.562903119708600852e-02,-8.998674270838807887e-02,-4.137102366042418045e-02,0.000000000000000000e+00,0.000000000000000000e+00,0.000000000000000000e+00,0.000000000000000000e+00,0.000000000000000000e+00,0.000000000000000000e+00,0.000000000000000000e+00,0.000000000000000000e+00,0.000000000000000000e+00
0.000000000000000000e+00,0.000000000000000000e+00,0.000000000000000000e+00,0.000000000000000000e+00,0.000000000000000000e+00,0.000000000000000000e+00,0.000000000000000000e+00,0.000000000000000000e+00,0.000000000000000000e+00,0.000000000000000000e+00,0.000000000000000000e+00,0.000000000000000000e+00,0.000000000000000000e+00,0.000000000000000000e+00,0.000000000000000000e+00,0.000000000000000000e+00,0.000000000000000000e+00,0.000000000000000000e+00,-4.575597086867191216e-03,-8.933308598169277179e-03,-1.350890568503646839e-02,-1.786661719633855436e-02,-2.244221428320574557e-02,-2.679992579450783327e-02,-3.115763730580991750e-02,-3.573323439267710872e-02,-4.009094590397919294e-02,-4.466654299084638763e-02,-2.715098529642961944e-01,-2.760854500511633614e-01,-2.804431615624654595e-01,-6.253316018718493852e-02,-6.689087169848702275e-02,-7.146646878535421743e-02,-7.582418029665630166e-02,-8.018189180795839976e-02,-5.032475903130269324e-02,0.000000000000000000e+00,0.000000000000000000e+00,0.000000000000000000e+00,0.000000000000000000e+00,0.000000000000000000e+00,0.000000000000000000e+00,0.000000000000000000e+00,0.000000000000000000e+00,0.000000000000000000e+00,0.000000000000000000e+00
0.000000000000000000e+00,0.000000000000000000e+00,0.000000000000000000e+00,0.000000000000000000e+00,0.000000000000000000e+00,0.000000000000000000e+00,0.000000000000000000e+00,0.000000000000000000e+00,0.000000000000000000e+00,0.000000000000000000e+00,0.000000000000000000e+00,0.000000000000000000e+00,0.000000000000000000e+00,0.000000000000000000e+00,0.000000000000000000e+00,0.000000000000000000e+00,0.000000000000000000e+00,0.000000000000000000e+00,0.000000000000000000e+00,-3.704054784606773676e-03,-8.061766295908859639e-03,-1.263736338277605085e-02,-1.699507489407813682e-02,-2.135278640538022799e-02,-2.592838349224741573e-02,-3.028609500354949996e-02,-3.486169209041668771e-02,-3.921940360171877887e-02,-2.662805991507337100e-01,-2.706383106620357526e-01,-2.752139077489029750e-01,-5.708602079805734364e-02,-6.144373230935942787e-02,-6.601932939622660867e-02,-7.037704090752867903e-02,-5.387220855847204420e-02,0.000000000000000000e+00,0.000000000000000000e+00,0.000000000000000000e+00,0.000000000000000000e+00,0.000000000000000000e+00,0.000000000000000000e+00,0.000000000000000000e+00,0.000000000000000000e+00,0.000000000000000000e+00,0.000000000000000000e+00,0.000000000000000000e+00
0.000000000000000000e+00,0.000000000000000000e+00,0.000000000000000000e+00,0.000000000000000000e+00,0.000000000000000000e+00,0.000000000000000000e+00,0.000000000000000000e+00,0.000000000000000000e+00,0.000000000000000000e+00,0.000000000000000000e+00,0.000000000000000000e+00,0.000000000000000000e+00,0.000000000000000000e+00,0.000000000000000000e+00,0.000000000000000000e+00,0.000000000000000000e+00,0.000000000000000000e+00,0.000000000000000000e+00,0.000000000000000000e+00,0.000000000000000000e+00,-2.614626906781251751e-03,-7.190223993648442967e-03,-1.154793550495052980e-02,-1.612353259181771928e-02,-2.048124410311980698e-02,-2.505684118998699819e-02,-2.941455270128908242e-02,-3.399014978815627364e-02,-2.608334597616061012e-01,-2.651911712729081438e-01,-2.697667683597753663e-01,-5.163888140892972795e-02,-5.621447849579692263e-02,-6.057219000709899992e-02,-5.496844536053397540e-02,-4.344093662829266560e-03,0.000000000000000000e+00,0.000000000000000000e+00,0.000000000000000000e+00,0.000000000000000000e+00,0.000000000000000000e+00,0.000000000000000000e+00,0.000000000000000000e+00,0.000000000000000000e+00,0.000000000000000000e+00,0.000000000000000000e+00,0.000000000000000000e+00
