-2.607913867894228188e-01,-2.607913867894228188e-01,-2.607913867894228188e-01,-2.607913867894228188e-01,-2.607913867894228188e-01,-2.607913867894228188e-01,-2.607913867894228188e-01,-2.607913867894228188e-01,-2.607913867894228188e-01,-2.607913867894228188e-01,-2.607913867894228188e-01,-2.607913867894228188e-01,-2.607913867894228188e-01,-2.607913867894228188e-01,-2.607913867894228188e-01,-2.607913867894228188e-01,-2.607913867894228188e-01,-2.607913867894228188e-01,-2.607913867894228188e-01,-2.607913867894228188e-01,-2.607913867894228188e-01,-2.607913867894228188e-01,-2.607913867894228188e-01,-2.607913867894228188e-01,-2.607913867894228188e-01,-2.607913867894228188e-01,-2.607913867894228188e-01,-2.607913867894228188e-01,-2.536603723068995286e-01,-2.404170596964991802e-01,-2.271737470860987762e-01,-2.129117181210522514e-01,-1.996684055106518474e-01,-1.864250929002514989e-01,-1.721630639352049186e-01,-1.589197513248045701e-01,-1.446577223597579898e-01,-1.314144097493576413e-01,-1.538261695515736327e-01,-2.607913867894228188e-01,-2.607913867894228188e-01,-2.607913867894228188e-01,-2.607913867894228188e-01,-2.607913867894228188e-01,-2.607913867894228188e-01,-2.607913867894228188e-01,-2.607913867894228188e-01
-2.607913867894228188e-01,-2.607913867894228188e-01,-2.607913867894228188e-01,-2.607913867894228188e-01,-2.607913867894228188e-01,-2.607913867894228188e-01,-2.607913867894228188e-01,-2.607913867894228188e-01,-2.607913867894228188e-01,-2.607913867894228188e-01,-2.607913867894228188e-01,-2.607913867894228188e-01,-2.607913867894228188e-01,-2.607913867894228188e-01,-2.607913867894228188e-01,-2.607913867894228188e-01,-2.607913867894228188e-01,-2.607913867894228188e-01,-2.607913867894228188e-01,-2.607913867894228188e-01,-2.607913867894228188e-01,-2.607913867894228188e-01,-2.607913867894228188e-01,-2.607913867894228188e-01,-2.607913867894228188e-01,-2.607913867894228188e-01,-2.516229395976071759e-01,-2.383796269872067997e-01,-2.241175980221602471e-01,-2.108742854117598708e-01,-1.976309728013594946e-01,-1.833689438363129420e-01,-1.701256312259125658e-01,-1.558636022608660132e-01,-1.426202896504656370e-01,-1.293769770400652608e-01,-1.151149480750187082e-01,-1.018716354646183320e-01,-8.862832285421792800e-02,-2.141851135643599580e-01,-2.607913867894228188e-01,-2.607913867894228188e-01,-2.607913867894228188e-01,-2.607913867894228188e-01,-2.607913867894228188e-01,-2.607913867894228188e-01,-2.607913867894228188e-01
-2.607913867894228188e-01,-2.607913867894228188e-01,-2.607913867894228188e-01,-2.607913867894228188e-01,-2.607913867894228188e-01,-2.607913867894228188e-01,-2.607913867894228188e-01,-2.607913867894228188e-01,-2.607913867894228188e-01,-2.607913867894228188e-01,-2.607913867894228188e-01,-2.607913867894228188e-01,-2.607913867894228188e-01,-2.607913867894228188e-01,-2.607913867894228188e-01,-2.607913867894228188e-01,-2.607913867894228188e-01,-2.607913867894228188e-01,-2.607913867894228188e-01,-2.607913867894228188e-01,-2.607913867894228188e-01,-2.607913867894228188e-01,-2.607913867894228188e-01,-2.607913867894228188e-01,-2.495855068883148231e-01,-2.363421942779144191e-01,-2.220801653128678943e-01,-2.088368527024674903e-01,-1.945748237374209377e-01,-1.813315111270205615e-01,-1.680881985166201853e-01,-1.538261695515736327e-01,-1.405828569411732565e-01,-1.263208279761267039e-01,-1.130775153657263554e-01,-9.983420275532595145e-02,-8.557217379027939885e-02,-7.232886117987902264e-02,-5.806683221483247004e-02,-1.123134780997416815e-01,-2.607913867894228188e-01,-2.607913867894228188e-01,-2.607913867894228188e-01,-2.607913867894228188e-01,-2.607913867894228188e-01,-2.607913867894228188e-01,-2.607913867894228188e-01
-2.607913867894228188e-01,-2.607913867894228188e-01,-2.607913867894228188e-01,-2.607913867894228188e-01,-2.607913867894228188e-01,-2.607913867894228188e-01,-2.607913867894228188e-01,-2.607913867894228188e-01,-2.607913867894228188e-01,-2.607913867894228188e-01,-2.607913867894228188e-01,-2.607913867894228188e-01,-2.607913867894228188e-01,-2.607913867894228188e-01,-2.607913867894228188e-01,-2.607913867894228188e-01,-2.607913867894228188e-01,-2.607913867894228188e-01,-2.607913867894228188e-01,-2.607913867894228188e-01,-2.607913867894228188e-01,-2.607913867894228188e-01,-2.475480741790224426e-01,-2.332860452139758900e-01,-2.200427326035755138e-01,-2.057807036385289612e-01,-1.925373910281285572e-01,-1.792940784177282088e-01,-1.650320494526816284e-01,-1.517887368422812799e-01,-1.385454242318809037e-01,-1.242833952668343511e-01,-1.110400826564339749e-01,-9.677805369138745006e-02,-8.353474108098704609e-02,-7.029142847058664212e-02,-5.602939950554006177e-02,-4.278608689513971330e-02,-2.852405793009316071e-02,-1.528074531969281225e-02,-2.122750203993983842e-01,-2.607913867894228188e-01,-2.607913867894228188e-01,-2.607913867894228188e-01,-2.607913867894228188e-01,-2.607913867894228188e-01,-2.607913867894228188e-01
-2.607913867894228188e-01,-2.607913867894228188e-01,-2.607913867894228188e-01,-2.607913867894228188e-01,-2.607913867894228188e-01,-2.607913867894228188e-01,-2.607913867894228188e-01,-2.607913867894228188e-01,-2.607913867894228188e-01,-2.607913867894228188e-01,-2.607913867894228188e-01,-2.607913867894228188e-01,-2.607913867894228188e-01,-2.607913867894228188e-01,-2.607913867894228188e-01,-2.607913867894228188e-01,-2.607913867894228188e-01,-2.607913867894228188e-01,-2.607913867894228188e-01,-2.587539540801304661e-01,-2.444919251150838857e-01,-2.312486125046835095e-01,-2.180052998942831333e-01,-2.037432709292365807e-01,-1.904999583188362045e-01,-1.762379293537896519e-01,-1.629946167433892756e-01,-1.497513041329888994e-01,-1.354892751679423468e-01,-1.222459625575419706e-01,-1.079839335924954180e-01,-9.474062098209504179e-02,-8.149730837169466557e-02,-6.723527940664811298e-02,-5.399196679624773676e-02,-3.972993783120115641e-02,-2.648662522080080794e-02,-1.324331261040043173e-02,-5.551115123125782702e-17,0.000000000000000000e+00,-1.059465008832030375e-01,-2.607913867894228188e-01,-2.607913867894228188e-01,-2.607913867894228188e-01,-2.607913867894228188e-01,-2.607913867894228188e-01,-2.607913867894228188e-01
-2.607913867894228188e-01,-2.607913867894228188e-01,-2.607913867894228188e-01,-2.607913867894228188e-01,-2.607913867894228188e-01,-2.607913867894228188e-01,-2.607913867894228188e-01,-2.607913867894228188e-01,-2.607913867894228188e-01,-2.607913867894228188e-01,-2.607913867894228188e-01,-2.607913867894228188e-01,-2.607913867894228188e-01,-2.607913867894228188e-01,-2.607913867894228188e-01,-2.607913867894228188e-01,-2.607913867894228188e-01,-2.556978050161918814e-01,-2.424544924057915329e-01,-2.292111797953911567e-01,-2.149491508303446041e-01,-2.017058382199442279e-01,-1.884625256095438517e-01,-1.742004966444972713e-01,-1.609571840340969229e-01,-1.466951550690503425e-01,-1.334518424586499941e-01,-1.202085298482496178e-01,-1.059465008832030375e-01,-9.270318827280268903e-02,-7.844115930775613643e-02,-6.519784669735573246e-02,-5.195453408695538400e-02,-3.769250512190880364e-02,-2.444919251150842743e-02,-1.018716354646187483e-02,-5.551115123125782702e-17,-5.551115123125782702e-17,-5.551115123125782702e-17,-5.551115123125782702e-17,-5.551115123125782702e-17,-2.281924634407449803e-01,-2.607913867894228188e-01,-2.607913867894228188e-01,-2.607913867894228188e-01,-2.607913867894228188e-01,-2.607913867894228188e-01
-2.607913867894228188e-01,-2.607913867894228188e-01,-2.607913867894228188e-01,-2.607913867894228188e-01,-2.607913867894228188e-01,-2.607913867894228188e-01,-2.607913867894228188e-01,-2.607913867894228188e-01,-2.607913867894228188e-01,-2.607913867894228188e-01,-2.607913867894228188e-01,-2.607913867894228188e-01,-2.607913867894228188e-01,-2.607913867894228188e-01,-2.607913867894228188e-01,-2.536603723068995286e-01,-2.404170596964991802e-01,-2.261550307314525998e-01,-2.129117181210522236e-01,-1.996684055106518474e-01,-1.854063765456052948e-01,-1.721630639352049186e-01,-1.579010349701583660e-01,-1.446577223597579898e-01,-1.314144097493576135e-01,-1.171523807843110609e-01,-1.039090681739106847e-01,-8.964703920886413213e-02,-7.640372659846375591e-02,-6.316041398806337970e-02,-4.889838502301682710e-02,-3.565507241261645088e-02,-2.241175980221607467e-02,-8.149730837169522069e-03,-5.551115123125782702e-17,-5.551115123125782702e-17,-5.551115123125782702e-17,-5.551115123125782702e-17,-5.551115123125782702e-17,-5.551115123125782702e-17,-5.551115123125782702e-17,-1.222459625575419984e-01,-2.607913867894228188e-01,-2.607913867894228188e-01,-2.607913867894228188e-01,-2.607913867894228188e-01,-2.607913867894228188e-01
-2.607913867894228188e-01,-2.607913867894228188e-01,-2.607913867894228188e-01,-2.607913867894228188e-01,-2.607913867894228188e-01,-2.607913867894228188e-01,-2.607913867894228188e-01,-2.607913867894228188e-01,-2.607913867894228188e-01,-2.607913867894228188e-01,-2.607913867894228188e-01,-2.607913867894228188e-01,-2.607913867894228188e-01,-2.516229395976071759e-01,-2.383796269872067997e-01,-2.241175980221602471e-01,-2.108742854117598708e-01,-1.966122564467133182e-01,-1.833689438363129143e-01,-1.701256312259125658e-01,-1.558636022608659855e-01,-1.426202896504656370e-01,-1.283582606854190844e-01,-1.151149480750187082e-01,-1.018716354646183320e-01,-8.760960649957175161e-02,-7.436629388917140315e-02,-6.010426492412482280e-02,-4.686095231372444658e-02,-3.361763970332409812e-02,-1.935561073827751777e-02,-6.112298127877113796e-03,-5.551115123125782702e-17,-5.551115123125782702e-17,-5.551115123125782702e-17,-5.551115123125782702e-17,-5.551115123125782702e-17,-5.551115123125782702e-17,-5.551115123125782702e-17,-5.551115123125782702e-17,-5.551115123125782702e-17,-8.149730837169522069e-03,-2.444919251150838857e-01,-2.607913867894228188e-01,-2.607913867894228188e-01,-2.607913867894228188e-01,-2.607913867894228188e-01
-2.607913867894228188e-01,-2.607913867894228188e-01,-2.607913867894228188e-01,-2.607913867894228188e-01,-2.607913867894228188e-01,-2.607913867894228188e-01,-2.607913867894228188e-01,-2.607913867894228188e-01,-2.607913867894228188e-01,-2.607913867894228188e-01,-2.607913867894228188e-01,-2.495855068883148231e-01,-2.353234779232682428e-01,-2.220801653128678943e-01,-2.078181363478213139e-01,-1.945748237374209655e-01,-1.813315111270205615e-01,-1.670694821619740089e-01,-1.538261695515736327e-01,-1.395641405865270801e-01,-1.263208279761267039e-01,-1.130775153657263554e-01,-9.881548640067977507e-02,-8.557217379027939885e-02,-3.594636485328946973e-01,-3.452016195678481170e-01,-3.319583069574477685e-01,-3.056149063938554122e-02,-1.731817802898516501e-02,-4.074865418584816545e-03,-5.551115123125782702e-17,-5.551115123125782702e-17,-5.551115123125782702e-17,-5.551115123125782702e-17,-5.551115123125782702e-17,-5.551115123125782702e-17,-5.551115123125782702e-17,-5.551115123125782702e-17,-5.551115123125782702e-17,-5.551115123125782702e-17,-5.551115123125782702e-17,-5.551115123125782702e-17,-1.385454242318809037e-01,-2.607913867894228188e-01,-2.607913867894228188e-01,-2.607913867894228188e-01,-2.607913867894228188e-01
-2.607913867894228188e-01,-2.607913867894228188e-01,-2.607913867894228188e-01,-2.607913867894228188e-01,-2.607913867894228188e-01,-2.607913867894228188e-01,-2.607913867894228188e-01,-2.607913867894228188e-01,-2.607913867894228188e-01,-2.465293578243762662e-01,-2.332860452139758900e-01,-2.200427326035755138e-01,-2.057807036385289612e-01,-1.925373910281285572e-01,-1.782753620630820324e-01,-1.650320494526816284e-01,-1.517887368422812799e-01,-1.375267078772346996e-01,-1.242833952668343789e-01,-1.100213663017877708e-01,-9.677805369138739455e-02,-8.353474108098704609e-02,-6.927271211594046574e-02,-5.602939950554008952e-02,-3.289021578935092394e-01,-3.156588452831088354e-01,-3.024155326727084869e-01,-1.018716354646231892e-03,-5.551115123125782702e-17,-5.551115123125782702e-17,-5.551115123125782702e-17,-5.551115123125782702e-17,0.000000000000000000e+00,-5.551115123125782702e-17,-5.551115123125782702e-17,-5.551115123125782702e-17,-5.551115123125782702e-17,-5.551115123125782702e-17,-5.551115123125782702e-17,-5.551115123125782702e-17,-5.551115123125782702e-17,-5.551115123125782702e-17,-3.259892334867789399e-02,-2.607913867894228188e-01,-2.607913867894228188e-01,-2.607913867894228188e-01,-2.607913867894228188e-01
-2.607913867894228188e-01,-2.607913867894228188e-01,-2.607913867894228188e-01,-2.607913867894228188e-01,-2.607913867894228188e-01,-2.607913867894228188e-01,-2.577352377254842897e-01,-2.444919251150838857e-01,-2.312486125046835095e-01,-2.169865835396369569e-01,-2.037432709292365807e-01,-1.894812419641900281e-01,-1.762379293537896519e-01,-1.629946167433892756e-01,-1.487325877783427230e-01,-1.354892751679423468e-01,-1.222459625575419984e-01,-1.079839335924954180e-01,-9.474062098209501404e-02,-8.047859201704848919e-02,-6.723527940664808522e-02,-5.399196679624770900e-02,-3.972993783120115641e-02,-2.648662522080078019e-02,-2.993593836087699023e-01,-2.871347873530157302e-01,-2.871347873530156747e-01,-5.551115123125782702e-17,-5.551115123125782702e-17,-5.551115123125782702e-17,-1.110223024625156540e-16,-5.551115123125782702e-17,-5.551115123125782702e-17,-5.551115123125782702e-17,-5.551115123125782702e-17,-5.551115123125782702e-17,-5.551115123125782702e-17,-5.551115123125782702e-17,-5.551115123125782702e-17,-5.551115123125782702e-17,-5.551115123125782702e-17,-5.551115123125782702e-17,0.000000000000000000e+00,-1.548448859062198091e-01,-2.607913867894228188e-01,-2.607913867894228188e-01,-2.607913867894228188e-01
-2.607913867894228188e-01,-2.607913867894228188e-01,-2.607913867894228188e-01,-2.607913867894228188e-01,-2.556978050161918814e-01,-2.424544924057915329e-01,-2.281924634407449803e-01,-2.149491508303446041e-01,-2.017058382199442279e-01,-1.874438092548976753e-01,-1.742004966444972713e-01,-1.599384676794507187e-01,-1.466951550690503425e-01,-1.334518424586499941e-01,-1.191898134936034137e-01,-1.059465008832030652e-01,-9.168447191815651265e-02,-7.844115930775613643e-02,-6.519784669735573246e-02,-5.093581773230917986e-02,-3.769250512190880364e-02,-2.444919251150845518e-02,-1.018716354646187483e-02,-1.110223024625156540e-16,-5.551115123125782702e-17,-5.551115123125782702e-17,-5.551115123125782702e-17,-1.110223024625156540e-16,-5.551115123125782702e-17,0.000000000000000000e+00,-5.551115123125782702e-17,-5.551115123125782702e-17,-5.551115123125782702e-17,-5.551115123125782702e-17,-5.551115123125782702e-17,-5.551115123125782702e-17,-5.551115123125782702e-17,-5.551115123125782702e-17,-5.551115123125782702e-17,-5.551115123125782702e-17,-5.551115123125782702e-17,-5.551115123125782702e-17,-5.551115123125782702e-17,-4.889838502301682710e-02,-2.607913867894228188e-01,-2.607913867894228188e-01,-2.607913867894228188e-01
-2.607913867894228188e-01,-2.607913867894228188e-01,-2.536603723068995286e-01,-2.393983433418529760e-01,-2.261550307314525998e-01,-2.129117181210522236e-01,-1.986496891560056710e-01,-1.854063765456053225e-01,-1.721630639352049186e-01,-1.579010349701583660e-01,-1.446577223597579898e-01,-1.303956933947114372e-01,-1.171523807843110609e-01,-1.039090681739106847e-01,-8.964703920886413213e-02,-7.640372659846372816e-02,-6.214169763341717556e-02,-4.889838502301682710e-02,-3.565507241261645088e-02,-2.139304344756987053e-02,-8.149730837169522069e-03,-5.551115123125782702e-17,-5.551115123125782702e-17,-5.551115123125782702e-17,-5.551115123125782702e-17,-5.551115123125782702e-17,0.000000000000000000e+00,-5.551115123125782702e-17,0.000000000000000000e+00,-1.110223024625156540e-16,-5.551115123125782702e-17,-5.551115123125782702e-17,-5.551115123125782702e-17,-1.110223024625156540e-16,-5.551115123125782702e-17,-1.110223024625156540e-16,-5.551115123125782702e-17,-5.551115123125782702e-17,-5.551115123125782702e-17,-5.551115123125782702e-17,-5.551115123125782702e-17,-5.551115123125782702e-17,-5.551115123125782702e-17,-5.551115123125782702e-17,-1.792940784177282088e-01,-2.607913867894228188e-01,-2.607913867894228188e-01
-2.516229395976071759e-01,-2.373609106325606233e-01,-2.241175980221602471e-01,-2.098555690571136667e-01,-1.966122564467133182e-01,-1.833689438363129143e-01,-1.691069148712663617e-01,-1.558636022608659855e-01,-1.416015732958194606e-01,-1.283582606854190844e-01,-1.151149480750187082e-01,-1.008529191099721556e-01,-8.760960649957175161e-02,-7.436629388917137540e-02,-6.010426492412482280e-02,-4.686095231372444658e-02,-3.259892334867792174e-02,-1.935561073827751777e-02,-6.112298127877169307e-03,-5.551115123125782702e-17,-5.551115123125782702e-17,-5.551115123125782702e-17,-5.551115123125782702e-17,-5.551115123125782702e-17,-5.551115123125782702e-17,-5.551115123125782702e-17,-5.551115123125782702e-17,-5.551115123125782702e-17,-5.551115123125782702e-17,-5.551115123125782702e-17,-5.551115123125782702e-17,-5.551115123125782702e-17,-5.551115123125782702e-17,-5.551115123125782702e-17,-5.551115123125782702e-17,-5.551115123125782702e-17,-5.551115123125782702e-17,-5.551115123125782702e-17,-5.551115123125782702e-17,-5.551115123125782702e-17,-5.551115123125782702e-17,-5.551115123125782702e-17,-5.551115123125782702e-17,-5.551115123125782702e-17,-6.519784669735576021e-02,-2.607913867894228188e-01,-2.607913867894228188e-01
-2.220801653128678943e-01,-2.078181363478213139e-01,-1.945748237374209377e-01,-1.803127947723743851e-01,-1.670694821619740089e-01,-1.538261695515736327e-01,-1.395641405865270801e-01,-1.263208279761267039e-01,-1.120587990110801513e-01,-9.881548640067977507e-02,-8.557217379027939885e-02,-7.131014482523284626e-02,-5.806683221483244228e-02,-4.380480324978591744e-02,-3.056149063938554122e-02,-1.731817802898516501e-02,-3.056149063938584653e-03,-5.551115123125782702e-17,-5.551115123125782702e-17,0.000000000000000000e+00,-5.551115123125782702e-17,-5.551115123125782702e-17,-5.551115123125782702e-17,-5.551115123125782702e-17,-5.551115123125782702e-17,-5.551115123125782702e-17,-5.551115123125782702e-17,-5.551115123125782702e-17,-5.551115123125782702e-17,-5.551115123125782702e-17,-5.551115123125782702e-17,-5.551115123125782702e-17,-5.551115123125782702e-17,-5.551115123125782702e-17,-5.551115123125782702e-17,-5.551115123125782702e-17,-5.551115123125782702e-17,-5.551115123125782702e-17,-5.551115123125782702e-17,-5.551115123125782702e-17,-5.551115123125782702e-17,-5.551115123125782702e-17,-1.110223024625156540e-16,-5.551115123125782702e-17,-5.551115123125782702e-17,-1.955935400920671419e-01,-2.607913867894228188e-01
-1.915186746734823808e-01,-1.782753620630820324e-01,-1.650320494526816284e-01,-1.507700204876351036e-01,-1.375267078772346996e-01,-1.242833952668343511e-01,-1.100213663017877985e-01,-9.677805369138742231e-02,-8.251602472634084195e-02,-6.927271211594046574e-02,-5.602939950554008952e-02,-4.176737054049356468e-02,-2.852405793009316071e-02,-1.426202896504663586e-02,-1.018716354646231892e-03,-5.551115123125782702e-17,-5.551115123125782702e-17,0.000000000000000000e+00,-5.551115123125782702e-17,-5.551115123125782702e-17,-5.551115123125782702e-17,-1.110223024625156540e-16,-5.551115123125782702e-17,0.000000000000000000e+00,-5.551115123125782702e-17,-5.551115123125782702e-17,-5.551115123125782702e-17,-5.551115123125782702e-17,-5.551115123125782702e-17,-5.551115123125782702e-17,-5.551115123125782702e-17,-5.551115123125782702e-17,-5.551115123125782702e-17,-5.551115123125782702e-17,-5.551115123125782702e-17,0.000000000000000000e+00,-5.551115123125782702e-17,-5.551115123125782702e-17,-5.551115123125782702e-17,-5.551115123125782702e-17,-5.551115123125782702e-17,-5.551115123125782702e-17,-5.551115123125782702e-17,-5.551115123125782702e-17,-5.551115123125782702e-17,-8.964703920886413213e-02,-2.607913867894228188e-01
-1.619759003887430993e-01,-1.487325877783427230e-01,-1.354892751679423468e-01,-1.212272462028957942e-01,-1.079839335924954180e-01,-9.372190462744883765e-02,-8.047859201704846144e-02,-6.723527940664808522e-02,-5.297325044160156038e-02,-3.972993783120115641e-02,-2.648662522080078019e-02,-1.222459625575425535e-02,-5.551115123125782702e-17,-5.551115123125782702e-17,-5.551115123125782702e-17,-5.551115123125782702e-17,-5.551115123125782702e-17,-5.551115123125782702e-17,-5.551115123125782702e-17,-5.551115123125782702e-17,-5.551115123125782702e-17,-5.551115123125782702e-17,-1.110223024625156540e-16,-5.551115123125782702e-17,-5.551115123125782702e-17,-5.551115123125782702e-17,-5.551115123125782702e-17,-5.551115123125782702e-17,-5.551115123125782702e-17,0.000000000000000000e+00,-5.551115123125782702e-17,-5.551115123125782702e-17,-5.551115123125782702e-17,-5.551115123125782702e-17,-5.551115123125782702e-17,-5.551115123125782702e-17,-5.551115123125782702e-17,-5.551115123125782702e-17,0.000000000000000000e+00,-5.551115123125782702e-17,-5.551115123125782702e-17,-5.551115123125782702e-17,-5.551115123125782702e-17,-5.551115123125782702e-17,-1.037238470185208872e-02,-2.000388478214329413e-02,-2.175885522946551798e-01
-1.324331261040038177e-01,-1.191898134936034415e-01,-1.059465008832030652e-01,-9.168447191815651265e-02,-7.844115930775613643e-02,-6.417913034270952832e-02,-5.093581773230920762e-02,-3.769250512190880364e-02,-2.343047615686227880e-02,-1.018716354646187483e-02,-5.551115123125782702e-17,-5.551115123125782702e-17,-5.551115123125782702e-17,-5.551115123125782702e-17,-5.551115123125782702e-17,-5.551115123125782702e-17,-5.551115123125782702e-17,-5.551115123125782702e-17,-1.110223024625156540e-16,-5.551115123125782702e-17,-5.551115123125782702e-17,-5.551115123125782702e-17,-5.551115123125782702e-17,-5.551115123125782702e-17,-5.551115123125782702e-17,-5.551115123125782702e-17,-5.551115123125782702e-17,-5.551115123125782702e-17,-5.551115123125782702e-17,-5.551115123125782702e-17,-5.551115123125782702e-17,-5.551115123125782702e-17,-5.551115123125782702e-17,-5.551115123125782702e-17,-5.551115123125782702e-17,-5.551115123125782702e-17,-5.551115123125782702e-17,-5.551115123125782702e-17,-5.551115123125782702e-17,-1.110223024625156540e-16,-5.551115123125782702e-17,-2.222653864682622160e-03,-1.185415394497379982e-02,-2.148565402526503298e-02,-3.185803872711706619e-02,-4.148953880740821609e-02,-1.367395179668263183e-01
-1.028903518192645083e-01,-8.964703920886415989e-02,-7.640372659846372816e-02,-6.214169763341717556e-02,-4.889838502301679934e-02,-3.463635605797024675e-02,-2.139304344756987053e-02,-8.149730837169522069e-03,-5.551115123125782702e-17,-1.110223024625156540e-16,-5.551115123125782702e-17,-5.551115123125782702e-17,-5.551115123125782702e-17,-5.551115123125782702e-17,-5.551115123125782702e-17,-1.110223024625156540e-16,-5.551115123125782702e-17,-5.551115123125782702e-17,-5.551115123125782702e-17,-5.551115123125782702e-17,-5.551115123125782702e-17,-5.551115123125782702e-17,-5.551115123125782702e-17,-5.551115123125782702e-17,-5.551115123125782702e-17,-5.551115123125782702e-17,-5.551115123125782702e-17,-5.551115123125782702e-17,-5.551115123125782702e-17,-5.551115123125782702e-17,-5.551115123125782702e-17,-5.551115123125782702e-17,-5.551115123125782702e-17,-5.551115123125782702e-17,-5.551115123125782702e-17,-5.551115123125782702e-17,-5.551115123125782702e-17,-5.551115123125782702e-17,-5.551115123125782702e-17,-3.704423107804333259e-03,-1.333592318809556643e-02,-2.370830788994759963e-02,-3.333980797023877729e-02,-4.371219267209081050e-02,-5.334369275238196040e-02,-6.297519283267316581e-02,-7.334757753452519902e-02
-7.334757753452519902e-02,-6.010426492412482280e-02,-4.584223595907824245e-02,-3.259892334867789399e-02,-1.935561073827754552e-02,-5.093581773230937415e-03,-5.551115123125782702e-17,0.000000000000000000e+00,-5.551115123125782702e-17,-5.551115123125782702e-17,-5.551115123125782702e-17,-5.551115123125782702e-17,-5.551115123125782702e-17,-5.551115123125782702e-17,-1.110223024625156540e-16,-5.551115123125782702e-17,-5.551115123125782702e-17,-5.551115123125782702e-17,-5.551115123125782702e-17,-5.551115123125782702e-17,-5.551115123125782702e-17,-5.551115123125782702e-17,-5.551115123125782702e-17,-5.551115123125782702e-17,-5.551115123125782702e-17,-5.551115123125782702e-17,-5.551115123125782702e-17,-5.551115123125782702e-17,-5.551115123125782702e-17,-5.551115123125782702e-17,-5.551115123125782702e-17,-5.551115123125782702e-17,-5.551115123125782702e-17,-5.551115123125782702e-17,-5.551115123125782702e-17,-5.551115123125782702e-17,-5.551115123125782702e-17,-5.186192350926099870e-03,-1.555857705277810532e-02,-2.519007713306931073e-02,-3.482157721336046063e-02,-4.519396191521249384e-02,-5.482546199550369925e-02,-6.519784669735573246e-02,-7.482934677764696563e-02,-8.446084685793808777e-02,-9.483323155979014873e-02
-4.380480324978591744e-02,-3.056149063938551347e-02,-1.629946167433898863e-02,-3.056149063938584653e-03,-5.551115123125782702e-17,-5.551115123125782702e-17,-5.551115123125782702e-17,-5.551115123125782702e-17,-5.551115123125782702e-17,-5.551115123125782702e-17,-5.551115123125782702e-17,0.000000000000000000e+00,-5.551115123125782702e-17,-5.551115123125782702e-17,-5.551115123125782702e-17,-5.551115123125782702e-17,-5.551115123125782702e-17,-5.551115123125782702e-17,-5.551115123125782702e-17,-5.551115123125782702e-17,-5.551115123125782702e-17,0.000000000000000000e+00,-5.551115123125782702e-17,-5.551115123125782702e-17,0.000000000000000000e+00,-5.551115123125782702e-17,-5.551115123125782702e-17,-5.551115123125782702e-17,-5.551115123125782702e-17,-5.551115123125782702e-17,-5.551115123125782702e-17,-5.551115123125782702e-17,-5.551115123125782702e-17,-1.110223024625156540e-16,-5.551115123125782702e-17,-7.408846215608666519e-03,-1.704034629589984418e-02,-2.667184637619104959e-02,-3.704423107804305504e-02,-4.667573115833423270e-02,-5.630723123862541035e-02,-6.667961594047744356e-02,-7.631111602076864897e-02,-8.668350072262068218e-02,-9.631500080291185983e-02,-1.059465008832030375e-01,-1.163188855850550985e-01
-1.426202896504660811e-02,-1.018716354646231892e-03,-5.551115123125782702e-17,-5.551115123125782702e-17,0.000000000000000000e+00,-5.551115123125782702e-17,-5.551115123125782702e-17,-5.551115123125782702e-17,-5.551115123125782702e-17,-5.551115123125782702e-17,-5.551115123125782702e-17,-5.551115123125782702e-17,-5.551115123125782702e-17,-5.551115123125782702e-17,-1.110223024625156540e-16,-5.551115123125782702e-17,-5.551115123125782702e-17,-5.551115123125782702e-17,-5.551115123125782702e-17,-5.551115123125782702e-17,-5.551115123125782702e-17,-5.551115123125782702e-17,-5.551115123125782702e-17,-5.551115123125782702e-17,-5.551115123125782702e-17,-5.551115123125782702e-17,-5.551115123125782702e-17,-5.551115123125782702e-17,-5.551115123125782702e-17,-5.551115123125782702e-17,-5.551115123125782702e-17,-5.551115123125782702e-17,-5.551115123125782702e-17,-8.890615458730377618e-03,-1.852211553902158303e-02,-2.889450024087361624e-02,-3.852600032116476614e-02,-4.815750040145594379e-02,-5.852988510330800476e-02,-6.816138518359918241e-02,-7.853376988545124338e-02,-8.816526996574242103e-02,-9.779677004603359869e-02,-1.081691547478856319e-01,-1.178006548281768096e-01,-1.274321549084679872e-01,-1.378045396103200482e-01
-5.551115123125782702e-17,-5.551115123125782702e-17,-5.551115123125782702e-17,-5.551115123125782702e-17,-5.551115123125782702e-17,-5.551115123125782702e-17,-5.551115123125782702e-17,-5.551115123125782702e-17,-5.551115123125782702e-17,-5.551115123125782702e-17,-5.551115123125782702e-17,-1.110223024625156540e-16,-5.551115123125782702e-17,-5.551115123125782702e-17,-5.551115123125782702e-17,-5.551115123125782702e-17,-5.551115123125782702e-17,-5.551115123125782702e-17,-5.551115123125782702e-17,-5.551115123125782702e-17,-5.551115123125782702e-17,-5.551115123125782702e-17,-5.551115123125782702e-17,-5.551115123125782702e-17,-5.551115123125782702e-17,-5.551115123125782702e-17,-5.551115123125782702e-17,-5.551115123125782702e-17,-5.551115123125782702e-17,-5.551115123125782702e-17,-7.408846215609110608e-04,-1.037238470185208872e-02,-2.000388478214329413e-02,-3.037626948399532734e-02,-4.000776956428647724e-02,-5.038015426613851044e-02,-6.001165434642971586e-02,-6.964315442672092127e-02,-8.001553912857295447e-02,-8.964703920886413213e-02,-1.000194239107161653e-01,-1.096509239910073430e-01,-1.192824240712985207e-01,-1.296548087731505816e-01,-1.392863088534417593e-01,-1.496586935552938202e-01,-1.592901936355849701e-01
-5.551115123125782702e-17,-1.110223024625156540e-16,-5.551115123125782702e-17,-5.551115123125782702e-17,-5.551115123125782702e-17,-5.551115123125782702e-17,-5.551115123125782702e-17,-5.551115123125782702e-17,-5.551115123125782702e-17,-5.551115123125782702e-17,-5.551115123125782702e-17,-5.551115123125782702e-17,-5.551115123125782702e-17,-5.551115123125782702e-17,-5.551115123125782702e-17,-5.551115123125782702e-17,-5.551115123125782702e-17,-5.551115123125782702e-17,-1.110223024625156540e-16,-5.551115123125782702e-17,-5.551115123125782702e-17,-5.551115123125782702e-17,-5.551115123125782702e-17,-5.551115123125782702e-17,0.000000000000000000e+00,-5.551115123125782702e-17,-5.551115123125782702e-17,-5.551115123125782702e-17,-2.222653864682677671e-03,-1.185415394497379982e-02,-2.222653864682586078e-02,-3.185803872711706619e-02,-4.223042342896909940e-02,-5.186192350926024930e-02,-6.149342358955145471e-02,-7.186580829140346016e-02,-8.149730837169466557e-02,-9.112880845198584323e-02,-1.015011931538378764e-01,-1.111326932341290541e-01,-1.215050779359811151e-01,-1.311365780162722927e-01,-1.407680780965634981e-01,-1.511404627984155313e-01,-1.607719628787067090e-01,-1.711443475805587422e-01,-1.807758476608499199e-01
-5.551115123125782702e-17,-5.551115123125782702e-17,-5.551115123125782702e-17,-5.551115123125782702e-17,-5.551115123125782702e-17,-5.551115123125782702e-17,-5.551115123125782702e-17,-5.551115123125782702e-17,-5.551115123125782702e-17,-5.551115123125782702e-17,-5.551115123125782702e-17,-5.551115123125782702e-17,-5.551115123125782702e-17,0.000000000000000000e+00,0.000000000000000000e+00,-5.551115123125782702e-17,-5.551115123125782702e-17,-1.110223024625156540e-16,-5.551115123125782702e-17,-5.551115123125782702e-17,-5.551115123125782702e-17,-5.551115123125782702e-17,-5.551115123125782702e-17,-5.551115123125782702e-17,-5.551115123125782702e-17,-5.551115123125782702e-17,-3.704423107804333259e-03,-1.407680780965642198e-02,-2.370830788994759963e-02,-3.333980797023874953e-02,-4.371219267209081050e-02,-5.334369275238196040e-02,-6.371607745423402136e-02,-7.334757753452519902e-02,-8.297907761481637667e-02,-9.335146231666840988e-02,-1.029829623969596153e-01,-1.133553470988116485e-01,-1.229868471791028262e-01,-1.326183472593940316e-01,-1.429907319612460648e-01,-1.526222320415372424e-01,-1.622537321218284201e-01,-1.726261168236804533e-01,-1.822576169039716310e-01,-1.926300016058236919e-01,-2.022615016861148696e-01
-5.551115123125782702e-17,-1.110223024625156540e-16,-5.551115123125782702e-17,-5.551115123125782702e-17,-5.551115123125782702e-17,-5.551115123125782702e-17,-5.551115123125782702e-17,-5.551115123125782702e-17,-5.551115123125782702e-17,-5.551115123125782702e-17,-5.551115123125782702e-17,-5.551115123125782702e-17,0.000000000000000000e+00,-5.551115123125782702e-17,-5.551115123125782702e-17,-1.110223024625156540e-16,-5.551115123125782702e-17,-5.551115123125782702e-17,-5.551115123125782702e-17,-5.551115123125782702e-17,-5.551115123125782702e-17,-5.551115123125782702e-17,-5.551115123125782702e-17,-5.551115123125782702e-17,-5.927076972486955420e-03,-1.555857705277813308e-02,-2.519007713306931073e-02,-3.556246183492134394e-02,-4.519396191521252160e-02,-5.482546199550369925e-02,-6.519784669735573246e-02,-7.482934677764691012e-02,-8.520173147949897108e-02,-9.483323155979014873e-02,-1.044647316400813264e-01,-1.148371163419333596e-01,-1.244686164222245650e-01,-1.348410011240765982e-01,-1.444725012043677759e-01,-1.541040012846589813e-01,-1.644763859865110145e-01,-1.741078860668021921e-01,-1.844802707686542254e-01,-1.941117708489454030e-01,-2.037432709292366084e-01,-2.141156556310886416e-01,-2.237471557113798193e-01
-5.551115123125782702e-17,-5.551115123125782702e-17,-5.551115123125782702e-17,-5.551115123125782702e-17,-5.551115123125782702e-17,-5.551115123125782702e-17,-5.551115123125782702e-17,-1.110223024625156540e-16,-5.551115123125782702e-17,-5.551115123125782702e-17,-5.551115123125782702e-17,-5.551115123125782702e-17,-5.551115123125782702e-17,-5.551115123125782702e-17,-5.551115123125782702e-17,-5.551115123125782702e-17,-5.551115123125782702e-17,-5.551115123125782702e-17,-5.551115123125782702e-17,-5.551115123125782702e-17,-5.551115123125782702e-17,-5.551115123125782702e-17,-7.408846215608666519e-03,-1.704034629589984418e-02,-2.741273099775190514e-02,-3.704423107804305504e-02,-4.667573115833423270e-02,-5.704811586018626590e-02,-6.667961594047744356e-02,-7.705200064232953228e-02,-8.668350072262068218e-02,-9.631500080291185983e-02,-1.066873855047638930e-01,-1.163188855850550985e-01,-1.259503856653462761e-01,-1.363227703671983093e-01,-1.459542704474894870e-01,-1.563266551493415479e-01,-1.659581552296327256e-01,-1.755896553099239032e-01,-1.859620400117759365e-01,-1.955935400920671141e-01,-2.059659247939191751e-01,-2.155974248742103527e-01,-2.252289249545015304e-01,-2.356013096563535636e-01,-2.452328097366447690e-01
-5.551115123125782702e-17,-5.551115123125782702e-17,-5.551115123125782702e-17,-5.551115123125782702e-17,-5.551115123125782702e-17,-5.551115123125782702e-17,-5.551115123125782702e-17,-5.551115123125782702e-17,-5.551115123125782702e-17,-5.551115123125782702e-17,-5.551115123125782702e-17,-5.551115123125782702e-17,-5.551115123125782702e-17,-5.551115123125782702e-17,-5.551115123125782702e-17,-5.551115123125782702e-17,-5.551115123125782702e-17,-5.551115123125782702e-17,-5.551115123125782702e-17,-5.551115123125782702e-17,-8.890615458730377618e-03,-1.852211553902155527e-02,-2.889450024087361624e-02,-3.852600032116476614e-02,-4.889838502301679934e-02,-5.852988510330800476e-02,-6.816138518359921017e-02,-7.853376988545124338e-02,-8.816526996574242103e-02,-9.853765466759445424e-02,-1.081691547478856319e-01,-1.178006548281768096e-01,-1.281730395300288705e-01,-1.378045396103200482e-01,-1.481769243121721091e-01,-1.578084243924632590e-01,-1.674399244727544644e-01,-1.778123091746064977e-01,-1.874438092548976753e-01,-1.978161939567497085e-01,-2.074476940370408862e-01,-2.170791941173320638e-01,-2.274515788191840970e-01,-2.370830788994753024e-01,-2.467145789797664801e-01,-2.570869636816185411e-01,-2.607913867894228188e-01
-5.551115123125782702e-17,-5.551115123125782702e-17,-5.551115123125782702e-17,-5.551115123125782702e-17,-5.551115123125782702e-17,-5.551115123125782702e-17,0.000000000000000000e+00,-5.551115123125782702e-17,-5.551115123125782702e-17,-5.551115123125782702e-17,-5.551115123125782702e-17,-5.551115123125782702e-17,-5.551115123125782702e-17,-5.551115123125782702e-17,-5.551115123125782702e-17,-5.551115123125782702e-17,-5.551115123125782702e-17,-7.408846215609110608e-04,-1.037238470185208872e-02,-2.074476940370414968e-02,-3.037626948399535509e-02,-4.074865418584733279e-02,-5.038015426613853820e-02,-6.001165434642974361e-02,-7.038403904828177682e-02,-8.001553912857295447e-02,-8.964703920886413213e-02,-1.000194239107161653e-01,-1.096509239910073430e-01,-1.200233086928593762e-01,-1.296548087731505816e-01,-1.392863088534417593e-01,-1.496586935552938202e-01,-1.592901936355849979e-01,-1.696625783374370311e-01,-1.792940784177282088e-01,-1.889255784980193864e-01,-1.992979631998714196e-01,-2.089294632801625973e-01,-2.193018479820146582e-01,-2.289333480623058359e-01,-2.385648481425970135e-01,-2.489372328444490468e-01,-2.585687329247402522e-01,-2.607913867894228188e-01,-2.607913867894228188e-01,-2.607913867894228188e-01
-1.059465008832030652e-01,-5.551115123125782702e-17,-5.551115123125782702e-17,-1.110223024625156540e-16,-5.551115123125782702e-17,-5.551115123125782702e-17,-5.551115123125782702e-17,-5.551115123125782702e-17,-5.551115123125782702e-17,-5.551115123125782702e-17,-5.551115123125782702e-17,-5.551115123125782702e-17,-5.551115123125782702e-17,-5.551115123125782702e-17,-5.551115123125782702e-17,-2.222653864682622160e-03,-1.259503856653465537e-02,-2.222653864682586078e-02,-3.185803872711706619e-02,-4.223042342896909940e-02,-5.186192350926024930e-02,-6.223430821111231026e-02,-7.186580829140351567e-02,-8.149730837169466557e-02,-9.186969307354672654e-02,-1.015011931538378764e-01,-1.118735778556899096e-01,-1.215050779359811151e-01,-1.311365780162722927e-01,-1.415089627181243537e-01,-1.511404627984155313e-01,-1.615128475002675645e-01,-1.711443475805587422e-01,-1.807758476608499199e-01,-1.911482323627019531e-01,-2.007797324429931307e-01,-2.104112325232843361e-01,-2.207836172251363693e-01,-2.304151173054275470e-01,-2.407875020072796080e-01,-2.504190020875707856e-01,-2.600505021678619633e-01,-2.607913867894228188e-01,-2.607913867894228188e-01,-2.607913867894228188e-01,-2.607913867894228188e-01,-2.607913867894228188e-01
-2.118930017664060472e-01,-5.551115123125782702e-17,-5.551115123125782702e-17,-5.551115123125782702e-17,-1.110223024625156540e-16,-5.551115123125782702e-17,0.000000000000000000e+00,-5.551115123125782702e-17,0.000000000000000000e+00,-5.551115123125782702e-17,-5.551115123125782702e-17,-5.551115123125782702e-17,-5.551115123125782702e-17,-4.445307729365244320e-03,-1.407680780965642198e-02,-2.370830788994759963e-02,-3.408069259179963284e-02,-4.371219267209081050e-02,-5.334369275238196040e-02,-6.371607745423402136e-02,-7.334757753452519902e-02,-8.371996223637725998e-02,-9.335146231666843764e-02,-1.029829623969595875e-01,-1.133553470988116485e-01,-1.229868471791028262e-01,-1.333592318809548871e-01,-1.429907319612460648e-01,-1.526222320415372424e-01,-1.629946167433892756e-01,-1.726261168236804533e-01,-1.829985015255324865e-01,-1.926300016058236642e-01,-2.022615016861148696e-01,-2.126338863879669028e-01,-2.222653864682580804e-01,-2.326377711701101414e-01,-2.422692712504013191e-01,-2.519007713306924967e-01,-2.607913867894228188e-01,-2.607913867894228188e-01,-2.607913867894228188e-01,-2.607913867894228188e-01,-2.607913867894228188e-01,-2.607913867894228188e-01,-2.607913867894228188e-01,-2.607913867894228188e-01
-2.607913867894228188e-01,-8.964703920886413213e-02,-5.551115123125782702e-17,-5.551115123125782702e-17,-5.551115123125782702e-17,-5.551115123125782702e-17,-5.551115123125782702e-17,-5.551115123125782702e-17,-5.551115123125782702e-17,-1.110223024625156540e-16,-5.551115123125782702e-17,-5.927076972486955420e-03,-1.555857705277813308e-02,-2.593096175463016628e-02,-3.556246183492134394e-02,-4.519396191521252160e-02,-5.556634661706455480e-02,-6.519784669735576021e-02,-7.557023139920779342e-02,-8.520173147949897108e-02,-9.483323155979014873e-02,-1.052056162616421819e-01,-1.148371163419333874e-01,-1.252095010437854206e-01,-1.348410011240765982e-01,-1.444725012043677759e-01,-3.023981951410890101e-01,-3.120296952213801878e-01,-3.216611953016713654e-01,-1.844802707686542531e-01,-1.941117708489454030e-01,-2.044841555507974640e-01,-2.141156556310886416e-01,-2.237471557113798193e-01,-2.341195404132318525e-01,-2.437510404935230302e-01,-2.541234251953750634e-01,-2.607913867894228188e-01,-2.607913867894228188e-01,-2.607913867894228188e-01,-2.607913867894228188e-01,-2.607913867894228188e-01,-2.607913867894228188e-01,-2.607913867894228188e-01,-2.607913867894228188e-01,-2.607913867894228188e-01,-2.607913867894228188e-01
-2.607913867894228188e-01,-1.955935400920671419e-01,0.000000000000000000e+00,-5.551115123125782702e-17,-5.551115123125782702e-17,-5.551115123125782702e-17,-5.551115123125782702e-17,-5.551115123125782702e-17,-5.551115123125782702e-17,-7.408846215608666519e-03,-1.778123091746072748e-02,-2.741273099775190514e-02,-3.704423107804305504e-02,-4.741661577989508825e-02,-5.704811586018629366e-02,-6.667961594047747131e-02,-7.705200064232950452e-02,-8.668350072262070993e-02,-9.705588542447271538e-02,-1.066873855047639208e-01,-1.163188855850550985e-01,-1.266912702869071317e-01,-1.363227703671983093e-01,-1.466951550690503703e-01,-1.563266551493415479e-01,-1.659581552296327256e-01,-3.238838491663539321e-01,-3.335153492466451097e-01,-3.438877339484971429e-01,-2.059659247939191751e-01,-2.155974248742103527e-01,-2.259698095760623859e-01,-2.356013096563535636e-01,-2.459736943582056246e-01,-2.556051944384967745e-01,-2.607913867894228188e-01,-2.607913867894228188e-01,-2.607913867894228188e-01,-2.607913867894228188e-01,-2.607913867894228188e-01,-2.607913867894228188e-01,-2.607913867894228188e-01,-2.607913867894228188e-01,-2.607913867894228188e-01,-2.607913867894228188e-01,-2.607913867894228188e-01,-2.607913867894228188e-01
-2.607913867894228188e-01,-2.607913867894228188e-01,-6.519784669735576021e-02,-5.551115123125782702e-17,-5.551115123125782702e-17,-5.551115123125782702e-17,-5.551115123125782702e-17,-8.890615458730377618e-03,-1.926300016058243858e-02,-2.889450024087358848e-02,-3.926688494272562169e-02,-4.889838502301682710e-02,-5.852988510330800476e-02,-6.890226980516006572e-02,-7.853376988545124338e-02,-8.890615458730327658e-02,-9.853765466759445424e-02,-1.081691547478856319e-01,-1.185415394497376651e-01,-1.281730395300288428e-01,-1.378045396103200482e-01,-1.481769243121720814e-01,-1.578084243924632868e-01,-1.681808090943153200e-01,-1.778123091746064977e-01,-1.874438092548976753e-01,-3.453695031916188540e-01,-3.550010032719100872e-01,-3.653733879737621204e-01,-2.274515788191841248e-01,-2.370830788994753024e-01,-2.474554636013273357e-01,-2.570869636816185411e-01,-2.607913867894228188e-01,-2.607913867894228188e-01,-2.607913867894228188e-01,-2.607913867894228188e-01,-2.607913867894228188e-01,-2.607913867894228188e-01,-2.607913867894228188e-01,-2.607913867894228188e-01,-2.607913867894228188e-01,-2.607913867894228188e-01,-2.607913867894228188e-01,-2.607913867894228188e-01,-2.607913867894228188e-01,-2.607913867894228188e-01
-2.607913867894228188e-01,-2.607913867894228188e-01,-1.792940784177282088e-01,-5.551115123125782702e-17,-7.408846215609110608e-04,-1.111326932341294427e-02,-2.074476940370414968e-02,-3.037626948399529958e-02,-4.074865418584736054e-02,-5.038015426613851044e-02,-6.075253896799059916e-02,-7.038403904828177682e-02,-8.001553912857295447e-02,-9.038792383042498768e-02,-1.000194239107161376e-01,-1.103918086125681985e-01,-1.200233086928593762e-01,-1.296548087731505539e-01,-1.400271934750026426e-01,-1.496586935552938202e-01,-1.600310782571458534e-01,-1.696625783374370311e-01,-1.792940784177282088e-01,-1.896664631195802420e-01,-1.992979631998714196e-01,-2.096703479017234528e-01,-2.193018479820146305e-01,-2.289333480623058359e-01,-2.393057327641578691e-01,-2.489372328444490468e-01,-2.585687329247402522e-01,-2.607913867894228188e-01,-2.607913867894228188e-01,-2.607913867894228188e-01,-2.607913867894228188e-01,-2.607913867894228188e-01,-2.607913867894228188e-01,-2.607913867894228188e-01,-2.607913867894228188e-01,-2.607913867894228188e-01,-2.607913867894228188e-01,-2.607913867894228188e-01,-2.607913867894228188e-01,-2.607913867894228188e-01,-2.607913867894228188e-01,-2.607913867894228188e-01,-2.607913867894228188e-01
-2.607913867894228188e-01,-2.607913867894228188e-01,-2.607913867894228188e-01,-5.913185385832619989e-02,-2.222653864682588853e-02,-3.259892334867789399e-02,-4.223042342896909940e-02,-5.260280813082110485e-02,-6.223430821111231026e-02,-7.186580829140348792e-02,-8.223819299325554888e-02,-9.186969307354672654e-02,-1.015011931538378764e-01,-1.118735778556899096e-01,-1.215050779359810873e-01,-1.318774626378331760e-01,-1.415089627181243537e-01,-1.511404627984155313e-01,-1.615128475002675645e-01,-1.711443475805587422e-01,-1.815167322824107754e-01,-1.911482323627019531e-01,-2.007797324429931585e-01,-2.111521171448451917e-01,-2.207836172251363693e-01,-2.311560019269884303e-01,-2.407875020072796080e-01,-2.504190020875707856e-01,-2.607913867894228188e-01,-2.607913867894228188e-01,-2.607913867894228188e-01,-2.607913867894228188e-01,-2.607913867894228188e-01,-2.607913867894228188e-01,-2.607913867894228188e-01,-2.607913867894228188e-01,-2.607913867894228188e-01,-2.607913867894228188e-01,-2.607913867894228188e-01,-2.607913867894228188e-01,-2.607913867894228188e-01,-2.607913867894228188e-01,-2.607913867894228188e-01,-2.607913867894228188e-01,-2.607913867894228188e-01,-2.607913867894228188e-01,-2.607913867894228188e-01
-2.607913867894228188e-01,-2.607913867894228188e-01,-2.607913867894228188e-01,-1.686901672716383804e-01,-4.371219267209078274e-02,-5.408457737394284370e-02,-6.371607745423402136e-02,-7.408846215608605457e-02,-8.371996223637725998e-02,-9.335146231666843764e-02,-1.037238470185204708e-01,-1.133553470988116485e-01,-1.237277318006636817e-01,-1.333592318809548871e-01,-1.429907319612460648e-01,-1.533631166630980980e-01,-1.629946167433892756e-01,-1.733670014452413088e-01,-1.829985015255324865e-01,-1.926300016058236919e-01,-2.030023863076757251e-01,-2.126338863879669028e-01,-2.222653864682581082e-01,-2.326377711701101414e-01,-2.422692712504013191e-01,-2.526416559522533523e-01,-2.607913867894228188e-01,-2.607913867894228188e-01,-2.607913867894228188e-01,-2.607913867894228188e-01,-2.607913867894228188e-01,-2.607913867894228188e-01,-2.607913867894228188e-01,-2.607913867894228188e-01,-2.607913867894228188e-01,-2.607913867894228188e-01,-2.607913867894228188e-01,-2.607913867894228188e-01,-2.607913867894228188e-01,-2.607913867894228188e-01,-2.607913867894228188e-01,-2.607913867894228188e-01,-2.607913867894228188e-01,-2.607913867894228188e-01,-2.607913867894228188e-01,-2.607913867894228188e-01,-2.607913867894228188e-01
-2.607913867894228188e-01,-2.607913867894228188e-01,-2.607913867894228188e-01,-2.607913867894228188e-01,-8.964703920886413213e-02,-7.557023139920779342e-02,-8.520173147949897108e-02,-9.557411618135100428e-02,-1.052056162616421819e-01,-1.148371163419333596e-01,-1.252095010437854206e-01,-1.348410011240765982e-01,-1.452133858259286592e-01,-1.548448859062198091e-01,-1.644763859865110145e-01,-1.748487706883630477e-01,-1.844802707686542254e-01,-1.948526554705062586e-01,-2.044841555507974640e-01,-2.141156556310886416e-01,-2.244880403329406748e-01,-2.341195404132318525e-01,-2.444919251150838857e-01,-2.541234251953750634e-01,-2.607913867894228188e-01,-2.607913867894228188e-01,-2.607913867894228188e-01,-2.607913867894228188e-01,-2.607913867894228188e-01,-2.607913867894228188e-01,-2.607913867894228188e-01,-2.607913867894228188e-01,-2.607913867894228188e-01,-2.607913867894228188e-01,-2.607913867894228188e-01,-2.607913867894228188e-01,-2.607913867894228188e-01,-2.607913867894228188e-01,-2.607913867894228188e-01,-2.607913867894228188e-01,-2.607913867894228188e-01,-2.607913867894228188e-01,-2.607913867894228188e-01,-2.607913867894228188e-01,-2.607913867894228188e-01,-2.607913867894228188e-01,-2.607913867894228188e-01
-2.607913867894228188e-01,-2.607913867894228188e-01,-2.607913867894228188e-01,-2.607913867894228188e-01,-1.795256048619659761e-01,-9.705588542447271538e-02,-1.066873855047639208e-01,-1.170597702066159262e-01,-1.266912702869071594e-01,-1.370636549887591649e-01,-1.466951550690503703e-01,-1.563266551493415479e-01,-1.666990398511936089e-01,-1.763305399314847866e-01,-1.859620400117759365e-01,-1.963344247136279974e-01,-2.059659247939191751e-01,-2.163383094957712083e-01,-2.259698095760623859e-01,-2.356013096563535636e-01,-2.459736943582056246e-01,-2.556051944384967745e-01,-2.607913867894228188e-01,-2.607913867894228188e-01,-2.607913867894228188e-01,-2.607913867894228188e-01,-2.607913867894228188e-01,-2.607913867894228188e-01,-2.607913867894228188e-01,-2.607913867894228188e-01,-2.607913867894228188e-01,-2.607913867894228188e-01,-2.607913867894228188e-01,-2.607913867894228188e-01,-2.607913867894228188e-01,-2.607913867894228188e-01,-2.607913867894228188e-01,-2.607913867894228188e-01,-2.607913867894228188e-01,-2.607913867894228188e-01,-2.607913867894228188e-01,-2.607913867894228188e-01,-2.607913867894228188e-01,-2.607913867894228188e-01,-2.607913867894228188e-01,-2.607913867894228188e-01,-2.607913867894228188e-01
-2.607913867894228188e-01,-2.607913867894228188e-01,-2.607913867894228188e-01,-2.607913867894228188e-01,-2.512988025756742738e-01,-1.229868471791028262e-01,-1.281730395300288428e-01,-1.385454242318809037e-01,-1.481769243121721091e-01,-1.585493090140241423e-01,-1.681808090943152922e-01,-1.778123091746064977e-01,-1.881846938764585309e-01,-1.978161939567497085e-01,-2.081885786586017417e-01,-2.178200787388929194e-01,-2.274515788191840970e-01,-2.378239635210361580e-01,-2.474554636013273357e-01,-2.570869636816185411e-01,-2.607913867894228188e-01,-2.607913867894228188e-01,-2.607913867894228188e-01,-2.607913867894228188e-01,-2.607913867894228188e-01,-2.607913867894228188e-01,-2.607913867894228188e-01,-2.607913867894228188e-01,-2.607913867894228188e-01,-2.607913867894228188e-01,-2.607913867894228188e-01,-2.607913867894228188e-01,-2.607913867894228188e-01,-2.607913867894228188e-01,-2.607913867894228188e-01,-2.607913867894228188e-01,-2.607913867894228188e-01,-2.607913867894228188e-01,-2.607913867894228188e-01,-2.607913867894228188e-01,-2.607913867894228188e-01,-2.607913867894228188e-01,-2.607913867894228188e-01,-2.607913867894228188e-01,-2.607913867894228188e-01,-2.607913867894228188e-01,-2.607913867894228188e-01
-2.607913867894228188e-01,-2.607913867894228188e-01,-2.607913867894228188e-01,-2.607913867894228188e-01,-2.607913867894228188e-01,-1.966354090911370811e-01,-1.496586935552937925e-01,-1.600310782571458534e-01,-1.696625783374370311e-01,-1.800349630392890643e-01,-1.896664631195802420e-01,-1.992979631998714196e-01,-2.096703479017234806e-01,-2.193018479820146582e-01,-2.296742326838666914e-01,-2.393057327641578691e-01,-2.489372328444490468e-01,-2.593096175463011077e-01,-2.607913867894228188e-01,-2.607913867894228188e-01,-2.607913867894228188e-01,-2.607913867894228188e-01,-2.607913867894228188e-01,-2.607913867894228188e-01,-2.607913867894228188e-01,-2.607913867894228188e-01,-2.607913867894228188e-01,-2.607913867894228188e-01,-2.607913867894228188e-01,-2.607913867894228188e-01,-2.607913867894228188e-01,-2.607913867894228188e-01,-2.607913867894228188e-01,-2.607913867894228188e-01,-2.607913867894228188e-01,-2.607913867894228188e-01,-2.607913867894228188e-01,-2.607913867894228188e-01,-2.607913867894228188e-01,-2.607913867894228188e-01,-2.607913867894228188e-01,-2.607913867894228188e-01,-2.607913867894228188e-01,-2.607913867894228188e-01,-2.607913867894228188e-01,-2.607913867894228188e-01,-2.607913867894228188e-01
-2.607913867894228188e-01,-2.607913867894228188e-01,-2.607913867894228188e-01,-2.607913867894228188e-01,-2.607913867894228188e-01,-2.483815693782784051e-01,-1.718852322021195977e-01,-1.815167322824107754e-01,-1.911482323627019531e-01,-2.015206170645540140e-01,-2.111521171448451917e-01,-2.207836172251363693e-01,-2.311560019269884025e-01,-2.407875020072796080e-01,-2.511598867091316412e-01,-2.607913867894228188e-01,-2.607913867894228188e-01,-2.607913867894228188e-01,-2.607913867894228188e-01,-2.607913867894228188e-01,-2.607913867894228188e-01,-2.607913867894228188e-01,-2.607913867894228188e-01,-2.607913867894228188e-01,-2.607913867894228188e-01,-2.607913867894228188e-01,-2.607913867894228188e-01,-2.607913867894228188e-01,-2.607913867894228188e-01,-2.607913867894228188e-01,-2.607913867894228188e-01,-2.607913867894228188e-01,-2.607913867894228188e-01,-2.607913867894228188e-01,-2.607913867894228188e-01,-2.607913867894228188e-01,-2.607913867894228188e-01,-2.607913867894228188e-01,-2.607913867894228188e-01,-2.607913867894228188e-01,-2.607913867894228188e-01,-2.607913867894228188e-01,-2.607913867894228188e-01,-2.607913867894228188e-01,-2.607913867894228188e-01,-2.607913867894228188e-01,-2.607913867894228188e-01
-2.607913867894228188e-01,-2.607913867894228188e-01,-2.607913867894228188e-01,-2.607913867894228188e-01,-2.607913867894228188e-01,-2.607913867894228188e-01,-2.186535739381488819e-01,-2.030023863076757251e-01,-2.126338863879669028e-01,-2.230062710898189637e-01,-2.326377711701101414e-01,-2.430101558719621746e-01,-2.526416559522533523e-01,-2.607913867894228188e-01,-2.607913867894228188e-01,-2.607913867894228188e-01,-2.607913867894228188e-01,-2.607913867894228188e-01,-2.607913867894228188e-01,-2.607913867894228188e-01,-2.607913867894228188e-01,-2.607913867894228188e-01,-2.607913867894228188e-01,-2.607913867894228188e-01,-2.607913867894228188e-01,-2.607913867894228188e-01,-2.607913867894228188e-01,-2.607913867894228188e-01,-2.607913867894228188e-01,-2.607913867894228188e-01,-2.607913867894228188e-01,-2.607913867894228188e-01,-2.607913867894228188e-01,-2.607913867894228188e-01,-2.607913867894228188e-01,-2.607913867894228188e-01,-2.607913867894228188e-01,-2.607913867894228188e-01,-2.607913867894228188e-01,-2.607913867894228188e-01,-2.607913867894228188e-01,-2.607913867894228188e-01,-2.607913867894228188e-01,-2.607913867894228188e-01,-2.607913867894228188e-01,-2.607913867894228188e-01,-2.607913867894228188e-01
-2.607913867894228188e-01,-2.607913867894228188e-01,-2.607913867894228188e-01,-2.607913867894228188e-01,-2.607913867894228188e-01,-2.607913867894228188e-01,-2.521786030637778175e-01,-2.244880403329406748e-01,-2.341195404132318525e-01,-2.444919251150838857e-01,-2.541234251953750634e-01,-2.607913867894228188e-01,-2.607913867894228188e-01,-2.607913867894228188e-01,-2.607913867894228188e-01,-2.607913867894228188e-01,-2.607913867894228188e-01,-2.607913867894228188e-01,-2.607913867894228188e-01,-2.607913867894228188e-01,-2.607913867894228188e-01,-2.607913867894228188e-01,-2.607913867894228188e-01,-2.607913867894228188e-01,-2.607913867894228188e-01,-2.607913867894228188e-01,-2.607913867894228188e-01,-2.607913867894228188e-01,-2.607913867894228188e-01,-2.607913867894228188e-01,-2.607913867894228188e-01,-2.607913867894228188e-01,-2.607913867894228188e-01,-2.607913867894228188e-01,-2.607913867894228188e-01,-2.607913867894228188e-01,-2.607913867894228188e-01,-2.607913867894228188e-01,-2.607913867894228188e-01,-2.607913867894228188e-01,-2.607913867894228188e-01,-2.607913867894228188e-01,-2.607913867894228188e-01,-2.607913867894228188e-01,-2.607913867894228188e-01,-2.607913867894228188e-01,-2.607913867894228188e-01
-2.607913867894228188e-01,-2.607913867894228188e-01,-2.607913867894228188e-01,-2.607913867894228188e-01,-2.607913867894228188e-01,-2.607913867894228188e-01,-2.607913867894228188e-01,-2.506042232429609995e-01,-2.556051944384967745e-01,-2.607913867894228188e-01,-2.607913867894228188e-01,-2.607913867894228188e-01,-2.607913867894228188e-01,-2.607913867894228188e-01,-2.607913867894228188e-01,-2.607913867894228188e-01,-2.607913867894228188e-01,-2.607913867894228188e-01,-2.607913867894228188e-01,-2.607913867894228188e-01,-2.607913867894228188e-01,-2.607913867894228188e-01,-3.146006202467308555e-01,-3.146006202467308555e-01,-3.146006202467308555e-01,-2.607913867894228188e-01,-2.607913867894228188e-01,-2.607913867894228188e-01,-2.607913867894228188e-01,-2.607913867894228188e-01,-2.607913867894228188e-01,-2.607913867894228188e-01,-2.607913867894228188e-01,-2.607913867894228188e-01,-2.607913867894228188e-01,-2.607913867894228188e-01,-2.607913867894228188e-01,-2.607913867894228188e-01,-2.607913867894228188e-01,-2.607913867894228188e-01,-2.607913867894228188e-01,-2.607913867894228188e-01,-2.607913867894228188e-01,-2.607913867894228188e-01,-2.607913867894228188e-01,-2.607913867894228188e-01,-2.607913867894228188e-01
-2.607913867894228188e-01,-2.607913867894228188e-01,-2.607913867894228188e-01,-2.607913867894228188e-01,-2.607913867894228188e-01,-2.607913867894228188e-01,-2.607913867894228188e-01,-2.607913867894228188e-01,-2.607913867894228188e-01,-2.607913867894228188e-01,-2.607913867894228188e-01,-2.607913867894228188e-01,-2.607913867894228188e-01,-2.607913867894228188e-01,-2.607913867894228188e-01,-2.607913867894228188e-01,-2.607913867894228188e-01,-2.607913867894228188e-01,-2.607913867894228188e-01,-2.607913867894228188e-01,-2.607913867894228188e-01,-2.607913867894228188e-01,-3.146006202467308555e-01,-3.146006202467308555e-01,-3.146006202467308555e-01,-2.607913867894228188e-01,-2.607913867894228188e-01,-2.607913867894228188e-01,-2.607913867894228188e-01,-2.607913867894228188e-01,-2.607913867894228188e-01,-2.607913867894228188e-01,-2.607913867894228188e-01,-2.607913867894228188e-01,-2.607913867894228188e-01,-2.607913867894228188e-01,-2.607913867894228188e-01,-2.607913867894228188e-01,-2.607913867894228188e-01,-2.607913867894228188e-01,-2.607913867894228188e-01,-2.607913867894228188e-01,-2.607913867894228188e-01,-2.607913867894228188e-01,-2.607913867894228188e-01,-2.607913867894228188e-01,-2.607913867894228188e-01
-2.607913867894228188e-01,-2.607913867894228188e-01,-2.607913867894228188e-01,-2.607913867894228188e-01,-2.607913867894228188e-01,-2.607913867894228188e-01,-2.607913867894228188e-01,-2.607913867894228188e-01,-2.607913867894228188e-01,-2.607913867894228188e-01,-2.607913867894228188e-01,-2.607913867894228188e-01,-2.607913867894228188e-01,-2.607913867894228188e-01,-2.607913867894228188e-01,-2.607913867894228188e-01,-2.607913867894228188e-01,-2.607913867894228188e-01,-2.607913867894228188e-01,-2.607913867894228188e-01,-2.607913867894228188e-01,-2.607913867894228188e-01,-3.146006202467308555e-01,-3.146006202467308555e-01,-3.146006202467308555e-01,-2.607913867894228188e-01,-2.607913867894228188e-01,-2.607913867894228188e-01,-2.607913867894228188e-01,-2.607913867894228188e-01,-2.607913867894228188e-01,-2.607913867894228188e-01,-2.607913867894228188e-01,-2.607913867894228188e-01,-2.607913867894228188e-01,-2.607913867894228188e-01,-2.607913867894228188e-01,-2.607913867894228188e-01,-2.607913867894228188e-01,-2.607913867894228188e-01,-2.607913867894228188e-01,-2.607913867894228188e-01,-2.607913867894228188e-01,-2.607913867894228188e-01,-2.607913867894228188e-01,-2.607913867894228188e-01,-2.607913867894228188e-01
