3.555507454078930818e-02,3.555507454078930818e-02,3.555507454078930818e-02,3.555507454078930818e-02,3.555507454078930818e-02,3.555507454078930818e-02,3.555507454078930818e-02,3.555507454078930818e-02,3.555507454078930818e-02,3.555507454078930818e-02,3.555507454078930818e-02,3.555507454078930818e-02,-1.663059938198209464e-02,-8.372646585411676334e-02,-8.372646585411677722e-02,-8.372646585411676334e-02,-7.502885353365487675e-02,-6.198243505296201217e-02,-4.831475854937902770e-02,-3.526834006868617699e-02,-2.222192158799332629e-02,-8.554245084410334876e-03,4.492173396282515829e-03,1.815984989986550377e-02,3.120626838055835794e-02,3.555507454078930818e-02,3.555507454078930818e-02,3.555507454078930818e-02,3.555507454078930818e-02,3.555507454078930818e-02,3.555507454078930818e-02,3.555507454078930818e-02,3.555507454078930818e-02,3.555507454078930818e-02,3.555507454078930818e-02,3.555507454078930818e-02,3.555507454078930818e-02,3.555507454078930818e-02,3.555507454078930818e-02,3.555507454078930818e-02,3.555507454078930818e-02,3.555507454078930818e-02,3.555507454078930818e-02,3.555507454078930818e-02,3.555507454078930818e-02,3.555507454078930818e-02,3.555507454078930818e-02
3.555507454078930818e-02,3.555507454078930818e-02,3.555507454078930818e-02,3.555507454078930818e-02,3.555507454078930818e-02,3.555507454078930818e-02,3.555507454078930818e-02,3.555507454078930818e-02,3.555507454078930818e-02,3.555507454078930818e-02,3.555507454078930818e-02,-9.175503107300468641e-03,-8.372646585411676334e-02,-8.372646585411676334e-02,-8.372646585411676334e-02,-8.372646585411677722e-02,-8.372646585411676334e-02,-7.689262760232526417e-02,-6.322495109874229358e-02,-5.017853261804942899e-02,-3.651085611446644452e-02,-2.346443763377358688e-02,-1.041801915308074311e-02,3.249657350502248299e-03,1.629607583119509553e-02,2.934249431188794971e-02,3.555507454078930818e-02,3.555507454078930818e-02,3.555507454078930818e-02,3.555507454078930818e-02,3.555507454078930818e-02,3.555507454078930818e-02,3.555507454078930818e-02,3.555507454078930818e-02,3.555507454078930818e-02,3.555507454078930818e-02,3.555507454078930818e-02,3.555507454078930818e-02,3.555507454078930818e-02,3.555507454078930818e-02,3.555507454078930818e-02,3.555507454078930818e-02,3.555507454078930818e-02,3.555507454078930818e-02,3.555507454078930818e-02,3.555507454078930818e-02,3.555507454078930818e-02
3.555507454078930818e-02,3.555507454078930818e-02,3.555507454078930818e-02,3.555507454078930818e-02,3.555507454078930818e-02,3.555507454078930818e-02,3.555507454078930818e-02,3.555507454078930818e-02,3.555507454078930818e-02,3.555507454078930818e-02,2.007141304721973829e-03,-8.372646585411676334e-02,-8.372646585411676334e-02,-8.372646585411676334e-02,-8.372646585411674947e-02,-8.372646585411676334e-02,-8.372646585411676334e-02,-8.372646585411677722e-02,-7.813514364810553170e-02,-6.508872516741269487e-02,-5.142104866382971040e-02,-3.837463018313685970e-02,-2.532821170244399511e-02,-1.166053519886101064e-02,1.385883281831833125e-03,1.505355978541482453e-02,2.809997826610767871e-02,3.555507454078930818e-02,3.555507454078930818e-02,3.555507454078930818e-02,3.555507454078930818e-02,3.555507454078930818e-02,3.555507454078930818e-02,3.555507454078930818e-02,3.555507454078930818e-02,3.555507454078930818e-02,3.555507454078930818e-02,3.555507454078930818e-02,3.555507454078930818e-02,3.555507454078930818e-02,3.555507454078930818e-02,3.555507454078930818e-02,3.555507454078930818e-02,3.555507454078930818e-02,3.555507454078930818e-02,3.555507454078930818e-02,3.555507454078930818e-02
3.555507454078930818e-02,3.555507454078930818e-02,3.555507454078930818e-02,3.555507454078930818e-02,3.555507454078930818e-02,3.555507454078930818e-02,3.555507454078930818e-02,3.555507454078930818e-02,3.555507454078930818e-02,9.462237579403606769e-03,-7.999891771677594687e-02,-8.372646585411676334e-02,-8.372646585411676334e-02,-8.372646585411676334e-02,-8.372646585411674947e-02,-8.372646585411676334e-02,-8.372646585411674947e-02,-8.372646585411676334e-02,-8.372646585411677722e-02,-7.937765969388581311e-02,-6.633124121319296240e-02,-5.328482273250011170e-02,-3.961714622891712723e-02,-2.657072774822426958e-02,-1.352430926753141888e-02,1.433672360515586552e-04,1.318978571674441977e-02,2.685746222032740771e-02,3.555507454078930818e-02,3.555507454078930818e-02,3.555507454078930818e-02,3.555507454078930818e-02,3.555507454078930818e-02,3.555507454078930818e-02,3.555507454078930818e-02,3.555507454078930818e-02,3.555507454078930818e-02,3.555507454078930818e-02,3.555507454078930818e-02,3.555507454078930818e-02,3.555507454078930818e-02,3.555507454078930818e-02,3.555507454078930818e-02,3.555507454078930818e-02,3.555507454078930818e-02,3.555507454078930818e-02,3.555507454078930818e-02
3.555507454078930818e-02,3.555507454078930818e-02,3.555507454078930818e-02,3.555507454078930818e-02,3.555507454078930818e-02,3.555507454078930818e-02,3.555507454078930818e-02,3.555507454078930818e-02,1.691733385408523624e-02,-6.881627330475349746e-02,-8.372646585411676334e-02,-8.372646585411674947e-02,-8.372646585411676334e-02,-8.372646585411676334e-02,-8.372646585411676334e-02,-8.372646585411676334e-02,-8.372646585411676334e-02,-8.372646585411676334e-02,-8.372646585411676334e-02,-8.372646585411676334e-02,-8.124143376255621440e-02,-6.757375725897322993e-02,-5.452733877828039311e-02,-4.148092029758754240e-02,-2.781324379400454405e-02,-1.476682531331169335e-02,-1.720406832618842641e-03,1.194726967096414877e-02,2.499368815165699947e-02,3.555507454078930818e-02,3.555507454078930818e-02,3.555507454078930818e-02,3.555507454078930818e-02,3.555507454078930818e-02,3.555507454078930818e-02,3.555507454078930818e-02,3.555507454078930818e-02,3.555507454078930818e-02,3.555507454078930818e-02,3.555507454078930818e-02,3.555507454078930818e-02,3.555507454078930818e-02,3.555507454078930818e-02,3.555507454078930818e-02,3.555507454078930818e-02,3.555507454078930818e-02,3.555507454078930818e-02
3.555507454078930818e-02,3.555507454078930818e-02,3.555507454078930818e-02,3.555507454078930818e-02,3.555507454078930818e-02,3.555507454078930818e-02,3.555507454078930818e-02,2.809997826610767871e-02,-6.136117703007186452e-02,-8.372646585411677722e-02,-8.372646585411676334e-02,-8.372646585411676334e-02,-8.372646585411676334e-02,-8.372646585411676334e-02,-8.372646585411677722e-02,-8.372646585411676334e-02,-8.372646585411676334e-02,-8.372646585411676334e-02,-8.372646585411674947e-02,-8.372646585411676334e-02,-8.372646585411677722e-02,-8.248394980833649581e-02,-6.943753132764364511e-02,-5.639111284695080828e-02,-4.272343634336780993e-02,-2.967701786267494535e-02,-1.600934135909196782e-02,-2.962922878399117110e-03,1.008349560229374053e-02,2.375117210587672847e-02,3.555507454078930818e-02,3.555507454078930818e-02,3.555507454078930818e-02,3.555507454078930818e-02,3.555507454078930818e-02,3.555507454078930818e-02,3.555507454078930818e-02,3.555507454078930818e-02,3.555507454078930818e-02,3.555507454078930818e-02,3.555507454078930818e-02,3.555507454078930818e-02,3.555507454078930818e-02,3.555507454078930818e-02,3.555507454078930818e-02,3.555507454078930818e-02,3.555507454078930818e-02
3.555507454078930818e-02,3.555507454078930818e-02,3.555507454078930818e-02,3.555507454078930818e-02,3.555507454078930818e-02,3.555507454078930818e-02,3.555507454078930818e-02,-5.390608075539024546e-02,-8.372646585411676334e-02,-8.372646585411676334e-02,-8.372646585411676334e-02,-8.372646585411677722e-02,-8.372646585411676334e-02,-8.372646585411676334e-02,-8.372646585411676334e-02,-8.372646585411676334e-02,-8.372646585411676334e-02,-8.372646585411676334e-02,-8.372646585411674947e-02,-8.372646585411676334e-02,-8.372646585411676334e-02,-8.372646585411676334e-02,-8.372646585411676334e-02,-7.068004737342391264e-02,-5.763362889273106193e-02,-4.458721041203821123e-02,-3.091953390845522676e-02,-1.787311542776236911e-02,-4.205438924179384641e-03,8.840979556513466064e-03,2.188739803720632024e-02,3.555507454078930818e-02,3.555507454078930818e-02,3.555507454078930818e-02,3.555507454078930818e-02,3.555507454078930818e-02,3.555507454078930818e-02,3.555507454078930818e-02,3.555507454078930818e-02,3.555507454078930818e-02,3.555507454078930818e-02,3.555507454078930818e-02,3.555507454078930818e-02,3.555507454078930818e-02,3.555507454078930818e-02,3.555507454078930818e-02,3.555507454078930818e-02
3.555507454078930818e-02,3.555507454078930818e-02,3.555507454078930818e-02,3.555507454078930818e-02,3.555507454078930818e-02,3.555507454078930818e-02,-4.272343634336779605e-02,-8.372646585411676334e-02,-8.372646585411676334e-02,-8.372646585411677722e-02,-8.372646585411676334e-02,-8.372646585411676334e-02,-8.372646585411676334e-02,-8.372646585411676334e-02,-8.372646585411676334e-02,-8.372646585411676334e-02,-8.372646585411676334e-02,-8.372646585411677722e-02,-8.372646585411676334e-02,-8.372646585411676334e-02,-8.372646585411676334e-02,-8.372646585411676334e-02,-8.372646585411676334e-02,-8.372646585411676334e-02,-7.254382144209432781e-02,-5.887614493851134334e-02,-4.582972645781847876e-02,-3.278330797712562805e-02,-1.911563147354264358e-02,-6.069212992849792876e-03,7.598463510733195064e-03,2.064488199142604924e-02,3.369130047211889994e-02,3.555507454078930818e-02,3.555507454078930818e-02,3.555507454078930818e-02,3.555507454078930818e-02,3.555507454078930818e-02,3.555507454078930818e-02,3.555507454078930818e-02,3.555507454078930818e-02,3.555507454078930818e-02,3.555507454078930818e-02,3.555507454078930818e-02,3.555507454078930818e-02,3.555507454078930818e-02,3.555507454078930818e-02
3.555507454078930818e-02,3.555507454078930818e-02,3.555507454078930818e-02,3.555507454078930818e-02,3.555507454078930818e-02,-3.526834006868617699e-02,-8.372646585411676334e-02,-8.372646585411676334e-02,-8.372646585411674947e-02,-8.372646585411676334e-02,-8.372646585411676334e-02,-8.372646585411676334e-02,-8.372646585411676334e-02,-8.372646585411676334e-02,-8.372646585411677722e-02,-8.372646585411676334e-02,-8.372646585411676334e-02,-8.372646585411676334e-02,-8.372646585411676334e-02,-8.372646585411676334e-02,-8.372646585411677722e-02,-8.372646585411676334e-02,-8.372646585411676334e-02,-8.372646585411676334e-02,-8.372646585411676334e-02,-7.378633748787459534e-02,-6.073991900718175851e-02,-4.707224250359876017e-02,-3.402582402290589558e-02,-2.097940554221305182e-02,-7.311729038630060407e-03,5.734689442062786829e-03,1.940236594564577477e-02,3.244878442633862548e-02,3.555507454078930818e-02,3.555507454078930818e-02,3.555507454078930818e-02,3.555507454078930818e-02,3.555507454078930818e-02,3.555507454078930818e-02,3.555507454078930818e-02,3.555507454078930818e-02,3.555507454078930818e-02,3.555507454078930818e-02,3.555507454078930818e-02,3.555507454078930818e-02,3.555507454078930818e-02
3.555507454078930818e-02,3.555507454078930818e-02,3.555507454078930818e-02,3.555507454078930818e-02,-2.408569565666372758e-02,-8.372646585411677722e-02,-8.372646585411676334e-02,-8.372646585411676334e-02,-8.372646585411676334e-02,-8.372646585411676334e-02,-8.372646585411676334e-02,-8.372646585411674947e-02,-8.372646585411676334e-02,-8.372646585411676334e-02,-8.372646585411676334e-02,-8.372646585411676334e-02,-8.372646585411676334e-02,-8.372646585411676334e-02,-8.372646585411674947e-02,-8.372646585411676334e-02,-8.372646585411676334e-02,-8.372646585411674947e-02,-8.372646585411676334e-02,-8.372646585411676334e-02,-8.372646585411676334e-02,-8.372646585411676334e-02,-7.565011155654499664e-02,-6.198243505296202605e-02,-4.893601657226916146e-02,-3.526834006868617699e-02,-2.222192158799331935e-02,-9.175503107300468641e-03,4.492173396282515829e-03,1.753859187697537000e-02,3.120626838055835794e-02,3.555507454078930818e-02,3.555507454078930818e-02,3.555507454078930818e-02,3.555507454078930818e-02,3.555507454078930818e-02,3.555507454078930818e-02,3.555507454078930818e-02,3.555507454078930818e-02,3.555507454078930818e-02,3.555507454078930818e-02,3.555507454078930818e-02,3.555507454078930818e-02
3.555507454078930818e-02,3.555507454078930818e-02,3.555507454078930818e-02,-1.663059938198209464e-02,-8.372646585411676334e-02,-8.372646585411674947e-02,-8.372646585411674947e-02,-8.372646585411676334e-02,-8.372646585411676334e-02,-8.372646585411674947e-02,-8.372646585411676334e-02,-8.372646585411676334e-02,-8.372646585411676334e-02,-8.372646585411676334e-02,-8.372646585411676334e-02,-8.372646585411676334e-02,-8.372646585411676334e-02,-8.372646585411676334e-02,-8.372646585411676334e-02,-8.372646585411676334e-02,-8.372646585411676334e-02,-8.372646585411676334e-02,-8.372646585411676334e-02,-8.372646585411676334e-02,-8.372646585411674947e-02,-8.372646585411676334e-02,-8.372646585411676334e-02,-7.689262760232526417e-02,-6.384620912163242734e-02,-5.017853261804944287e-02,-3.713211413735657829e-02,-2.346443763377358688e-02,-1.041801915308074311e-02,2.628399327612107594e-03,1.629607583119509900e-02,2.934249431188794971e-02,3.555507454078930818e-02,3.555507454078930818e-02,3.555507454078930818e-02,3.555507454078930818e-02,3.555507454078930818e-02,3.555507454078930818e-02,3.555507454078930818e-02,3.555507454078930818e-02,3.555507454078930818e-02,3.555507454078930818e-02,3.555507454078930818e-02
3.555507454078930818e-02,3.555507454078930818e-02,-5.152260045603290761e-03,-8.372646585411676334e-02,-8.372646585411676334e-02,-8.372646585411676334e-02,-8.372646585411676334e-02,-8.372646585411676334e-02,-8.372646585411676334e-02,-8.372646585411676334e-02,-8.372646585411676334e-02,-8.372646585411676334e-02,-8.372646585411676334e-02,-8.372646585411676334e-02,-8.372646585411676334e-02,-8.372646585411676334e-02,-8.372646585411676334e-02,-8.372646585411676334e-02,-8.372646585411676334e-02,-8.372646585411676334e-02,-8.372646585411677722e-02,-8.372646585411676334e-02,-8.372646585411676334e-02,-8.372646585411676334e-02,-8.372646585411676334e-02,-8.372646585411676334e-02,-8.372646585411676334e-02,-8.372646585411676334e-02,-7.813514364810554558e-02,-6.508872516741269487e-02,-5.204230668671984417e-02,-3.837463018313685970e-02,-2.532821170244399511e-02,-1.166053519886101064e-02,1.385883281831833125e-03,1.443230176252469424e-02,2.809997826610767871e-02,3.555507454078930818e-02,3.555507454078930818e-02,3.555507454078930818e-02,3.555507454078930818e-02,3.555507454078930818e-02,3.555507454078930818e-02,3.555507454078930818e-02,3.555507454078930818e-02,3.555507454078930818e-02,3.555507454078930818e-02
3.555507454078930818e-02,5.958700748393365443e-03,-7.598463510733199922e-02,-8.200605902149793458e-02,-8.372646585411676334e-02,-8.372646585411677722e-02,-8.372646585411676334e-02,-8.372646585411676334e-02,-8.372646585411676334e-02,-8.372646585411676334e-02,-8.372646585411674947e-02,-8.372646585411677722e-02,-8.372646585411676334e-02,-8.372646585411676334e-02,-8.372646585411674947e-02,-8.372646585411677722e-02,-8.372646585411676334e-02,-8.372646585411676334e-02,-8.372646585411674947e-02,-8.372646585411676334e-02,-8.372646585411676334e-02,-8.372646585411676334e-02,-8.372646585411676334e-02,-8.372646585411676334e-02,-8.372646585411676334e-02,-8.372646585411676334e-02,-8.372646585411674947e-02,-8.372646585411676334e-02,-8.372646585411676334e-02,-7.999891771677594687e-02,-6.633124121319297628e-02,-5.328482273250011170e-02,-4.023840425180727487e-02,-2.657072774822426958e-02,-1.352430926753141888e-02,-4.778907868385681712e-04,1.318978571674441630e-02,2.623620419743727047e-02,3.555507454078930818e-02,3.555507454078930818e-02,3.555507454078930818e-02,3.555507454078930818e-02,3.555507454078930818e-02,3.555507454078930818e-02,3.555507454078930818e-02,3.555507454078930818e-02,3.555507454078930818e-02
1.535821516202441270e-02,-5.691679271247319927e-02,-6.910300777685665641e-02,-7.512443169102257789e-02,-8.143259007729164445e-02,-8.372646585411676334e-02,-8.372646585411674947e-02,-8.372646585411676334e-02,-8.372646585411677722e-02,-8.372646585411676334e-02,-8.372646585411676334e-02,-8.372646585411674947e-02,-8.372646585411676334e-02,-8.372646585411676334e-02,-8.372646585411676334e-02,-8.372646585411676334e-02,-8.372646585411676334e-02,-8.372646585411677722e-02,-8.372646585411677722e-02,-8.372646585411676334e-02,-8.372646585411676334e-02,-8.372646585411677722e-02,-8.372646585411676334e-02,-8.372646585411676334e-02,-8.372646585411677722e-02,-8.372646585411676334e-02,-8.372646585411676334e-02,-8.372646585411676334e-02,-8.372646585411676334e-02,-8.372646585411676334e-02,-8.124143376255621440e-02,-6.819501528186337758e-02,-5.452733877828039311e-02,-4.148092029758752852e-02,-2.843450181689467782e-02,-1.476682531331169335e-02,-1.720406832618842641e-03,1.132601164807400806e-02,2.499368815165699947e-02,3.555507454078930818e-02,3.555507454078930818e-02,3.555507454078930818e-02,3.555507454078930818e-02,3.555507454078930818e-02,3.555507454078930818e-02,3.555507454078930818e-02,3.555507454078930818e-02
-3.921093906010435226e-02,-5.619995653221536436e-02,-6.222138044638129972e-02,-6.852953883265036628e-02,-7.455096274681631552e-02,-8.057238666098222313e-02,-8.372646585411676334e-02,-8.372646585411676334e-02,-8.372646585411676334e-02,-8.372646585411674947e-02,-8.372646585411676334e-02,-8.372646585411676334e-02,-8.372646585411676334e-02,-8.372646585411676334e-02,-8.372646585411676334e-02,-8.372646585411676334e-02,-8.372646585411676334e-02,-8.372646585411676334e-02,-8.372646585411676334e-02,-8.372646585411676334e-02,-8.372646585411676334e-02,-8.372646585411676334e-02,-8.372646585411676334e-02,-8.372646585411676334e-02,-8.372646585411677722e-02,-8.372646585411676334e-02,-8.372646585411676334e-02,-8.372646585411676334e-02,-8.372646585411677722e-02,-8.372646585411676334e-02,-8.372646585411676334e-02,-8.310520783122662958e-02,-6.943753132764364511e-02,-5.639111284695079440e-02,-4.272343634336780993e-02,-2.967701786267494535e-02,-1.663059938198209464e-02,-2.962922878399117110e-03,1.008349560229373706e-02,2.312991408298659124e-02,3.555507454078930818e-02,3.555507454078930818e-02,3.555507454078930818e-02,3.555507454078930818e-02,3.555507454078930818e-02,3.555507454078930818e-02,3.555507454078930818e-02
-4.329690528757408619e-02,-4.931832920174000767e-02,-5.533975311590594304e-02,-6.164791150217502347e-02,-6.766933541634094496e-02,-7.369075933050688032e-02,-7.999891771677596075e-02,-8.372646585411676334e-02,-8.372646585411676334e-02,-8.372646585411676334e-02,-8.372646585411676334e-02,-8.372646585411676334e-02,-8.372646585411676334e-02,-8.372646585411676334e-02,-8.372646585411676334e-02,-8.372646585411676334e-02,-8.372646585411676334e-02,-8.372646585411676334e-02,-8.372646585411676334e-02,-8.372646585411676334e-02,-8.372646585411676334e-02,-8.372646585411676334e-02,-8.372646585411676334e-02,-8.372646585411676334e-02,-8.372646585411676334e-02,-8.372646585411677722e-02,-8.372646585411676334e-02,-8.372646585411676334e-02,-8.372646585411676334e-02,-8.372646585411676334e-02,-8.372646585411674947e-02,-8.372646585411674947e-02,-8.372646585411676334e-02,-7.130130539631406028e-02,-5.763362889273106193e-02,-4.458721041203821123e-02,-3.154079193134536052e-02,-1.787311542776236911e-02,-4.826696947069518406e-03,8.840979556513466064e-03,2.188739803720632024e-02,3.493381651789917441e-02,3.555507454078930818e-02,3.555507454078930818e-02,3.555507454078930818e-02,3.555507454078930818e-02,3.555507454078930818e-02
-3.641527795709872950e-02,-4.243670187126466486e-02,-4.874486025753374530e-02,-5.476628417169966678e-02,-6.078770808586560215e-02,-6.709586647213465482e-02,-7.311729038630059019e-02,-7.913871430046652555e-02,-8.372646585411676334e-02,-8.372646585411676334e-02,-8.372646585411676334e-02,-8.372646585411676334e-02,-8.372646585411676334e-02,-8.372646585411676334e-02,-8.372646585411676334e-02,-8.372646585411676334e-02,-8.372646585411676334e-02,-8.372646585411676334e-02,-8.372646585411676334e-02,-8.372646585411676334e-02,-8.372646585411674947e-02,-8.372646585411676334e-02,-8.372646585411676334e-02,-8.372646585411676334e-02,-8.372646585411676334e-02,-8.372646585411676334e-02,-8.372646585411676334e-02,-8.372646585411676334e-02,-8.372646585411676334e-02,-8.372646585411676334e-02,-8.372646585411676334e-02,-8.372646585411676334e-02,-8.372646585411676334e-02,-8.372646585411676334e-02,-7.254382144209432781e-02,-5.949740296140147711e-02,-4.582972645781847876e-02,-3.278330797712562805e-02,-1.973688949643277735e-02,-6.069212992849792876e-03,6.977205487843057830e-03,2.064488199142604924e-02,3.369130047211889994e-02,3.555507454078930818e-02,3.555507454078930818e-02,3.555507454078930818e-02,3.555507454078930818e-02
-2.953365062662337281e-02,-3.555507454078930818e-02,-4.186323292705838861e-02,-4.788465684122432398e-02,-5.390608075539024546e-02,-6.021423914165931202e-02,-6.623566305582524738e-02,-7.254382144209432781e-02,-7.856524535626024930e-02,-8.372646585411676334e-02,-8.372646585411676334e-02,-8.372646585411676334e-02,-8.372646585411674947e-02,-8.372646585411676334e-02,-8.372646585411676334e-02,-8.372646585411674947e-02,-8.372646585411676334e-02,-8.372646585411676334e-02,-8.372646585411676334e-02,-8.372646585411676334e-02,-8.372646585411677722e-02,-8.372646585411676334e-02,-8.372646585411676334e-02,-8.372646585411676334e-02,-8.372646585411676334e-02,-8.372646585411676334e-02,-8.372646585411676334e-02,-8.372646585411674947e-02,-8.372646585411676334e-02,-8.372646585411676334e-02,-8.372646585411676334e-02,-8.372646585411676334e-02,-8.372646585411676334e-02,-8.372646585411677722e-02,-8.372646585411676334e-02,-7.440759551076471523e-02,-6.073991900718174464e-02,-4.769350052648889393e-02,-3.402582402290589558e-02,-2.097940554221305182e-02,-7.932987061520201111e-03,5.734689442062790299e-03,1.878110792275564100e-02,3.244878442633862548e-02,3.555507454078930818e-02,3.555507454078930818e-02,3.555507454078930818e-02
-2.265202329614802307e-02,-2.896018168241709656e-02,-3.498160559658301805e-02,-4.100302951074895341e-02,-4.731118789701803384e-02,-5.333261181118396921e-02,-5.935403572534990457e-02,-6.566219411161895725e-02,-7.168361802578489261e-02,-7.799177641205398692e-02,-8.372646585411676334e-02,-8.372646585411676334e-02,-8.372646585411676334e-02,-8.372646585411676334e-02,-8.372646585411676334e-02,-8.372646585411677722e-02,-8.372646585411677722e-02,-8.372646585411676334e-02,-8.372646585411676334e-02,-8.372646585411676334e-02,-8.372646585411676334e-02,-8.372646585411676334e-02,-8.372646585411677722e-02,-8.372646585411676334e-02,-8.372646585411676334e-02,-8.372646585411674947e-02,-8.372646585411676334e-02,-8.372646585411674947e-02,-8.372646585411676334e-02,-8.372646585411676334e-02,-8.372646585411676334e-02,-8.372646585411676334e-02,-8.372646585411676334e-02,-8.372646585411676334e-02,-8.372646585411674947e-02,-8.372646585411676334e-02,-7.565011155654498276e-02,-6.260369307585215981e-02,-4.893601657226917534e-02,-3.588959809157629688e-02,-2.222192158799332629e-02,-9.175503107300475580e-03,3.870915373392382064e-03,1.753859187697537000e-02,3.058501035766822071e-02,3.555507454078930818e-02,3.555507454078930818e-02
-1.577039596567268720e-02,-2.207855435194175375e-02,-2.809997826610767524e-02,-3.412140218027361060e-02,-4.042956056654269104e-02,-4.645098448070862640e-02,-5.275914286697770683e-02,-5.878056678114362832e-02,-6.480199069530954981e-02,-7.111014908157861636e-02,-7.713157299574456560e-02,-8.343973138201363215e-02,-8.372646585411676334e-02,-8.372646585411676334e-02,-8.372646585411676334e-02,-8.372646585411676334e-02,-8.372646585411676334e-02,-8.372646585411676334e-02,-8.372646585411676334e-02,-8.372646585411674947e-02,-8.372646585411676334e-02,-8.372646585411676334e-02,-8.372646585411674947e-02,-8.372646585411676334e-02,-8.372646585411676334e-02,-8.372646585411674947e-02,-8.372646585411676334e-02,-8.372646585411676334e-02,-8.372646585411676334e-02,-8.372646585411676334e-02,-8.372646585411676334e-02,-8.372646585411676334e-02,-8.372646585411676334e-02,-8.372646585411676334e-02,-8.372646585411676334e-02,-8.372646585411676334e-02,-8.372646585411676334e-02,-7.689262760232526417e-02,-6.384620912163242734e-02,-5.079979064093957664e-02,-3.713211413735659217e-02,-2.408569565666372758e-02,-1.041801915308074311e-02,2.628399327612107594e-03,1.567481780830496177e-02,2.934249431188794971e-02,3.555507454078930818e-02
-9.175503107300468641e-03,-1.519692702146640401e-02,-2.121835093563233937e-02,-2.752650932190139899e-02,-3.354793323606732047e-02,-3.956935715023325584e-02,-4.587751553650233627e-02,-5.189893945066827163e-02,-5.820709783693733819e-02,-6.422852175110325967e-02,-7.024994566526920892e-02,-7.655810405153827547e-02,-8.257952796570419696e-02,-8.372646585411676334e-02,-8.372646585411676334e-02,-8.372646585411676334e-02,-8.372646585411676334e-02,-8.372646585411676334e-02,-8.372646585411676334e-02,-8.372646585411676334e-02,-8.372646585411676334e-02,-8.372646585411676334e-02,-8.372646585411676334e-02,-8.372646585411676334e-02,-8.372646585411677722e-02,-8.372646585411676334e-02,-8.372646585411676334e-02,-8.372646585411676334e-02,-8.372646585411676334e-02,-8.372646585411676334e-02,-8.372646585411676334e-02,-8.372646585411676334e-02,-8.372646585411676334e-02,-8.372646585411676334e-02,-8.372646585411676334e-02,-8.372646585411677722e-02,-8.372646585411676334e-02,-8.372646585411676334e-02,-7.875640167099567934e-02,-6.508872516741269487e-02,-5.204230668671984417e-02,-3.899588820602697958e-02,-2.532821170244399511e-02,-1.228179322175114441e-02,1.385883281831840064e-03,1.443230176252469077e-02,2.747872024321754147e-02
-2.293875776825118895e-03,-8.315299690991054260e-03,-1.462345807726012081e-02,-2.064488199142605618e-02,-2.666630590559197767e-02,-3.297446429186105810e-02,-3.899588820602699346e-02,-4.501731212019292883e-02,-5.132547050646198150e-02,-5.734689442062793074e-02,-6.365505280689699730e-02,-6.967647672106291878e-02,-7.569790063522885415e-02,-8.200605902149792070e-02,-8.372646585411677722e-02,-8.372646585411677722e-02,-8.372646585411676334e-02,-8.372646585411676334e-02,-8.372646585411674947e-02,-8.372646585411674947e-02,-8.372646585411676334e-02,-8.372646585411676334e-02,-8.372646585411676334e-02,-8.372646585411676334e-02,-8.372646585411677722e-02,-8.372646585411676334e-02,-8.372646585411676334e-02,-8.372646585411676334e-02,-8.372646585411676334e-02,-8.372646585411676334e-02,-8.372646585411677722e-02,-8.372646585411676334e-02,-8.372646585411676334e-02,-8.372646585411677722e-02,-8.372646585411676334e-02,-8.372646585411677722e-02,-8.372646585411676334e-02,-8.372646585411676334e-02,-8.372646585411677722e-02,-7.999891771677594687e-02,-6.695249923608311005e-02,-5.328482273250011170e-02,-4.023840425180727487e-02,-2.719198577111441029e-02,-1.352430926753142582e-02,-4.778907868385681712e-04,1.318978571674441977e-02
4.587751553650230851e-03,-1.433672360515697575e-03,-7.741830746784764128e-03,-1.376325466095069949e-02,-1.978467857511663486e-02,-2.609283696138570141e-02,-3.211426087555163678e-02,-3.842241926182070333e-02,-4.444384317598663869e-02,-5.046526709015258794e-02,-5.677342547642164061e-02,-6.279484939058756210e-02,-6.910300777685664253e-02,-7.512443169102259177e-02,-8.114585560518851326e-02,-8.372646585411674947e-02,-8.372646585411676334e-02,-8.372646585411676334e-02,-8.372646585411674947e-02,-8.372646585411674947e-02,-8.372646585411676334e-02,-8.372646585411677722e-02,-8.372646585411676334e-02,-8.372646585411676334e-02,-8.372646585411676334e-02,-8.372646585411674947e-02,-8.372646585411676334e-02,-8.372646585411674947e-02,-8.372646585411677722e-02,-8.372646585411676334e-02,-8.372646585411676334e-02,-8.372646585411676334e-02,-8.372646585411676334e-02,-8.372646585411676334e-02,-8.372646585411674947e-02,-8.372646585411676334e-02,-8.372646585411676334e-02,-8.372646585411676334e-02,-8.372646585411676334e-02,-8.372646585411676334e-02,-8.186269178544634817e-02,-6.819501528186337758e-02,-5.514859680117052687e-02,-4.148092029758754240e-02,-2.843450181689467782e-02,-1.538808333620182711e-02,-1.720406832618842641e-03
1.146937888412558060e-02,5.447954969959648702e-03,-8.602034163094213204e-04,-6.881627330475349746e-03,-1.318978571674442324e-02,-1.921120963091035860e-02,-2.523263354507628009e-02,-3.154079193134536052e-02,-3.756221584551128201e-02,-4.387037423178036244e-02,-4.989179814594628393e-02,-5.591322206011223317e-02,-6.222138044638128584e-02,-6.824280436054722121e-02,-7.455096274681630164e-02,-8.057238666098222313e-02,-8.372646585411676334e-02,-8.372646585411676334e-02,-8.372646585411676334e-02,-8.372646585411676334e-02,-8.372646585411676334e-02,-8.372646585411676334e-02,-8.372646585411676334e-02,-8.372646585411676334e-02,-8.372646585411676334e-02,-8.372646585411676334e-02,-8.372646585411676334e-02,-8.372646585411676334e-02,-8.372646585411674947e-02,-8.372646585411676334e-02,-8.372646585411676334e-02,-8.372646585411674947e-02,-8.372646585411676334e-02,-8.372646585411676334e-02,-8.372646585411676334e-02,-8.372646585411676334e-02,-8.372646585411674947e-02,-8.372646585411676334e-02,-8.372646585411676334e-02,-8.372646585411674947e-02,-8.372646585411676334e-02,-8.310520783122662958e-02,-7.005878935053377887e-02,-5.639111284695079440e-02,-4.334469436625792982e-02,-2.967701786267495923e-02,-1.663059938198209464e-02
1.835100621460093381e-02,1.204284782833186032e-02,6.021423914165928426e-03,0.000000000000000000e+00,-6.308158386269073492e-03,-1.232958230043500192e-02,-1.863774068670407541e-02,-2.465916460087000384e-02,-3.068058851503592532e-02,-3.698874690130500575e-02,-4.301017081547094112e-02,-4.931832920174002155e-02,-5.533975311590595692e-02,-6.136117703007187840e-02,-6.766933541634095883e-02,-7.369075933050688032e-02,-7.999891771677596075e-02,-8.372646585411676334e-02,-8.372646585411677722e-02,-8.372646585411676334e-02,-8.372646585411676334e-02,-8.372646585411676334e-02,-8.372646585411676334e-02,-8.372646585411676334e-02,-8.372646585411676334e-02,-8.372646585411676334e-02,-8.372646585411677722e-02,-8.372646585411676334e-02,-8.372646585411674947e-02,-8.372646585411676334e-02,-8.372646585411676334e-02,-8.372646585411676334e-02,-8.372646585411676334e-02,-8.372646585411676334e-02,-8.372646585411676334e-02,-8.372646585411676334e-02,-8.372646585411676334e-02,-8.372646585411676334e-02,-8.372646585411674947e-02,-8.372646585411676334e-02,-8.372646585411676334e-02,-8.372646585411676334e-02,-8.372646585411676334e-02,-7.130130539631406028e-02,-5.825488691562119570e-02,-4.458721041203821123e-02,-3.154079193134536052e-02
2.494589907297314196e-02,1.892447515880721354e-02,1.290305124464127817e-02,6.594892858372208150e-03,5.734689442062762543e-04,-5.447954969959645233e-03,-1.175611335622873260e-02,-1.777753727039466103e-02,-2.408569565666372758e-02,-3.010711957082966295e-02,-3.612854348499558443e-02,-4.243670187126466486e-02,-4.845812578543060023e-02,-5.476628417169966678e-02,-6.078770808586560215e-02,-6.680913200003150976e-02,-7.311729038630061794e-02,-7.913871430046652555e-02,-8.372646585411676334e-02,-8.372646585411676334e-02,-8.372646585411676334e-02,-8.372646585411676334e-02,-8.372646585411676334e-02,-8.372646585411676334e-02,-8.372646585411674947e-02,-8.372646585411676334e-02,-8.372646585411676334e-02,-8.372646585411674947e-02,-8.372646585411676334e-02,-8.372646585411676334e-02,-8.372646585411676334e-02,-8.372646585411676334e-02,-8.372646585411676334e-02,-8.372646585411676334e-02,-8.372646585411676334e-02,-8.372646585411676334e-02,-8.372646585411676334e-02,-8.372646585411676334e-02,-8.372646585411676334e-02,-8.372646585411676334e-02,-8.372646585411676334e-02,-8.372646585411676334e-02,-8.372646585411676334e-02,-8.372646585411676334e-02,-7.254382144209432781e-02,-5.949740296140149098e-02,-4.645098448070862640e-02
3.182752640344849171e-02,2.580610248928256328e-02,1.978467857511663139e-02,1.347652018884755790e-02,7.455096274681629470e-03,1.146937888412552509e-03,-4.874486025753375917e-03,-1.089590993991930434e-02,-1.720406832618837090e-02,-2.322549224035430626e-02,-2.953365062662337281e-02,-3.555507454078930818e-02,-4.157649845495524354e-02,-4.788465684122432398e-02,-5.390608075539024546e-02,-6.021423914165931202e-02,-6.623566305582523350e-02,-7.225708696999118275e-02,-7.856524535626026318e-02,-8.372646585411676334e-02,-8.372646585411676334e-02,-8.372646585411676334e-02,-8.372646585411676334e-02,-8.372646585411676334e-02,-8.372646585411676334e-02,-8.372646585411674947e-02,-8.372646585411676334e-02,-8.372646585411676334e-02,-8.372646585411676334e-02,-8.372646585411676334e-02,-8.372646585411676334e-02,-8.372646585411674947e-02,-8.372646585411676334e-02,-8.372646585411676334e-02,-8.372646585411674947e-02,-8.372646585411676334e-02,-8.372646585411676334e-02,-8.372646585411676334e-02,-8.372646585411676334e-02,-8.372646585411676334e-02,-8.372646585411674947e-02,-8.372646585411676334e-02,-8.372646585411676334e-02,-8.372646585411674947e-02,-8.372646585411676334e-02,-7.440759551076472911e-02,-6.136117703007187840e-02
3.555507454078930818e-02,3.268772981975791303e-02,2.637957143348883954e-02,2.035814751932291111e-02,1.433672360515697575e-02,8.028565218887909194e-03,2.007141304721973829e-03,-4.301017081547092724e-03,-1.032244099571302809e-02,-1.634386490987896345e-02,-2.265202329614803001e-02,-2.867344721031395149e-02,-3.498160559658303193e-02,-4.100302951074896729e-02,-4.702445342491490266e-02,-5.333261181118396921e-02,-5.935403572534990457e-02,-6.537545963951581218e-02,-7.168361802578490649e-02,-7.770504193995082798e-02,-8.372646585411677722e-02,-8.372646585411676334e-02,-8.372646585411674947e-02,-8.372646585411676334e-02,-8.372646585411674947e-02,-8.372646585411676334e-02,-8.372646585411676334e-02,-8.372646585411674947e-02,-8.372646585411676334e-02,-8.372646585411676334e-02,-8.372646585411676334e-02,-8.372646585411677722e-02,-8.372646585411677722e-02,-8.372646585411676334e-02,-8.372646585411676334e-02,-8.372646585411677722e-02,-8.372646585411676334e-02,-8.372646585411676334e-02,-8.372646585411674947e-02,-8.372646585411676334e-02,-8.372646585411677722e-02,-8.372646585411674947e-02,-8.372646585411676334e-02,-8.372646585411674947e-02,-8.372646585411676334e-02,-8.372646585411676334e-02,-7.565011155654499664e-02
3.555507454078930818e-02,3.555507454078930818e-02,3.326119876396418928e-02,2.723977484979826086e-02,2.093161646352918737e-02,1.491019254936325894e-02,8.888768635197327045e-03,2.580610248928257022e-03,-3.440813665237671404e-03,-9.748972051506751835e-03,-1.577039596567268026e-02,-2.179181987983860869e-02,-2.809997826610767524e-02,-3.412140218027361060e-02,-4.042956056654269104e-02,-4.645098448070862640e-02,-5.247240839487454789e-02,-5.878056678114362832e-02,-6.480199069530954981e-02,-7.082341460947548517e-02,-7.713157299574456560e-02,-8.315299690991048709e-02,-8.372646585411676334e-02,-8.372646585411676334e-02,-8.372646585411676334e-02,-8.372646585411676334e-02,-8.372646585411676334e-02,-8.372646585411676334e-02,-8.372646585411676334e-02,-8.372646585411674947e-02,-8.372646585411676334e-02,-8.372646585411676334e-02,-8.372646585411676334e-02,-8.372646585411676334e-02,-8.372646585411676334e-02,-8.372646585411676334e-02,-8.372646585411676334e-02,-8.372646585411676334e-02,-8.372646585411676334e-02,-8.372646585411676334e-02,-8.372646585411676334e-02,-8.372646585411676334e-02,-8.372646585411676334e-02,-8.372646585411676334e-02,-8.372646585411676334e-02,-8.372646585411676334e-02,-8.372646585411676334e-02
3.555507454078930818e-02,3.555507454078930818e-02,3.555507454078930818e-02,3.412140218027361060e-02,2.781324379400453711e-02,2.179181987983860869e-02,1.548366149356953866e-02,9.462237579403603299e-03,3.440813665237671404e-03,-2.867344721031395149e-03,-8.888768635197330514e-03,-1.519692702146640401e-02,-2.121835093563233243e-02,-2.723977484979825392e-02,-3.354793323606732047e-02,-3.956935715023326972e-02,-4.559078106439920508e-02,-5.189893945066827163e-02,-5.792036336483420700e-02,-6.422852175110325967e-02,-7.024994566526919504e-02,-7.627136957943515816e-02,-8.257952796570421083e-02,-8.372646585411676334e-02,-8.372646585411676334e-02,-8.372646585411676334e-02,-8.372646585411676334e-02,-8.372646585411676334e-02,-8.372646585411676334e-02,-8.372646585411676334e-02,-8.372646585411676334e-02,-8.372646585411676334e-02,-8.372646585411676334e-02,-8.372646585411676334e-02,-8.372646585411676334e-02,-8.372646585411676334e-02,-8.372646585411676334e-02,-8.372646585411676334e-02,-8.372646585411676334e-02,-8.372646585411676334e-02,-8.372646585411676334e-02,-8.372646585411674947e-02,-8.372646585411676334e-02,-8.372646585411676334e-02,-8.372646585411676334e-02,-8.372646585411676334e-02,-8.372646585411676334e-02
3.555507454078930818e-02,3.555507454078930818e-02,3.555507454078930818e-02,3.555507454078930818e-02,3.469487112447988686e-02,2.867344721031395843e-02,2.236528882404488841e-02,1.634386490987895652e-02,1.003570652360988302e-02,4.014282609443954597e-03,-2.007141304721973829e-03,-8.315299690991054260e-03,-1.433672360515698269e-02,-2.064488199142604924e-02,-2.666630590559197767e-02,-3.268772981975791303e-02,-3.899588820602699346e-02,-4.501731212019292883e-02,-5.103873603435885031e-02,-5.734689442062793074e-02,-6.336831833479385223e-02,-6.967647672106293266e-02,-7.569790063522886803e-02,-8.171932454939478951e-02,-8.372646585411676334e-02,-8.372646585411676334e-02,-8.372646585411676334e-02,-8.372646585411676334e-02,-8.372646585411676334e-02,-8.372646585411676334e-02,-8.372646585411676334e-02,-8.372646585411674947e-02,-8.372646585411676334e-02,-8.372646585411676334e-02,-8.372646585411677722e-02,-8.372646585411676334e-02,-8.372646585411676334e-02,-8.372646585411677722e-02,-8.372646585411676334e-02,-8.372646585411677722e-02,-8.372646585411676334e-02,-8.372646585411676334e-02,-8.372646585411677722e-02,-8.372646585411677722e-02,-8.372646585411676334e-02,-8.372646585411676334e-02,-8.372646585411676334e-02
3.555507454078930818e-02,3.555507454078930818e-02,3.555507454078930818e-02,3.555507454078930818e-02,3.555507454078930818e-02,3.526834006868617005e-02,2.924691615452023469e-02,2.322549224035430626e-02,1.691733385408523624e-02,1.089590993991929740e-02,4.587751553650230851e-03,-1.433672360515697575e-03,-7.455096274681632940e-03,-1.376325466095070643e-02,-1.978467857511663486e-02,-2.609283696138570141e-02,-3.211426087555163678e-02,-3.813568478971757214e-02,-4.444384317598663869e-02,-5.046526709015257406e-02,-5.648669100431849555e-02,-6.279484939058756210e-02,-6.881627330475351134e-02,-7.512443169102256402e-02,-8.114585560518851326e-02,-8.372646585411676334e-02,-8.372646585411676334e-02,-8.372646585411676334e-02,-8.372646585411676334e-02,-8.372646585411676334e-02,-8.372646585411676334e-02,-8.372646585411674947e-02,-8.372646585411676334e-02,-8.372646585411676334e-02,-8.372646585411676334e-02,-8.372646585411676334e-02,-8.372646585411676334e-02,-8.372646585411676334e-02,-8.372646585411676334e-02,-8.372646585411676334e-02,-8.372646585411676334e-02,-8.372646585411676334e-02,-8.372646585411676334e-02,-8.372646585411676334e-02,-8.372646585411676334e-02,-8.372646585411676334e-02,-8.372646585411676334e-02
3.555507454078930818e-02,3.555507454078930818e-02,3.555507454078930818e-02,3.555507454078930818e-02,3.555507454078930818e-02,3.555507454078930818e-02,3.555507454078930818e-02,2.982038509872651788e-02,2.379896118456058599e-02,1.777753727039465409e-02,1.146937888412558060e-02,5.447954969959645233e-03,-8.602034163094213204e-04,-6.881627330475349746e-03,-1.290305124464128511e-02,-1.921120963091035860e-02,-2.523263354507628703e-02,-3.125405745924221546e-02,-3.756221584551128201e-02,-4.358363975967721737e-02,-4.989179814594629780e-02,-5.591322206011221929e-02,-6.193464597427815466e-02,-6.824280436054722121e-02,-7.426422827471317045e-02,-8.057238666098222313e-02,-8.372646585411676334e-02,-8.372646585411676334e-02,-8.372646585411676334e-02,-8.372646585411676334e-02,-8.372646585411676334e-02,-8.372646585411676334e-02,-8.372646585411676334e-02,-8.372646585411676334e-02,-8.372646585411676334e-02,-8.372646585411676334e-02,-8.372646585411676334e-02,-8.372646585411676334e-02,-8.372646585411676334e-02,-8.372646585411676334e-02,-8.372646585411676334e-02,-8.372646585411676334e-02,-8.372646585411676334e-02,-8.372646585411674947e-02,-8.372646585411676334e-02,-8.372646585411676334e-02,-6.881627330475349746e-02
3.555507454078930818e-02,3.555507454078930818e-02,3.555507454078930818e-02,3.555507454078930818e-02,3.555507454078930818e-02,3.555507454078930818e-02,3.555507454078930818e-02,3.555507454078930818e-02,3.068058851503593573e-02,2.437243012876686571e-02,1.835100621460093034e-02,1.232958230043500192e-02,6.021423914165928426e-03,0.000000000000000000e+00,-6.021423914165935365e-03,-1.232958230043500192e-02,-1.835100621460093728e-02,-2.465916460087000384e-02,-3.068058851503592532e-02,-3.670201242920187457e-02,-4.301017081547094112e-02,-4.903159472963687648e-02,-5.533975311590594304e-02,-6.136117703007186452e-02,-6.738260094423781377e-02,-7.369075933050688032e-02,-7.971218324467280181e-02,-8.372646585411676334e-02,-8.372646585411676334e-02,-8.372646585411676334e-02,-8.372646585411676334e-02,-8.372646585411676334e-02,-8.372646585411676334e-02,-8.372646585411676334e-02,-8.372646585411676334e-02,-8.372646585411676334e-02,-8.372646585411676334e-02,-8.372646585411676334e-02,-8.372646585411676334e-02,-8.372646585411676334e-02,-8.372646585411676334e-02,-8.372646585411676334e-02,-8.372646585411676334e-02,-8.372646585411676334e-02,-8.372646585411674947e-02,-7.627136957943513040e-02,9.462237579403606769e-03
3.555507454078930818e-02,3.555507454078930818e-02,3.555507454078930818e-02,3.555507454078930818e-02,3.555507454078930818e-02,3.555507454078930818e-02,3.555507454078930818e-02,3.555507454078930818e-02,3.555507454078930818e-02,3.125405745924221546e-02,2.523263354507628009e-02,1.892447515880721354e-02,1.290305124464127817e-02,6.881627330475346277e-03,5.734689442062762543e-04,-5.447954969959659111e-03,-1.146937888412558754e-02,-1.777753727039466797e-02,-2.379896118456058945e-02,-3.010711957082964907e-02,-3.612854348499558443e-02,-4.214996739916151980e-02,-4.845812578543060023e-02,-5.447954969959652172e-02,-6.078770808586560215e-02,-6.680913200003152363e-02,-7.283055591419745900e-02,-7.913871430046652555e-02,-8.372646585411674947e-02,-8.372646585411676334e-02,-8.372646585411676334e-02,-8.372646585411676334e-02,-8.372646585411676334e-02,-8.372646585411676334e-02,-8.372646585411676334e-02,-8.372646585411676334e-02,-8.372646585411676334e-02,-8.372646585411676334e-02,-8.372646585411677722e-02,-8.372646585411676334e-02,-8.372646585411676334e-02,-8.372646585411676334e-02,-8.372646585411676334e-02,-8.372646585411676334e-02,-8.372646585411677722e-02,2.007141304721973829e-03,3.555507454078930818e-02
3.555507454078930818e-02,3.555507454078930818e-02,3.555507454078930818e-02,3.555507454078930818e-02,3.555507454078930818e-02,3.555507454078930818e-02,3.555507454078930818e-02,3.555507454078930818e-02,3.555507454078930818e-02,3.555507454078930818e-02,3.211426087555162984e-02,2.580610248928256328e-02,1.978467857511663139e-02,1.347652018884755790e-02,7.455096274681626001e-03,1.433672360515697575e-03,-4.874486025753368978e-03,-1.089590993991931128e-02,-1.691733385408523971e-02,-2.322549224035430626e-02,-2.924691615452024163e-02,-3.555507454078930818e-02,-4.157649845495524354e-02,-4.759792236912117891e-02,-5.390608075539025934e-02,-5.992750466955618083e-02,-6.623566305582523350e-02,-7.225708696999118275e-02,-7.827851088415710423e-02,-8.372646585411677722e-02,-8.372646585411676334e-02,-8.372646585411677722e-02,-8.372646585411676334e-02,-8.372646585411676334e-02,-8.372646585411676334e-02,-8.372646585411677722e-02,-8.372646585411676334e-02,-8.372646585411676334e-02,-8.372646585411676334e-02,-8.372646585411676334e-02,-8.372646585411676334e-02,-8.372646585411677722e-02,-8.372646585411676334e-02,-8.372646585411676334e-02,-9.175503107300475580e-03,3.555507454078930818e-02,3.555507454078930818e-02
3.555507454078930818e-02,3.555507454078930818e-02,3.555507454078930818e-02,3.555507454078930818e-02,3.555507454078930818e-02,3.555507454078930818e-02,3.555507454078930818e-02,3.555507454078930818e-02,3.555507454078930818e-02,3.555507454078930818e-02,3.555507454078930818e-02,3.268772981975791303e-02,2.666630590559198113e-02,2.035814751932291111e-02,1.433672360515697575e-02,8.315299690991047321e-03,2.007141304721973829e-03,-4.014282609443961536e-03,-1.032244099571302809e-02,-1.634386490987896345e-02,-2.236528882404488494e-02,-2.867344721031395149e-02,-3.469487112447988686e-02,-4.100302951074896729e-02,-4.702445342491490266e-02,-5.304587733908083802e-02,-5.935403572534989070e-02,-6.537545963951582606e-02,-7.139688355368176143e-02,-7.770504193995082798e-02,-8.372646585411676334e-02,-8.372646585411676334e-02,-8.372646585411676334e-02,-8.372646585411676334e-02,-8.372646585411676334e-02,-8.372646585411676334e-02,-8.372646585411677722e-02,-8.372646585411676334e-02,-8.372646585411676334e-02,-8.372646585411677722e-02,-8.372646585411676334e-02,-8.372646585411676334e-02,-8.372646585411676334e-02,-1.663059938198209464e-02,3.555507454078930818e-02,3.555507454078930818e-02,3.555507454078930818e-02
3.555507454078930818e-02,3.555507454078930818e-02,3.555507454078930818e-02,3.555507454078930818e-02,3.555507454078930818e-02,3.555507454078930818e-02,3.555507454078930818e-02,3.555507454078930818e-02,3.555507454078930818e-02,3.555507454078930818e-02,3.555507454078930818e-02,3.555507454078930818e-02,3.354793323606733435e-02,2.723977484979826086e-02,2.121835093563232549e-02,1.491019254936325894e-02,8.888768635197323575e-03,2.867344721031395149e-03,-3.440813665237671404e-03,-9.462237579403606769e-03,-1.577039596567267332e-02,-2.179181987983860869e-02,-2.781324379400453017e-02,-3.412140218027361060e-02,-4.014282609443954597e-02,-4.645098448070862640e-02,-5.247240839487456177e-02,-5.849383230904048325e-02,-6.480199069530954981e-02,-7.082341460947547129e-02,-7.684483852364142054e-02,-8.315299690991047321e-02,-8.372646585411676334e-02,-8.372646585411676334e-02,-8.372646585411676334e-02,-8.372646585411674947e-02,-8.372646585411676334e-02,-8.372646585411676334e-02,-8.372646585411677722e-02,-8.372646585411676334e-02,-8.372646585411676334e-02,-8.372646585411676334e-02,-2.408569565666372758e-02,3.555507454078930818e-02,3.555507454078930818e-02,3.555507454078930818e-02,3.555507454078930818e-02
3.555507454078930818e-02,3.555507454078930818e-02,3.555507454078930818e-02,3.555507454078930818e-02,3.555507454078930818e-02,3.555507454078930818e-02,3.555507454078930818e-02,3.555507454078930818e-02,3.555507454078930818e-02,3.555507454078930818e-02,3.555507454078930818e-02,3.555507454078930818e-02,3.555507454078930818e-02,3.412140218027361060e-02,2.809997826610767871e-02,2.179181987983860869e-02,1.577039596567267332e-02,9.462237579403599830e-03,3.440813665237671404e-03,-2.580610248928250083e-03,-8.888768635197330514e-03,-1.491019254936326588e-02,-2.121835093563233937e-02,-2.723977484979825392e-02,-3.326119876396418928e-02,-3.956935715023325584e-02,-4.559078106439920508e-02,-5.189893945066827163e-02,-5.792036336483420700e-02,-6.394178727900014236e-02,-7.024994566526920892e-02,-7.627136957943513040e-02,-8.229279349360106577e-02,-8.372646585411676334e-02,-8.372646585411676334e-02,-8.372646585411674947e-02,-8.372646585411676334e-02,-8.372646585411674947e-02,-8.372646585411676334e-02,-8.372646585411677722e-02,-8.372646585411677722e-02,-3.526834006868617699e-02,3.555507454078930818e-02,3.555507454078930818e-02,3.555507454078930818e-02,3.555507454078930818e-02,3.555507454078930818e-02
3.555507454078930818e-02,3.555507454078930818e-02,3.555507454078930818e-02,3.555507454078930818e-02,3.555507454078930818e-02,3.555507454078930818e-02,3.555507454078930818e-02,3.555507454078930818e-02,3.555507454078930818e-02,3.555507454078930818e-02,3.555507454078930818e-02,3.555507454078930818e-02,3.555507454078930818e-02,3.555507454078930818e-02,3.469487112447988686e-02,2.867344721031395843e-02,2.265202329614802654e-02,1.634386490987895652e-02,1.032244099571302462e-02,4.014282609443947658e-03,-2.007141304721973829e-03,-8.028565218887909194e-03,-1.433672360515698269e-02,-2.035814751932291805e-02,-2.666630590559197767e-02,-3.268772981975791303e-02,-3.870915373392383452e-02,-4.501731212019292883e-02,-5.103873603435885031e-02,-5.706015994852478568e-02,-6.336831833479386611e-02,-6.938974224895977372e-02,-7.569790063522885415e-02,-8.171932454939478951e-02,-8.372646585411676334e-02,-8.372646585411674947e-02,-8.372646585411676334e-02,-8.372646585411676334e-02,-8.372646585411676334e-02,-8.372646585411676334e-02,-4.272343634336779605e-02,3.555507454078930818e-02,3.555507454078930818e-02,3.555507454078930818e-02,3.555507454078930818e-02,3.555507454078930818e-02,3.555507454078930818e-02
3.555507454078930818e-02,3.555507454078930818e-02,3.555507454078930818e-02,3.555507454078930818e-02,3.555507454078930818e-02,3.555507454078930818e-02,3.555507454078930818e-02,3.555507454078930818e-02,3.555507454078930818e-02,3.555507454078930818e-02,3.555507454078930818e-02,3.555507454078930818e-02,3.555507454078930818e-02,3.555507454078930818e-02,3.555507454078930818e-02,3.555507454078930818e-02,2.924691615452023816e-02,2.322549224035430626e-02,1.720406832618837437e-02,1.089590993991930434e-02,4.874486025753372448e-03,-1.433672360515704514e-03,-7.455096274681632940e-03,-1.347652018884756830e-02,-1.978467857511662792e-02,-2.580610248928256328e-02,-3.211426087555163678e-02,-3.813568478971757214e-02,-4.415710870388350751e-02,-5.046526709015256018e-02,-5.648669100431850942e-02,-6.250811491848444479e-02,-6.881627330475349746e-02,-7.483769721891944671e-02,-8.114585560518851326e-02,-8.372646585411677722e-02,-8.372646585411676334e-02,-8.372646585411676334e-02,-8.372646585411676334e-02,-5.390608075539024546e-02,3.555507454078930818e-02,3.555507454078930818e-02,3.555507454078930818e-02,3.555507454078930818e-02,3.555507454078930818e-02,3.555507454078930818e-02,3.555507454078930818e-02
3.555507454078930818e-02,3.555507454078930818e-02,3.555507454078930818e-02,3.555507454078930818e-02,3.555507454078930818e-02,3.555507454078930818e-02,3.555507454078930818e-02,3.555507454078930818e-02,3.555507454078930818e-02,3.555507454078930818e-02,3.555507454078930818e-02,3.555507454078930818e-02,3.555507454078930818e-02,3.555507454078930818e-02,3.555507454078930818e-02,3.555507454078930818e-02,3.555507454078930818e-02,3.010711957082965601e-02,2.379896118456058599e-02,1.777753727039465409e-02,1.175611335622872219e-02,5.447954969959648702e-03,-5.734689442062762543e-04,-6.881627330475349746e-03,-1.290305124464128511e-02,-1.892447515880721354e-02,-2.523263354507628009e-02,-3.125405745924221546e-02,-3.727548137340815082e-02,-4.358363975967723125e-02,-4.960506367384316662e-02,-5.591322206011221929e-02,-6.193464597427815466e-02,-6.795606988844409002e-02,-7.426422827471317045e-02,-8.028565218887909194e-02,-8.372646585411676334e-02,-8.372646585411676334e-02,-6.136117703007186452e-02,2.809997826610767871e-02,3.555507454078930818e-02,3.555507454078930818e-02,3.555507454078930818e-02,3.555507454078930818e-02,3.555507454078930818e-02,3.555507454078930818e-02,3.555507454078930818e-02
3.555507454078930818e-02,3.555507454078930818e-02,3.555507454078930818e-02,3.555507454078930818e-02,3.555507454078930818e-02,3.555507454078930818e-02,3.555507454078930818e-02,3.555507454078930818e-02,3.555507454078930818e-02,3.555507454078930818e-02,3.555507454078930818e-02,3.555507454078930818e-02,3.555507454078930818e-02,3.555507454078930818e-02,3.555507454078930818e-02,3.555507454078930818e-02,3.555507454078930818e-02,3.555507454078930818e-02,3.068058851503593573e-02,2.465916460087000384e-02,1.835100621460093381e-02,1.232958230043500192e-02,6.308158386269070023e-03,0.000000000000000000e+00,-6.021423914165928426e-03,-1.232958230043500886e-02,-1.835100621460093728e-02,-2.437243012876685877e-02,-3.068058851503592532e-02,-3.670201242920186069e-02,-4.272343634336779605e-02,-4.903159472963687648e-02,-5.505301864380281185e-02,-6.136117703007186452e-02,-6.738260094423779989e-02,-7.340402485840373525e-02,-7.971218324467281569e-02,-6.881627330475349746e-02,1.691733385408523624e-02,3.555507454078930818e-02,3.555507454078930818e-02,3.555507454078930818e-02,3.555507454078930818e-02,3.555507454078930818e-02,3.555507454078930818e-02,3.555507454078930818e-02,3.555507454078930818e-02
3.555507454078930818e-02,3.555507454078930818e-02,3.555507454078930818e-02,3.555507454078930818e-02,3.555507454078930818e-02,3.555507454078930818e-02,3.555507454078930818e-02,3.555507454078930818e-02,3.555507454078930818e-02,3.555507454078930818e-02,3.555507454078930818e-02,3.555507454078930818e-02,3.555507454078930818e-02,3.555507454078930818e-02,3.555507454078930818e-02,3.555507454078930818e-02,3.555507454078930818e-02,3.555507454078930818e-02,3.555507454078930818e-02,3.154079193134535358e-02,2.523263354507628009e-02,1.921120963091035166e-02,1.290305124464127817e-02,6.881627330475349746e-03,8.602034163094213204e-04,-5.447954969959652172e-03,-1.146937888412558754e-02,-1.749080279829151596e-02,-2.379896118456058252e-02,-2.982038509872651788e-02,-3.612854348499558443e-02,-4.214996739916151980e-02,-4.817139131332745516e-02,-5.447954969959653559e-02,-6.050097361376245708e-02,-6.680913200003150976e-02,-6.944350496247912730e-02,1.052853139753715667e-02,3.555507454078930818e-02,3.555507454078930818e-02,3.555507454078930818e-02,3.555507454078930818e-02,3.555507454078930818e-02,3.555507454078930818e-02,3.555507454078930818e-02,3.555507454078930818e-02,3.555507454078930818e-02
3.555507454078930818e-02,3.555507454078930818e-02,3.555507454078930818e-02,3.555507454078930818e-02,3.555507454078930818e-02,3.555507454078930818e-02,3.555507454078930818e-02,3.555507454078930818e-02,3.555507454078930818e-02,3.555507454078930818e-02,3.555507454078930818e-02,3.555507454078930818e-02,3.555507454078930818e-02,3.555507454078930818e-02,3.555507454078930818e-02,3.555507454078930818e-02,3.555507454078930818e-02,3.555507454078930818e-02,3.555507454078930818e-02,3.555507454078930818e-02,3.211426087555163678e-02,2.609283696138570141e-02,1.978467857511662792e-02,1.376325466095069949e-02,7.455096274681629470e-03,1.433672360515697575e-03,-4.587751553650237790e-03,-1.089590993991931128e-02,-1.691733385408523971e-02,-2.293875776825116120e-02,-2.924691615452022775e-02,-3.526834006868616311e-02,-4.157649845495524354e-02,-4.759792236912117891e-02,-5.361934628328711427e-02,-5.992750466955618083e-02,7.007073662020475713e-03,3.555507454078930818e-02,3.555507454078930818e-02,3.555507454078930818e-02,3.555507454078930818e-02,3.555507454078930818e-02,3.555507454078930818e-02,3.555507454078930818e-02,3.555507454078930818e-02,3.555507454078930818e-02,3.555507454078930818e-02
3.555507454078930818e-02,3.555507454078930818e-02,3.555507454078930818e-02,3.555507454078930818e-02,3.555507454078930818e-02,3.555507454078930818e-02,3.555507454078930818e-02,3.555507454078930818e-02,3.555507454078930818e-02,3.555507454078930818e-02,3.555507454078930818e-02,3.555507454078930818e-02,3.555507454078930818e-02,3.555507454078930818e-02,3.555507454078930818e-02,3.555507454078930818e-02,3.555507454078930818e-02,3.555507454078930818e-02,3.555507454078930818e-02,3.555507454078930818e-02,3.555507454078930818e-02,3.268772981975791303e-02,2.666630590559198113e-02,2.064488199142604924e-02,1.433672360515697575e-02,8.315299690991047321e-03,2.007141304721973829e-03,-4.014282609443961536e-03,-1.003570652360988996e-02,-1.634386490987896345e-02,-2.236528882404489188e-02,-2.838671273821080643e-02,-3.469487112447988686e-02,-4.071629503864582222e-02,-4.702445342491490266e-02,2.329717585838005089e-03,3.555507454078930818e-02,3.555507454078930818e-02,3.555507454078930818e-02,3.555507454078930818e-02,3.555507454078930818e-02,3.555507454078930818e-02,3.555507454078930818e-02,3.555507454078930818e-02,3.555507454078930818e-02,3.555507454078930818e-02,3.555507454078930818e-02
3.555507454078930818e-02,3.555507454078930818e-02,3.555507454078930818e-02,3.555507454078930818e-02,3.555507454078930818e-02,3.555507454078930818e-02,3.555507454078930818e-02,3.555507454078930818e-02,3.555507454078930818e-02,3.555507454078930818e-02,3.555507454078930818e-02,3.555507454078930818e-02,3.555507454078930818e-02,3.555507454078930818e-02,3.555507454078930818e-02,3.555507454078930818e-02,3.555507454078930818e-02,3.555507454078930818e-02,3.555507454078930818e-02,3.555507454078930818e-02,3.555507454078930818e-02,3.555507454078930818e-02,3.354793323606733435e-02,2.723977484979826086e-02,2.121835093563232549e-02,1.519692702146639707e-02,8.888768635197323575e-03,2.867344721031395149e-03,-3.154079193134540215e-03,-9.462237579403606769e-03,-1.548366149356954213e-02,-2.179181987983860869e-02,-2.781324379400453017e-02,-3.383466770817046554e-02,2.437243012876684489e-03,3.555507454078930818e-02,3.555507454078930818e-02,3.555507454078930818e-02,3.555507454078930818e-02,3.555507454078930818e-02,3.555507454078930818e-02,3.555507454078930818e-02,3.555507454078930818e-02,3.555507454078930818e-02,3.555507454078930818e-02,3.555507454078930818e-02,3.555507454078930818e-02
