1.160714565055993019e-01,1.160714565055993019e-01,1.160714565055993019e-01,1.160714565055993019e-01,1.160714565055993019e-01,1.160714565055993019e-01,1.160714565055993019e-01,1.026316036470562298e-01,6.791198376248661073e-02,3.207237613970506662e-02,-3.767231483076463605e-03,-3.960683910585799383e-02,-7.432645899042761295e-02,-9.896618923108990717e-02,-9.896618923108990717e-02,-9.896618923108990717e-02,-9.896618923108990717e-02,-9.896618923108990717e-02,-9.896618923108990717e-02,-9.896618923108990717e-02,-9.896618923108990717e-02,-9.896618923108990717e-02,-9.896618923108990717e-02,-9.896618923108987942e-02,-9.896618923108993493e-02,-8.552633637254680732e-02,-5.864663065546066312e-02,-3.029694103197136390e-02,1.813616507900003838e-03,3.148056443712719810e-02,5.286214853026388605e-02,7.798550983969954054e-02,1.006652615384909799e-01,1.160714565055993019e-01,1.160714565055993019e-01,1.160714565055993019e-01,1.160714565055993019e-01,1.160714565055993019e-01,1.160714565055993019e-01,1.160714565055993019e-01,1.160714565055993019e-01,1.160714565055993019e-01,1.160714565055993019e-01,1.160714565055993019e-01,1.160714565055993019e-01,1.160714565055993019e-01,1.160714565055993019e-01
1.160714565055993019e-01,1.160714565055993019e-01,1.160714565055993019e-01,1.160714565055993019e-01,1.160714565055993019e-01,1.160714565055993019e-01,1.160714565055993019e-01,9.927164043242045488e-02,6.343203280963891078e-02,2.759242518685738055e-02,-8.247182435924163557e-03,-4.408679005870569378e-02,-7.880640994327528515e-02,-9.896618923108990717e-02,-9.896618923108990717e-02,-9.896618923108990717e-02,-9.896618923108990717e-02,-9.896618923108990717e-02,-9.896618923108990717e-02,-9.896618923108990717e-02,-9.896618923108990717e-02,-9.896618923108993493e-02,-9.896618923108990717e-02,-9.896618923108987942e-02,-9.896618923108990717e-02,-9.896618923108990717e-02,-9.896618923108990717e-02,-9.560622601645413221e-02,-8.583178757387735502e-02,-7.636280033263109779e-02,-6.658836189005432060e-02,-5.681392344747754342e-02,-4.703948500490076623e-02,-3.276918669274031526e-02,-5.316759973159446151e-03,1.969205713577726335e-02,4.225726463406974387e-02,6.237886252171805090e-02,7.666825153396164549e-02,9.224626280181839888e-02,1.053806644590309510e-01,1.160714565055993019e-01,1.160714565055993019e-01,1.160714565055993019e-01,1.160714565055993019e-01,1.160714565055993019e-01,1.160714565055993019e-01
1.160714565055993019e-01,1.160714565055993019e-01,1.160714565055993019e-01,1.160714565055993019e-01,1.160714565055993019e-01,1.160714565055993019e-01,1.160714565055993019e-01,9.479168947957276881e-02,5.895208185679123164e-02,2.311247423400969447e-02,-1.272713338877184963e-02,-4.744675327334144099e-02,-8.328636089612295734e-02,-9.896618923108990717e-02,-9.896618923108990717e-02,-9.896618923108990717e-02,-9.896618923108990717e-02,-9.896618923108990717e-02,-9.896618923108990717e-02,-9.896618923108990717e-02,-9.896618923108990717e-02,-9.896618923108990717e-02,-9.896618923108990717e-02,-9.896618923108990717e-02,-9.896618923108990717e-02,-9.896618923108990717e-02,-9.896618923108990717e-02,-9.438442121113205241e-02,-8.491543396988576742e-02,-7.514099552730899023e-02,-6.536655708473226856e-02,-5.559211864215543586e-02,-4.581768019957865867e-02,-3.634869295833240144e-02,-2.657425451575562425e-02,-1.679981607317884706e-02,-7.025377630602069878e-03,2.443609610644215113e-03,1.221804805322100618e-02,2.199248649579776949e-02,3.176692493837456055e-02,4.123591217962080391e-02,5.914298885762279967e-02,7.460645592498060807e-02,8.762631338169421524e-02,9.708575527289889373e-02,1.053997551591141085e-01
1.160714565055993019e-01,1.160714565055993019e-01,1.160714565055993019e-01,1.160714565055993019e-01,1.160714565055993019e-01,1.160714565055993019e-01,1.160714565055993019e-01,9.031173852672506885e-02,5.447213090394353863e-02,1.863252328116199452e-02,-1.608709660340759684e-02,-5.192670422618914094e-02,-8.776631184897065729e-02,-9.896618923108990717e-02,-9.896618923108990717e-02,-9.896618923108990717e-02,-9.896618923108987942e-02,-9.896618923108990717e-02,-9.896618923108990717e-02,-9.896618923108990717e-02,-9.896618923108990717e-02,-9.896618923108990717e-02,-9.896618923108990717e-02,-9.896618923108990717e-02,-9.896618923108990717e-02,-9.896618923108990717e-02,-9.896618923108990717e-02,-9.316261640580997261e-02,-2.558501711619581287e-01,-2.460757327193813793e-01,-2.363012942768046298e-01,-2.265268558342277694e-01,-4.490132659558707107e-02,-3.512688815301029388e-02,-2.535244971043351669e-02,-1.557801126785673951e-02,-6.109024026610482272e-03,3.665414415966308792e-03,1.343985285854309986e-02,2.321429130111989092e-02,3.298872974369665423e-02,4.245771698494291146e-02,5.223215542751968865e-02,6.200659387009647971e-02,7.178103231267325690e-02,8.125001955391951414e-02,9.102445799649630520e-02
1.160714565055993019e-01,1.160714565055993019e-01,1.160714565055993019e-01,1.160714565055993019e-01,1.160714565055993019e-01,1.160714565055993019e-01,1.160714565055993019e-01,8.583178757387738278e-02,4.999217995109583867e-02,1.527256006652620568e-02,-2.056704755625532455e-02,-5.640665517903681314e-02,-9.224626280181835725e-02,-9.896618923108990717e-02,-9.896618923108993493e-02,-9.896618923108990717e-02,-9.896618923108990717e-02,-9.896618923108990717e-02,-9.896618923108990717e-02,-9.896618923108993493e-02,-9.896618923108990717e-02,-9.896618923108993493e-02,-9.896618923108990717e-02,-9.896618923108990717e-02,-9.896618923108990717e-02,-9.896618923108990717e-02,-9.896618923108990717e-02,-9.224626280181835725e-02,-2.546283663566360489e-01,-2.448539279140592995e-01,-2.350794894714824945e-01,-2.256105022302362095e-01,-4.367952179026499127e-02,-3.390508334768821408e-02,-2.413064490511143689e-02,-1.435620646253465971e-02,-4.887219221288388593e-03,4.887219221288416349e-03,1.466165766386519353e-02,2.443609610644198460e-02,3.390508334768822796e-02,4.367952179026500514e-02,5.345396023284179621e-02,6.322839867541857339e-02,7.269738591666483063e-02,8.247182435924160782e-02,9.224626280181838500e-02
1.160714565055993019e-01,1.160714565055993019e-01,1.160714565055993019e-01,1.160714565055993019e-01,1.160714565055993019e-01,1.160714565055993019e-01,1.160714565055993019e-01,8.135183662102968283e-02,4.551222899824815260e-02,1.079260911367851961e-02,-2.504699850910296899e-02,-6.088660613188454085e-02,-9.672621375466605720e-02,-9.896618923108987942e-02,-9.896618923108990717e-02,-9.896618923108993493e-02,-9.896618923108987942e-02,-9.896618923108990717e-02,-9.896618923108990717e-02,-9.896618923108990717e-02,-9.896618923108990717e-02,-9.896618923108990717e-02,-9.896618923108987942e-02,-9.896618923108990717e-02,-9.896618923108990717e-02,-9.896618923108990717e-02,-9.896618923108990717e-02,-9.102445799649624969e-02,-2.534065615513139691e-01,-2.436321231087372197e-01,-2.338576846661603592e-01,-2.243886974249141297e-01,-4.245771698494288371e-02,-3.268327854236610652e-02,-2.290884009978932934e-02,-1.343985285854307210e-02,-3.665414415966294914e-03,6.109024026610510028e-03,1.588346246918728721e-02,2.535244971043354445e-02,3.512688815301033551e-02,4.490132659558709882e-02,5.467576503816388989e-02,6.445020348074068095e-02,7.391919072198693819e-02,8.369362916456371537e-02,9.346806760714049256e-02
1.160714565055993019e-01,1.160714565055993019e-01,1.160714565055993019e-01,1.160714565055993019e-01,1.160714565055993019e-01,1.160714565055993019e-01,1.127114932909635270e-01,7.687188566818199675e-02,4.215226578361237764e-02,6.312658160830833531e-03,-2.952694946195066894e-02,-6.536655708473221305e-02,-9.896618923108990717e-02,-9.896618923108990717e-02,-9.896618923108993493e-02,-9.896618923108990717e-02,-9.896618923108990717e-02,-9.896618923108990717e-02,-9.896618923108990717e-02,-9.896618923108990717e-02,-9.896618923108990717e-02,-9.896618923108987942e-02,-9.896618923108990717e-02,-9.896618923108990717e-02,-9.896618923108990717e-02,-9.896618923108990717e-02,-9.896618923108990717e-02,-8.980265319117416989e-02,-2.521847567459918893e-01,-2.424103183034150844e-01,-2.329413310621687994e-01,-2.231668926195920499e-01,-4.123591217962077615e-02,-3.146147373704399897e-02,-2.199248649579776949e-02,-1.221804805322099230e-02,-2.443609610644187358e-03,7.330828831932603706e-03,1.679981607317886094e-02,2.657425451575562425e-02,3.634869295833242919e-02,4.612313140090919250e-02,5.589756984348597663e-02,6.536655708473224080e-02,7.514099552730903187e-02,8.491543396988579517e-02,9.468987241246258624e-02
1.160714565055993019e-01,1.160714565055993019e-01,1.160714565055993019e-01,1.160714565055993019e-01,1.160714565055993019e-01,1.160714565055993019e-01,1.082315423381158409e-01,7.351192245354623567e-02,3.767231483076469156e-02,1.832707207983147457e-03,-3.400690041479836889e-02,-6.984650803757991300e-02,-9.896618923108990717e-02,-9.896618923108990717e-02,-9.896618923108990717e-02,-9.896618923108990717e-02,-9.896618923108990717e-02,-9.896618923108990717e-02,-9.896618923108990717e-02,-9.896618923108990717e-02,-9.896618923108990717e-02,-9.896618923108990717e-02,-9.896618923108990717e-02,-9.896618923108990717e-02,-9.896618923108990717e-02,-9.896618923108990717e-02,-9.835528682842886727e-02,-8.858084838585209009e-02,-7.880640994327528515e-02,-6.933742270202905567e-02,-5.956298425945225072e-02,-4.978854581687547354e-02,-4.001410737429866860e-02,-3.054512013305243912e-02,-2.077068169047566193e-02,-1.099624324789888474e-02,-1.221804805322079801e-03,8.552633637254711263e-03,1.802162087850096850e-02,2.779605932107773181e-02,3.757049776365450899e-02,4.734493620623128618e-02,5.681392344747755729e-02,6.658836189005434836e-02,7.636280033263112554e-02,8.613723877520790273e-02,9.560622601645415997e-02
1.160714565055993019e-01,1.160714565055993019e-01,1.160714565055993019e-01,1.160714565055993019e-01,1.160714565055993019e-01,1.160714565055993019e-01,1.048715791234800659e-01,6.903197150069853572e-02,3.319236387791699161e-02,-2.647243744864538617e-03,-3.848685136764606884e-02,-7.320647125221568796e-02,-9.896618923108990717e-02,-9.896618923108990717e-02,-9.896618923108990717e-02,-9.896618923108987942e-02,-9.896618923108990717e-02,-9.896618923108990717e-02,-9.896618923108990717e-02,-9.896618923108990717e-02,-9.896618923108990717e-02,-9.896618923108990717e-02,-9.896618923108990717e-02,-9.896618923108990717e-02,-9.896618923108990717e-02,-9.896618923108990717e-02,-9.713348202310675972e-02,-8.735904358052998253e-02,-7.789005633928369754e-02,-6.811561789670692035e-02,-5.834117945413014317e-02,-4.856674101155336598e-02,-3.879230256897658879e-02,-2.932331532773035931e-02,-1.954887688515355437e-02,-9.774438442576777186e-03,0.000000000000000000e+00,9.468987241246284992e-03,1.924342568382306218e-02,2.901786412639983936e-02,3.879230256897660267e-02,4.826128981022287379e-02,5.803572825279965097e-02,6.781016669537644204e-02,7.758460513795321922e-02,8.735904358052999641e-02,9.682803082177626752e-02
1.160714565055993019e-01,1.160714565055993019e-01,1.160714565055993019e-01,1.160714565055993019e-01,1.160714565055993019e-01,1.160714565055993019e-01,1.003916281706323799e-01,6.455202054785083576e-02,2.871241292506930554e-02,-7.127194697712224691e-03,-4.184681458228184381e-02,-7.768642220506333240e-02,-3.351693786771181016e-01,-3.351693786771181016e-01,-3.351693786771181016e-01,-3.351693786771181016e-01,-9.896618923108990717e-02,-9.896618923108990717e-02,-9.896618923108990717e-02,-9.896618923108990717e-02,-9.896618923108987942e-02,-9.896618923108990717e-02,-9.896618923108990717e-02,-9.896618923108987942e-02,-9.896618923108990717e-02,-9.896618923108990717e-02,-9.591167721778465216e-02,-8.644268997653842268e-02,-7.666825153396161774e-02,-6.689381309138484055e-02,-5.711937464880806337e-02,-4.734493620623128618e-02,-3.787594896498502894e-02,-2.810151052240825176e-02,-1.832707207983147457e-02,-8.552633637254683507e-03,9.163536039915737286e-04,1.069079204656839255e-02,2.046523048914515586e-02,3.023966893172193304e-02,3.970865617296819028e-02,4.948309461554496747e-02,5.925753305812175159e-02,6.903197150069853572e-02,7.880640994327531290e-02,8.827539718452157014e-02,9.804983562709836120e-02
1.160714565055993019e-01,1.160714565055993019e-01,1.160714565055993019e-01,1.160714565055993019e-01,1.160714565055993019e-01,1.160714565055993019e-01,9.591167721778467992e-02,6.007206959500314969e-02,2.423246197222161946e-02,-1.048715791234799966e-02,-4.632676553512954376e-02,-8.216637315791108787e-02,-3.351693786771181016e-01,-3.351693786771181016e-01,-3.351693786771181016e-01,-3.351693786771181016e-01,-9.896618923108990717e-02,-9.896618923108990717e-02,-9.896618923108990717e-02,-9.896618923108990717e-02,-9.896618923108990717e-02,-9.896618923108987942e-02,-9.896618923108990717e-02,-9.896618923108990717e-02,-9.896618923108990717e-02,-9.896618923108990717e-02,-9.468987241246257236e-02,-8.522088517121628737e-02,-7.544644672863948243e-02,-6.567200828606273300e-02,-5.589756984348598357e-02,-4.642858260223969857e-02,-3.665414415966294914e-02,-2.687970571708614420e-02,-1.710526727450936701e-02,-7.636280033263109779e-03,2.138158409313667407e-03,1.191259685189047235e-02,2.168703529446726341e-02,3.146147373704402672e-02,4.093046097829028396e-02,5.070489942086706114e-02,6.047933786344385221e-02,7.025377630602064327e-02,7.972276354726688663e-02,8.949720198984367769e-02,9.927164043242045488e-02
1.160714565055993019e-01,1.160714565055993019e-01,1.160714565055993019e-01,1.160714565055993019e-01,1.160714565055993019e-01,1.160714565055993019e-01,9.143172626493699384e-02,5.559211864215545668e-02,2.087249875758584450e-02,-1.496710886519569961e-02,-5.080671648797721596e-02,-8.664632411075873231e-02,-3.351693786771181016e-01,-3.351693786771181016e-01,-3.351693786771181016e-01,-3.351693786771181016e-01,-9.896618923108990717e-02,-9.896618923108990717e-02,-9.896618923108990717e-02,-9.896618923108990717e-02,-9.896618923108990717e-02,-9.896618923108990717e-02,-9.896618923108990717e-02,-9.896618923108990717e-02,-9.896618923108990717e-02,-9.896618923108990717e-02,-9.377351880847101251e-02,-8.399908036589420757e-02,-7.422464192331743038e-02,-6.445020348074065319e-02,-5.498121623949439596e-02,-4.520677779691761877e-02,-3.543233935434081383e-02,-2.565790091176406440e-02,-1.588346246918725946e-02,-6.414475227941029978e-03,3.359963214635774964e-03,1.313440165721257991e-02,2.290884009978935709e-02,3.237782734103560045e-02,4.215226578361237764e-02,5.192670422618916870e-02,6.170114266876595283e-02,7.117012991001220312e-02,8.094456835258898031e-02,9.071900679516577137e-02,1.004934452377425624e-01
1.160714565055993019e-01,1.160714565055993019e-01,1.160714565055993019e-01,1.160714565055993019e-01,1.160714565055993019e-01,1.160714565055993019e-01,8.695177531208930777e-02,5.111216768930776366e-02,1.639254780473814455e-02,-1.944705981804337180e-02,-5.528666744082491591e-02,-9.112627506360646001e-02,-3.351693786771181016e-01,-3.351693786771181016e-01,-3.351693786771181016e-01,-3.351693786771181016e-01,-9.896618923108990717e-02,-9.896618923108990717e-02,-9.896618923108990717e-02,-9.896618923108990717e-02,-9.896618923108990717e-02,-9.896618923108987942e-02,-9.896618923108990717e-02,-9.896618923108987942e-02,-9.896618923108990717e-02,-9.896618923108990717e-02,-9.255171400314890495e-02,-8.277727556057210001e-02,-7.300283711799532282e-02,-6.322839867541854564e-02,-5.375941143417228840e-02,-4.398497299159551122e-02,-3.421053454901873403e-02,-2.443609610644192909e-02,-1.496710886519569961e-02,-5.192670422618922421e-03,4.581768019957882521e-03,1.435620646253467358e-02,2.382519370378093082e-02,3.359963214635769413e-02,4.337407058893448519e-02,5.314850903151126238e-02,6.292294747408805344e-02,7.239193471533431068e-02,8.216637315791108787e-02,9.194081160048786505e-02,1.017152500430646561e-01
1.160714565055993019e-01,1.160714565055993019e-01,1.160714565055993019e-01,1.160714565055993019e-01,1.160714565055993019e-01,1.160714565055993019e-01,8.247182435924160782e-02,4.775220447467198870e-02,1.191259685189045847e-02,-2.392701077089107176e-02,-5.976661839367258811e-02,-9.448623827824220722e-02,-9.896618923108990717e-02,-9.896618923108990717e-02,-9.896618923108990717e-02,-9.896618923108990717e-02,-9.896618923108990717e-02,-9.896618923108990717e-02,-9.896618923108990717e-02,-9.896618923108990717e-02,-9.896618923108987942e-02,-9.896618923108990717e-02,-9.896618923108987942e-02,-9.896618923108990717e-02,-9.896618923108990717e-02,-9.896618923108990717e-02,-9.132990919782679740e-02,-8.155547075525002021e-02,-7.178103231267324302e-02,-6.231204507142695803e-02,-5.253760662885020860e-02,-4.276316818627340366e-02,-3.298872974369662647e-02,-2.351974250245036924e-02,-1.374530405987359205e-02,-3.970865617296814865e-03,5.803572825279976199e-03,1.527256006652624731e-02,2.504699850910302450e-02,3.482143695167978781e-02,4.459587539425657887e-02,5.437031383683335606e-02,6.383930107807961329e-02,7.361373952065640436e-02,8.338817796323318154e-02,9.316261640580997261e-02,1.026316036470562298e-01
1.160714565055993019e-01,1.160714565055993019e-01,1.160714565055993019e-01,1.160714565055993019e-01,1.160714565055993019e-01,1.138314810291754520e-01,7.911186114460584673e-02,4.327225352182430262e-02,7.432645899042758519e-03,-2.840696172373877171e-02,-6.424656934652028806e-02,-9.896618923108990717e-02,-9.896618923108990717e-02,-9.896618923108990717e-02,-9.896618923108990717e-02,-9.896618923108987942e-02,-9.896618923108987942e-02,-9.896618923108990717e-02,-9.896618923108987942e-02,-9.896618923108990717e-02,-9.896618923108990717e-02,-9.896618923108987942e-02,-9.896618923108990717e-02,-9.896618923108990717e-02,-9.896618923108990717e-02,-9.896618923108990717e-02,-9.010810439250471759e-02,-8.033366594992791265e-02,-7.086467870868165542e-02,-6.109024026610487823e-02,-5.131580182352810104e-02,-4.154136338095132386e-02,-3.207237613970506662e-02,-2.229793769712828944e-02,-1.252349925455151225e-02,-2.749060811974721186e-03,7.025377630602083756e-03,1.649436487184832711e-02,2.626880331442511818e-02,3.604324175700188149e-02,4.581768019957867255e-02,5.528666744082492979e-02,6.506110588340172085e-02,7.483554432597849804e-02,8.460998276855527522e-02,9.407897000980153246e-02,1.038534084523783235e-01
1.160714565055993019e-01,1.160714565055993019e-01,1.160714565055993019e-01,1.160714565055993019e-01,1.160714565055993019e-01,1.104715178145396909e-01,7.463191019175814678e-02,3.879230256897661655e-02,2.952694946195072445e-03,-3.288691267658647166e-02,-6.760653256115606302e-02,-9.896618923108990717e-02,-9.896618923108990717e-02,-9.896618923108990717e-02,-9.896618923108990717e-02,-9.896618923108990717e-02,-9.896618923108990717e-02,-9.896618923108990717e-02,-9.896618923108990717e-02,-9.896618923108990717e-02,-9.896618923108990717e-02,-9.896618923108990717e-02,-9.896618923108990717e-02,-9.896618923108993493e-02,-9.896618923108990717e-02,-9.866073802975938722e-02,-8.888629958718261004e-02,-7.941731234593632505e-02,-6.964287390335957562e-02,-5.986843546078277067e-02,-5.009399701820599349e-02,-4.031955857562921630e-02,-3.085057133438295907e-02,-2.107613289180618188e-02,-1.130169444922940469e-02,-1.527256006652641385e-03,7.941731234593657485e-03,1.771616967717044855e-02,2.749060811974721186e-02,3.726504656232398904e-02,4.673403380357024628e-02,5.650847224614703040e-02,6.628291068872381453e-02,7.605734913130060559e-02,8.583178757387738278e-02,9.530077481512364002e-02,1.050752132577004172e-01
1.160714565055993019e-01,1.160714565055993019e-01,1.160714565055993019e-01,1.160714565055993019e-01,1.160714565055993019e-01,1.059915668616919909e-01,7.015195923891046070e-02,3.431235161612891660e-02,-1.527256006652627507e-03,-3.624687589122221887e-02,-7.208648351400373522e-02,-9.896618923108993493e-02,-9.896618923108990717e-02,-9.896618923108990717e-02,-9.896618923108990717e-02,-9.896618923108990717e-02,-9.896618923108990717e-02,-9.896618923108990717e-02,-9.896618923108990717e-02,-9.896618923108990717e-02,-9.896618923108990717e-02,-9.896618923108990717e-02,-9.896618923108990717e-02,-9.896618923108990717e-02,-9.896618923108990717e-02,-9.743893322443727967e-02,-8.766449478186050248e-02,-7.819550754061421749e-02,-6.842106909803746806e-02,-5.864663065546066312e-02,-4.887219221288388593e-02,-3.940320497163762870e-02,-2.962876652906085151e-02,-1.985432808648410208e-02,-1.007988964390729714e-02,-6.109024026610399005e-04,9.163536039915765041e-03,1.893797448249254223e-02,2.871241292506930554e-02,3.848685136764608272e-02,4.795583860889233996e-02,5.773027705146912408e-02,6.750471549404592209e-02,7.727915393662268539e-02,8.674814117786895651e-02,9.652257962044573369e-02,1.062970180630225248e-01
1.160714565055993019e-01,1.160714565055993019e-01,1.160714565055993019e-01,1.160714565055993019e-01,1.160714565055993019e-01,1.015116159088443049e-01,6.567200828606276075e-02,2.983240066328121665e-02,-4.887219221288402471e-03,-4.072682684406991882e-02,-7.656643446685146293e-02,-9.896618923108990717e-02,-9.896618923108990717e-02,-9.896618923108990717e-02,-9.896618923108990717e-02,-9.896618923108990717e-02,-9.896618923108990717e-02,-9.896618923108990717e-02,-9.896618923108990717e-02,-9.896618923108990717e-02,-9.896618923108990717e-02,-9.896618923108990717e-02,-9.896618923108990717e-02,-9.896618923108990717e-02,-9.896618923108990717e-02,-9.621712841911519987e-02,-8.674814117786891488e-02,-7.697370273529213769e-02,-6.719926429271538826e-02,-5.742482585013858332e-02,-4.795583860889229832e-02,-3.818140016631554889e-02,-2.840696172373877171e-02,-1.863252328116199452e-02,-9.163536039915709530e-03,6.109024026610399005e-04,1.038534084523785872e-02,2.015977928781462203e-02,2.993421773039141309e-02,3.940320497163765645e-02,4.917764341421444751e-02,5.895208185679122470e-02,6.872652029936801577e-02,7.819550754061427300e-02,8.796994598319105019e-02,9.774438442576782737e-02,1.075188228683446184e-01
1.160714565055993019e-01,1.160714565055993019e-01,1.160714565055993019e-01,1.160714565055993019e-01,1.160714565055993019e-01,9.703166495599660490e-02,6.119205733321507468e-02,2.535244971043351669e-02,-9.367170174136074667e-03,-4.520677779691761877e-02,-8.104638541969916288e-02,-9.896618923108990717e-02,-9.896618923108987942e-02,-9.896618923108987942e-02,-9.896618923108990717e-02,-9.896618923108990717e-02,-9.896618923108990717e-02,-9.896618923108990717e-02,-9.896618923108990717e-02,-9.896618923108990717e-02,-9.896618923108990717e-02,-9.896618923108990717e-02,-9.896618923108990717e-02,-9.896618923108990717e-02,-9.896618923108990717e-02,-9.530077481512361226e-02,-8.552633637254683507e-02,-7.575189792997003013e-02,-6.597745948739328070e-02,-5.650847224614699571e-02,-4.673403380357024628e-02,-3.695959536099344134e-02,-2.718515691841666415e-02,-1.741071847583991472e-02,-7.941731234593629729e-03,1.832707207983161335e-03,1.160714565055995240e-02,2.138158409313672959e-02,3.085057133438298682e-02,4.062500977695977789e-02,5.039944821953654119e-02,6.017388666211332532e-02,6.964287390335958949e-02,7.941731234593636668e-02,8.919175078851314387e-02,9.896618923108993493e-02,1.087406276736667121e-01
1.160714565055993019e-01,1.160714565055993019e-01,1.160714565055993019e-01,1.160714565055993019e-01,1.160714565055993019e-01,9.255171400314891883e-02,5.671210638036738860e-02,2.199248649579775561e-02,-1.384712112698377462e-02,-4.968672874976531872e-02,-8.552633637254683507e-02,-9.896618923108990717e-02,-9.896618923108990717e-02,-9.896618923108990717e-02,-9.896618923108990717e-02,-9.896618923108990717e-02,-9.896618923108990717e-02,-9.896618923108990717e-02,-9.896618923108990717e-02,-9.896618923108990717e-02,-9.896618923108990717e-02,-9.896618923108990717e-02,-9.896618923108990717e-02,-9.896618923108990717e-02,-9.896618923108990717e-02,-9.407897000980153246e-02,-8.430453156722475527e-02,-7.453009312464795033e-02,-6.475565468207117314e-02,-5.528666744082488815e-02,-4.551222899824813872e-02,-3.573779055567136154e-02,-2.596335211309458435e-02,-1.649436487184829936e-02,-6.719926429271536050e-03,3.054512013305255014e-03,1.282895045588204608e-02,2.229793769712830331e-02,3.207237613970508050e-02,4.184681458228185769e-02,5.162125302485863487e-02,6.139569146743542594e-02,7.086467870868168317e-02,8.063911715125846036e-02,9.041355559383523754e-02,1.001879940364120286e-01,1.096569812776582858e-01
1.160714565055993019e-01,1.160714565055993019e-01,1.160714565055993019e-01,1.160714565055993019e-01,1.160714565055993019e-01,8.807176305030123276e-02,5.335214316573161364e-02,1.751253554295006953e-02,-1.832707207983144682e-02,-5.416667970261296317e-02,-9.000628732539453503e-02,-9.896618923108990717e-02,-9.896618923108990717e-02,-9.896618923108990717e-02,-9.896618923108990717e-02,-9.896618923108990717e-02,-9.896618923108990717e-02,-9.896618923108990717e-02,-9.896618923108987942e-02,-9.896618923108990717e-02,-9.896618923108993493e-02,-9.896618923108990717e-02,-9.896618923108990717e-02,-9.896618923108987942e-02,-9.896618923108990717e-02,-9.285716520447939715e-02,-8.308272676190261996e-02,-7.330828831932584277e-02,-6.383930107807961329e-02,-5.406486263550280835e-02,-4.429042419292603117e-02,-3.451598575034925398e-02,-2.504699850910299674e-02,-1.527256006652621956e-02,-5.498121623949442371e-03,4.276316818627362570e-03,1.405075526120415363e-02,2.351974250245039699e-02,3.329418094502717418e-02,4.306861938760395137e-02,5.284305783018074243e-02,6.231204507142699967e-02,7.208648351400379073e-02,8.186092195658056792e-02,9.163536039915734510e-02,1.011043476404036023e-01,1.108787860829803795e-01
1.160714565055993019e-01,1.160714565055993019e-01,1.160714565055993019e-01,1.160714565055993019e-01,1.160714565055993019e-01,8.471179983566545779e-02,4.887219221288392756e-02,1.303258459010238346e-02,-2.280702303267914677e-02,-5.864663065546069087e-02,-9.336625054003028223e-02,-9.896618923108990717e-02,-9.896618923108990717e-02,-9.896618923108990717e-02,-9.896618923108990717e-02,-9.896618923108993493e-02,-9.896618923108987942e-02,-9.896618923108990717e-02,-9.896618923108990717e-02,-9.896618923108990717e-02,-9.896618923108990717e-02,-9.896618923108990717e-02,-9.896618923108990717e-02,-9.896618923108990717e-02,-9.896618923108990717e-02,-9.163536039915731735e-02,-8.186092195658051240e-02,-7.239193471533431068e-02,-6.261749627275747798e-02,-5.284305783018070080e-02,-4.306861938760395137e-02,-3.359963214635769413e-02,-2.382519370378088919e-02,-1.405075526120413976e-02,-4.276316818627334815e-03,5.498121623949456249e-03,1.496710886519571349e-02,2.474154730777250455e-02,3.451598575034926786e-02,4.429042419292604504e-02,5.375941143417230922e-02,6.353384987674909334e-02,7.330828831932588441e-02,8.308272676190266159e-02,9.285716520447943878e-02,1.023261524457257099e-01,1.121005908883024871e-01
1.160714565055993019e-01,1.160714565055993019e-01,1.160714565055993019e-01,1.160714565055993019e-01,1.149514687673873770e-01,8.023184888281775784e-02,4.439224126003622761e-02,8.552633637254683507e-03,-2.728697398552684672e-02,-6.200659387009641033e-02,-9.784620149287798219e-02,-9.896618923108990717e-02,-9.896618923108987942e-02,-9.896618923108990717e-02,-9.896618923108990717e-02,-9.896618923108990717e-02,-9.896618923108990717e-02,-9.896618923108990717e-02,-9.896618923108990717e-02,-9.896618923108987942e-02,-9.896618923108990717e-02,-9.896618923108990717e-02,-9.896618923108990717e-02,-9.896618923108990717e-02,-9.896618923108990717e-02,-9.041355559383523754e-02,-8.094456835258895255e-02,-7.117012991001220312e-02,-6.139569146743537043e-02,-5.162125302485859324e-02,-4.184681458228184381e-02,-3.237782734103558657e-02,-2.260338889845880939e-02,-1.282895045588203220e-02,-3.054512013305255014e-03,6.414475227941043856e-03,1.618891367051782104e-02,2.596335211309459823e-02,3.573779055567138929e-02,4.520677779691763265e-02,5.498121623949440984e-02,6.475565468207120090e-02,7.453009312464797809e-02,8.430453156722475527e-02,9.377351880847101251e-02,1.035479572510478036e-01,1.133223956936245808e-01
1.160714565055993019e-01,1.160714565055993019e-01,1.160714565055993019e-01,1.160714565055993019e-01,1.115915055527516159e-01,7.575189792997007177e-02,3.991229030718852766e-02,4.072682684406997433e-03,-3.064693720016262168e-02,-6.648654482294413803e-02,-9.896618923108990717e-02,-9.896618923108990717e-02,-9.896618923108990717e-02,-9.896618923108990717e-02,-9.896618923108990717e-02,-9.896618923108990717e-02,-9.896618923108990717e-02,-9.896618923108990717e-02,-9.896618923108990717e-02,-9.896618923108990717e-02,-9.896618923108990717e-02,-9.896618923108990717e-02,-9.896618923108990717e-02,-9.896618923108990717e-02,-9.896618923108990717e-02,-8.919175078851312999e-02,-7.972276354726684500e-02,-6.994832510469012332e-02,-6.017388666211329062e-02,-5.039944821953654119e-02,-4.093046097829028396e-02,-3.115602253571347902e-02,-2.138158409313670183e-02,-1.160714565055995240e-02,-2.138158409313681285e-03,7.636280033263137534e-03,1.741071847583990084e-02,2.718515691841669191e-02,3.695959536099345522e-02,4.642858260223972633e-02,5.620302104481650352e-02,6.597745948739330846e-02,7.575189792997008564e-02,8.522088517121632900e-02,9.499532361379312007e-02,1.047697620563698973e-01,1.145442004989466744e-01
1.160714565055993019e-01,1.160714565055993019e-01,1.160714565055993019e-01,1.160714565055993019e-01,1.071115545999039159e-01,7.127194697712238569e-02,3.543233935434084159e-02,-4.072682684407025189e-04,-3.512688815301029388e-02,-7.096649577579183799e-02,-9.896618923108990717e-02,-9.896618923108990717e-02,-9.896618923108990717e-02,-9.896618923108987942e-02,-9.896618923108990717e-02,-9.896618923108990717e-02,-9.896618923108990717e-02,-9.896618923108990717e-02,-9.896618923108990717e-02,-9.896618923108990717e-02,-9.896618923108990717e-02,-9.896618923108990717e-02,-9.896618923108990717e-02,-9.896618923108990717e-02,-9.774438442576779962e-02,-8.827539718452154238e-02,-7.850095874194473744e-02,-6.872652029936801577e-02,-5.895208185679118307e-02,-4.948309461554495359e-02,-3.970865617296814865e-02,-2.993421773039139921e-02,-2.015977928781462203e-02,-1.038534084523784484e-02,-9.163536039915598508e-04,8.858084838585245091e-03,1.863252328116202228e-02,2.840696172373878559e-02,3.787594896498505670e-02,4.765038740756182001e-02,5.742482585013860413e-02,6.719926429271538826e-02,7.666825153396164549e-02,8.644268997653842268e-02,9.621712841911521374e-02,1.059915668616919909e-01,1.157660053042687820e-01
1.160714565055993019e-01,1.160714565055993019e-01,1.160714565055993019e-01,1.160714565055993019e-01,1.026316036470562298e-01,6.679199602427468574e-02,3.095238840149314163e-02,-3.767231483076463605e-03,-3.960683910585799383e-02,-7.544644672863951018e-02,-9.896618923108990717e-02,-9.896618923108990717e-02,-9.896618923108990717e-02,-9.896618923108990717e-02,-9.896618923108987942e-02,-9.896618923108990717e-02,-9.896618923108990717e-02,-9.896618923108990717e-02,-9.896618923108990717e-02,-9.896618923108990717e-02,-9.896618923108990717e-02,-9.896618923108993493e-02,-9.896618923108990717e-02,-9.896618923108990717e-02,-9.682803082177623977e-02,-8.705359237919946258e-02,-7.727915393662265764e-02,-6.750471549404590821e-02,-5.803572825279962322e-02,-4.826128981022284603e-02,-3.848685136764606884e-02,-2.871241292506929166e-02,-1.893797448249251447e-02,-9.468987241246257236e-03,3.054512013305338280e-04,1.007988964390733877e-02,1.985432808648410208e-02,2.932331532773035931e-02,3.909775377030713650e-02,4.887219221288391369e-02,5.864663065546069781e-02,6.842106909803749581e-02,7.789005633928375305e-02,8.766449478186053024e-02,9.743893322443730742e-02,1.072133716670140985e-01,1.160714565055993019e-01
1.160714565055993019e-01,1.160714565055993019e-01,1.160714565055993019e-01,1.160714565055993019e-01,9.815165269420852989e-02,6.231204507142699967e-02,2.759242518685738055e-02,-8.247182435924177435e-03,-4.408679005870566603e-02,-7.992639768148718238e-02,-9.896618923108990717e-02,-9.896618923108990717e-02,-9.896618923108990717e-02,-9.896618923108990717e-02,-9.896618923108990717e-02,-9.896618923108990717e-02,-9.896618923108990717e-02,-9.896618923108990717e-02,-9.896618923108990717e-02,-9.896618923108990717e-02,-9.896618923108990717e-02,-9.896618923108990717e-02,-9.896618923108990717e-02,-9.896618923108990717e-02,-9.560622601645413221e-02,-8.583178757387735502e-02,-7.605734913130055008e-02,-6.628291068872380065e-02,-5.681392344747754342e-02,-4.703948500490076623e-02,-3.726504656232396129e-02,-2.749060811974721186e-02,-1.802162087850095462e-02,-8.247182435924149679e-03,1.527256006652627507e-03,1.130169444922943245e-02,2.077068169047567581e-02,3.054512013305245299e-02,4.031955857562923018e-02,5.009399701820602124e-02,5.986843546078279843e-02,6.933742270202905567e-02,7.911186114460584673e-02,8.888629958718262392e-02,9.866073802975941498e-02,1.081297252710056722e-01,1.160714565055993019e-01
1.160714565055993019e-01,1.160714565055993019e-01,1.160714565055993019e-01,1.160714565055993019e-01,9.367170174136084382e-02,5.895208185679121776e-02,2.311247423400969447e-02,-1.272713338877184963e-02,-4.856674101155336598e-02,-8.440634863433491009e-02,-9.896618923108990717e-02,-9.896618923108990717e-02,-9.896618923108990717e-02,-9.896618923108990717e-02,-9.896618923108990717e-02,-9.896618923108990717e-02,-9.896618923108990717e-02,-9.896618923108990717e-02,-9.896618923108990717e-02,-9.896618923108990717e-02,-9.896618923108990717e-02,-9.896618923108990717e-02,-9.896618923108987942e-02,-9.896618923108990717e-02,-9.438442121113205241e-02,-8.460998276855524747e-02,-7.483554432597847028e-02,-6.536655708473221305e-02,-5.559211864215540810e-02,-4.581768019957865867e-02,-3.604324175700188149e-02,-2.657425451575562425e-02,-1.679981607317884706e-02,-7.025377630602056001e-03,2.749060811974735064e-03,1.252349925455151225e-02,2.199248649579778336e-02,3.176692493837456055e-02,4.154136338095132386e-02,5.131580182352811492e-02,6.078478906477437910e-02,7.055922750735116322e-02,8.033366594992794041e-02,9.010810439250471759e-02,9.957709163375097483e-02,1.093515300763277659e-01,1.160714565055993019e-01
1.160714565055993019e-01,1.160714565055993019e-01,1.160714565055993019e-01,1.160714565055993019e-01,9.031173852672506885e-02,5.447213090394353169e-02,1.863252328116199452e-02,-1.720708434161954958e-02,-5.304669196440103818e-02,-8.776631184897065729e-02,-9.896618923108990717e-02,-9.896618923108990717e-02,-9.896618923108990717e-02,-9.896618923108990717e-02,-9.896618923108987942e-02,-9.896618923108990717e-02,-9.896618923108990717e-02,-9.896618923108990717e-02,-9.896618923108990717e-02,-9.896618923108990717e-02,-9.896618923108987942e-02,-9.896618923108987942e-02,-9.896618923108990717e-02,-9.896618923108990717e-02,-9.316261640580994485e-02,-8.338817796323313991e-02,-7.391919072198691043e-02,-6.414475227941013324e-02,-5.437031383683332830e-02,-4.459587539425657887e-02,-3.482143695167980169e-02,-2.535244971043354445e-02,-1.557801126785673951e-02,-5.803572825279962322e-03,3.970865617296842620e-03,1.343985285854309986e-02,2.321429130111987704e-02,3.298872974369665423e-02,4.276316818627343141e-02,5.223215542751968865e-02,6.200659387009647278e-02,7.178103231267325690e-02,8.155547075525004797e-02,9.132990919782682515e-02,1.007988964390730824e-01,1.105733348816498596e-01,1.160714565055993019e-01
1.160714565055993019e-01,1.160714565055993019e-01,1.160714565055993019e-01,1.160714565055993019e-01,8.583178757387738278e-02,4.999217995109585255e-02,1.415257232831429457e-02,-2.168703529446722178e-02,-5.640665517903684090e-02,-9.224626280181835725e-02,-9.896618923108993493e-02,-9.896618923108990717e-02,-9.896618923108990717e-02,-9.896618923108990717e-02,-9.896618923108990717e-02,-9.896618923108990717e-02,-9.896618923108990717e-02,-9.896618923108990717e-02,-9.896618923108990717e-02,-9.896618923108990717e-02,-9.896618923108993493e-02,-9.896618923108990717e-02,-9.896618923108990717e-02,-9.896618923108990717e-02,-9.194081160048783730e-02,-8.247182435924160782e-02,-7.269738591666480287e-02,-6.292294747408799793e-02,-5.314850903151124850e-02,-4.337407058893447132e-02,-3.390508334768821408e-02,-2.413064490511143689e-02,-1.435620646253465971e-02,-4.581768019957868643e-03,4.887219221288402471e-03,1.466165766386520741e-02,2.443609610644197072e-02,3.421053454901874791e-02,4.398497299159552509e-02,5.345396023284178233e-02,6.322839867541857339e-02,7.300283711799535058e-02,8.277727556057212777e-02,9.224626280181838500e-02,1.020207012443951761e-01,1.117951396869719533e-01,1.160714565055993019e-01
1.160714565055993019e-01,1.160714565055993019e-01,1.160714565055993019e-01,1.160714565055993019e-01,8.135183662102968283e-02,4.551222899824815260e-02,9.672621375466608495e-03,-2.504699850910299674e-02,-3.012974269888450407e-01,-3.371370346116265293e-01,-3.393770100880503793e-01,-9.896618923108990717e-02,-9.896618923108990717e-02,-9.896618923108990717e-02,-9.896618923108987942e-02,-9.896618923108993493e-02,-9.896618923108990717e-02,-9.896618923108990717e-02,-9.896618923108990717e-02,-9.896618923108990717e-02,-9.896618923108990717e-02,-9.896618923108987942e-02,-9.896618923108990717e-02,-9.896618923108990717e-02,-9.071900679516575750e-02,-8.125001955391950026e-02,-7.147558111134272307e-02,-6.170114266876594589e-02,-5.192670422618916870e-02,-4.245771698494285595e-02,-3.268327854236610652e-02,-2.290884009978932934e-02,-1.313440165721255215e-02,-3.665414415966294914e-03,-2.856432987738460882e-02,-1.878989143480780388e-02,-9.015452992231054452e-03,7.589854503457366119e-04,1.022797269159199385e-02,5.467576503816388295e-02,6.445020348074068095e-02,7.422464192331745814e-02,8.369362916456371537e-02,9.346806760714049256e-02,1.032425060497172697e-01,1.130169444922940608e-01,1.160714565055993019e-01
1.160714565055993019e-01,1.160714565055993019e-01,1.160714565055993019e-01,1.127114932909635270e-01,7.687188566818199675e-02,4.103227804540046653e-02,5.192670422618922421e-03,-2.952694946195069670e-02,-3.057773779416926851e-01,-3.393770100880503793e-01,-3.393770100880503793e-01,-9.896618923108990717e-02,-9.896618923108990717e-02,-9.896618923108993493e-02,-9.896618923108990717e-02,-9.896618923108990717e-02,-9.896618923108990717e-02,-9.896618923108990717e-02,-9.896618923108990717e-02,-9.896618923108990717e-02,-9.896618923108987942e-02,-9.896618923108993493e-02,-9.896618923108990717e-02,-9.896618923108990717e-02,-8.980265319117416989e-02,-8.002821474859736495e-02,-7.025377630602061552e-02,-6.047933786344383833e-02,-5.101035062219758109e-02,-4.123591217962080391e-02,-3.146147373704402672e-02,-2.168703529446722178e-02,-1.191259685189044459e-02,-2.443609610644187358e-03,-2.734252507206250127e-02,-1.756808662948572408e-02,-7.793648186908946895e-03,1.675339054337324218e-03,1.144977749691410140e-02,5.589756984348598357e-02,6.567200828606276075e-02,7.514099552730903187e-02,8.491543396988579517e-02,9.468987241246258624e-02,1.044643108550393773e-01,1.142387492976161545e-01,1.160714565055993019e-01
1.160714565055993019e-01,1.160714565055993019e-01,1.160714565055993019e-01,1.082315423381158409e-01,7.239193471533429680e-02,3.655232709255276657e-02,1.832707207983133579e-03,-3.400690041479836889e-02,-3.102573288945403851e-01,-3.393770100880503793e-01,-3.393770100880503793e-01,-9.896618923108990717e-02,-9.896618923108990717e-02,-9.896618923108990717e-02,-9.896618923108990717e-02,-9.896618923108990717e-02,-9.896618923108990717e-02,-9.896618923108990717e-02,-9.896618923108990717e-02,-9.896618923108990717e-02,-9.896618923108990717e-02,-9.896618923108990717e-02,-9.896618923108990717e-02,-9.835528682842886727e-02,-8.858084838585209009e-02,-7.880640994327525739e-02,-6.903197150069850796e-02,-5.925753305812173077e-02,-4.978854581687547354e-02,-4.001410737429869635e-02,-3.023966893172189141e-02,-2.046523048914514198e-02,-1.099624324789888474e-02,-1.221804805322093679e-03,-2.612072026674039371e-02,-1.634628182416361653e-02,-6.877294582917359289e-03,2.897143859659417897e-03,1.267158230223620896e-02,5.711937464880808418e-02,6.689381309138486831e-02,7.636280033263112554e-02,8.613723877520790273e-02,9.591167721778467992e-02,1.056861156603614710e-01,1.151551029016077282e-01,1.160714565055993019e-01
1.160714565055993019e-01,1.160714565055993019e-01,1.160714565055993019e-01,1.037515913852681548e-01,6.791198376248661073e-02,3.319236387791699161e-02,-2.647243744864552495e-03,-3.848685136764606884e-02,-7.432645899042761295e-02,-9.896618923108990717e-02,-9.896618923108990717e-02,-9.896618923108990717e-02,-9.896618923108990717e-02,-9.896618923108990717e-02,-9.896618923108990717e-02,-9.896618923108990717e-02,-9.896618923108990717e-02,-9.896618923108990717e-02,-9.896618923108990717e-02,-9.896618923108990717e-02,-9.896618923108990717e-02,-9.896618923108990717e-02,-9.896618923108990717e-02,-9.713348202310675972e-02,-8.735904358052998253e-02,-7.758460513795317759e-02,-6.781016669537642816e-02,-5.834117945413014317e-02,-4.856674101155336598e-02,-3.879230256897658879e-02,-2.901786412639981161e-02,-1.954887688515355437e-02,-9.774438442576777186e-03,0.000000000000000000e+00,-2.489891546141831391e-02,-1.512447701884150897e-02,-5.655489777595265610e-03,4.118948664981511576e-03,1.389338710755828876e-02,5.834117945413017786e-02,6.781016669537644204e-02,7.758460513795321922e-02,8.735904358053001029e-02,9.713348202310678747e-02,1.066024692643530447e-01,1.160714565055993019e-01,1.160714565055993019e-01
1.160714565055993019e-01,1.160714565055993019e-01,1.160714565055993019e-01,9.927164043242045488e-02,6.455202054785083576e-02,2.871241292506930554e-02,-7.127194697712224691e-03,-4.296680232049376880e-02,-7.880640994327531290e-02,-9.896618923108990717e-02,-9.896618923108990717e-02,-9.896618923108990717e-02,-9.896618923108990717e-02,-9.896618923108993493e-02,-9.896618923108990717e-02,-9.896618923108990717e-02,-9.896618923108990717e-02,-9.896618923108990717e-02,-9.896618923108990717e-02,-9.896618923108990717e-02,-9.896618923108990717e-02,-9.896618923108990717e-02,-9.896618923108990717e-02,-9.591167721778465216e-02,-8.613723877520787497e-02,-7.636280033263109779e-02,-6.689381309138486831e-02,-5.711937464880803561e-02,-4.734493620623128618e-02,-3.757049776365448124e-02,-2.810151052240822400e-02,-1.832707207983147457e-02,-8.552633637254683507e-03,1.221804805322107557e-03,-2.367711065609617860e-02,-1.420812341484994912e-02,-4.433684972273171931e-03,5.340753470303605255e-03,1.511519191288038244e-02,5.925753305812175159e-02,6.903197150069853572e-02,7.880640994327531290e-02,8.858084838585209009e-02,9.804983562709836120e-02,1.078242740696751384e-01,1.160714565055993019e-01,1.160714565055993019e-01
1.160714565055993019e-01,1.160714565055993019e-01,1.160714565055993019e-01,9.479168947957276881e-02,6.007206959500314969e-02,2.423246197222160558e-02,-1.160714565055992464e-02,-4.744675327334146875e-02,-8.216637315791106011e-02,-9.896618923108990717e-02,-9.896618923108993493e-02,-9.896618923108987942e-02,-9.896618923108990717e-02,-9.896618923108990717e-02,-9.896618923108990717e-02,-9.896618923108990717e-02,-9.896618923108990717e-02,-9.896618923108990717e-02,-9.896618923108990717e-02,-9.896618923108990717e-02,-9.896618923108990717e-02,-9.896618923108990717e-02,-9.896618923108990717e-02,-9.468987241246257236e-02,-8.491543396988576742e-02,-7.544644672863953794e-02,-6.567200828606276075e-02,-5.589756984348592805e-02,-4.612313140090917862e-02,-3.634869295833240144e-02,-2.687970571708614420e-02,-1.710526727450936701e-02,-7.330828831932589829e-03,2.443609610644215113e-03,1.191259685189047235e-02,2.168703529446724954e-02,3.146147373704404060e-02,4.123591217962080391e-02,5.070489942086706114e-02,6.047933786344385221e-02,7.025377630602064327e-02,8.002821474859742046e-02,8.980265319117419764e-02,9.927164043242045488e-02,1.090460788749972321e-01,1.160714565055993019e-01,1.160714565055993019e-01
1.160714565055993019e-01,1.160714565055993019e-01,1.160714565055993019e-01,9.143172626493699384e-02,5.559211864215544974e-02,1.975251101937391951e-02,-1.608709660340759684e-02,-5.080671648797721596e-02,-8.664632411075876006e-02,-9.896618923108990717e-02,-9.896618923108987942e-02,-9.896618923108993493e-02,-9.896618923108987942e-02,-9.896618923108990717e-02,-9.896618923108990717e-02,-9.896618923108990717e-02,-9.896618923108990717e-02,-9.896618923108990717e-02,-9.896618923108990717e-02,-9.896618923108990717e-02,-9.896618923108990717e-02,-9.896618923108990717e-02,-9.896618923108990717e-02,-9.346806760714043705e-02,-8.369362916456368762e-02,-7.422464192331743038e-02,-6.445020348074062544e-02,-5.467576503816387601e-02,-4.490132659558707107e-02,-3.543233935434081383e-02,-2.565790091176403664e-02,-1.588346246918725946e-02,-6.109024026610482272e-03,3.359963214635774964e-03,1.313440165721257991e-02,2.290884009978934321e-02,3.268327854236612040e-02,4.245771698494291146e-02,5.192670422618915482e-02,6.170114266876595283e-02,7.147558111134273695e-02,8.125001955391951414e-02,9.071900679516577137e-02,1.004934452377425624e-01,1.102678836803193396e-01,1.160714565055993019e-01,1.160714565055993019e-01
1.160714565055993019e-01,1.160714565055993019e-01,1.160714565055993019e-01,8.695177531208930777e-02,5.111216768930777754e-02,1.527256006652621956e-02,-1.944705981804339956e-02,-5.528666744082491591e-02,-9.112627506360646001e-02,-9.896618923108990717e-02,-9.896618923108990717e-02,-9.896618923108993493e-02,-9.896618923108990717e-02,-9.896618923108990717e-02,-9.896618923108990717e-02,-9.896618923108990717e-02,-9.896618923108990717e-02,-9.896618923108990717e-02,-9.896618923108990717e-02,-9.896618923108987942e-02,-9.896618923108990717e-02,-9.896618923108990717e-02,-9.896618923108987942e-02,-9.224626280181835725e-02,-8.277727556057210001e-02,-7.300283711799532282e-02,-6.322839867541854564e-02,-5.345396023284176845e-02,-4.398497299159551122e-02,-3.421053454901873403e-02,-2.443609610644198460e-02,-1.466165766386517966e-02,-4.887219221288402471e-03,4.581768019957882521e-03,1.435620646253467358e-02,2.413064490511146465e-02,3.390508334768822796e-02,4.337407058893448519e-02,5.314850903151126238e-02,6.292294747408805344e-02,7.269738591666483063e-02,8.216637315791108787e-02,9.194081160048786505e-02,1.017152500430646561e-01,1.114896884856414333e-01,1.160714565055993019e-01,1.160714565055993019e-01
1.160714565055993019e-01,1.160714565055993019e-01,1.160714565055993019e-01,8.247182435924160782e-02,4.663221673646006371e-02,1.079260911367854736e-02,-2.392701077089107176e-02,-5.976661839367258811e-02,-9.560622601645413221e-02,-9.896618923108990717e-02,-9.896618923108990717e-02,-9.896618923108990717e-02,-9.896618923108990717e-02,-9.896618923108987942e-02,-9.896618923108990717e-02,-9.896618923108990717e-02,-9.896618923108990717e-02,-9.896618923108990717e-02,-9.896618923108990717e-02,-9.896618923108987942e-02,-9.896618923108987942e-02,-9.896618923108993493e-02,-9.896618923108990717e-02,-9.132990919782679740e-02,-8.155547075524999245e-02,-7.178103231267327078e-02,-6.200659387009643808e-02,-5.253760662885020860e-02,-4.276316818627340366e-02,-3.298872974369662647e-02,-2.321429130111984929e-02,-1.343985285854307210e-02,-3.970865617296814865e-03,5.803572825279976199e-03,-1.722623792872342574e-01,-1.624879408446575080e-01,-1.530189536034112230e-01,-1.432445151608344180e-01,-1.334700767182576686e-01,6.414475227941014712e-02,7.361373952065640436e-02,8.338817796323318154e-02,9.316261640580997261e-02,1.029370548483867498e-01,1.127114932909635270e-01,1.160714565055993019e-01,1.160714565055993019e-01
1.160714565055993019e-01,1.160714565055993019e-01,1.138314810291754520e-01,7.799187340639390786e-02,4.215226578361237764e-02,7.432645899042772397e-03,-2.840696172373874395e-02,-6.424656934652028806e-02,-9.896618923108990717e-02,-9.896618923108990717e-02,-9.896618923108990717e-02,-9.896618923108990717e-02,-9.896618923108990717e-02,-9.896618923108990717e-02,-9.896618923108987942e-02,-9.896618923108990717e-02,-9.896618923108990717e-02,-9.896618923108987942e-02,-9.896618923108990717e-02,-9.896618923108990717e-02,-9.896618923108990717e-02,-9.896618923108990717e-02,-9.896618923108990717e-02,-9.010810439250466208e-02,-8.033366594992791265e-02,-7.055922750735113547e-02,-6.078478906477433052e-02,-5.131580182352810104e-02,-4.154136338095129610e-02,-3.176692493837454667e-02,-2.199248649579776949e-02,-1.252349925455151225e-02,-2.749060811974721186e-03,7.025377630602097634e-03,-1.710405744819121776e-01,-1.615715872406659481e-01,-1.517971487980891432e-01,-1.420227103555123382e-01,-1.322482719129355888e-01,6.536655708473224080e-02,7.483554432597849804e-02,8.460998276855527522e-02,9.438442121113206629e-02,1.041588596537088435e-01,1.136278468949551007e-01,1.160714565055993019e-01,1.160714565055993019e-01
1.160714565055993019e-01,1.160714565055993019e-01,1.093515300763277659e-01,7.351192245354622179e-02,3.879230256897661655e-02,2.952694946195072445e-03,-3.288691267658647166e-02,-6.872652029936798801e-02,-9.896618923108990717e-02,-9.896618923108990717e-02,-9.896618923108990717e-02,-9.896618923108990717e-02,-9.896618923108990717e-02,-9.896618923108990717e-02,-9.896618923108990717e-02,-9.896618923108990717e-02,-9.896618923108990717e-02,-9.896618923108990717e-02,-9.896618923108990717e-02,-9.896618923108990717e-02,-9.896618923108990717e-02,-9.896618923108990717e-02,-9.866073802975935947e-02,-8.888629958718258228e-02,-7.911186114460580510e-02,-6.933742270202905567e-02,-5.986843546078277067e-02,-5.009399701820599349e-02,-4.031955857562921630e-02,-3.054512013305243912e-02,-2.107613289180618188e-02,-1.130169444922940469e-02,-1.527256006652613629e-03,8.247182435924191313e-03,-1.698187696765900978e-01,-1.603497824353438128e-01,-1.505753439927670079e-01,-1.408009055501902584e-01,-1.310264671076134535e-01,6.628291068872382841e-02,7.605734913130060559e-02,8.583178757387738278e-02,9.560622601645415997e-02,1.050752132577004172e-01,1.148496517002772083e-01,1.160714565055993019e-01,1.160714565055993019e-01
1.160714565055993019e-01,1.160714565055993019e-01,1.048715791234800659e-01,-1.316450606341368068e-01,-1.674846682569183787e-01,-2.033242758796998673e-01,-3.736686362943414386e-02,-7.320647125221568796e-02,-9.896618923108990717e-02,-9.896618923108990717e-02,-9.896618923108990717e-02,-9.896618923108993493e-02,-9.896618923108990717e-02,-9.896618923108990717e-02,-9.896618923108990717e-02,-9.896618923108990717e-02,-9.896618923108990717e-02,-9.896618923108990717e-02,-9.896618923108990717e-02,-9.896618923108990717e-02,-9.896618923108990717e-02,-9.896618923108990717e-02,-9.743893322443727967e-02,-8.766449478186050248e-02,-7.789005633928369754e-02,-6.842106909803746806e-02,-5.864663065546066312e-02,-4.887219221288388593e-02,-3.909775377030710874e-02,-2.962876652906087926e-02,-1.985432808648407432e-02,-1.007988964390732489e-02,-3.054512013305199503e-04,9.468987241246284992e-03,-1.689024160725984824e-01,-1.591279776300216775e-01,-1.493535391874449281e-01,-1.395791007448681786e-01,-1.301101135036218936e-01,6.750471549404590821e-02,7.727915393662269927e-02,8.705359237919947646e-02,9.652257962044573369e-02,1.062970180630225248e-01,1.160714565055993019e-01,1.160714565055993019e-01,1.160714565055993019e-01
1.160714565055993019e-01,1.160714565055993019e-01,1.003916281706323799e-01,-1.361250115869844790e-01,-1.719646192097660786e-01,-2.078042268325475672e-01,-4.184681458228184381e-02,-7.656643446685146293e-02,-9.896618923108993493e-02,-9.896618923108990717e-02,-9.896618923108993493e-02,-9.896618923108990717e-02,-9.896618923108990717e-02,-9.896618923108990717e-02,-9.896618923108990717e-02,-9.896618923108990717e-02,-9.896618923108990717e-02,-9.896618923108990717e-02,-9.896618923108990717e-02,-9.896618923108993493e-02,-9.896618923108990717e-02,-9.896618923108990717e-02,-9.621712841911517211e-02,-8.644268997653842268e-02,-7.697370273529213769e-02,-6.719926429271538826e-02,-5.742482585013858332e-02,-4.765038740756180613e-02,-3.787594896498502894e-02,-2.840696172373874395e-02,-1.863252328116199452e-02,-8.858084838585203458e-03,9.163536039915876064e-04,1.038534084523784484e-02,-1.676806112672764026e-01,-1.579061728246995977e-01,-1.481317343821228483e-01,-1.386627471408766188e-01,-1.288883086982998138e-01,6.872652029936801577e-02,7.850095874194479295e-02,8.827539718452157014e-02,9.774438442576782737e-02,1.075188228683446184e-01,1.160714565055993019e-01,1.160714565055993019e-01,1.160714565055993019e-01
1.160714565055993019e-01,1.160714565055993019e-01,9.703166495599660490e-02,-1.406049625398321790e-01,-1.764445701626137231e-01,-2.122841777853952672e-01,-4.520677779691761877e-02,-8.104638541969916288e-02,-9.896618923108990717e-02,-9.896618923108990717e-02,-9.896618923108990717e-02,-9.896618923108990717e-02,-9.896618923108987942e-02,-9.896618923108990717e-02,-9.896618923108990717e-02,-9.896618923108990717e-02,-9.896618923108990717e-02,-9.896618923108990717e-02,-9.896618923108990717e-02,-9.896618923108990717e-02,-9.896618923108990717e-02,-9.896618923108990717e-02,-9.499532361379309231e-02,-8.522088517121628737e-02,-7.575189792997005789e-02,-6.597745948739325295e-02,-5.620302104481647576e-02,-4.642858260223969857e-02,-3.695959536099346909e-02,-2.718515691841666415e-02,-1.741071847583991472e-02,-7.636280033263109779e-03,1.832707207983161335e-03,1.160714565055995240e-02,2.138158409313672959e-02,3.115602253571350677e-02,4.093046097829028396e-02,5.039944821953654119e-02,6.017388666211332532e-02,6.994832510469012332e-02,7.972276354726690051e-02,8.919175078851315774e-02,9.896618923108993493e-02,1.087406276736667121e-01,1.160714565055993019e-01,1.160714565055993019e-01,1.160714565055993019e-01
1.160714565055993019e-01,1.160714565055993019e-01,1.013716174415678073e-01,7.155194391167535306e-02,3.277236847608752668e-02,-1.384712112698377462e-02,-4.968672874976529097e-02,-8.552633637254680732e-02,-9.896618923108993493e-02,-9.896618923108993493e-02,-9.896618923108993493e-02,-9.896618923108993493e-02,-9.896618923108990717e-02,-9.896618923108990717e-02,-9.896618923108990717e-02,-9.896618923108990717e-02,-9.896618923108990717e-02,-9.896618923108990717e-02,-9.896618923108990717e-02,-9.896618923108990717e-02,-9.896618923108990717e-02,-9.896618923108990717e-02,-9.377351880847101251e-02,-8.430453156722472752e-02,-7.453009312464795033e-02,-6.475565468207117314e-02,-5.498121623949436820e-02,-4.551222899824813872e-02,-3.573779055567136154e-02,-2.596335211309455659e-02,-1.618891367051780716e-02,-6.414475227941002222e-03,3.054512013305255014e-03,1.282895045588205996e-02,2.260338889845882326e-02,3.237782734103561433e-02,4.184681458228185769e-02,5.162125302485863487e-02,6.139569146743541900e-02,7.117012991001220312e-02,8.063911715125846036e-02,9.041355559383523754e-02,1.001879940364120286e-01,1.099624324789888197e-01,1.160714565055993019e-01,1.160714565055993019e-01,1.160714565055993019e-01
1.160714565055993019e-01,1.160714565055993019e-01,1.160714565055993019e-01,1.160714565055993019e-01,1.160714565055993019e-01,1.160714565055993019e-01,9.479168947957276881e-02,6.455202054785083576e-02,3.543233935434084159e-02,1.527256006652623344e-02,-1.160714565055992464e-02,-3.848685136764606884e-02,-6.536655708473221305e-02,-9.224626280181835725e-02,-9.896618923108987942e-02,-9.896618923108990717e-02,-9.896618923108990717e-02,-9.896618923108990717e-02,-9.896618923108990717e-02,-9.896618923108990717e-02,-9.896618923108990717e-02,-9.896618923108990717e-02,-9.285716520447939715e-02,-8.308272676190264772e-02,-7.330828831932587053e-02,-6.353384987674906559e-02,-5.406486263550280835e-02,-4.429042419292600341e-02,-3.451598575034922622e-02,-2.474154730777247679e-02,-1.496710886519569961e-02,-5.498121623949428494e-03,4.276316818627362570e-03,1.405075526120413976e-02,2.382519370378093082e-02,3.329418094502717418e-02,4.306861938760396524e-02,5.284305783018074243e-02,6.261749627275751962e-02,7.208648351400379073e-02,8.186092195658056792e-02,9.163536039915734510e-02,1.014097988417341223e-01,1.111842372843109134e-01,1.160714565055993019e-01,1.160714565055993019e-01,1.160714565055993019e-01
1.160714565055993019e-01,1.160714565055993019e-01,1.160714565055993019e-01,1.160714565055993019e-01,1.160714565055993019e-01,1.160714565055993019e-01,1.160714565055993019e-01,1.160714565055993019e-01,1.160714565055993019e-01,1.160714565055993019e-01,1.160714565055993019e-01,1.160714565055993019e-01,1.160714565055993019e-01,1.160714565055993019e-01,9.591167721778469379e-02,6.903197150069853572e-02,4.887219221288392756e-02,2.199248649579776949e-02,-4.887219221288374715e-03,-3.176692493837451892e-02,-5.864663065546066312e-02,-8.552633637254683507e-02,-9.163536039915731735e-02,-8.186092195658051240e-02,-7.208648351400376297e-02,-6.231204507142698579e-02,-5.284305783018070080e-02,-4.306861938760392361e-02,-3.329418094502717418e-02,-2.351974250245039699e-02,-1.405075526120413976e-02,-4.276316818627334815e-03,5.498121623949456249e-03,1.527256006652624731e-02,2.474154730777249067e-02,3.451598575034926786e-02,4.429042419292605892e-02,5.406486263550283611e-02,6.383930107807961329e-02,7.330828831932588441e-02,8.308272676190266159e-02,9.285716520447943878e-02,1.026316036470562298e-01,1.121005908883024871e-01,1.160714565055993019e-01,1.160714565055993019e-01,1.160714565055993019e-01
