5.790561492290727252e-02,5.790561492290727252e-02,5.790561492290727252e-02,5.790561492290727252e-02,5.790561492290727252e-02,5.790561492290727252e-02,5.790561492290727252e-02,5.790561492290727252e-02,5.790561492290727252e-02,5.790561492290727252e-02,5.790561492290727252e-02,5.790561492290727252e-02,5.790561492290727252e-02,5.790561492290727252e-02,5.790561492290727252e-02,3.854663715282288794e-02,-3.765792301846615509e-02,-7.812118462972106325e-02,-6.886999171304358791e-02,-5.927616202167430848e-02,-5.002496910499683314e-02,-4.043113941362756758e-02,-3.117994649695007836e-02,-2.158611680558082668e-02,-1.233492388890333746e-02,-2.741094197534078847e-03,6.510098719143417312e-03,1.610392841051267593e-02,2.535512132719016515e-02,3.494895101855941683e-02,4.420014393523691298e-02,5.379397362660616466e-02,5.790561492290727252e-02,5.790561492290727252e-02,5.790561492290727252e-02,5.790561492290727252e-02,5.790561492290727252e-02,5.790561492290727252e-02,5.790561492290727252e-02,5.790561492290727252e-02,5.790561492290727252e-02,5.790561492290727252e-02,5.790561492290727252e-02,5.790561492290727252e-02,5.790561492290727252e-02,5.790561492290727252e-02,5.790561492290727252e-02
5.790561492290727252e-02,5.790561492290727252e-02,5.790561492290727252e-02,5.790561492290727252e-02,5.790561492290727252e-02,5.790561492290727252e-02,5.790561492290727252e-02,5.790561492290727252e-02,5.790561492290727252e-02,5.790561492290727252e-02,5.790561492290727252e-02,5.790561492290727252e-02,5.790561492290727252e-02,5.790561492290727252e-02,-2.706830520064897050e-02,-1.027910324075277104e-01,-9.319720271615844487e-02,-8.394600979948096953e-02,-7.435218010811173173e-02,-6.510098719143421475e-02,-5.550715750006497695e-02,-4.591332780869572527e-02,-3.666213489201822218e-02,-2.706830520064898438e-02,-1.781711228397146740e-02,-8.223282592602229601e-03,1.027910324075273496e-03,1.062174001544452517e-02,1.987293293212201439e-02,2.946676262349127301e-02,3.871795554016876917e-02,4.831178523153802085e-02,5.756297814821551007e-02,5.790561492290727252e-02,5.790561492290727252e-02,5.790561492290727252e-02,5.790561492290727252e-02,5.790561492290727252e-02,5.790561492290727252e-02,5.790561492290727252e-02,5.790561492290727252e-02,5.790561492290727252e-02,5.790561492290727252e-02,5.790561492290727252e-02,5.790561492290727252e-02,5.790561492290727252e-02,5.790561492290727252e-02
5.790561492290727252e-02,5.790561492290727252e-02,5.790561492290727252e-02,5.790561492290727252e-02,5.790561492290727252e-02,5.790561492290727252e-02,5.790561492290727252e-02,5.790561492290727252e-02,5.790561492290727252e-02,5.790561492290727252e-02,5.790561492290727252e-02,5.790561492290727252e-02,-2.805338592788780838e-03,-9.820826554602543612e-02,-1.175244137192733573e-01,-1.082732208025958542e-01,-9.867939111122661644e-02,-8.942819819454911334e-02,-7.983436850317984779e-02,-7.058317558650237244e-02,-6.098934589513310689e-02,-5.173815297845561767e-02,-4.214432328708636599e-02,-3.289313037040887677e-02,-2.329930067903962509e-02,-1.404810776236213588e-02,-4.454278070992870320e-03,4.796914845684625839e-03,1.439074453705387752e-02,2.364193745373136674e-02,3.323576714510061841e-02,4.248696006177811457e-02,5.208078975314736625e-02,5.790561492290727252e-02,5.790561492290727252e-02,5.790561492290727252e-02,5.790561492290727252e-02,5.790561492290727252e-02,5.790561492290727252e-02,5.790561492290727252e-02,5.790561492290727252e-02,5.790561492290727252e-02,5.790561492290727252e-02,5.790561492290727252e-02,5.790561492290727252e-02,5.790561492290727252e-02,5.790561492290727252e-02
5.790561492290727252e-02,5.790561492290727252e-02,5.790561492290727252e-02,5.790561492290727252e-02,5.790561492290727252e-02,5.790561492290727252e-02,5.790561492290727252e-02,5.790561492290727252e-02,5.790561492290727252e-02,5.790561492290727252e-02,2.369547444977695982e-02,-8.602324524604973432e-02,-1.421942614970800045e-01,-1.326004318057107667e-01,-1.233492388890332636e-01,-1.137554091976639981e-01,-1.045042162809865227e-01,-9.491038658961725716e-02,-8.565919367293978182e-02,-7.606536398157051626e-02,-6.681417106489301316e-02,-5.722034137352376149e-02,-4.796914845684627227e-02,-3.837531876547700671e-02,-2.912412584879951749e-02,-1.953029615743027969e-02,-1.027910324075279047e-02,-6.852735493835249159e-04,8.565919367293971243e-03,1.815974905866322292e-02,2.741094197534071908e-02,3.700477166670997076e-02,4.625596458338746692e-02,5.584979427475671859e-02,5.790561492290727252e-02,5.790561492290727252e-02,5.790561492290727252e-02,5.790561492290727252e-02,5.790561492290727252e-02,5.790561492290727252e-02,5.790561492290727252e-02,5.790561492290727252e-02,5.790561492290727252e-02,5.790561492290727252e-02,5.790561492290727252e-02,5.790561492290727252e-02,5.790561492290727252e-02
5.790561492290727252e-02,5.790561492290727252e-02,5.790561492290727252e-02,5.790561492290727252e-02,5.790561492290727252e-02,5.790561492290727252e-02,5.790561492290727252e-02,5.790561492290727252e-02,5.790561492290727252e-02,-5.910484363432844113e-02,-1.665214725001948892e-01,-1.572702795835173861e-01,-1.476764498921481483e-01,-1.384252569754706452e-01,-1.288314272841014074e-01,-1.195802343674239043e-01,-1.099864046760546665e-01,-1.007352117593771634e-01,-9.114138206800789788e-02,-8.189018915133045029e-02,-7.229635945996118473e-02,-6.304516654328365388e-02,-5.345133685191441608e-02,-4.420014393523691298e-02,-3.460631424386767518e-02,-2.501248455249842351e-02,-1.576129163582092041e-02,-6.167461944451668732e-03,3.083730972225827427e-03,1.267756066359507217e-02,2.192875358027257526e-02,3.152258327164182694e-02,4.077377618831931616e-02,5.036760587968857478e-02,5.790561492290727252e-02,5.790561492290727252e-02,5.790561492290727252e-02,5.790561492290727252e-02,5.790561492290727252e-02,5.790561492290727252e-02,5.790561492290727252e-02,5.790561492290727252e-02,5.790561492290727252e-02,5.790561492290727252e-02,5.790561492290727252e-02,5.790561492290727252e-02,5.790561492290727252e-02
5.790561492290727252e-02,5.790561492290727252e-02,5.790561492290727252e-02,5.790561492290727252e-02,5.790561492290727252e-02,5.790561492290727252e-02,5.790561492290727252e-02,-3.090155411751302483e-02,-1.600542033778879492e-01,-1.815974905866322986e-01,-1.723462976699547955e-01,-1.627524679785855577e-01,-1.531586382872162921e-01,-1.439074453705388168e-01,-1.343136156791695512e-01,-1.250624227624920481e-01,-1.154685930711228103e-01,-1.062174001544453072e-01,-9.662357046307604169e-02,-8.737237754639856635e-02,-7.777854785502932855e-02,-6.852735493835182545e-02,-5.893352524698255990e-02,-4.968233233030507068e-02,-4.008850263893581900e-02,-3.083730972225831590e-02,-2.124348003088906423e-02,-1.199228711421157501e-02,-2.398457422842323328e-03,6.852735493835179770e-03,1.644656518520442451e-02,2.569775810188192067e-02,3.529158779325117234e-02,4.454278070992866850e-02,5.413661040129792018e-02,5.790561492290727252e-02,5.790561492290727252e-02,5.790561492290727252e-02,5.790561492290727252e-02,5.790561492290727252e-02,5.790561492290727252e-02,5.790561492290727252e-02,5.790561492290727252e-02,5.790561492290727252e-02,5.790561492290727252e-02,5.790561492290727252e-02,5.790561492290727252e-02
5.790561492290727252e-02,5.790561492290727252e-02,5.790561492290727252e-02,5.790561492290727252e-02,5.790561492290727252e-02,8.565919367293964304e-03,-1.230066021143415012e-01,-2.052394280403636861e-01,-1.966735086730697357e-01,-1.870796789817004424e-01,-1.778284860650229671e-01,-1.682346563736537015e-01,-1.589834634569761707e-01,-1.493896337656069329e-01,-1.401384408489294575e-01,-1.305446111575601920e-01,-1.212934182408827166e-01,-1.116995885495134511e-01,-1.024483956328359480e-01,-9.285456594146671017e-02,-8.360337302478923482e-02,-7.400954333341996927e-02,-6.475835041674245229e-02,-5.516452072537321449e-02,-4.591332780869571140e-02,-3.631949811732647360e-02,-2.706830520064898438e-02,-1.747447550927971882e-02,-8.223282592602229601e-03,1.370547098767029015e-03,1.062174001544452517e-02,2.021556970681377685e-02,2.946676262349127301e-02,3.906059231486051775e-02,4.831178523153802085e-02,5.790561492290727252e-02,5.790561492290727252e-02,5.790561492290727252e-02,5.790561492290727252e-02,5.790561492290727252e-02,5.790561492290727252e-02,5.790561492290727252e-02,5.790561492290727252e-02,5.790561492290727252e-02,-1.635935187194431095e-01,-1.635935187194431095e-01,-1.635935187194431095e-01
5.790561492290727252e-02,5.790561492290727252e-02,5.790561492290727252e-02,4.968233233030505680e-02,-8.189018915133042253e-02,-2.052394280403636861e-01,-2.052394280403637417e-01,-2.052394280403636861e-01,-2.021556970681378240e-01,-1.929045041514603487e-01,-1.833106744600910554e-01,-1.740594815434135800e-01,-1.644656518520443422e-01,-1.552144589353668669e-01,-1.456206292439976013e-01,-1.363694363273200982e-01,-1.267756066359508604e-01,-1.175244137192733573e-01,-1.079305840279040918e-01,-9.867939111122661644e-02,-8.908556141985735088e-02,-2.651602857567371130e-01,-2.555664560653678752e-01,-2.463152631486903166e-01,-2.367214334573210788e-01,-4.214432328708636599e-02,-3.255049359571712819e-02,-2.295666390434786264e-02,-1.370547098767037342e-02,-4.111641296301114801e-03,5.139551620376381358e-03,1.473338131174563304e-02,2.398457422842312226e-02,3.357840391979238087e-02,4.282959683646987703e-02,5.242342652783912871e-02,5.790561492290727252e-02,5.790561492290727252e-02,5.790561492290727252e-02,5.790561492290727252e-02,5.790561492290727252e-02,5.790561492290727252e-02,5.790561492290727252e-02,5.790561492290727252e-02,-1.635935187194431095e-01,-1.635935187194431095e-01,-1.635935187194431095e-01
5.790561492290727252e-02,5.790561492290727252e-02,-4.077377618831934392e-02,-1.723462976699548233e-01,-2.052394280403636861e-01,-2.052394280403636861e-01,-2.052394280403636861e-01,-2.052394280403636861e-01,-2.052394280403636861e-01,-1.983866925465285480e-01,-1.891354996298510172e-01,-1.795416699384817238e-01,-1.702904770218042763e-01,-1.606966473304349829e-01,-1.511028176390657451e-01,-1.418516247223882421e-01,-1.322577950310190043e-01,-1.230066021143415012e-01,-1.134127724229722356e-01,-1.041615795062947603e-01,-9.456774981492552246e-02,-2.706424741518052013e-01,-2.610486444604359635e-01,-2.517974515437584326e-01,-2.422036218523892226e-01,-4.762651168215450981e-02,-3.803268199078524425e-02,-2.878148907410776891e-02,-1.918765938273850336e-02,-9.936466466061028013e-03,-3.426367746917624579e-04,8.908556141985726762e-03,1.850238583335497844e-02,2.775357875003247113e-02,3.734740844140173321e-02,4.659860135807922243e-02,5.619243104944847411e-02,5.790561492290727252e-02,5.790561492290727252e-02,5.790561492290727252e-02,5.790561492290727252e-02,5.790561492290727252e-02,5.790561492290727252e-02,5.790561492290727252e-02,-1.635935187194431095e-01,-1.635935187194431095e-01,-1.635935187194431095e-01
3.426367746917485801e-04,-1.312298847069437446e-01,-2.052394280403636861e-01,-2.052394280403636861e-01,-2.052394280403636861e-01,-2.052394280403636861e-01,-2.052394280403636861e-01,-2.052394280403636861e-01,-2.052394280403636861e-01,-2.038688809415966363e-01,-1.946176880249191610e-01,-1.850238583335498954e-01,-1.757726654168723923e-01,-1.661788357255031545e-01,-1.569276428088256514e-01,-1.473338131174563859e-01,-1.380826202007789105e-01,-1.284887905094096450e-01,-1.192375975927321419e-01,-1.096437679013628763e-01,-1.003925749846854010e-01,-2.761246625468734006e-01,-2.668734696301958698e-01,-2.572796399388266320e-01,-2.480284470221491289e-01,-5.310870007722265362e-02,-4.385750716054515053e-02,-3.426367746917591273e-02,-2.501248455249843738e-02,-1.541865486112915795e-02,-6.167461944451668732e-03,3.426367746917582946e-03,1.267756066359507910e-02,2.227139035496433078e-02,3.152258327164182694e-02,4.111641296301107862e-02,5.036760587968857478e-02,5.790561492290727252e-02,5.790561492290727252e-02,5.790561492290727252e-02,5.790561492290727252e-02,5.790561492290727252e-02,5.790561492290727252e-02,5.790561492290727252e-02,5.790561492290727252e-02,5.790561492290727252e-02,5.790561492290727252e-02
-2.052394280403636861e-01,-2.052394280403636861e-01,-2.052394280403636861e-01,-2.052394280403636861e-01,-2.052394280403636861e-01,-2.052394280403636861e-01,-2.052394280403637417e-01,-2.052394280403636861e-01,-2.052394280403636861e-01,-2.052394280403636861e-01,-2.000998764199873048e-01,-1.908486835033098017e-01,-1.812548538119405361e-01,-1.720036608952630608e-01,-1.624098312038937675e-01,-1.531586382872162921e-01,-1.435648085958470543e-01,-1.343136156791695512e-01,-1.247197859878002857e-01,-1.154685930711228103e-01,-1.058747633797535448e-01,-2.819494877166333069e-01,-2.723556580252640691e-01,-2.631044651085865382e-01,-2.535106354172173004e-01,-5.893352524698255990e-02,-4.933969555561330822e-02,-3.974586586424405654e-02,-3.049467294756655344e-02,-2.090084325619730177e-02,-1.164965033951981255e-02,-2.055820648150560870e-03,7.195372268526942228e-03,1.678920195989618697e-02,2.604039487657368313e-02,3.563422456794293480e-02,4.488541748462043096e-02,5.447924717598968264e-02,5.790561492290727252e-02,5.790561492290727252e-02,5.790561492290727252e-02,5.790561492290727252e-02,5.790561492290727252e-02,5.790561492290727252e-02,5.790561492290727252e-02,5.790561492290727252e-02,5.790561492290727252e-02
-2.052394280403636306e-01,-2.052394280403636861e-01,-2.052394280403636861e-01,-2.052394280403636861e-01,-2.052394280403636861e-01,-2.052394280403636306e-01,-2.052394280403636861e-01,-2.052394280403636861e-01,-2.052394280403636861e-01,-2.052394280403636861e-01,-2.052394280403636861e-01,-1.963308718983779733e-01,-1.870796789817004424e-01,-1.774858492903312046e-01,-1.678920195989619391e-01,-1.586408266822844360e-01,-1.490469969909151982e-01,-1.397958040742376673e-01,-1.302019743828684295e-01,-1.209507814661909542e-01,-1.113569517748216608e-01,-1.021057588581442133e-01,-9.251192916677494771e-02,-8.326073625009744461e-02,-7.366690655872820681e-02,-6.441571364205070371e-02,-5.482188395068143816e-02,-4.557069103400394894e-02,-3.597686134263469726e-02,-2.672566842595720804e-02,-1.713183873458795636e-02,-7.880645817910467144e-03,1.713183873458791473e-03,1.096437679013628069e-02,2.055820648150553931e-02,2.980939939818303200e-02,3.940322908955228715e-02,4.865442200622977637e-02,5.790561492290727252e-02,5.790561492290727252e-02,5.790561492290727252e-02,5.790561492290727252e-02,5.790561492290727252e-02,5.790561492290727252e-02,5.790561492290727252e-02,5.790561492290727252e-02,5.790561492290727252e-02
-2.052394280403636861e-01,-2.052394280403636861e-01,-2.052394280403636861e-01,-2.052394280403636861e-01,-2.052394280403636861e-01,-2.052394280403636306e-01,-2.052394280403636861e-01,-2.052394280403636861e-01,-2.052394280403636861e-01,-2.052394280403636861e-01,-2.052394280403636861e-01,-2.018130602934461171e-01,-1.925618673767685862e-01,-1.829680376853993484e-01,-1.737168447687218176e-01,-1.641230150773525798e-01,-1.548718221606750767e-01,-1.452779924693058389e-01,-1.360267995526283358e-01,-1.264329698612590980e-01,-1.171817769445815949e-01,-1.075879472532123293e-01,-9.833675433653485398e-02,-8.874292464516561618e-02,-7.949173172848811308e-02,-6.989790203711884753e-02,-6.064670912044134443e-02,-5.105287942907209275e-02,-4.180168651239460353e-02,-3.220785682102536573e-02,-2.295666390434786264e-02,-1.336283421297861096e-02,-4.111641296301114801e-03,5.482188395068143816e-03,1.473338131174563304e-02,2.432721100311488471e-02,3.357840391979238087e-02,4.317223361116163255e-02,5.242342652783912871e-02,5.790561492290727252e-02,5.790561492290727252e-02,5.790561492290727252e-02,5.790561492290727252e-02,5.790561492290727252e-02,5.790561492290727252e-02,5.790561492290727252e-02,5.790561492290727252e-02
-2.052394280403636861e-01,-2.052394280403636861e-01,-2.052394280403636861e-01,-2.052394280403636861e-01,-2.052394280403636861e-01,-2.052394280403636861e-01,-2.052394280403636861e-01,-2.052394280403636861e-01,-2.052394280403636861e-01,-2.052394280403636861e-01,-2.052394280403636861e-01,-2.052394280403636861e-01,-1.980440557718367300e-01,-1.887928628551592547e-01,-1.791990331637899891e-01,-1.699478402471124860e-01,-1.603540105557432205e-01,-1.511028176390657174e-01,-1.415089879476964796e-01,-1.322577950310190043e-01,-1.226639653396497665e-01,-1.134127724229722634e-01,-1.038189427316029978e-01,-9.456774981492549470e-02,-8.497392012355622914e-02,-7.572272720687875380e-02,-6.612889751550950213e-02,-5.687770459883201291e-02,-4.728387490746274735e-02,-3.769004521609350955e-02,-2.843885229941600645e-02,-1.884502260804675478e-02,-9.593829691369265555e-03,0.000000000000000000e+00,9.251192916677489220e-03,1.884502260804673396e-02,2.809621552472423706e-02,3.769004521609349567e-02,4.694123813277098489e-02,5.653506782414023657e-02,5.790561492290727252e-02,5.790561492290727252e-02,5.790561492290727252e-02,5.790561492290727252e-02,5.790561492290727252e-02,5.790561492290727252e-02,5.790561492290727252e-02
-2.052394280403636861e-01,-2.052394280403636861e-01,-2.052394280403636861e-01,-2.052394280403636861e-01,-2.052394280403636861e-01,-2.052394280403636861e-01,-2.052394280403636861e-01,-2.052394280403636861e-01,-2.052394280403636861e-01,-2.052394280403636861e-01,-2.052394280403636861e-01,-2.052394280403636861e-01,-2.038688809415966363e-01,-1.942750512502273985e-01,-1.850238583335498677e-01,-1.754300286421806299e-01,-1.658361989508113643e-01,-1.565850060341338612e-01,-1.469911763427646234e-01,-1.377399834260871481e-01,-1.281461537347178825e-01,-1.188949608180403794e-01,-1.093011311266711416e-01,-1.000499382099936663e-01,-9.045610851862440072e-02,-8.120491560194689762e-02,-7.161108591057765982e-02,-6.235989299390015672e-02,-5.276606330253089117e-02,-4.351487038585341582e-02,-3.392104069448415027e-02,-2.466984777780666105e-02,-1.507601808643740937e-02,-5.824825169759906274e-03,3.769004521609338465e-03,1.302019743828683462e-02,2.261402712965608630e-02,3.186522004633358246e-02,4.145904973770284108e-02,5.071024265438033030e-02,5.790561492290727252e-02,5.790561492290727252e-02,5.790561492290727252e-02,5.790561492290727252e-02,5.790561492290727252e-02,5.790561492290727252e-02,5.790561492290727252e-02
-2.052394280403636861e-01,-2.052394280403636861e-01,-2.052394280403636306e-01,-2.052394280403636861e-01,-2.052394280403636861e-01,-2.052394280403636861e-01,-2.052394280403636861e-01,-2.052394280403636306e-01,-2.052394280403636861e-01,-2.052394280403636861e-01,-2.052394280403636861e-01,-2.052394280403636861e-01,-2.052394280403636861e-01,-1.997572396452955423e-01,-1.905060467286180392e-01,-1.809122170372487737e-01,-1.716610241205712706e-01,-1.620671944292020328e-01,-1.528160015125245297e-01,-1.432221718211552919e-01,-1.339709789044778165e-01,-1.243771492131085510e-01,-1.151259562964310201e-01,-1.055321266050617823e-01,-9.628093368838430699e-02,-8.668710399701504143e-02,-7.743591108033756609e-02,-6.784208138896830054e-02,-5.859088847229081132e-02,-4.899705878092155964e-02,-3.974586586424405654e-02,-3.015203617287479099e-02,-2.090084325619730177e-02,-1.130701356482805009e-02,-2.055820648150560870e-03,7.538009043218690808e-03,1.678920195989618697e-02,2.638303165126543864e-02,3.563422456794293480e-02,4.522805425931218648e-02,5.447924717598968264e-02,5.790561492290727252e-02,5.790561492290727252e-02,5.790561492290727252e-02,5.790561492290727252e-02,5.790561492290727252e-02,5.790561492290727252e-02
-1.887928628551592547e-01,-2.052394280403636861e-01,-2.052394280403636861e-01,-2.052394280403636861e-01,-2.052394280403636306e-01,-2.052394280403636861e-01,-2.052394280403636861e-01,-2.052394280403636861e-01,-2.052394280403636861e-01,-2.052394280403636861e-01,-2.052394280403636861e-01,-2.052394280403636861e-01,-2.052394280403636861e-01,-2.052394280403636861e-01,-1.959882351236862108e-01,-1.867370422070086800e-01,-1.771432125156394422e-01,-1.678920195989619391e-01,-1.582981899075926735e-01,-1.490469969909151704e-01,-1.394531672995459326e-01,-1.302019743828684573e-01,-1.206081446914991917e-01,-1.113569517748216886e-01,-1.017631220834524508e-01,-9.251192916677494771e-02,-8.291809947540568215e-02,-7.366690655872820681e-02,-6.407307686735894126e-02,-5.482188395068143816e-02,-4.522805425931220036e-02,-3.563422456794294868e-02,-2.638303165126544558e-02,-1.678920195989619391e-02,-7.538009043218704686e-03,2.055820648150553931e-03,1.130701356482804315e-02,2.090084325619728789e-02,3.015203617287478752e-02,3.974586586424404266e-02,4.899705878092153882e-02,5.790561492290727252e-02,5.790561492290727252e-02,5.790561492290727252e-02,5.790561492290727252e-02,5.790561492290727252e-02,5.790561492290727252e-02
-1.421942614970800045e-01,-2.052394280403636861e-01,-2.052394280403636861e-01,-2.052394280403636861e-01,-2.052394280403636861e-01,-2.052394280403636861e-01,-2.052394280403636861e-01,-2.052394280403636861e-01,-2.052394280403636861e-01,-2.052394280403636306e-01,-2.052394280403636861e-01,-2.052394280403636861e-01,-2.052394280403636861e-01,-2.052394280403636861e-01,-2.018130602934461171e-01,-1.922192306020768238e-01,-1.829680376853993207e-01,-1.733742079940300829e-01,-1.641230150773525798e-01,-1.545291853859833420e-01,-1.449353556946140487e-01,-1.356841627779366011e-01,-1.260903330865673355e-01,-1.168391401698898324e-01,-1.072453104785205946e-01,-9.799411756184309152e-02,-8.840028787047382597e-02,-7.914909495379635063e-02,-6.955526526242708507e-02,-6.030407234574959585e-02,-5.071024265438034417e-02,-4.145904973770284108e-02,-3.186522004633358940e-02,-2.261402712965610018e-02,-1.302019743828684850e-02,-3.769004521609359282e-03,5.824825169759899335e-03,1.507601808643738855e-02,2.466984777780664717e-02,3.392104069448413639e-02,4.351487038585338807e-02,5.276606330253088423e-02,5.790561492290727252e-02,5.790561492290727252e-02,5.790561492290727252e-02,5.790561492290727252e-02,5.790561492290727252e-02
-9.833675433653482623e-02,-1.723462976699548233e-01,-2.052394280403636861e-01,-2.052394280403636861e-01,-2.052394280403636861e-01,-2.052394280403637417e-01,-2.052394280403636861e-01,-2.052394280403636861e-01,-2.052394280403636861e-01,-2.052394280403636861e-01,-2.052394280403636861e-01,-2.052394280403636861e-01,-2.052394280403636861e-01,-2.052394280403636861e-01,-2.052394280403636861e-01,-1.977014189971450231e-01,-1.884502260804674922e-01,-1.788563963890981989e-01,-1.696052034724207236e-01,-1.600113737810514858e-01,-1.507601808643739549e-01,-1.411663511730047171e-01,-1.319151582563272418e-01,-1.223213285649579762e-01,-1.130701356482805009e-01,-1.034763059569112353e-01,-9.422511304023373224e-02,-8.463128334886449444e-02,-7.538009043218699134e-02,-6.578626074081773967e-02,-5.653506782414025045e-02,-4.694123813277098489e-02,-3.769004521609349567e-02,-2.809621552472425787e-02,-1.884502260804675478e-02,-9.251192916677503097e-03,0.000000000000000000e+00,9.593829691369244739e-03,1.884502260804674090e-02,2.843885229941599257e-02,3.769004521609348873e-02,4.728387490746274041e-02,5.653506782414023657e-02,5.790561492290727252e-02,5.790561492290727252e-02,5.790561492290727252e-02,5.790561492290727252e-02
-5.447924717598967570e-02,-1.284887905094096450e-01,-2.052394280403636861e-01,-2.052394280403636306e-01,-2.052394280403636861e-01,-2.052394280403636861e-01,-2.052394280403636861e-01,-2.052394280403636861e-01,-2.052394280403637417e-01,-2.052394280403636861e-01,-2.052394280403636861e-01,-2.052394280403637417e-01,-2.052394280403636861e-01,-2.052394280403636861e-01,-2.052394280403636861e-01,-2.035262441669049294e-01,-1.939324144755356361e-01,-1.846812215588581330e-01,-1.750873918674888674e-01,-1.658361989508113643e-01,-1.562423692594421265e-01,-1.469911763427645957e-01,-1.373973466513953856e-01,-1.281461537347178825e-01,-1.185523240433486170e-01,-1.093011311266711416e-01,-9.970730143530190381e-02,-9.045610851862440072e-02,-8.086227882725513516e-02,-7.161108591057765982e-02,-6.201725621920839426e-02,-5.276606330253089117e-02,-4.317223361116163949e-02,-3.357840391979240169e-02,-2.432721100311489859e-02,-1.473338131174564691e-02,-5.482188395068143816e-03,4.111641296301107862e-03,1.336283421297859708e-02,2.295666390434784876e-02,3.220785682102534492e-02,4.180168651239459660e-02,5.105287942907209275e-02,5.790561492290727252e-02,5.790561492290727252e-02,5.790561492290727252e-02,5.790561492290727252e-02
-7.880645817910467144e-03,-8.463128334886449444e-02,-1.586408266822844360e-01,-2.052394280403636861e-01,-2.052394280403636861e-01,-2.052394280403636861e-01,-2.052394280403636861e-01,-2.052394280403636861e-01,-2.052394280403636861e-01,-2.052394280403636861e-01,-2.052394280403636861e-01,-2.052394280403636861e-01,-2.052394280403636861e-01,-2.052394280403636861e-01,-2.052394280403636861e-01,-2.052394280403636861e-01,-1.997572396452955423e-01,-1.901634099539262768e-01,-1.809122170372487459e-01,-1.713183873458794804e-01,-1.620671944292020328e-01,-1.524733647378327672e-01,-1.428795350464635294e-01,-1.336283421297860263e-01,-1.240345124384167608e-01,-1.147833195217393132e-01,-1.051894898303700199e-01,-9.593829691369254453e-02,-8.634446722232327898e-02,-7.709327430564577588e-02,-6.749944461427653808e-02,-5.824825169759903498e-02,-4.865442200622978330e-02,-3.940322908955229408e-02,-2.980939939818304241e-02,-2.055820648150555319e-02,-1.096437679013630151e-02,-1.713183873458798412e-03,7.880645817910453266e-03,1.713183873458795636e-02,2.672566842595719763e-02,3.597686134263469726e-02,4.557069103400394894e-02,5.482188395068143816e-02,5.790561492290727252e-02,5.790561492290727252e-02,5.790561492290727252e-02
3.597686134263469726e-02,-3.803268199078527201e-02,-1.147833195217392854e-01,-1.887928628551592547e-01,-2.052394280403636861e-01,-2.052394280403636861e-01,-2.052394280403636861e-01,-2.052394280403636861e-01,-2.052394280403636861e-01,-2.052394280403636861e-01,-2.052394280403636306e-01,-2.052394280403636861e-01,-2.052394280403636861e-01,-2.052394280403636861e-01,-2.052394280403636861e-01,-2.052394280403636861e-01,-2.052394280403636861e-01,-1.956455983489944483e-01,-1.863944054323169175e-01,-1.768005757409476797e-01,-1.675493828242701488e-01,-1.579555531329009110e-01,-1.487043602162233802e-01,-1.391105305248541701e-01,-1.298593376081766670e-01,-1.202655079168074292e-01,-1.110143150001299539e-01,-1.014204853087606883e-01,-9.216929239208321301e-02,-8.257546270071394745e-02,-7.332426978403647211e-02,-6.373044009266717880e-02,-5.447924717598968958e-02,-4.488541748462043790e-02,-3.563422456794293480e-02,-2.604039487657369700e-02,-1.678920195989620778e-02,-7.195372268526942228e-03,2.055820648150553931e-03,1.164965033951979867e-02,2.090084325619729483e-02,3.049467294756654998e-02,3.974586586424404266e-02,4.933969555561329434e-02,5.790561492290727252e-02,5.790561492290727252e-02,5.790561492290727252e-02
5.790561492290727252e-02,5.824825169759899335e-03,-7.092581236119413490e-02,-1.449353556946141042e-01,-2.052394280403636861e-01,-2.052394280403636861e-01,-2.052394280403636861e-01,-2.052394280403636861e-01,-2.052394280403637417e-01,-2.052394280403636861e-01,-2.052394280403636861e-01,-2.052394280403636861e-01,-2.052394280403636861e-01,-2.052394280403636861e-01,-2.052394280403636861e-01,-2.052394280403636861e-01,-2.052394280403636861e-01,-2.014704235187542991e-01,-1.918765938273850891e-01,-1.826254009107075582e-01,-1.730315712193382927e-01,-1.637803783026608173e-01,-1.541865486112915795e-01,-1.449353556946140764e-01,-1.353415260032448386e-01,-1.260903330865673355e-01,-1.164965033951980977e-01,-1.072453104785205669e-01,-9.765148078715132907e-02,-8.840028787047385372e-02,-7.880645817910458817e-02,-6.955526526242708507e-02,-5.996143557105783339e-02,-5.071024265438033030e-02,-4.111641296301109250e-02,-3.186522004633358940e-02,-2.227139035496433772e-02,-1.267756066359509992e-02,-3.426367746917596824e-03,6.167461944451661793e-03,1.541865486112915101e-02,2.501248455249840269e-02,3.426367746917589885e-02,4.385750716054515053e-02,5.310870007722264668e-02,5.790561492290727252e-02,5.790561492290727252e-02
5.790561492290727252e-02,4.968233233030505680e-02,-2.432721100311489859e-02,-1.010778485340689259e-01,-1.750873918674888674e-01,-2.052394280403636861e-01,-2.052394280403636861e-01,-2.052394280403636861e-01,-2.052394280403636861e-01,-2.052394280403636861e-01,-2.052394280403636861e-01,-2.052394280403636861e-01,-2.052394280403636861e-01,-2.052394280403636306e-01,-2.052394280403636861e-01,-2.052394280403636306e-01,-2.052394280403636861e-01,-2.052394280403636861e-01,-1.977014189971450231e-01,-1.881075893057757298e-01,-1.788563963890981989e-01,-1.692625666977289611e-01,-1.596687370063596956e-01,-1.504175440896822202e-01,-1.408237143983129547e-01,-1.315725214816354793e-01,-1.219786917902662415e-01,-1.127274988735887384e-01,-1.031336691822194729e-01,-9.388247626554196978e-02,-8.428864657417273198e-02,-7.503745365749522889e-02,-6.544362396612599109e-02,-5.619243104944848799e-02,-4.659860135807923631e-02,-3.734740844140174709e-02,-2.775357875003249541e-02,-1.850238583335500619e-02,-8.908556141985740640e-03,3.426367746917555190e-04,9.936466466061000258e-03,1.918765938273849642e-02,2.878148907410775503e-02,3.803268199078524425e-02,4.762651168215450287e-02,5.687770459883199209e-02,5.790561492290727252e-02
5.790561492290727252e-02,5.790561492290727252e-02,1.953029615743025887e-02,-5.447924717598970346e-02,-1.312298847069437169e-01,-2.052394280403636861e-01,-2.052394280403636861e-01,-2.052394280403636861e-01,-2.052394280403636861e-01,-2.052394280403636861e-01,-2.052394280403637417e-01,-2.052394280403636861e-01,-2.052394280403636861e-01,-2.052394280403636861e-01,-2.052394280403636861e-01,-2.052394280403636861e-01,-2.052394280403636861e-01,-2.052394280403636861e-01,-2.031836073922131114e-01,-1.935897777008438736e-01,-1.843385847841663427e-01,-1.747447550927971049e-01,-1.654935621761196296e-01,-1.558997324847503640e-01,-1.466485395680728610e-01,-1.370547098767036509e-01,-1.278035169600261478e-01,-1.182096872686568545e-01,-1.089584943519793792e-01,-9.936466466061014136e-02,-9.011347174393263826e-02,-8.051964205256340046e-02,-7.126844913588589736e-02,-6.167461944451663181e-02,-5.242342652783912871e-02,-4.282959683646987703e-02,-3.357840391979238781e-02,-2.398457422842315001e-02,-1.473338131174564691e-02,-5.139551620376395236e-03,4.111641296301107862e-03,1.370547098767035260e-02,2.295666390434784876e-02,3.255049359571710044e-02,4.180168651239459660e-02,5.139551620376384827e-02,5.790561492290727252e-02
5.790561492290727252e-02,5.790561492290727252e-02,5.790561492290727252e-02,-1.062174001544453905e-02,-8.737237754639856635e-02,-1.613819208798185356e-01,-2.052394280403636861e-01,-2.052394280403636861e-01,-2.052394280403636861e-01,-2.052394280403636861e-01,-2.052394280403636861e-01,-2.052394280403636861e-01,-2.052394280403636861e-01,-2.052394280403636861e-01,-2.052394280403636861e-01,-2.052394280403636861e-01,-2.052394280403636861e-01,-2.052394280403636861e-01,-2.052394280403636861e-01,-1.994146028706038354e-01,-1.898207731792345143e-01,-1.805695802625570112e-01,-1.709757505711877457e-01,-1.617245576545102426e-01,-1.521307279631410048e-01,-1.428795350464635294e-01,-1.332857053550942639e-01,-1.240345124384167885e-01,-1.144406827470475230e-01,-1.051894898303700199e-01,-9.559566013900078207e-02,-8.634446722232327898e-02,-7.675063753095404118e-02,-6.749944461427653808e-02,-5.790561492290728640e-02,-4.865442200622978330e-02,-3.906059231486053163e-02,-2.946676262349127995e-02,-2.021556970681379073e-02,-1.062174001544453905e-02,-1.370547098767049832e-03,8.223282592602215724e-03,1.747447550927970494e-02,2.706830520064896009e-02,3.631949811732645278e-02,4.591332780869570446e-02,5.516452072537320062e-02
5.790561492290727252e-02,5.790561492290727252e-02,5.790561492290727252e-02,3.323576714510062535e-02,-4.077377618831933004e-02,-1.175244137192733573e-01,-1.915339570526933266e-01,-2.052394280403636861e-01,-2.052394280403636861e-01,-2.052394280403637417e-01,-2.052394280403636861e-01,-2.052394280403636861e-01,-2.052394280403636861e-01,-2.052394280403636861e-01,-2.052394280403636861e-01,-2.052394280403636861e-01,-2.052394280403636861e-01,-2.052394280403636861e-01,-2.052394280403636861e-01,-2.048967912656718682e-01,-1.956455983489944483e-01,-1.860517686576251550e-01,-1.768005757409476519e-01,-1.672067460495784141e-01,-1.576129163582091486e-01,-1.483617234415316455e-01,-1.387678937501624354e-01,-1.295167008334849323e-01,-1.199228711421156668e-01,-1.106716782254381914e-01,-1.010778485340689259e-01,-9.182665561739142279e-02,-8.223282592602218499e-02,-7.298163300934468189e-02,-6.338780331797541634e-02,-5.413661040129792712e-02,-4.454278070992867544e-02,-3.529158779325118622e-02,-2.569775810188193454e-02,-1.644656518520443145e-02,-6.852735493835193648e-03,2.398457422842309450e-03,1.199228711421156113e-02,2.124348003088905035e-02,3.083730972225830549e-02,4.008850263893580512e-02,4.968233233030505680e-02
5.790561492290727252e-02,5.790561492290727252e-02,5.790561492290727252e-02,5.790561492290727252e-02,3.083730972225827427e-03,-7.092581236119413490e-02,-1.476764498921481483e-01,-2.052394280403636861e-01,-2.052394280403636861e-01,-2.052394280403636861e-01,-2.052394280403636861e-01,-2.052394280403636861e-01,-2.052394280403636861e-01,-2.052394280403636861e-01,-2.052394280403637417e-01,-2.052394280403636861e-01,-2.052394280403636861e-01,-2.052394280403636861e-01,-2.052394280403636861e-01,-2.052394280403636861e-01,-2.011277867440625922e-01,-1.915339570526932989e-01,-1.822827641360157958e-01,-1.726889344446465857e-01,-1.634377415279690826e-01,-1.538439118365997893e-01,-1.445927189199223140e-01,-1.349988892285530484e-01,-1.257476963118755731e-01,-1.161538666205063075e-01,-1.069026737038288322e-01,-9.730884401245956661e-02,-8.805765109578209127e-02,-7.846382140441282571e-02,-6.921262848773532261e-02,-5.961879879636608481e-02,-5.036760587968858172e-02,-4.077377618831933004e-02,-3.152258327164184082e-02,-2.192875358027258914e-02,-1.267756066359509992e-02,-3.083730972225841305e-03,6.167461944451661793e-03,1.576129163582090653e-02,2.501248455249840269e-02,3.460631424386766131e-02,4.385750716054515053e-02
5.790561492290727252e-02,5.790561492290727252e-02,5.790561492290727252e-02,5.790561492290727252e-02,4.694123813277098489e-02,-2.706830520064897050e-02,-1.038189427316029978e-01,-1.778284860650229393e-01,-2.052394280403636861e-01,-2.052394280403636861e-01,-2.052394280403636861e-01,-2.052394280403636861e-01,-2.052394280403636861e-01,-2.052394280403636861e-01,-2.052394280403636861e-01,-2.052394280403636861e-01,-2.052394280403636861e-01,-2.052394280403636861e-01,-2.052394280403636861e-01,-2.052394280403636861e-01,-2.052394280403636861e-01,-1.973587822224532606e-01,-1.877649525310839673e-01,-1.785137596144064365e-01,-1.689199299230371709e-01,-1.596687370063597233e-01,-1.500749073149904578e-01,-1.408237143983129547e-01,-1.312298847069437169e-01,-1.219786917902662415e-01,-1.123848620988969760e-01,-1.031336691822194729e-01,-9.353983949085023508e-02,-8.428864657417270423e-02,-7.469481688280346643e-02,-6.544362396612599109e-02,-5.584979427475673941e-02,-4.659860135807923631e-02,-3.700477166670998463e-02,-2.741094197534073296e-02,-1.815974905866324374e-02,-8.565919367293978182e-03,6.852735493835110381e-04,1.027910324075276965e-02,1.953029615743025887e-02,2.912412584879950708e-02,3.837531876547700671e-02
5.790561492290727252e-02,5.790561492290727252e-02,5.790561492290727252e-02,5.790561492290727252e-02,5.790561492290727252e-02,1.678920195989618697e-02,-5.722034137352376149e-02,-1.339709789044778165e-01,-2.052394280403636306e-01,-2.052394280403636861e-01,-2.052394280403636861e-01,-2.052394280403636861e-01,-2.052394280403636861e-01,-2.052394280403636861e-01,-2.052394280403636861e-01,-2.052394280403636861e-01,-2.052394280403636861e-01,-2.052394280403636861e-01,-2.052394280403636861e-01,-2.052394280403636861e-01,-2.052394280403636861e-01,-2.028409706175214045e-01,-1.935897777008438736e-01,-1.839959480094746080e-01,-1.747447550927971049e-01,-1.651509254014278671e-01,-1.555570957100586016e-01,-1.463059027933810985e-01,-1.367120731020118607e-01,-1.274608801853343576e-01,-1.178670504939651198e-01,-1.086158575772876167e-01,-9.902202788591837890e-02,-8.977083496924087580e-02,-8.017700527787163800e-02,-7.092581236119413490e-02,-6.133198266982486935e-02,-5.208078975314738013e-02,-4.248696006177812845e-02,-3.323576714510062535e-02,-2.364193745373137368e-02,-1.439074453705388446e-02,-4.796914845684632778e-03,4.454278070992863381e-03,1.404810776236211506e-02,2.329930067903961122e-02,3.289313037040886289e-02
5.790561492290727252e-02,5.790561492290727252e-02,5.790561492290727252e-02,5.790561492290727252e-02,5.790561492290727252e-02,5.790561492290727252e-02,-1.336283421297861096e-02,-8.737237754639856635e-02,-1.641230150773525798e-01,-2.052394280403637417e-01,-2.052394280403636861e-01,-2.052394280403636306e-01,-2.052394280403636861e-01,-2.052394280403636861e-01,-2.052394280403636861e-01,-2.052394280403636861e-01,-2.052394280403636861e-01,-2.052394280403636861e-01,-2.052394280403636861e-01,-2.052394280403636861e-01,-2.052394280403636861e-01,-2.052394280403636861e-01,-1.990719660959120174e-01,-1.894781364045427796e-01,-1.802269434878652765e-01,-1.706331137964960110e-01,-1.613819208798185079e-01,-1.517880911884492423e-01,-1.425368982717717670e-01,-1.329430685804025014e-01,-1.236918756637250261e-01,-1.140980459723557605e-01,-1.048468530556782574e-01,-9.525302336430901962e-02,-8.600183044763151652e-02,-7.640800075626227872e-02,-6.715680783958477562e-02,-5.756297814821552394e-02,-4.831178523153803472e-02,-3.871795554016878305e-02,-2.946676262349127995e-02,-1.987293293212202827e-02,-1.062174001544453905e-02,-1.027910324075287374e-03,8.223282592602208785e-03,1.781711228397146740e-02,2.706830520064895662e-02
5.790561492290727252e-02,5.790561492290727252e-02,5.790561492290727252e-02,5.790561492290727252e-02,5.790561492290727252e-02,5.790561492290727252e-02,3.049467294756654998e-02,-4.351487038585340195e-02,-1.202655079168074292e-01,-1.942750512502273985e-01,-2.052394280403636861e-01,-2.052394280403636861e-01,-2.052394280403636861e-01,-2.052394280403636861e-01,-2.052394280403636861e-01,-2.052394280403636861e-01,-2.052394280403636861e-01,-2.052394280403636861e-01,-2.052394280403636861e-01,-2.052394280403636861e-01,-2.052394280403636861e-01,-2.052394280403636861e-01,-2.045541544909801612e-01,-1.953029615743026859e-01,-1.857091318829334203e-01,-1.764579389662558895e-01,-1.668641092748866794e-01,-1.576129163582091486e-01,-1.480190866668399108e-01,-1.387678937501624077e-01,-1.291740640587931699e-01,-1.199228711421156390e-01,-1.103290414507464290e-01,-1.010778485340689259e-01,-9.148401884269966033e-02,-8.223282592602218499e-02,-7.263899623465291944e-02,-6.338780331797543022e-02,-5.379397362660617854e-02,-4.454278070992867544e-02,-3.494895101855942376e-02,-2.535512132719017209e-02,-1.610392841051268287e-02,-6.510098719143431190e-03,2.741094197534071908e-03,1.233492388890332359e-02,2.158611680558081281e-02
5.790561492290727252e-02,5.790561492290727252e-02,5.790561492290727252e-02,5.790561492290727252e-02,5.790561492290727252e-02,5.790561492290727252e-02,5.790561492290727252e-02,3.426367746917555190e-04,-7.366690655872820681e-02,-1.504175440896822480e-01,-2.052394280403636861e-01,-2.052394280403636861e-01,-2.052394280403636861e-01,-2.052394280403636861e-01,-2.052394280403636861e-01,-2.052394280403636861e-01,-2.052394280403636861e-01,-2.052394280403636861e-01,-2.052394280403636861e-01,-2.052394280403636861e-01,-2.052394280403636861e-01,-2.052394280403636861e-01,-2.052394280403636861e-01,-2.007851499693708297e-01,-1.915339570526933266e-01,-1.819401273613240333e-01,-1.726889344446465580e-01,-1.630951047532773202e-01,-1.535012750619080546e-01,-1.442500821452305515e-01,-1.346562524538613137e-01,-1.254050595371838384e-01,-1.158112298458145728e-01,-1.065600369291370697e-01,-9.696620723776780415e-02,-8.771501432109030105e-02,-7.812118462972109101e-02,-6.886999171304356016e-02,-5.927616202167430848e-02,-5.002496910499681926e-02,-4.043113941362758146e-02,-3.117994649695007836e-02,-2.158611680558082668e-02,-1.233492388890333746e-02,-2.741094197534078847e-03,6.510098719143417312e-03,1.610392841051266899e-02
5.790561492290727252e-02,5.790561492290727252e-02,5.790561492290727252e-02,5.790561492290727252e-02,5.790561492290727252e-02,5.790561492290727252e-02,5.790561492290727252e-02,4.694123813277098489e-02,-2.980939939818304241e-02,-1.038189427316029978e-01,-1.805695802625570112e-01,-2.052394280403636861e-01,-2.052394280403636861e-01,-2.052394280403636861e-01,-2.052394280403636861e-01,-2.052394280403636861e-01,-2.052394280403636861e-01,-2.052394280403636861e-01,-2.052394280403636861e-01,-2.052394280403636861e-01,-2.052394280403636861e-01,-2.052394280403636861e-01,-2.052394280403636306e-01,-2.052394280403636861e-01,-1.970161454477614427e-01,-1.874223157563922049e-01,-1.781711228397147018e-01,-1.685772931483454362e-01,-1.593261002316679609e-01,-1.497322705402986676e-01,-1.404810776236212200e-01,-1.308872479322519544e-01,-1.216360550155744791e-01,-1.120422253242052135e-01,-1.027910324075277104e-01,-9.319720271615847262e-02,-8.394600979948096953e-02,-7.435218010811173173e-02,-6.510098719143422863e-02,-5.550715750006496307e-02,-4.625596458338745998e-02,-3.666213489201823605e-02,-2.741094197534071908e-02,-1.781711228397148128e-02,-8.565919367293978182e-03,1.027910324075273496e-03,1.027910324075276272e-02
5.790561492290727252e-02,5.790561492290727252e-02,5.790561492290727252e-02,5.790561492290727252e-02,5.790561492290727252e-02,5.790561492290727252e-02,5.790561492290727252e-02,5.790561492290727252e-02,1.404810776236211506e-02,-5.996143557105783339e-02,-1.367120731020118607e-01,-2.052394280403636861e-01,-2.052394280403636861e-01,-2.052394280403636861e-01,-2.052394280403636861e-01,-2.052394280403636861e-01,-2.052394280403637417e-01,-2.052394280403636861e-01,-2.052394280403636306e-01,-2.052394280403636861e-01,-2.052394280403636861e-01,-2.052394280403636861e-01,-2.052394280403636861e-01,-2.052394280403637417e-01,-2.024983338428295865e-01,-1.932471409261521111e-01,-1.836533112347828456e-01,-1.744021183181053425e-01,-1.648082886267361047e-01,-1.555570957100586293e-01,-1.459632660186893638e-01,-1.367120731020118607e-01,-1.271182434106426506e-01,-1.178670504939651198e-01,-1.082732208025958542e-01,-9.902202788591837890e-02,-8.942819819454911334e-02,-8.017700527787163800e-02,-7.058317558650237244e-02,-6.133198266982486935e-02,-5.173815297845561767e-02,-4.248696006177812845e-02,-3.289313037040887677e-02,-2.329930067903962509e-02,-1.404810776236212200e-02,-4.454278070992870320e-03,4.796914845684625839e-03
5.790561492290727252e-02,5.790561492290727252e-02,5.790561492290727252e-02,5.790561492290727252e-02,5.790561492290727252e-02,5.790561492290727252e-02,5.790561492290727252e-02,5.790561492290727252e-02,5.790561492290727252e-02,-1.610392841051268287e-02,-9.011347174393261050e-02,-1.668641092748866794e-01,-2.052394280403636306e-01,-2.052394280403636861e-01,-2.052394280403636861e-01,-2.052394280403636861e-01,-2.052394280403636861e-01,-2.052394280403636861e-01,-2.052394280403636861e-01,-2.052394280403636861e-01,-2.052394280403636861e-01,-2.052394280403636306e-01,-2.052394280403636861e-01,-2.052394280403636861e-01,-2.052394280403636861e-01,-1.987293293212202550e-01,-1.894781364045427519e-01,-1.798843067131734863e-01,-1.706331137964959832e-01,-1.610392841051267454e-01,-1.517880911884492701e-01,-1.421942614970800045e-01,-1.326004318057107667e-01,-1.233492388890332359e-01,-1.137554091976639981e-01,-1.045042162809865227e-01,-9.491038658961728491e-02,-8.565919367293978182e-02,-7.606536398157051626e-02,-6.681417106489302704e-02,-5.722034137352376149e-02,-4.796914845684627227e-02,-3.837531876547703447e-02,-2.912412584879953137e-02,-1.953029615743027969e-02,-1.027910324075279047e-02,-6.852735493835249159e-04
5.790561492290727252e-02,5.790561492290727252e-02,5.790561492290727252e-02,5.790561492290727252e-02,5.790561492290727252e-02,5.790561492290727252e-02,5.790561492290727252e-02,5.790561492290727252e-02,5.790561492290727252e-02,3.049467294756654651e-02,-4.625596458338747385e-02,-1.202655079168074292e-01,-1.970161454477614427e-01,-2.052394280403636861e-01,-2.052394280403636861e-01,-2.052394280403636861e-01,-2.052394280403636861e-01,-2.052394280403636861e-01,-2.052394280403636861e-01,-2.052394280403636861e-01,-2.052394280403636861e-01,-2.052394280403636861e-01,-2.052394280403636861e-01,-2.052394280403636861e-01,-2.052394280403636861e-01,-2.042115177162883988e-01,-1.949603247996109234e-01,-1.853664951082416579e-01,-1.761153021915641270e-01,-1.665214725001948615e-01,-1.572702795835174139e-01,-1.476764498921481761e-01,-1.384252569754706730e-01,-1.288314272841014074e-01,-1.195802343674239321e-01,-1.099864046760546665e-01,-1.007352117593771634e-01,-9.114138206800792563e-02,-8.189018915133042253e-02,-7.229635945996118473e-02,-6.304516654328365388e-02,-5.345133685191441608e-02,-4.420014393523692686e-02,-3.460631424386767518e-02,-2.535512132719018596e-02,-1.576129163582092041e-02,-6.510098719143431190e-03
5.790561492290727252e-02,5.790561492290727252e-02,5.790561492290727252e-02,5.790561492290727252e-02,5.790561492290727252e-02,5.790561492290727252e-02,5.790561492290727252e-02,5.790561492290727252e-02,5.790561492290727252e-02,5.790561492290727252e-02,-2.398457422842323328e-03,-7.640800075626227872e-02,-1.531586382872162921e-01,-2.052394280403636861e-01,-2.052394280403636861e-01,-2.052394280403636861e-01,-2.052394280403636861e-01,-2.052394280403636306e-01,-2.052394280403636861e-01,-2.052394280403636861e-01,-2.052394280403636861e-01,-2.052394280403636861e-01,-2.052394280403636861e-01,-2.052394280403636861e-01,-2.052394280403636861e-01,-2.052394280403636861e-01,-2.004425131946790672e-01,-1.911913202780015364e-01,-1.815974905866322986e-01,-1.723462976699547955e-01,-1.627524679785855577e-01,-1.535012750619080546e-01,-1.439074453705387890e-01,-1.346562524538613137e-01,-1.250624227624920481e-01,-1.158112298458145728e-01,-1.062174001544453072e-01,-9.696620723776780415e-02,-8.737237754639856635e-02,-7.812118462972109101e-02,-6.852735493835179770e-02,-5.927616202167432236e-02,-4.968233233030507068e-02,-4.008850263893580512e-02,-3.083730972225831590e-02,1.017202924866157654e-03,4.261544885228752549e-02
5.790561492290727252e-02,5.790561492290727252e-02,5.790561492290727252e-02,5.790561492290727252e-02,5.790561492290727252e-02,5.790561492290727252e-02,5.790561492290727252e-02,5.790561492290727252e-02,5.790561492290727252e-02,5.790561492290727252e-02,4.420014393523691298e-02,-3.255049359571711431e-02,-1.065600369291370697e-01,-1.833106744600911109e-01,-2.052394280403636861e-01,-2.052394280403636861e-01,-2.052394280403636861e-01,-2.052394280403636861e-01,-2.052394280403636861e-01,-2.052394280403636861e-01,-2.052394280403636861e-01,-2.052394280403636861e-01,-2.052394280403636861e-01,-2.052394280403636861e-01,-2.052394280403636861e-01,-2.052394280403636861e-01,-2.052394280403636861e-01,-1.966735086730697357e-01,-1.874223157563922049e-01,-1.778284860650229671e-01,-1.685772931483454362e-01,-1.589834634569761707e-01,-1.493896337656069606e-01,-1.401384408489294298e-01,-1.305446111575602197e-01,-1.212934182408827166e-01,-1.116995885495134233e-01,-1.024483956328359480e-01,-9.285456594146671017e-02,-8.360337302478920707e-02,-7.400954333341996927e-02,-6.475835041674246617e-02,-5.516452072537322837e-02,-3.293595996724534014e-02,2.257119753281962293e-02,5.790561492290727252e-02,5.790561492290727252e-02
5.790561492290727252e-02,5.790561492290727252e-02,5.790561492290727252e-02,5.790561492290727252e-02,5.790561492290727252e-02,5.790561492290727252e-02,5.790561492290727252e-02,5.790561492290727252e-02,5.790561492290727252e-02,5.790561492290727252e-02,5.790561492290727252e-02,1.404810776236211506e-02,-6.270252976859191918e-02,-1.367120731020118329e-01,-2.052394280403636861e-01,-2.052394280403636861e-01,-2.052394280403636861e-01,-2.052394280403636861e-01,-2.052394280403636861e-01,-2.052394280403636861e-01,-2.052394280403636861e-01,-2.052394280403636861e-01,-2.052394280403636861e-01,-2.052394280403636861e-01,-2.052394280403637417e-01,-2.052394280403636861e-01,-2.052394280403636861e-01,-2.021556970681378240e-01,-1.929045041514603487e-01,-1.833106744600910831e-01,-1.740594815434135800e-01,-1.644656518520443422e-01,-1.552144589353668114e-01,-1.456206292439976013e-01,-1.363694363273200982e-01,-1.267756066359508604e-01,-1.175244137192733573e-01,-1.079305840279040918e-01,-9.867939111122661644e-02,-8.908556141985732313e-02,-7.983436850317984779e-02,-7.024053881181060999e-02,-5.257333011676676437e-03,5.448995457519879848e-02,5.790561492290727252e-02,5.790561492290727252e-02,5.790561492290727252e-02
5.790561492290727252e-02,5.790561492290727252e-02,5.790561492290727252e-02,5.790561492290727252e-02,5.790561492290727252e-02,5.790561492290727252e-02,5.790561492290727252e-02,5.790561492290727252e-02,5.790561492290727252e-02,5.790561492290727252e-02,5.790561492290727252e-02,5.790561492290727252e-02,-1.884502260804675478e-02,-9.285456594146671017e-02,-1.696052034724207236e-01,-2.052394280403636861e-01,-2.052394280403636861e-01,-2.052394280403636861e-01,-2.052394280403636861e-01,-2.052394280403636861e-01,-2.052394280403636861e-01,-2.052394280403636861e-01,-2.052394280403636861e-01,-2.052394280403637417e-01,-2.052394280403636861e-01,-2.052394280403636306e-01,-2.052394280403636861e-01,-2.052394280403636861e-01,-1.983866925465284925e-01,-1.891354996298509616e-01,-1.795416699384817238e-01,-1.702904770218042207e-01,-1.606966473304349829e-01,-1.514454544137574799e-01,-1.418516247223882421e-01,-1.326004318057107667e-01,-1.230066021143415012e-01,-1.137554091976639981e-01,-1.041615795062947603e-01,-9.491038658961725716e-02,-4.055962820413698544e-02,3.278605637831769060e-02,5.790561492290727252e-02,5.790561492290727252e-02,5.790561492290727252e-02,5.790561492290727252e-02,5.790561492290727252e-02
5.790561492290727252e-02,5.790561492290727252e-02,5.790561492290727252e-02,5.790561492290727252e-02,5.790561492290727252e-02,5.790561492290727252e-02,5.790561492290727252e-02,5.790561492290727252e-02,5.790561492290727252e-02,5.790561492290727252e-02,5.790561492290727252e-02,5.790561492290727252e-02,2.775357875003247460e-02,-4.899705878092154576e-02,-1.230066021143415012e-01,-1.997572396452955423e-01,-2.052394280403636861e-01,-2.052394280403636861e-01,-2.052394280403636861e-01,-2.052394280403636861e-01,-2.052394280403636861e-01,-2.052394280403636861e-01,-2.052394280403636861e-01,-2.052394280403636861e-01,-2.052394280403636861e-01,-2.052394280403636861e-01,-2.052394280403636861e-01,-2.052394280403637417e-01,-2.042115177162883988e-01,-1.946176880249191610e-01,-1.853664951082416301e-01,-1.757726654168723923e-01,-1.665214725001948892e-01,-1.569276428088256514e-01,-1.473338131174563859e-01,-1.380826202007789105e-01,-1.284887905094096450e-01,-1.192375975927321419e-01,-8.870009504832912506e-02,3.490612142172291876e-03,5.790561492290727252e-02,5.790561492290727252e-02,5.790561492290727252e-02,5.790561492290727252e-02,5.790561492290727252e-02,5.790561492290727252e-02,5.790561492290727252e-02
5.790561492290727252e-02,5.790561492290727252e-02,5.790561492290727252e-02,5.790561492290727252e-02,5.790561492290727252e-02,5.790561492290727252e-02,5.790561492290727252e-02,5.790561492290727252e-02,5.790561492290727252e-02,5.790561492290727252e-02,5.790561492290727252e-02,5.790561492290727252e-02,5.790561492290727252e-02,-2.398457422842316389e-03,-7.914909495379635063e-02,-1.531586382872162921e-01,-2.052394280403636861e-01,-2.052394280403636861e-01,-2.052394280403636861e-01,-2.052394280403636861e-01,-2.052394280403636861e-01,-2.052394280403636861e-01,-2.052394280403636861e-01,-2.052394280403636861e-01,-2.052394280403636861e-01,-2.052394280403636861e-01,-2.052394280403636861e-01,-2.052394280403636861e-01,-2.052394280403636861e-01,-2.000998764199873048e-01,-1.908486835033098294e-01,-1.812548538119405639e-01,-1.720036608952630330e-01,-1.624098312038937675e-01,-1.531586382872162921e-01,-1.435648085958470543e-01,-1.343136156791695512e-01,-3.340708553244650658e-02,5.790561492290727252e-02,5.790561492290727252e-02,5.790561492290727252e-02,5.790561492290727252e-02,5.790561492290727252e-02,5.790561492290727252e-02,5.790561492290727252e-02,5.790561492290727252e-02,5.790561492290727252e-02
5.790561492290727252e-02,5.790561492290727252e-02,5.790561492290727252e-02,5.790561492290727252e-02,5.790561492290727252e-02,5.790561492290727252e-02,5.790561492290727252e-02,5.790561492290727252e-02,5.790561492290727252e-02,5.790561492290727252e-02,5.790561492290727252e-02,5.790561492290727252e-02,5.790561492290727252e-02,4.145904973770284108e-02,-3.529158779325118622e-02,-1.093011311266711416e-01,-1.860517686576251550e-01,-2.052394280403636861e-01,-2.052394280403636861e-01,-2.052394280403636306e-01,-2.052394280403636861e-01,-2.052394280403636861e-01,-2.052394280403636861e-01,-2.052394280403636861e-01,-2.052394280403636861e-01,-2.052394280403636861e-01,-2.052394280403636861e-01,-2.052394280403636861e-01,-2.052394280403636861e-01,-2.052394280403636861e-01,-1.963308718983779733e-01,-1.870796789817004424e-01,-1.774858492903311769e-01,-1.682346563736537015e-01,-1.586408266822844360e-01,-8.460986855044624888e-02,2.701476820460337047e-02,5.790561492290727252e-02,5.790561492290727252e-02,5.790561492290727252e-02,5.790561492290727252e-02,5.790561492290727252e-02,5.790561492290727252e-02,5.790561492290727252e-02,5.790561492290727252e-02,5.790561492290727252e-02,5.790561492290727252e-02
5.790561492290727252e-02,5.790561492290727252e-02,5.790561492290727252e-02,5.790561492290727252e-02,5.790561492290727252e-02,5.790561492290727252e-02,5.790561492290727252e-02,5.790561492290727252e-02,5.790561492290727252e-02,5.790561492290727252e-02,5.790561492290727252e-02,5.790561492290727252e-02,5.790561492290727252e-02,5.790561492290727252e-02,1.130701356482804315e-02,-6.544362396612597721e-02,-1.394531672995459604e-01,-2.052394280403636861e-01,-2.052394280403636306e-01,-2.052394280403636861e-01,-2.052394280403636861e-01,-2.052394280403636861e-01,-2.052394280403636861e-01,-2.052394280403636861e-01,-2.052394280403636861e-01,-2.052394280403636861e-01,-2.052394280403636861e-01,-2.052394280403636861e-01,-2.052394280403636861e-01,-2.052394280403636861e-01,-2.021556970681378240e-01,-1.925618673767685862e-01,-1.833106744600910831e-01,-1.375258354419047757e-01,-1.853450803098234678e-02,5.790561492290727252e-02,5.790561492290727252e-02,5.790561492290727252e-02,5.790561492290727252e-02,5.790561492290727252e-02,5.790561492290727252e-02,5.790561492290727252e-02,5.790561492290727252e-02,5.790561492290727252e-02,5.790561492290727252e-02,5.790561492290727252e-02,5.790561492290727252e-02
5.790561492290727252e-02,5.790561492290727252e-02,5.790561492290727252e-02,5.790561492290727252e-02,5.790561492290727252e-02,5.790561492290727252e-02,5.790561492290727252e-02,5.790561492290727252e-02,5.790561492290727252e-02,5.790561492290727252e-02,5.790561492290727252e-02,5.790561492290727252e-02,5.790561492290727252e-02,5.790561492290727252e-02,5.516452072537320062e-02,-1.884502260804674090e-02,-9.559566013900078207e-02,-1.696052034724207236e-01,-2.052394280403636861e-01,-2.052394280403636861e-01,-2.052394280403636861e-01,-2.052394280403636306e-01,-2.052394280403636861e-01,-2.052394280403636861e-01,-2.052394280403637417e-01,-2.052394280403636861e-01,-2.052394280403636861e-01,-2.052394280403636861e-01,-2.052394280403636861e-01,-2.052394280403636861e-01,-2.052394280403636861e-01,-1.980440557718367300e-01,-6.544362396612599109e-02,5.790561492290727252e-02,5.790561492290727252e-02,5.790561492290727252e-02,5.790561492290727252e-02,5.790561492290727252e-02,5.790561492290727252e-02,5.790561492290727252e-02,5.790561492290727252e-02,5.790561492290727252e-02,5.790561492290727252e-02,5.790561492290727252e-02,5.790561492290727252e-02,5.790561492290727252e-02,5.790561492290727252e-02
5.790561492290727252e-02,5.790561492290727252e-02,5.790561492290727252e-02,5.790561492290727252e-02,5.790561492290727252e-02,5.790561492290727252e-02,5.790561492290727252e-02,5.790561492290727252e-02,5.790561492290727252e-02,5.790561492290727252e-02,5.790561492290727252e-02,5.790561492290727252e-02,5.790561492290727252e-02,5.790561492290727252e-02,5.790561492290727252e-02,2.501248455249840269e-02,-5.173815297845563155e-02,-1.257476963118755731e-01,-2.024983338428295865e-01,-2.052394280403636861e-01,-2.052394280403636861e-01,-2.052394280403636861e-01,-2.052394280403636861e-01,-2.052394280403636861e-01,-2.052394280403636861e-01,-2.052394280403636861e-01,-2.052394280403636306e-01,-2.052394280403636861e-01,-2.052394280403636861e-01,-2.052394280403636861e-01,-1.147833195217392854e-01,2.518380293984428392e-02,5.790561492290727252e-02,5.790561492290727252e-02,5.790561492290727252e-02,5.790561492290727252e-02,5.790561492290727252e-02,5.790561492290727252e-02,5.790561492290727252e-02,5.790561492290727252e-02,5.790561492290727252e-02,5.790561492290727252e-02,5.790561492290727252e-02,5.790561492290727252e-02,5.790561492290727252e-02,5.790561492290727252e-02,5.790561492290727252e-02
